ply
format ascii 1.0
element vertex 1543
property float32 x
property float32 y
property float32 z
property float32 I
end_header
58.4025 -59.1502 -2.3406 0.7170
30.5029 -29.6763 -1.1987 0.8434
53.0277 -47.5961 -2.0064 0.7519
53.0336 -45.7107 -1.9715 0.7557
55.4238 -42.2285 -1.9620 0.7567
57.8072 -42.2359 -2.0159 0.7509
65.8307 -42.2607 -2.2027 0.7312
71.5946 -34.5953 -2.2390 0.7275
74.6508 -32.4397 -2.2919 0.7220
75.2876 -30.9331 -2.2919 0.7220
72.3641 -24.7502 -2.1535 0.7364
74.3544 -22.1364 -2.1845 0.7331
75.7578 -20.9065 -2.2129 0.7302
77.6448 -19.7571 -2.2560 0.7257
81.9468 -15.6646 -2.3492 0.7162
82.5101 -12.3594 -2.3492 0.7162
88.3204 -9.6201 -2.5016 0.7008
88.7395 -4.2812 -2.5016 0.7008
88.8363 1.0733 -2.5016 0.7008
88.7214 4.6419 -2.5016 0.7008
86.9964 6.3069 -2.4561 0.7054
82.9026 9.3713 -2.3492 0.7162
82.6976 11.0353 -2.3492 0.7162
74.9334 13.0828 -2.1419 0.7376
40.3720 8.7335 -1.1631 0.8476
54.7568 13.0023 -1.5847 0.7984
50.6268 13.1017 -1.4725 0.8112
81.2413 22.7756 -2.3758 0.7135
50.8209 16.4768 -1.5043 0.8075
62.1901 22.9633 -1.8667 0.7670
40.7800 16.9493 -1.2435 0.8380
40.7830 17.9199 -1.2543 0.8367
32.2867 17.4036 -1.0328 0.8635
32.2893 18.2518 -1.0444 0.8621
32.2920 19.1195 -1.0567 0.8606
32.2948 20.0084 -1.0697 0.8590
32.2976 20.9198 -1.0835 0.8573
32.3005 21.8553 -1.0981 0.8555
23.4841 16.5875 -0.8096 0.8913
22.6072 16.6590 -0.7907 0.8937
22.6094 17.3723 -0.8029 0.8922
10.3838 8.3157 -0.3746 0.9482
22.6140 18.8683 -0.8293 0.8888
22.6165 19.6545 -0.8437 0.8870
23.8333 24.3355 -0.9591 0.8726
22.8963 24.3384 -0.9409 0.8748
21.9938 24.3412 -0.9237 0.8770
15.0506 18.8229 -0.6786 0.9081
14.6694 19.1216 -0.6786 0.9081
14.2822 19.4125 -0.6786 0.9081
13.9642 20.6718 -0.7024 0.9050
14.5387 25.7662 -0.8331 0.8884
14.5677 35.1251 -1.0707 0.8588
14.5743 37.2384 -1.1260 0.8521
30.7109 83.3675 -2.5017 0.7008
6.3968 24.7958 -0.7211 0.9026
20.4602 86.4563 -2.5017 0.7008
16.9698 87.2086 -2.5017 0.7008
11.6845 88.0726 -2.5017 0.7008
9.9124 88.2900 -2.5017 0.7008
8.1362 88.4713 -2.5017 0.7008
-28.5457 13.5614 -1.6027 0.8811
-30.1414 13.5840 -1.6767 0.8760
-34.9812 13.2921 -1.8978 0.8608
-44.4811 14.8856 -2.3788 0.8287
-44.4859 12.9244 -2.3494 0.8307
-31.2905 8.4127 -1.6432 0.8783
-44.9694 11.1265 -2.3494 0.8307
-45.3801 9.3105 -2.3494 0.8307
-48.9641 6.0022 -2.5018 0.8207
-49.0749 5.0170 -2.5018 0.8207
-49.2368 3.0412 -2.5018 0.8207
-49.2880 2.0511 -2.5018 0.8207
-49.3306 0.0690 -2.5018 0.8207
-49.3220 -0.9223 -2.5018 0.8207
-49.2935 -1.9132 -2.5018 0.8207
-49.0887 -4.8797 -2.5018 0.8207
-48.9807 -5.8652 -2.5018 0.8207
-48.7055 -7.8286 -2.5018 0.8207
-48.1453 -10.7489 -2.5018 0.8207
-47.8745 -11.7032 -2.4994 0.8209
-44.7703 -11.9026 -2.3494 0.8307
-44.5221 -12.7998 -2.3494 0.8307
-38.3548 -11.8663 -2.0361 0.8515
-43.9718 -14.5784 -2.3494 0.8307
-43.3505 -16.3336 -2.3494 0.8307
-42.3517 -16.9367 -2.3132 0.8330
-37.8940 -16.9505 -2.1053 0.8468
-35.9513 -16.9565 -2.0159 0.8528
-34.1662 -16.9620 -1.9345 0.8583
-32.0925 -21.0896 -1.9475 0.8574
-31.4978 -22.5617 -1.9649 0.8563
-31.8630 -24.8195 -2.0483 0.8506
-23.5726 -19.1350 -1.5398 0.8855
-23.3797 -19.7709 -1.5528 0.8846
-23.4969 -20.6940 -1.5879 0.8821
-23.3892 -21.4489 -1.6094 0.8806
-23.3192 -23.1772 -1.6674 0.8766
-23.3451 -24.1547 -1.7036 0.8741
-23.3258 -26.1612 -1.7775 0.8690
-23.3357 -27.2558 -1.8197 0.8661
-23.4672 -28.5512 -1.8743 0.8624
-23.4636 -33.7444 -2.0844 0.8482
-23.5400 -38.6284 -2.2941 0.8343
-23.3694 -40.1421 -2.3556 0.8302
-20.4173 -44.9067 -2.5017 0.8207
-8.5395 -19.8306 -1.0950 0.9172
-18.5964 -45.6907 -2.5017 0.8207
-17.6745 -46.0552 -2.5017 0.8207
-14.8675 -47.0364 -2.5017 0.8207
-8.6241 -29.3220 -1.5500 0.8848
-8.4995 -31.2015 -1.6400 0.8785
-8.9907 -35.8285 -1.8733 0.8625
-8.8123 -38.3683 -1.9965 0.8541
-8.2485 -39.5393 -2.0484 0.8506
-3.4970 -18.6277 -0.9612 0.9269
-3.4931 -20.9166 -1.0755 0.9186
-2.6346 -20.9192 -1.0693 0.9190
-2.2087 -20.9206 -1.0669 0.9192
-1.2199 -18.7432 -0.9526 0.9275
-0.8422 -18.7444 -0.9516 0.9276
-0.4650 -18.7455 -0.9510 0.9276
-0.0882 -18.7467 -0.9507 0.9277
0.2881 -18.7159 -0.9493 0.9278
0.6656 -18.7490 -0.9514 0.9276
1.4213 -18.7454 -0.9534 0.9275
1.8040 -18.7785 -0.9567 0.9272
2.5694 -18.7809 -0.9613 0.9269
3.3435 -18.7833 -0.9676 0.9264
4.1289 -18.7857 -0.9754 0.9259
4.5191 -18.7550 -0.9784 0.9256
4.9286 -18.7882 -0.9851 0.9252
5.3256 -18.7575 -0.9889 0.9249
5.7455 -18.7907 -0.9965 0.9243
6.1461 -18.7453 -1.0004 0.9240
6.5830 -18.7933 -1.0099 0.9233
7.4446 -18.7960 -1.0253 0.9222
7.8857 -18.7974 -1.0338 0.9216
8.3344 -18.7987 -1.0429 0.9209
10.2571 -20.8334 -1.1777 0.9112
10.7834 -20.8350 -1.1898 0.9103
11.2300 -20.6695 -1.1929 0.9101
11.1201 -18.6404 -1.1008 0.9167
26.9542 -41.3139 -2.5017 0.8207
28.5729 -40.1699 -2.5000 0.8208
29.1705 -36.1792 -2.3569 0.8302
29.1202 -34.6674 -2.2961 0.8342
29.1143 -33.2789 -2.2424 0.8377
36.0407 -33.6810 -2.5017 0.8207
38.6288 -30.6782 -2.5017 0.8207
39.2375 -29.8958 -2.5017 0.8207
30.3934 -21.2830 -1.8817 0.8619
31.6540 -20.3206 -1.9076 0.8601
42.5314 -23.8135 -2.4720 0.8226
42.5417 -21.6216 -2.4201 0.8260
42.5468 -20.5591 -2.3964 0.8276
42.6054 -19.5413 -2.3771 0.8288
43.3173 -16.7883 -2.3560 0.8302
43.7178 -15.9407 -2.3599 0.8300
44.2074 -15.1200 -2.3695 0.8293
44.7957 -14.3224 -2.3851 0.8283
45.5075 -13.5483 -2.4080 0.8268
46.3742 -12.7977 -2.4397 0.8247
47.4758 -12.0805 -2.4844 0.8218
48.0400 -11.2012 -2.5017 0.8207
48.2554 -10.2336 -2.5017 0.8207
48.4513 -9.2618 -2.5017 0.8207
48.6276 -8.2863 -2.5017 0.8207
48.9213 -6.3258 -2.5017 0.8207
49.0385 -5.3414 -2.5017 0.8207
49.3090 -1.3865 -2.5017 0.8207
49.3248 0.5959 -2.5017 0.8207
49.3029 1.5870 -2.5017 0.8207
49.1177 4.5547 -2.5017 0.8207
48.8950 6.5246 -2.5017 0.8207
48.7324 7.5025 -2.5005 0.8208
45.6331 7.9672 -2.3493 0.8307
45.0702 10.7022 -2.3493 0.8307
44.8461 11.6057 -2.3493 0.8307
44.6038 12.5045 -2.3493 0.8307
44.3435 13.3982 -2.3493 0.8307
44.1498 14.3140 -2.3538 0.8304
44.0155 15.2545 -2.3625 0.8298
42.1405 16.5297 -2.2957 0.8342
40.7830 17.9199 -2.2591 0.8366
40.7861 18.9080 -2.2799 0.8352
32.2841 16.5738 -1.8404 0.8647
32.2867 17.4036 -1.8601 0.8634
32.2893 18.2518 -1.8810 0.8620
32.2976 20.9198 -1.9515 0.8572
32.3005 21.8553 -1.9778 0.8554
23.4841 16.5875 -1.4581 0.8912
10.3825 8.3147 -0.6746 0.9481
22.6140 18.8683 -1.4936 0.8887
22.6165 19.6545 -1.5196 0.8869
22.6190 20.4688 -1.5471 0.8850
33.8732 33.2245 -2.4063 0.8269
14.4174 16.6156 -1.1156 0.9157
13.9521 16.7477 -1.1055 0.9164
13.9543 17.4517 -1.1332 0.9144
13.9566 18.1925 -1.1628 0.9123
13.9590 18.9732 -1.1946 0.9100
13.9615 19.7982 -1.2286 0.9075
25.1901 40.7274 -2.4286 0.8255
22.7317 42.2510 -2.4332 0.8252
21.0409 43.1787 -2.4359 0.8250
6.1674 13.3300 -0.7449 0.9429
19.3093 44.0357 -2.4385 0.8248
17.5413 44.8193 -2.4409 0.8247
16.6445 45.1830 -2.4420 0.8246
14.8279 45.8533 -2.4440 0.8245
6.2086 20.6047 -1.0914 0.9174
6.0278 23.3656 -1.2238 0.9079
5.2921 24.5541 -1.2738 0.9043
4.7895 24.6133 -1.2717 0.9044
4.2787 24.6167 -1.2671 0.9048
2.7649 24.6268 -1.2568 0.9055
2.2651 24.6301 -1.2544 0.9057
1.7629 24.5753 -1.2495 0.9060
-25.7087 13.5055 -2.1293 0.8901
-26.5923 13.2948 -2.1799 0.8876
-29.2118 13.1650 -2.3493 0.8794
-29.4704 12.5754 -2.3493 0.8794
-29.9519 11.3810 -2.3493 0.8794
-30.3851 10.1684 -2.3493 0.8794
-30.7691 8.9392 -2.3493 0.8794
-33.4236 6.8574 -2.5017 0.8721
-33.6722 5.5089 -2.5017 0.8721
-33.8663 4.1515 -2.5017 0.8721
-34.0550 2.1034 -2.5017 0.8721
-34.0904 1.4187 -2.5017 0.8721
-34.1120 0.7334 -2.5017 0.8721
-34.0942 -1.3233 -2.5017 0.8721
-33.9526 -3.3751 -2.5017 0.8721
-33.7895 -4.7366 -2.5017 0.8721
-33.6875 -5.4147 -2.5017 0.8721
-33.5719 -6.0905 -2.5017 0.8721
-33.3001 -7.4346 -2.5017 0.8721
-31.9620 -11.3145 -2.4860 0.8729
-30.3444 -11.4331 -2.3776 0.8780
-29.7507 -11.8974 -2.3493 0.8794
-29.5056 -12.4929 -2.3493 0.8794
-28.9798 -13.6683 -2.3493 0.8794
-28.6992 -14.2479 -2.3493 0.8794
-28.4071 -14.8217 -2.3493 0.8794
-27.7886 -15.9513 -2.3493 0.8794
-27.1253 -17.0549 -2.3493 0.8794
-24.0459 -17.9658 -2.2009 0.8866
-23.9352 -19.4294 -2.2604 0.8837
-23.4055 -20.6135 -2.2868 0.8824
-23.4789 -21.5312 -2.3358 0.8801
-23.3198 -24.1285 -2.4604 0.8741
-21.6651 -26.3588 -2.5017 0.8721
-21.1311 -26.7888 -2.5017 0.8721
-20.0376 -27.6163 -2.5017 0.8721
-18.9117 -28.3991 -2.5017 0.8721
-18.3372 -28.7733 -2.5017 0.8721
-17.7553 -29.1360 -2.5017 0.8721
-17.1663 -29.4869 -2.5017 0.8721
-9.6118 -17.3010 -1.4512 0.9237
-15.9676 -30.1529 -2.5017 0.8721
-8.6740 -18.1035 -1.4719 0.9226
-8.9866 -23.4169 -1.8391 0.9043
-11.5822 -32.0937 -2.5017 0.8721
-9.2396 -27.3093 -2.1139 0.8908
-9.1271 -28.8755 -2.2205 0.8856
-8.5053 -28.9179 -2.2101 0.8861
-7.8679 -28.8829 -2.1949 0.8869
-7.6217 -30.3733 -2.2961 0.8820
-7.1724 -31.2281 -2.3493 0.8794
-6.5435 -31.3659 -2.3493 0.8794
-3.4970 -18.6277 -1.3897 0.9268
-3.4653 -20.7498 -1.5425 0.9191
-2.6136 -20.7524 -1.5336 0.9195
-2.1911 -20.7537 -1.5302 0.9197
-1.2199 -18.7432 -1.3772 0.9274
-0.8422 -18.7444 -1.3758 0.9275
0.2881 -18.7159 -1.3725 0.9277
1.4213 -18.7454 -1.3784 0.9274
1.8009 -18.7466 -1.3809 0.9272
2.5650 -18.7489 -1.3875 0.9269
2.9502 -18.7501 -1.3917 0.9267
6.5718 -18.7613 -1.4576 0.9234
6.9739 -18.6965 -1.4631 0.9231
7.8156 -18.6302 -1.4813 0.9222
8.2603 -18.6316 -1.4943 0.9215
15.8589 -27.8407 -2.3493 0.8794
19.7764 -27.8031 -2.5017 0.8721
20.8776 -26.9861 -2.5017 0.8721
21.4156 -26.5611 -2.5017 0.8721
23.4793 -24.7557 -2.5017 0.8721
24.4550 -23.7922 -2.5017 0.8721
24.9281 -23.2960 -2.5017 0.8721
25.8441 -22.2756 -2.5017 0.8721
26.7182 -21.2191 -2.5017 0.8721
27.5492 -20.1284 -2.5017 0.8721
28.5816 -18.3483 -2.4903 0.8726
28.5875 -17.5511 -2.4596 0.8741
28.6483 -16.8052 -2.4353 0.8753
28.8810 -16.1706 -2.4270 0.8757
29.3727 -15.6791 -2.4413 0.8750
30.4050 -15.4532 -2.5008 0.8722
30.7204 -14.8445 -2.5017 0.8721
31.5590 -12.9665 -2.5017 0.8721
31.8132 -12.3297 -2.5017 0.8721
32.0546 -11.6880 -2.5017 0.8721
32.8896 -9.0764 -2.5017 0.8721
33.0653 -8.4137 -2.5017 0.8721
33.3767 -7.0782 -2.5017 0.8721
33.6342 -5.7314 -2.5017 0.8721
33.8373 -4.3753 -2.5017 0.8721
33.9184 -3.6945 -2.5017 0.8721
33.9858 -3.0121 -2.5017 0.8721
34.0793 -1.6442 -2.5017 0.8721
34.1164 0.4122 -2.5017 0.8721
34.1012 1.0977 -2.5017 0.8721
34.0723 1.7827 -2.5017 0.8721
33.9732 3.1503 -2.5017 0.8721
33.6105 5.8681 -2.5017 0.8721
33.3476 7.2139 -2.5017 0.8721
30.6710 9.2671 -2.3493 0.8794
29.8278 11.7000 -2.3493 0.8794
29.3336 12.8891 -2.3493 0.8794
28.8066 14.0642 -2.3504 0.8794
28.6538 14.7103 -2.3617 0.8788
28.1928 15.9358 -2.3745 0.8782
27.5351 17.0595 -2.3750 0.8782
27.1901 17.6115 -2.3753 0.8782
23.4841 16.5875 -2.1081 0.8911
22.6072 16.6590 -2.0590 0.8935
22.6094 17.3723 -2.0906 0.8919
10.3813 8.3137 -0.9752 0.9481
22.6216 21.3135 -2.2789 0.8828
23.1628 22.7192 -2.3789 0.8780
22.7054 23.1839 -2.3793 0.8780
13.9566 18.1925 -1.6812 0.9121
13.9615 19.7982 -1.7763 0.9074
13.9642 20.6718 -1.8291 0.9048
13.9671 21.5994 -1.8860 0.9020
16.5961 28.0786 -2.3915 0.8774
16.0353 28.4185 -2.3925 0.8773
15.4674 28.7468 -2.3935 0.8773
14.8926 29.0633 -2.3945 0.8772
5.1157 13.8871 -1.0851 0.9424
5.8920 17.0427 -1.3222 0.9302
6.1491 19.0154 -1.4653 0.9230
5.9482 21.2794 -1.6201 0.9152
6.1710 23.9206 -1.8113 0.9057
5.6900 24.0434 -1.8116 0.9057
5.1544 23.9151 -1.7938 0.9065
4.6618 23.9569 -1.7895 0.9068
4.1525 23.8911 -1.7780 0.9073
2.6854 23.9185 -1.7648 0.9080
2.1994 23.9157 -1.7610 0.9082
-21.6636 11.3804 -2.3493 0.9063
-22.3099 10.0545 -2.3493 0.9063
-22.5075 9.6042 -2.3493 0.9063
-22.6959 9.1500 -2.3493 0.9063
-22.8752 8.6920 -2.3493 0.9063
-23.0452 8.2306 -2.3493 0.9063
-23.2060 7.7659 -2.3493 0.9063
-25.1647 6.7658 -2.5017 0.9006
-25.2956 6.2587 -2.5017 0.9006
-25.6267 4.7232 -2.5017 0.9006
-25.7165 4.2073 -2.5017 0.9006
-25.7959 3.6897 -2.5017 0.9006
-25.9233 2.6502 -2.5017 0.9006
-25.9713 2.1288 -2.5017 0.9006
-26.0089 1.6064 -2.5017 0.9006
-26.0359 1.0835 -2.5017 0.9006
-26.0584 0.0365 -2.5017 0.9006
-26.0539 -0.4872 -2.5017 0.9006
-25.9772 -2.0561 -2.5017 0.9006
-25.8061 -3.6175 -2.5017 0.9006
-25.6399 -4.6515 -2.5017 0.9006
-25.3131 -6.1879 -2.5017 0.9006
-25.1836 -6.6953 -2.5017 0.9006
-24.5647 -8.6959 -2.5017 0.9006
-23.7871 -10.6403 -2.5017 0.9006
-23.5685 -11.1161 -2.5017 0.9006
-22.3345 -13.4242 -2.5017 0.9006
-22.0603 -13.8703 -2.5017 0.9006
-21.7771 -14.3108 -2.5017 0.9006
-21.4851 -14.7455 -2.5017 0.9006
-21.1845 -15.1743 -2.5017 0.9006
-20.8753 -15.5969 -2.5017 0.9006
-20.5576 -16.0132 -2.5017 0.9006
-20.2317 -16.4231 -2.5017 0.9006
-19.8976 -16.8263 -2.5017 0.9006
-19.5554 -17.2228 -2.5017 0.9006
-19.2054 -17.6123 -2.5017 0.9006
-18.4822 -18.3697 -2.5017 0.9006
-18.1094 -18.7374 -2.5017 0.9006
-17.3419 -19.4499 -2.5017 0.9006
-15.7240 -20.7796 -2.5017 0.9006
-15.3033 -21.0914 -2.5017 0.9006
-14.4435 -21.6893 -2.5017 0.9006
-14.0047 -21.9751 -2.5017 0.9006
-13.1104 -22.5201 -2.5017 0.9006
-9.5640 -17.2148 -1.8906 0.9239
-12.1950 -23.0287 -2.5017 0.9006
-11.7297 -23.2691 -2.5017 0.9006
-8.6743 -18.1039 -1.9273 0.9225
-8.8565 -19.4795 -2.0543 0.9176
-8.0973 -19.8949 -2.0621 0.9173
-7.8426 -23.1801 -2.3493 0.9063
-7.3752 -23.3330 -2.3493 0.9063
-6.4317 -23.6105 -2.3493 0.9063
-5.9560 -23.7350 -2.3493 0.9063
-5.4778 -23.8498 -2.3493 0.9063
-3.0382 -20.7511 -2.0134 0.9192
-2.1911 -20.7537 -2.0035 0.9196
-1.5866 -18.6011 -1.7923 0.9277
-0.8422 -18.7444 -1.8014 0.9274
-0.4650 -18.7455 -1.8002 0.9274
-0.0882 -18.7467 -1.7998 0.9274
0.2881 -18.7159 -1.7970 0.9275
2.5466 -18.6139 -1.8037 0.9273
2.9289 -18.6151 -1.8091 0.9271
3.3137 -18.6163 -1.8153 0.9268
5.2872 -18.6224 -1.8585 0.9252
6.1066 -18.6249 -1.8817 0.9243
6.5244 -18.6262 -1.8947 0.9238
7.3784 -18.6288 -1.9236 0.9226
8.2603 -18.6316 -1.9566 0.9214
8.7130 -18.6330 -1.9748 0.9207
10.2414 -20.8014 -2.2260 0.9110
11.2300 -20.6695 -2.2584 0.9098
12.9566 -20.7591 -2.3493 0.9063
14.1838 -19.9407 -2.3493 0.9063
14.5816 -19.6516 -2.3493 0.9063
14.9736 -19.3547 -2.3493 0.9063
15.7392 -18.7373 -2.3493 0.9063
16.8395 -17.7550 -2.3493 0.9063
17.1929 -17.4130 -2.3493 0.9063
19.3921 -17.4058 -2.5017 0.9006
20.0759 -16.6125 -2.5017 0.9006
20.7272 -15.7925 -2.5017 0.9006
21.0403 -15.3728 -2.5017 0.9006
21.3450 -14.9469 -2.5017 0.9006
21.6410 -14.5149 -2.5017 0.9006
21.9283 -14.0771 -2.5017 0.9006
22.2068 -13.6336 -2.5017 0.9006
22.4762 -13.1846 -2.5017 0.9006
22.7366 -12.7303 -2.5017 0.9006
22.9879 -12.2709 -2.5017 0.9006
23.2298 -11.8064 -2.5017 0.9006
23.6854 -10.8635 -2.5017 0.9006
24.1028 -9.9030 -2.5017 0.9006
24.8201 -7.9357 -2.5017 0.9006
25.2532 -6.4258 -2.5017 0.9006
25.6876 -4.3773 -2.5017 0.9006
25.7703 -3.8602 -2.5017 0.9006
25.9046 -2.8216 -2.5017 0.9006
25.9561 -2.3005 -2.5017 0.9006
25.9971 -1.7784 -2.5017 0.9006
26.0475 -0.7324 -2.5017 0.9006
26.0559 0.3148 -2.5017 0.9006
26.0443 0.8383 -2.5017 0.9006
26.0222 1.3615 -2.5017 0.9006
25.9896 1.8842 -2.5017 0.9006
25.7544 3.9650 -2.5017 0.9006
25.5743 4.9966 -2.5017 0.9006
25.0905 7.0340 -2.5017 0.9006
24.0788 7.8067 -2.4301 0.9033
23.1212 8.0131 -2.3493 0.9063
22.9555 8.4761 -2.3493 0.9063
21.9895 10.7361 -2.3493 0.9063
21.5404 11.6110 -2.3493 0.9063
20.5385 13.3031 -2.3493 0.9063
20.2670 13.7132 -2.3493 0.9063
19.5566 15.0267 -2.3678 0.9056
19.0464 15.8916 -2.3814 0.9051
18.3963 16.6476 -2.3819 0.9051
18.0601 17.0157 -2.3822 0.9051
17.7165 17.3771 -2.3825 0.9051
17.3657 17.7317 -2.3827 0.9051
15.0116 16.6137 -2.1497 0.9140
14.4174 16.6156 -2.1120 0.9154
13.9521 16.7477 -2.0927 0.9161
13.9543 17.4517 -2.1452 0.9141
13.9096 20.5910 -2.3856 0.9050
12.6492 21.4010 -2.3867 0.9049
11.7826 21.8985 -2.3874 0.9049
11.3419 22.1341 -2.3877 0.9049
6.3632 13.0581 -1.3946 0.9433
5.4898 13.2367 -1.3757 0.9440
4.9019 14.1788 -1.4403 0.9415
2.8312 13.1358 -1.2901 0.9474
2.5564 13.1375 -1.2849 0.9476
1.7359 13.0846 -1.2672 0.9483
1.4755 13.1420 -1.2696 0.9482
0.9430 13.1453 -1.2653 0.9484
-17.5089 9.1979 -2.3493 0.9234
-17.6902 8.8442 -2.3493 0.9234
-18.0313 8.1262 -2.3493 0.9234
-18.1909 7.7622 -2.3493 0.9234
-19.6496 7.4664 -2.4969 0.9188
-19.8338 7.0837 -2.5017 0.9187
-20.2245 5.8758 -2.5017 0.9187
-20.3385 5.4682 -2.5017 0.9187
-20.4443 5.0584 -2.5017 0.9187
-20.6311 4.2328 -2.5017 0.9187
-20.7120 3.8174 -2.5017 0.9187
-20.7845 3.4004 -2.5017 0.9187
-20.9904 1.7205 -2.5017 0.9187
-21.0560 0.4527 -2.5017 0.9187
-21.0450 -0.8168 -2.5017 0.9187
-21.0243 -1.2395 -2.5017 0.9187
-20.9576 -2.0833 -2.5017 0.9187
-20.9114 -2.5040 -2.5017 0.9187
-20.7226 -3.7594 -2.5017 0.9187
-20.5548 -4.5891 -2.5017 0.9187
-20.4584 -5.0012 -2.5017 0.9187
-20.3538 -5.4113 -2.5017 0.9187
-20.2410 -5.8192 -2.5017 0.9187
-20.1199 -6.2247 -2.5017 0.9187
-19.9908 -6.6278 -2.5017 0.9187
-19.7083 -7.4257 -2.5017 0.9187
-19.5551 -7.8202 -2.5017 0.9187
-19.3940 -8.2116 -2.5017 0.9187
-19.2251 -8.5996 -2.5017 0.9187
-18.6721 -9.7424 -2.5017 0.9187
-18.2655 -10.4848 -2.5017 0.9187
-18.0511 -10.8497 -2.5017 0.9187
-17.8295 -11.2102 -2.5017 0.9187
-17.3646 -11.9176 -2.5017 0.9187
-17.1216 -12.2641 -2.5017 0.9187
-16.8717 -12.6057 -2.5017 0.9187
-16.3516 -13.2734 -2.5017 0.9187
-15.8050 -13.9197 -2.5017 0.9187
-15.5221 -14.2345 -2.5017 0.9187
-14.3290 -15.4349 -2.5017 0.9187
-14.0160 -15.7197 -2.5017 0.9187
-11.6734 -17.5296 -2.5017 0.9187
-11.3188 -17.7606 -2.5017 0.9187
-8.1858 -18.0043 -2.3493 0.9234
-5.5806 -18.9741 -2.3493 0.9234
-5.1982 -19.0824 -2.3493 0.9234
-4.8137 -19.1830 -2.3493 0.9234
-3.4970 -18.6277 -2.2514 0.9265
-3.1379 -18.7897 -2.2629 0.9261
-2.3804 -18.9006 -2.2629 0.9261
-2.0001 -18.9446 -2.2629 0.9261
-1.5866 -18.6011 -2.2176 0.9276
-1.2178 -18.7113 -2.2273 0.9273
-0.8407 -18.7124 -2.2250 0.9273
0.2881 -18.7159 -2.2235 0.9274
1.7880 -18.6115 -2.2210 0.9275
2.1664 -18.6127 -2.2259 0.9273
2.5466 -18.6139 -2.2317 0.9271
4.4865 -18.6199 -2.2751 0.9258
4.8847 -18.6211 -2.2868 0.9254
5.6944 -18.6236 -2.3133 0.9246
4.0571 -11.5825 -1.4578 0.9518
6.9120 -18.5305 -2.3493 0.9234
7.2829 -18.3878 -2.3493 0.9234
7.6509 -18.2378 -2.3493 0.9234
8.0159 -18.0804 -2.3493 0.9234
8.3776 -17.9156 -2.3493 0.9234
8.7359 -17.7437 -2.3493 0.9234
9.0907 -17.5645 -2.3493 0.9234
9.4418 -17.3783 -2.3493 0.9234
10.8068 -16.5640 -2.3493 0.9234
11.1375 -16.3435 -2.3493 0.9234
12.7207 -15.1439 -2.3493 0.9234
13.3189 -14.6205 -2.3493 0.9234
14.1756 -13.7915 -2.3493 0.9234
14.4499 -13.5038 -2.3493 0.9234
14.7183 -13.2107 -2.3493 0.9234
16.4922 -13.0978 -2.5017 0.9187
16.7521 -12.7637 -2.5017 0.9187
17.0052 -12.4246 -2.5017 0.9187
17.2514 -12.0803 -2.5017 0.9187
17.9479 -11.0190 -2.5017 0.9187
18.5792 -9.9175 -2.5017 0.9187
19.4803 -8.0038 -2.5017 0.9187
20.0601 -6.4137 -2.5017 0.9187
20.1849 -6.0094 -2.5017 0.9187
20.3016 -5.6025 -2.5017 0.9187
20.4491 -4.7680 -2.4942 0.9189
20.7612 -3.5378 -2.5017 0.9187
20.8281 -3.1199 -2.5017 0.9187
20.9366 -2.2805 -2.5017 0.9187
20.9782 -1.8593 -2.5017 0.9187
21.0113 -1.4374 -2.5017 0.9187
21.0360 -1.0149 -2.5017 0.9187
21.0521 -0.5920 -2.5017 0.9187
21.0598 -0.1688 -2.5017 0.9187
21.0589 0.2544 -2.5017 0.9187
20.9705 1.9446 -2.5017 0.9187
20.8754 2.7856 -2.5017 0.9187
20.8152 3.2046 -2.5017 0.9187
20.7466 3.6222 -2.5017 0.9187
20.5843 4.4529 -2.5017 0.9187
19.8993 6.8965 -2.5017 0.9187
18.7436 7.7904 -2.4111 0.9215
18.1067 7.9560 -2.3493 0.9234
17.9431 8.3182 -2.3493 0.9234
17.7723 8.6771 -2.3493 0.9234
17.5944 9.0325 -2.3493 0.9234
17.2172 9.7322 -2.3493 0.9234
16.8123 10.4161 -2.3493 0.9234
16.5996 10.7519 -2.3493 0.9234
15.9216 11.7325 -2.3493 0.9234
10.3787 8.3116 -1.5795 0.9478
15.1858 12.6704 -2.3493 0.9234
14.9281 12.9730 -2.3493 0.9234
14.6644 13.2704 -2.3493 0.9234
14.1194 13.8489 -2.3493 0.9234
13.6015 14.4605 -2.3583 0.9231
13.3402 14.7639 -2.3636 0.9230
13.0693 15.0621 -2.3688 0.9228
12.7915 15.3547 -2.3739 0.9227
12.2151 15.9224 -2.3838 0.9223
11.9078 16.1853 -2.3869 0.9222
11.5814 16.4230 -2.3871 0.9222
10.9145 16.8787 -2.3876 0.9222
10.5743 17.0966 -2.3879 0.9222
10.2298 17.3075 -2.3882 0.9222
9.1715 17.8985 -2.3890 0.9222
6.0425 13.0601 -1.7094 0.9437
5.7276 13.0621 -1.6942 0.9442
5.4898 13.2367 -1.7022 0.9439
5.1813 13.2386 -1.6887 0.9443
4.9054 13.3160 -1.6857 0.9444
4.7466 13.7296 -1.7256 0.9432
4.0144 13.3229 -1.6529 0.9455
3.8287 13.6969 -1.6894 0.9443
3.5455 13.7436 -1.6860 0.9444
3.1542 13.3282 -1.6269 0.9463
2.8564 13.2530 -1.6104 0.9469
2.2737 13.0813 -1.5772 0.9479
1.7359 13.0846 -1.5679 0.9482
1.4887 13.2593 -1.5849 0.9477
1.2196 13.2609 -1.5819 0.9478
0.9798 13.6589 -1.6267 0.9463
-15.3227 7.6606 -2.4273 0.9331
-16.2397 6.9297 -2.5017 0.9312
-16.7437 5.6033 -2.5017 0.9312
-16.9553 4.9260 -2.5017 0.9312
-17.1396 4.2407 -2.5017 0.9312
-17.2213 3.8954 -2.5017 0.9312
-17.2961 3.5486 -2.5017 0.9312
-17.3640 3.2003 -2.5017 0.9312
-17.4248 2.8508 -2.5017 0.9312
-17.4785 2.5000 -2.5017 0.9312
-17.5252 2.1483 -2.5017 0.9312
-17.6228 1.0885 -2.5017 0.9312
-17.6411 0.7341 -2.5017 0.9312
-17.6523 0.3795 -2.5017 0.9312
-17.6533 -0.3301 -2.5017 0.9312
-17.6431 -0.6848 -2.5017 0.9312
-17.6258 -1.0392 -2.5017 0.9312
-17.5698 -1.7466 -2.5017 0.9312
-17.5312 -2.0993 -2.5017 0.9312
-17.4855 -2.4511 -2.5017 0.9312
-17.4327 -2.8020 -2.5017 0.9312
-17.1514 -4.1928 -2.5017 0.9312
-16.7593 -5.5564 -2.5017 0.9312
-15.9693 -7.5320 -2.5017 0.9312
-15.6538 -8.1676 -2.5017 0.9312
-15.1332 -9.0959 -2.5017 0.9312
-14.7555 -9.6966 -2.5017 0.9312
-14.5577 -9.9912 -2.5017 0.9312
-14.3540 -10.2817 -2.5017 0.9312
-14.1445 -10.5680 -2.5017 0.9312
-13.9293 -10.8501 -2.5017 0.9312
-13.7084 -11.1278 -2.5017 0.9312
-13.4820 -11.4010 -2.5017 0.9312
-13.2502 -11.6697 -2.5017 0.9312
-13.0130 -11.9336 -2.5017 0.9312
-12.0128 -12.9400 -2.5017 0.9312
-11.2113 -13.6402 -2.5017 0.9312
-10.9349 -13.8628 -2.5017 0.9312
-10.3691 -14.2909 -2.5017 0.9312
-10.0798 -14.4964 -2.5017 0.9312
-9.7865 -14.6960 -2.5017 0.9312
-7.7596 -14.6530 -2.3493 0.9352
-7.4635 -14.8060 -2.3493 0.9352
-7.1645 -14.9530 -2.3493 0.9352
-6.8626 -15.0939 -2.3493 0.9352
-5.3139 -15.7062 -2.3493 0.9352
-4.9973 -15.8098 -2.3493 0.9352
-4.6785 -15.9070 -2.3493 0.9352
-4.3579 -15.9978 -2.3493 0.9352
-4.0356 -16.0822 -2.3493 0.9352
-3.7116 -16.1600 -2.3493 0.9352
-3.3861 -16.2313 -2.3493 0.9352
-3.0593 -16.2961 -2.3493 0.9352
-2.4020 -16.4058 -2.3493 0.9352
-2.0719 -16.4508 -2.3493 0.9352
-1.7409 -16.4891 -2.3493 0.9352
-1.4092 -16.5208 -2.3493 0.9352
-1.0769 -16.5458 -2.3493 0.9352
-0.7442 -16.5641 -2.3493 0.9352
-0.0780 -16.5806 -2.3493 0.9352
0.2552 -16.5788 -2.3493 0.9352
0.5883 -16.5703 -2.3493 0.9352
1.2536 -16.5333 -2.3493 0.9352
2.2475 -16.4277 -2.3493 0.9352
2.9057 -16.3241 -2.3493 0.9352
3.2332 -16.2624 -2.3493 0.9352
3.5593 -16.1942 -2.3493 0.9352
3.8840 -16.1194 -2.3493 0.9352
4.2071 -16.0381 -2.3493 0.9352
5.1658 -15.7554 -2.3493 0.9352
6.1057 -15.4156 -2.3493 0.9352
6.4143 -15.2898 -2.3493 0.9352
6.7202 -15.1578 -2.3493 0.9352
7.0234 -15.0197 -2.3493 0.9352
7.3238 -14.8755 -2.3493 0.9352
8.2068 -14.4072 -2.3493 0.9352
8.4946 -14.2394 -2.3493 0.9352
8.7791 -14.0658 -2.3493 0.9352
9.8801 -13.3154 -2.3493 0.9352
10.1457 -13.1142 -2.3493 0.9352
10.6645 -12.6960 -2.3493 0.9352
11.1660 -12.2572 -2.3493 0.9352
11.4100 -12.0303 -2.3493 0.9352
11.6495 -11.7986 -2.3493 0.9352
11.8842 -11.5621 -2.3493 0.9352
12.3745 -11.5643 -2.3998 0.9339
13.8264 -10.9806 -2.5017 0.9312
14.4628 -10.1276 -2.5017 0.9312
14.6634 -9.8349 -2.5017 0.9312
15.7399 -7.9998 -2.5017 0.9312
15.8975 -7.6819 -2.5017 0.9312
16.0487 -7.3609 -2.5017 0.9312
16.1933 -7.0369 -2.5017 0.9312
16.3315 -6.7100 -2.5017 0.9312
16.5879 -6.0484 -2.5017 0.9312
17.0200 -4.6969 -2.5017 0.9312
17.1109 -4.3540 -2.5017 0.9312
17.1950 -4.0093 -2.5017 0.9312
17.4053 -2.9659 -2.5017 0.9312
17.5104 -2.2642 -2.5017 0.9312
17.5872 -1.5588 -2.5017 0.9312
17.6150 -1.2050 -2.5017 0.9312
17.6357 -0.8508 -2.5017 0.9312
17.6492 -0.4963 -2.5017 0.9312
17.6556 -0.1415 -2.5017 0.9312
17.6470 0.5680 -2.5017 0.9312
17.5444 1.9832 -2.5017 0.9312
17.3285 3.3856 -2.5017 0.9312
17.1785 4.0791 -2.5017 0.9312
17.0931 4.4235 -2.5017 0.9312
17.0007 4.7661 -2.5017 0.9312
16.9015 5.1067 -2.5017 0.9312
16.7955 5.4453 -2.5017 0.9312
16.5631 6.1158 -2.5017 0.9312
16.4369 6.4474 -2.5017 0.9312
16.3040 6.7764 -2.5017 0.9312
16.0071 7.4207 -2.4999 0.9312
15.1482 7.7767 -2.4127 0.9335
14.5952 7.8673 -2.3493 0.9352
14.4342 8.1590 -2.3493 0.9352
14.2673 8.4474 -2.3493 0.9352
13.9164 9.0139 -2.3493 0.9352
13.7325 9.2917 -2.3493 0.9352
13.5430 9.5658 -2.3493 0.9352
13.3480 9.8360 -2.3493 0.9352
10.2872 8.2383 -1.8674 0.9481
12.5151 10.8761 -2.3493 0.9352
11.1160 12.3025 -2.3493 0.9352
10.8666 12.5233 -2.3493 0.9352
10.0923 13.1553 -2.3493 0.9352
9.5555 13.5502 -2.3493 0.9352
9.0034 13.9232 -2.3493 0.9352
8.4612 14.3153 -2.3561 0.9350
7.6141 14.8587 -2.3656 0.9348
5.4898 13.2367 -2.0304 0.9438
5.1813 13.2386 -2.0143 0.9442
4.8900 13.2742 -2.0044 0.9445
4.4441 13.7431 -2.0465 0.9433
3.9964 13.2629 -1.9627 0.9456
3.1400 13.2682 -1.9319 0.9464
2.8564 13.2530 -1.9209 0.9467
2.2737 13.0813 -1.8813 0.9478
2.0040 13.0829 -1.8753 0.9479
1.7359 13.0846 -1.8702 0.9481
0.9745 13.5851 -1.9298 0.9465
-13.5830 6.7908 -2.5017 0.9403
-13.9675 5.9601 -2.5017 0.9403
-14.3012 5.1077 -2.5017 0.9403
-14.4010 4.8193 -2.5017 0.9403
-14.5830 4.2367 -2.5017 0.9403
-14.6652 3.9428 -2.5017 0.9403
-14.7414 3.6474 -2.5017 0.9403
-14.8761 3.0521 -2.5017 0.9403
-15.1072 1.5444 -2.5017 0.9403
-15.1352 1.2406 -2.5017 0.9403
-15.1571 0.9362 -2.5017 0.9403
-15.1728 0.6314 -2.5017 0.9403
-15.1859 0.0213 -2.5017 0.9403
-15.1833 -0.2839 -2.5017 0.9403
-15.1745 -0.5890 -2.5017 0.9403
-15.1596 -0.8938 -2.5017 0.9403
-15.1386 -1.1982 -2.5017 0.9403
-15.1115 -1.5022 -2.5017 0.9403
-15.0389 -2.1082 -2.5017 0.9403
-14.5075 -4.4884 -2.5017 0.9403
-14.4144 -4.7790 -2.5017 0.9403
-14.3155 -5.0677 -2.5017 0.9403
-14.2107 -5.3543 -2.5017 0.9403
-14.1003 -5.6388 -2.5017 0.9403
-13.8623 -6.2008 -2.5017 0.9403
-13.7349 -6.4781 -2.5017 0.9403
-13.3196 -7.2939 -2.5017 0.9403
-13.0158 -7.8232 -2.5017 0.9403
-12.8560 -8.0832 -2.5017 0.9403
-11.9803 -9.3320 -2.5017 0.9403
-11.7904 -9.5708 -2.5017 0.9403
-11.3963 -10.0369 -2.5017 0.9403
-10.9838 -10.4867 -2.5017 0.9403
-10.7708 -10.7053 -2.5017 0.9403
-10.3320 -11.1294 -2.5017 0.9403
-9.6426 -11.7317 -2.5017 0.9403
-9.4050 -11.9231 -2.5017 0.9403
-9.1635 -12.1097 -2.5017 0.9403
-8.4172 -12.6398 -2.5017 0.9403
-8.1615 -12.8064 -2.5017 0.9403
-7.9019 -12.9669 -2.5015 0.9403
-7.6252 -13.0980 -2.4968 0.9404
-6.4193 -12.7344 -2.3493 0.9438
-6.1621 -12.8608 -2.3493 0.9438
-5.9024 -12.9820 -2.3493 0.9438
-5.6404 -13.0980 -2.3493 0.9438
-5.1095 -13.3140 -2.3493 0.9438
-4.8409 -13.4140 -2.3493 0.9438
-3.4709 -13.8320 -2.3493 0.9438
-2.9124 -13.9603 -2.3493 0.9438
-1.7820 -14.1491 -2.3493 0.9438
-0.6401 -14.2464 -2.3493 0.9438
-0.3537 -14.2564 -2.3493 0.9438
-0.0671 -14.2607 -2.3493 0.9438
0.7922 -14.2388 -2.3493 0.9438
1.6487 -14.1652 -2.3493 0.9438
1.9330 -14.1292 -2.3493 0.9438
2.2166 -14.0875 -2.3493 0.9438
2.7808 -13.9870 -2.3493 0.9438
3.6185 -13.7941 -2.3493 0.9438
3.8949 -13.7186 -2.3493 0.9438
4.1698 -13.6375 -2.3493 0.9438
4.4430 -13.5510 -2.3493 0.9438
5.2514 -13.2587 -2.3493 0.9438
5.5168 -13.1505 -2.3493 0.9438
5.7799 -13.0370 -2.3493 0.9438
6.0407 -12.9182 -2.3493 0.9438
8.4977 -11.4524 -2.3493 0.9438
8.7261 -11.2793 -2.3493 0.9438
9.3875 -11.1757 -2.4044 0.9425
9.7695 -11.1669 -2.4443 0.9416
10.1728 -11.1669 -2.4885 0.9406
10.4310 -10.9981 -2.4971 0.9404
10.8845 -10.5895 -2.5017 0.9403
11.0951 -10.3687 -2.5017 0.9403
11.3012 -10.1436 -2.5017 0.9403
11.5027 -9.9145 -2.5017 0.9403
11.8918 -9.4443 -2.5017 0.9403
12.0792 -9.2034 -2.5017 0.9403
12.2617 -8.9588 -2.5017 0.9403
12.6117 -8.4589 -2.5017 0.9403
12.7792 -8.2037 -2.5017 0.9403
13.0985 -7.6836 -2.5017 0.9403
13.3967 -7.1511 -2.5017 0.9403
13.5376 -6.8804 -2.5017 0.9403
13.8032 -6.3310 -2.5017 0.9403
13.9276 -6.0523 -2.5017 0.9403
14.3686 -4.9144 -2.5017 0.9403
14.4645 -4.6247 -2.5017 0.9403
14.5545 -4.3331 -2.5017 0.9403
14.6386 -4.0397 -2.5017 0.9403
14.7168 -3.7448 -2.5017 0.9403
14.7891 -3.4483 -2.5017 0.9403
14.8554 -3.1504 -2.5017 0.9403
14.9157 -2.8513 -2.5017 0.9403
14.9700 -2.5510 -2.5017 0.9403
15.0604 -1.9474 -2.5017 0.9403
15.0965 -1.6444 -2.5017 0.9403
15.1265 -1.3407 -2.5017 0.9403
15.1681 -0.7318 -2.5017 0.9403
15.1798 -0.4268 -2.5017 0.9403
15.1853 -0.1217 -2.5017 0.9403
15.1847 0.1835 -2.5017 0.9403
15.1779 0.4886 -2.5017 0.9403
15.0523 2.0086 -2.5017 0.9403
14.9040 2.9119 -2.5017 0.9403
14.8425 3.2108 -2.5017 0.9403
14.7750 3.5084 -2.5017 0.9403
14.5367 4.3922 -2.5017 0.9403
14.4455 4.6834 -2.5017 0.9403
14.3485 4.9728 -2.5017 0.9403
14.2457 5.2601 -2.5017 0.9403
14.1371 5.5453 -2.5017 0.9403
13.5095 6.9354 -2.5017 0.9403
13.3675 7.2055 -2.5017 0.9403
11.8111 7.9917 -2.3493 0.9438
11.6481 8.2274 -2.3493 0.9438
10.7640 9.3543 -2.3493 0.9438
10.5739 9.5687 -2.3493 0.9438
10.1809 9.9859 -2.3493 0.9438
9.9781 10.1884 -2.3493 0.9438
9.7714 10.3868 -2.3493 0.9438
9.5607 10.5811 -2.3493 0.9438
8.9058 11.1380 -2.3493 0.9438
8.6802 11.3147 -2.3493 0.9438
8.4511 11.4868 -2.3493 0.9438
8.2185 11.6543 -2.3493 0.9438
7.9827 11.8171 -2.3493 0.9438
7.7436 11.9751 -2.3493 0.9438
7.2562 12.2766 -2.3493 0.9438
6.5033 12.6915 -2.3493 0.9438
6.2470 12.8196 -2.3493 0.9438
5.9881 12.9426 -2.3493 0.9438
5.4632 13.1727 -2.3493 0.9438
4.3308 13.3924 -2.3187 0.9445
3.9978 13.2677 -2.2828 0.9454
3.8391 13.7342 -2.3493 0.9438
3.1411 13.2730 -2.2470 0.9462
2.5792 13.2547 -2.2245 0.9467
2.0040 13.0829 -2.1804 0.9478
1.7359 13.0846 -2.1744 0.9479
0.9760 13.6058 -2.2472 0.9462
-12.0221 5.7114 -2.5017 0.9473
-12.1344 5.4687 -2.5017 0.9473
-12.3443 4.9767 -2.5017 0.9473
-12.4419 4.7276 -2.5017 0.9473
-12.6218 4.2239 -2.5017 0.9473
-12.7041 3.9694 -2.5017 0.9473
-13.0382 2.6750 -2.5017 0.9473
-13.1352 2.1490 -2.5017 0.9473
-13.1757 1.8846 -2.5017 0.9473
-13.2653 1.0873 -2.5017 0.9473
-13.2845 0.8205 -2.5017 0.9473
-13.2983 0.5534 -2.5017 0.9473
-13.3098 0.0186 -2.5017 0.9473
-13.2445 -1.3166 -2.5017 0.9473
-13.2154 -1.5825 -2.5017 0.9473
-13.1411 -2.1122 -2.5017 0.9473
-12.9291 -3.1606 -2.5017 0.9473
-12.7917 -3.6775 -2.5017 0.9473
-12.6336 -4.1886 -2.5017 0.9473
-12.4551 -4.6928 -2.5017 0.9473
-11.9215 -5.9185 -2.5017 0.9473
-11.8002 -6.1569 -2.5017 0.9473
-11.4078 -6.8567 -2.5017 0.9473
-11.1231 -7.3095 -2.5017 0.9473
-10.9739 -7.5316 -2.5017 0.9473
-10.8204 -7.7506 -2.5017 0.9473
-10.5002 -8.1791 -2.5017 0.9473
-10.3337 -8.3884 -2.5017 0.9473
-10.1631 -8.5944 -2.5017 0.9473
-9.9883 -8.7969 -2.5017 0.9473
-9.6268 -9.1911 -2.5017 0.9473
-9.4401 -9.3827 -2.5017 0.9473
-9.0555 -9.7544 -2.5017 0.9473
-8.8577 -9.9344 -2.5017 0.9473
-8.4513 -10.2823 -2.5017 0.9473
-8.2430 -10.4500 -2.5017 0.9473
-7.8164 -10.7728 -2.5017 0.9473
-7.5984 -10.9277 -2.5017 0.9473
-7.1532 -11.2242 -2.5017 0.9473
-6.9262 -11.3657 -2.5017 0.9473
-6.6964 -11.5025 -2.5017 0.9473
-6.2288 -11.7623 -2.5017 0.9473
-5.9826 -11.8681 -2.4981 0.9473
-5.3955 -11.8671 -2.4503 0.9483
-5.0521 -11.7321 -2.4009 0.9493
-4.4782 -11.6692 -2.3493 0.9504
-3.0421 -12.1231 -2.3493 0.9504
-2.5525 -12.2355 -2.3493 0.9504
-1.8107 -12.3671 -2.3493 0.9504
-1.0623 -12.4537 -2.3493 0.9504
-0.8118 -12.4726 -2.3493 0.9504
-0.5610 -12.4864 -2.3493 0.9504
-0.0588 -12.4988 -2.3493 0.9504
0.4434 -12.4911 -2.3493 0.9504
0.9450 -12.4632 -2.3493 0.9504
1.9427 -12.3470 -2.3493 0.9504
2.4372 -12.2590 -2.3493 0.9504
2.6831 -12.2076 -2.3493 0.9504
3.1715 -12.0899 -2.3493 0.9504
3.4137 -12.0237 -2.3493 0.9504
3.6547 -11.9527 -2.3493 0.9504
3.8941 -11.8768 -2.3493 0.9504
4.2640 -11.4314 -2.2933 0.9516
5.2944 -11.3222 -2.3493 0.9504
5.7944 -11.1956 -2.3695 0.9500
6.3708 -11.1842 -2.4193 0.9490
6.9727 -11.1716 -2.4753 0.9478
7.2529 -11.1169 -2.4949 0.9474
7.4818 -10.9791 -2.4973 0.9474
7.7083 -10.8370 -2.4996 0.9473
7.9310 -10.6886 -2.5017 0.9473
8.1442 -10.5271 -2.5017 0.9473
8.3541 -10.3613 -2.5017 0.9473
8.7637 -10.0173 -2.5017 0.9473
9.3513 -9.4711 -2.5017 0.9473
9.9050 -8.8904 -2.5017 0.9473
10.4226 -8.2775 -2.5017 0.9473
10.7468 -7.8520 -2.5017 0.9473
11.0536 -7.4138 -2.5017 0.9473
11.2004 -7.1902 -2.5017 0.9473
11.3426 -6.9637 -2.5017 0.9473
11.8651 -6.0304 -2.5017 0.9473
12.3111 -5.0582 -2.5017 0.9473
12.5044 -4.5595 -2.5017 0.9473
12.6775 -4.0533 -2.5017 0.9473
13.0201 -2.7612 -2.5017 0.9473
13.0730 -2.4990 -2.5017 0.9473
13.1205 -2.2358 -2.5017 0.9473
13.1628 -1.9717 -2.5017 0.9473
13.2314 -1.4412 -2.5017 0.9473
13.3044 -0.3741 -2.5017 0.9473
13.3087 0.1608 -2.5017 0.9473
13.3028 0.4282 -2.5017 0.9473
13.2915 0.6954 -2.5017 0.9473
13.2748 0.9624 -2.5017 0.9473
13.2528 1.2289 -2.5017 0.9473
13.1927 1.7604 -2.5017 0.9473
13.1547 2.0252 -2.5017 0.9473
13.0627 2.5521 -2.5017 0.9473
13.0087 2.8141 -2.5017 0.9473
12.8852 3.3345 -2.5017 0.9473
12.6609 4.1048 -2.5017 0.9473
12.5758 4.3584 -2.5017 0.9473
12.4857 4.6102 -2.5017 0.9473
12.1852 5.3541 -2.5017 0.9473
11.9603 5.8394 -2.5017 0.9473
11.8405 6.0786 -2.5017 0.9473
11.4527 6.7810 -2.5017 0.9473
11.1710 7.2357 -2.5017 0.9473
11.0119 7.4509 -2.4991 0.9473
10.8445 7.6598 -2.4955 0.9474
10.1010 7.7613 -2.3943 0.9495
9.7560 7.8129 -2.3493 0.9504
9.5970 8.0074 -2.3493 0.9504
9.4342 8.1986 -2.3493 0.9504
9.0971 8.5711 -2.3493 0.9504
8.9231 8.7522 -2.3493 0.9504
8.7454 8.9297 -2.3493 0.9504
8.3795 9.2739 -2.3493 0.9504
8.1915 9.4404 -2.3493 0.9504
8.0001 9.6031 -2.3493 0.9504
6.7870 10.4957 -2.3493 0.9504
6.5747 10.6299 -2.3493 0.9504
6.3598 10.7599 -2.3493 0.9504
5.9223 11.0068 -2.3493 0.9504
5.6999 11.1236 -2.3493 0.9504
4.5553 11.6392 -2.3493 0.9504
4.0840 11.8129 -2.3493 0.9504
3.8458 11.8925 -2.3493 0.9504
3.6060 11.9674 -2.3493 0.9504
2.8784 12.1629 -2.3493 0.9504
2.6334 12.2183 -2.3493 0.9504
2.3874 12.2688 -2.3493 0.9504
2.1403 12.3143 -2.3493 0.9504
1.8925 12.3548 -2.3493 0.9504
1.6438 12.3903 -2.3493 0.9504
0.8943 12.4669 -2.3493 0.9504
-10.7900 4.8628 -2.5017 0.9528
-10.8856 4.6450 -2.5017 0.9528
-10.9767 4.4253 -2.5017 0.9528
-11.3652 3.3019 -2.5017 0.9528
-11.5435 2.6111 -2.5017 0.9528
-11.5937 2.3786 -2.5017 0.9528
-11.6799 1.9109 -2.5017 0.9528
-11.7738 1.2037 -2.5017 0.9528
-11.8324 0.2544 -2.5017 0.9528
-11.8352 0.0165 -2.5017 0.9528
-11.8331 -0.2213 -2.5017 0.9528
-11.8263 -0.4590 -2.5017 0.9528
-11.7771 -1.1707 -2.5017 0.9528
-11.7206 -1.6430 -2.5017 0.9528
-11.6003 -2.3462 -2.5017 0.9528
-11.4967 -2.8104 -2.5017 0.9528
-11.4379 -3.0409 -2.5017 0.9528
-11.3745 -3.2701 -2.5017 0.9528
-11.2339 -3.7245 -2.5017 0.9528
-11.0751 -4.1729 -2.5017 0.9528
-10.9891 -4.3946 -2.5017 0.9528
-10.4928 -5.4748 -2.5017 0.9528
-10.3807 -5.6845 -2.5017 0.9528
-10.2643 -5.8920 -2.5017 0.9528
-9.8907 -6.4997 -2.5017 0.9528
-9.7581 -6.6971 -2.5017 0.9528
-9.6215 -6.8919 -2.5017 0.9528
-9.3368 -7.2729 -2.5017 0.9528
-9.1888 -7.4590 -2.5017 0.9528
-8.7227 -7.9991 -2.5017 0.9528
-8.5602 -8.1728 -2.5017 0.9528
-8.3942 -8.3432 -2.5017 0.9528
-8.0522 -8.6737 -2.5017 0.9528
-7.8763 -8.8337 -2.5017 0.9528
-7.5150 -9.1431 -2.5017 0.9528
-7.3297 -9.2923 -2.5017 0.9528
-6.7566 -9.7170 -2.5017 0.9528
-6.3607 -9.9806 -2.5017 0.9528
-5.7478 -10.3458 -2.5017 0.9528
-5.5387 -10.4592 -2.5017 0.9528
-5.3274 -10.5684 -2.5017 0.9528
-5.1140 -10.6733 -2.5017 0.9528
-4.4616 -10.9620 -2.5017 0.9528
-3.7855 -11.1888 -2.4968 0.9529
-3.0645 -11.2497 -2.4646 0.9534
-2.3402 -11.2178 -2.4223 0.9542
-2.1058 -11.2170 -2.4125 0.9544
-1.6425 -11.2182 -2.3966 0.9547
-1.1844 -11.2187 -2.3846 0.9549
-0.7302 -11.2186 -2.3764 0.9551
0.1726 -11.2162 -2.3712 0.9552
0.3981 -11.2151 -2.3721 0.9552
1.0770 -11.2110 -2.3807 0.9550
2.4612 -11.1980 -2.4235 0.9542
2.6975 -11.1951 -2.4341 0.9540
3.1767 -11.1888 -2.4586 0.9536
3.4200 -11.1853 -2.4724 0.9533
3.6662 -11.1817 -2.4874 0.9530
3.9017 -11.1388 -2.4948 0.9529
4.1268 -11.0637 -2.4960 0.9529
4.3506 -10.9844 -2.4974 0.9528
4.5730 -10.9008 -2.4988 0.9528
5.0132 -10.7209 -2.5017 0.9528
5.2277 -10.6180 -2.5017 0.9528
5.4400 -10.5108 -2.5017 0.9528
5.6501 -10.3993 -2.5017 0.9528
5.8579 -10.2837 -2.5017 0.9528
7.0523 -9.5044 -2.5017 0.9528
7.2419 -9.3608 -2.5017 0.9528
7.4285 -9.2134 -2.5017 0.9528
7.9702 -8.7491 -2.5017 0.9528
8.1444 -8.5871 -2.5017 0.9528
8.3153 -8.4217 -2.5017 0.9528
8.4828 -8.2529 -2.5017 0.9528
8.6470 -8.0808 -2.5017 0.9528
8.8076 -7.9054 -2.5017 0.9528
9.1181 -7.5451 -2.5017 0.9528
9.2679 -7.3604 -2.5017 0.9528
9.5562 -6.9821 -2.5017 0.9528
10.0860 -6.1922 -2.5017 0.9528
10.2083 -5.9883 -2.5017 0.9528
10.6562 -5.1492 -2.5017 0.9528
10.7575 -4.9340 -2.5017 0.9528
10.9471 -4.4978 -2.5017 0.9528
11.0353 -4.2769 -2.5017 0.9528
11.1190 -4.0543 -2.5017 0.9528
11.1982 -3.8301 -2.5017 0.9528
11.2729 -3.6043 -2.5017 0.9528
11.3431 -3.3770 -2.5017 0.9528
11.4086 -3.1484 -2.5017 0.9528
11.4696 -2.9185 -2.5017 0.9528
11.5776 -2.4553 -2.5017 0.9528
11.7374 -1.5177 -2.5017 0.9528
11.7655 -1.2815 -2.5017 0.9528
11.7889 -1.0448 -2.5017 0.9528
11.8213 -0.5703 -2.5017 0.9528
11.8304 -0.3326 -2.5017 0.9528
11.8342 0.1430 -2.5017 0.9528
11.8189 0.6184 -2.5017 0.9528
11.6587 2.0355 -2.5017 0.9528
11.5149 2.7343 -2.5017 0.9528
11.3292 3.4231 -2.5017 0.9528
11.1825 3.8755 -2.5017 0.9528
11.1024 4.0995 -2.5017 0.9528
11.0178 4.3217 -2.5017 0.9528
10.3030 5.8238 -2.5017 0.9528
10.1839 6.0297 -2.5017 0.9528
10.0607 6.2331 -2.5017 0.9528
9.6668 6.8280 -2.5017 0.9528
9.5277 7.0208 -2.5017 0.9528
8.9046 7.7384 -2.4937 0.9529
8.2310 7.7551 -2.3905 0.9548
7.9345 7.7825 -2.3493 0.9556
7.1138 8.5392 -2.3493 0.9556
6.9408 8.6804 -2.3493 0.9556
6.7649 8.8181 -2.3493 0.9556
6.5864 8.9523 -2.3493 0.9556
6.4051 9.0828 -2.3493 0.9556
6.2213 9.2097 -2.3493 0.9556
5.8462 9.4522 -2.3493 0.9556
5.4617 9.6795 -2.3493 0.9556
5.2661 9.7873 -2.3493 0.9556
5.0684 9.8912 -2.3493 0.9556
4.6669 10.0868 -2.3493 0.9556
4.2578 10.2662 -2.3493 0.9556
4.0506 10.3497 -2.3493 0.9556
3.6315 10.5041 -2.3493 0.9556
3.4197 10.5749 -2.3493 0.9556
3.2065 10.6415 -2.3493 0.9556
2.9920 10.7038 -2.3493 0.9556
2.5595 10.8154 -2.3493 0.9556
2.3417 10.8646 -2.3493 0.9556
1.9032 10.9499 -2.3493 0.9556
1.6828 10.9860 -2.3493 0.9556
1.2400 11.0447 -2.3493 0.9556
0.7952 11.0856 -2.3493 0.9556
-9.4234 4.9504 -2.5017 0.9572
-9.7905 4.1777 -2.5017 0.9572
-9.8724 3.9801 -2.5017 0.9572
-10.3330 2.5566 -2.5017 0.9572
-10.3823 2.3484 -2.5017 0.9572
-10.4682 1.9294 -2.5017 0.9572
-10.5049 1.7187 -2.5017 0.9572
-10.5373 1.5072 -2.5017 0.9572
-10.5655 1.2951 -2.5017 0.9572
-10.5894 1.0826 -2.5017 0.9572
-10.6090 0.8696 -2.5017 0.9572
-10.6354 0.4426 -2.5017 0.9572
-10.6421 0.2288 -2.5017 0.9572
-10.6446 0.0149 -2.5017 0.9572
-10.6427 -0.1990 -2.5017 0.9572
-10.6366 -0.4128 -2.5017 0.9572
-10.6261 -0.6265 -2.5017 0.9572
-10.6114 -0.8399 -2.5017 0.9572
-10.5097 -1.6893 -2.5017 0.9572
-10.4736 -1.9001 -2.5017 0.9572
-10.4333 -2.1102 -2.5017 0.9572
-10.3401 -2.5277 -2.5017 0.9572
-10.1038 -3.3498 -2.5017 0.9572
-9.8836 -3.9525 -2.5017 0.9572
-9.7168 -4.3464 -2.5017 0.9572
-9.6275 -4.5408 -2.5017 0.9572
-9.5343 -4.7333 -2.5017 0.9572
-9.4372 -4.9240 -2.5017 0.9572
-9.2317 -5.2992 -2.5017 0.9572
-9.1234 -5.4837 -2.5017 0.9572
-9.0114 -5.6659 -2.5017 0.9572
-8.6536 -6.1985 -2.5017 0.9572
-8.3976 -6.5412 -2.5017 0.9572
-8.2644 -6.7087 -2.5017 0.9572
-7.9882 -7.0353 -2.5017 0.9572
-7.8452 -7.1944 -2.5017 0.9572
-7.6990 -7.3506 -2.5017 0.9572
-7.5498 -7.5038 -2.5017 0.9572
-7.3975 -7.6540 -2.5017 0.9572
-7.2422 -7.8011 -2.5017 0.9572
-7.0840 -7.9451 -2.5017 0.9572
-6.9229 -8.0858 -2.5017 0.9572
-6.7590 -8.2233 -2.5017 0.9572
-6.5924 -8.3575 -2.5017 0.9572
-6.2512 -8.6156 -2.5017 0.9572
-5.7208 -8.9766 -2.5017 0.9572
-5.5392 -9.0898 -2.5017 0.9572
-5.1695 -9.3050 -2.5017 0.9572
-4.9815 -9.4070 -2.5017 0.9572
-4.5995 -9.5995 -2.5017 0.9572
-4.4057 -9.6900 -2.5017 0.9572
-3.4114 -10.0831 -2.5017 0.9572
-3.2081 -10.1496 -2.5017 0.9572
-2.7977 -10.2703 -2.5017 0.9572
-2.1738 -10.4202 -2.5017 0.9572
-1.7534 -10.4991 -2.5017 0.9572
-1.5421 -10.5323 -2.5017 0.9572
-1.1176 -10.5857 -2.5017 0.9572
-0.9047 -10.6060 -2.5017 0.9572
-0.4778 -10.6338 -2.5017 0.9572
-0.0501 -10.6444 -2.5017 0.9572
0.1638 -10.6433 -2.5017 0.9572
0.3777 -10.6378 -2.5017 0.9572
0.5913 -10.6281 -2.5017 0.9572
1.0179 -10.5958 -2.5017 0.9572
1.8654 -10.4798 -2.5017 0.9572
2.0756 -10.4402 -2.5017 0.9572
2.4935 -10.3484 -2.5017 0.9572
2.7009 -10.2962 -2.5017 0.9572
2.9073 -10.2398 -2.5017 0.9572
3.1124 -10.1793 -2.5017 0.9572
4.1178 -9.8158 -2.5017 0.9572
4.5089 -9.6424 -2.5017 0.9572
4.8927 -9.4534 -2.5017 0.9572
5.2686 -9.2492 -2.5017 0.9572
5.8163 -8.9149 -2.5017 0.9572
6.1698 -8.6740 -2.5017 0.9572
6.3429 -8.5483 -2.5017 0.9572
6.6812 -8.2865 -2.5017 0.9572
6.8464 -8.1506 -2.5017 0.9572
7.3251 -7.7233 -2.5017 0.9572
7.4788 -7.5745 -2.5017 0.9572
7.7771 -7.2679 -2.5017 0.9572
8.0628 -6.9495 -2.5017 0.9572
8.2009 -6.7861 -2.5017 0.9572
8.3356 -6.6200 -2.5017 0.9572
8.5948 -6.2797 -2.5017 0.9572
8.7193 -6.1057 -2.5017 0.9572
8.8402 -5.9292 -2.5017 0.9572
9.4892 -4.8229 -2.5017 0.9572
9.8458 -4.0454 -2.5017 0.9572
9.9251 -3.8467 -2.5017 0.9572
10.0004 -3.6465 -2.5017 0.9572
10.0717 -3.4448 -2.5017 0.9572
10.2020 -3.0373 -2.5017 0.9572
10.2609 -2.8317 -2.5017 0.9572
10.3158 -2.6249 -2.5017 0.9572
10.3664 -2.4171 -2.5017 0.9572
10.4129 -2.2083 -2.5017 0.9572
10.4552 -1.9986 -2.5017 0.9572
10.4932 -1.7881 -2.5017 0.9572
10.6029 -0.9397 -2.5017 0.9572
10.6441 -0.0853 -2.5017 0.9572
10.6437 0.1286 -2.5017 0.9572
10.6390 0.3425 -2.5017 0.9572
10.6166 0.7697 -2.5017 0.9572
10.5771 1.1956 -2.5017 0.9572
10.5509 1.4079 -2.5017 0.9572
10.5205 1.6196 -2.5017 0.9572
10.4859 1.8307 -2.5017 0.9572
10.4470 2.0411 -2.5017 0.9572
10.4038 2.2506 -2.5017 0.9572
10.3565 2.4592 -2.5017 0.9572
10.3050 2.6668 -2.5017 0.9572
10.2493 2.8734 -2.5017 0.9572
10.1895 3.0787 -2.5017 0.9572
10.0576 3.4857 -2.5017 0.9572
9.8293 4.0853 -2.5017 0.9572
9.7452 4.2820 -2.5017 0.9572
9.4695 4.8614 -2.5017 0.9572
9.3699 5.0507 -2.5017 0.9572
9.1594 5.4231 -2.5017 0.9572
9.0486 5.6061 -2.5017 0.9572
8.8160 5.9651 -2.5017 0.9572
8.6944 6.1411 -2.5017 0.9572
8.5692 6.3146 -2.5017 0.9572
8.3086 6.6538 -2.5017 0.9572
8.1732 6.8194 -2.5017 0.9572
8.0345 6.9822 -2.5017 0.9572
7.4325 7.5891 -2.4965 0.9573
7.2715 7.7295 -2.4941 0.9573
6.7210 7.7458 -2.4102 0.9587
6.4580 7.7520 -2.3713 0.9594
5.9238 8.0517 -2.3493 0.9598
5.7608 8.1691 -2.3493 0.9598
5.2581 8.5014 -2.3493 0.9598
4.9123 8.7057 -2.3493 0.9598
4.5585 8.8961 -2.3493 0.9598
4.3788 8.9859 -2.3493 0.9598
3.8295 9.2334 -2.3493 0.9598
3.6431 9.3085 -2.3493 0.9598
3.0757 9.5111 -2.3493 0.9598
2.8839 9.5710 -2.3493 0.9598
2.4970 9.6791 -2.3493 0.9598
2.1061 9.7717 -2.3493 0.9598
1.9093 9.8120 -2.3493 0.9598
1.5135 9.8808 -2.3493 0.9598
0.9154 9.9541 -2.3493 0.9598
-8.5537 4.4935 -2.5017 0.9609
-8.6423 4.3207 -2.5017 0.9609
-8.7274 4.1462 -2.5017 0.9609
-8.9613 3.6128 -2.5017 0.9609
-9.0321 3.4320 -2.5017 0.9609
-9.0993 3.2498 -2.5017 0.9609
-9.1627 3.0663 -2.5017 0.9609
-9.2225 2.8816 -2.5017 0.9609
-9.2785 2.6957 -2.5017 0.9609
-9.3308 2.5087 -2.5017 0.9609
-9.3794 2.3207 -2.5017 0.9609
-9.4241 2.1317 -2.5017 0.9609
-9.5648 1.3681 -2.5017 0.9609
-9.5904 1.1756 -2.5017 0.9609
-9.6121 0.9827 -2.5017 0.9609
-9.6299 0.7893 -2.5017 0.9609
-9.6438 0.5956 -2.5017 0.9609
-9.6538 0.4017 -2.5017 0.9609
-9.6600 0.2077 -2.5017 0.9609
-9.6605 -0.1807 -2.5017 0.9609
-9.6148 -0.9558 -2.5017 0.9609
-9.5937 -1.1488 -2.5017 0.9609
-9.5686 -1.3413 -2.5017 0.9609
-9.5398 -1.5334 -2.5017 0.9609
-9.4704 -1.9154 -2.5017 0.9609
-9.3858 -2.2944 -2.5017 0.9609
-9.2861 -2.6697 -2.5017 0.9609
-9.2305 -2.8558 -2.5017 0.9609
-9.1083 -3.2243 -2.5017 0.9609
-9.0417 -3.4067 -2.5017 0.9609
-8.9714 -3.5877 -2.5017 0.9609
-8.5663 -4.4696 -2.5017 0.9609
-8.3798 -4.8102 -2.5017 0.9609
-8.1797 -5.1430 -2.5017 0.9609
-7.7403 -5.7832 -2.5017 0.9609
-7.6226 -5.9375 -2.5017 0.9609
-6.8530 -6.8113 -2.5017 0.9609
-6.2840 -7.3396 -2.5017 0.9609
-6.1352 -7.4644 -2.5017 0.9609
-5.9840 -7.5862 -2.5017 0.9609
-5.6743 -7.8205 -2.5017 0.9609
-5.5160 -7.9329 -2.5017 0.9609
-4.6924 -8.4462 -2.5017 0.9609
-4.5218 -8.5388 -2.5017 0.9609
-4.1750 -8.7136 -2.5017 0.9609
-3.9991 -8.7958 -2.5017 0.9609
-3.0966 -9.1526 -2.5017 0.9609
-2.7263 -9.2696 -2.5017 0.9609
-2.5395 -9.3225 -2.5017 0.9609
-2.1629 -9.4170 -2.5017 0.9609
-1.9732 -9.4586 -2.5017 0.9609
-1.5916 -9.5302 -2.5017 0.9609
-1.3997 -9.5603 -2.5017 0.9609
-1.2073 -9.5865 -2.5017 0.9609
-0.8212 -9.6272 -2.5017 0.9609
-0.4337 -9.6525 -2.5017 0.9609
0.1487 -9.6610 -2.5017 0.9609
0.3428 -9.6561 -2.5017 0.9609
0.5368 -9.6473 -2.5017 0.9609
0.7305 -9.6345 -2.5017 0.9609
0.9240 -9.6179 -2.5017 0.9609
1.1170 -9.5974 -2.5017 0.9609
1.3097 -9.5730 -2.5017 0.9609
1.5018 -9.5447 -2.5017 0.9609
1.8841 -9.4767 -2.5017 0.9609
2.0741 -9.4369 -2.5017 0.9609
2.2634 -9.3934 -2.5017 0.9609
2.4517 -9.3460 -2.5017 0.9609
2.6390 -9.2948 -2.5017 0.9609
3.0103 -9.1813 -2.5017 0.9609
3.1942 -9.1189 -2.5017 0.9609
3.3768 -9.0529 -2.5017 0.9609
3.5580 -8.9832 -2.5017 0.9609
3.9161 -8.8330 -2.5017 0.9609
4.2679 -8.6685 -2.5017 0.9609
4.4412 -8.5810 -2.5017 0.9609
4.6127 -8.4900 -2.5017 0.9609
4.7824 -8.3956 -2.5017 0.9609
5.1159 -8.1967 -2.5017 0.9609
5.2796 -8.0922 -2.5017 0.9609
5.4411 -7.9845 -2.5017 0.9609
5.6004 -7.8735 -2.5017 0.9609
5.7575 -7.7594 -2.5017 0.9609
5.9123 -7.6421 -2.5017 0.9609
6.2146 -7.3984 -2.5017 0.9609
6.3620 -7.2720 -2.5017 0.9609
6.6490 -7.0105 -2.5017 0.9609
6.7886 -6.8755 -2.5017 0.9609
7.0594 -6.5972 -2.5017 0.9609
7.1905 -6.4540 -2.5017 0.9609
7.3187 -6.3082 -2.5017 0.9609
7.5663 -6.0090 -2.5017 0.9609
7.6855 -5.8558 -2.5017 0.9609
7.8016 -5.7001 -2.5017 0.9609
8.1309 -5.2197 -2.5017 0.9609
8.2341 -5.0553 -2.5017 0.9609
8.3341 -4.8888 -2.5017 0.9609
8.5238 -4.5500 -2.5017 0.9609
8.6997 -4.2038 -2.5017 0.9609
9.0092 -3.4917 -2.5017 0.9609
9.1422 -3.1269 -2.5017 0.9609
9.2032 -2.9425 -2.5017 0.9609
9.4097 -2.1940 -2.5017 0.9609
9.4903 -1.8142 -2.5017 0.9609
9.5248 -1.6231 -2.5017 0.9609
9.5824 -1.2390 -2.5017 0.9609
9.6396 -0.6594 -2.5017 0.9609
9.6509 -0.4656 -2.5017 0.9609
9.6618 -0.0774 -2.5017 0.9609
9.6571 0.3108 -2.5017 0.9609
9.6489 0.5048 -2.5017 0.9609
9.6368 0.6986 -2.5017 0.9609
9.5773 1.2780 -2.5017 0.9609
9.5496 1.4702 -2.5017 0.9609
9.4437 2.0429 -2.5017 0.9609
9.4007 2.2323 -2.5017 0.9609
9.3540 2.4207 -2.5017 0.9609
9.2492 2.7946 -2.5017 0.9609
8.9222 3.7083 -2.5017 0.9609
8.8459 3.8868 -2.5017 0.9609
8.7660 4.0638 -2.5017 0.9609
8.4114 4.7546 -2.5017 0.9609
8.3141 4.9226 -2.5017 0.9609
8.2135 5.0887 -2.5017 0.9609
8.1096 5.2527 -2.5017 0.9609
8.0024 5.4146 -2.5017 0.9609
7.6616 5.8869 -2.5017 0.9609
7.5418 6.0397 -2.5017 0.9609
7.4189 6.1900 -2.5017 0.9609
7.2930 6.3379 -2.5017 0.9609
6.8979 6.7658 -2.5017 0.9609
6.6205 7.0375 -2.5017 0.9609
6.4777 7.1691 -2.5017 0.9609
6.3316 7.2969 -2.5014 0.9609
6.1786 7.4167 -2.4994 0.9609
6.0236 7.5333 -2.4974 0.9609
5.8664 7.6469 -2.4954 0.9610
5.6858 7.7282 -2.4842 0.9611
5.4537 7.7337 -2.4502 0.9617
5.2277 7.7388 -2.4180 0.9621
4.2993 7.9904 -2.3493 0.9632
3.4760 8.3813 -2.3493 0.9632
3.3069 8.4495 -2.3493 0.9632
2.9647 8.5755 -2.3493 0.9632
2.7918 8.6333 -2.3493 0.9632
2.2666 8.7859 -2.3493 0.9632
2.0896 8.8296 -2.3493 0.9632
1.9117 8.8699 -2.3493 0.9632
1.7331 8.9065 -2.3493 0.9632
1.5538 8.9395 -2.3493 0.9632
1.0123 9.0169 -2.3493 0.9632
0.8309 9.0354 -2.3493 0.9632
-7.8233 4.1098 -2.5017 0.9639
-7.9043 3.9517 -2.5017 0.9639
-7.9821 3.7921 -2.5017 0.9639
-8.0567 3.6310 -2.5017 0.9639
-8.1280 3.4683 -2.5017 0.9639
-8.3222 2.9723 -2.5017 0.9639
-8.4862 2.4655 -2.5017 0.9639
-8.5340 2.2944 -2.5017 0.9639
-8.5784 2.1225 -2.5017 0.9639
-8.6568 1.7761 -2.5017 0.9639
-8.7211 1.4268 -2.5017 0.9639
-8.7714 1.0752 -2.5017 0.9639
-8.7913 0.8988 -2.5017 0.9639
-8.8203 0.5448 -2.5017 0.9639
-8.8350 0.1899 -2.5017 0.9639
-8.8371 0.0124 -2.5017 0.9639
-8.8218 -0.5201 -2.5017 0.9639
-8.8095 -0.6973 -2.5017 0.9639
-8.7515 -1.2268 -2.5017 0.9639
-8.6952 -1.5775 -2.5017 0.9639
-8.6247 -1.9256 -2.5017 0.9639
-8.5404 -2.2706 -2.5017 0.9639
-8.3305 -2.9490 -2.5017 0.9639
-8.2696 -3.1158 -2.5017 0.9639
-8.1377 -3.4456 -2.5017 0.9639
-7.9153 -3.9296 -2.5017 0.9639
-7.8348 -4.0879 -2.5017 0.9639
-7.5742 -4.5525 -2.5017 0.9639
-7.4812 -4.7038 -2.5017 0.9639
-7.0794 -5.2893 -2.5017 0.9639
-6.9716 -5.4305 -2.5017 0.9639
-6.5131 -5.9728 -2.5017 0.9639
-6.3917 -6.1025 -2.5017 0.9639
-6.1414 -6.3544 -2.5017 0.9639
-6.0124 -6.4765 -2.5017 0.9639
-5.6113 -6.8270 -2.5017 0.9639
-5.3324 -7.0469 -2.5017 0.9639
-5.0450 -7.2555 -2.5017 0.9639
-4.8982 -7.3554 -2.5017 0.9639
-4.4461 -7.6372 -2.5017 0.9639
-4.1356 -7.8096 -2.5017 0.9639
-3.9779 -7.8912 -2.5017 0.9639
-3.8185 -7.9695 -2.5017 0.9639
-3.4952 -8.1165 -2.5017 0.9639
-3.3314 -8.1851 -2.5017 0.9639
-2.9998 -8.3123 -2.5017 0.9639
