ply
format ascii 1.0
element vertex 1532
property float32 x
property float32 y
property float32 z
property float32 I
end_header
75.0330 31.8486 -0.4589 0.7218
75.1233 33.6883 -0.4635 0.7194
18.2198 34.5238 -1.0992 0.8554
17.6321 35.1053 -1.1062 0.8545
36.3677 80.3188 -2.4826 0.7027
13.5062 37.6293 -1.1257 0.8522
12.8202 38.1156 -1.1323 0.8514
11.4225 39.1065 -1.1472 0.8496
10.7092 39.6122 -1.1554 0.8486
9.9853 40.1254 -1.1643 0.8475
6.9655 42.2663 -1.2062 0.8425
5.8939 40.8800 -1.1630 0.8477
3.9343 38.0969 -1.0784 0.8579
3.0569 36.8509 -1.0412 0.8625
1.4706 34.5981 -0.9751 0.8706
0.7501 33.5749 -0.9456 0.8743
0.0716 32.6113 -0.9183 0.8777
-4.2123 35.3340 -1.0020 0.8673
-5.0149 35.8991 -1.0207 0.8650
-6.6374 36.6670 -1.0492 0.8615
-25.5838 82.7265 -2.4382 0.7072
-27.2354 82.1659 -2.4374 0.7072
-28.8750 81.5735 -2.4366 0.7073
-30.5023 80.9494 -2.4358 0.7074
-39.9704 76.5507 -2.4316 0.7078
-41.4939 75.7115 -2.4310 0.7079
-43.0004 74.8432 -2.4305 0.7079
-39.1240 62.1588 -2.0681 0.7453
-40.0394 60.8588 -2.0513 0.7471
-43.5671 55.8490 -1.9945 0.7532
-45.2641 53.4390 -1.9720 0.7556
-46.9259 51.0790 -1.9531 0.7576
-50.1688 46.4737 -1.9256 0.7606
-50.9670 45.3403 -1.9208 0.7611
-53.3420 41.9674 -1.9111 0.7622
-54.9159 39.7323 -1.9086 0.7624
-55.7020 38.6161 -1.9085 0.7624
-56.4882 37.4996 -1.9092 0.7624
-58.0639 35.2619 -1.9128 0.7620
-59.6483 33.0119 -1.9196 0.7612
-61.2466 30.7421 -1.9296 0.7602
-78.5396 35.5376 -2.4274 0.7082
-79.2518 33.9539 -2.4277 0.7082
-79.9330 32.3562 -2.4281 0.7082
-80.5827 30.7452 -2.4286 0.7081
-82.3424 25.8386 -2.4301 0.7080
-19.5401 4.8572 -0.5670 0.9226
-84.2362 19.1465 -2.4324 0.7077
-84.9858 15.7472 -2.4338 0.7076
-85.6028 12.3193 -2.4352 0.7075
-85.8605 10.5961 -2.4360 0.7074
-86.0842 8.8675 -2.4368 0.7073
-86.2745 7.1343 -2.4376 0.7072
-62.4270 3.8982 -1.7612 0.7786
-86.6749 0.1680 -2.4406 0.7069
-86.3841 -3.3140 -2.4342 0.7076
-85.9427 -6.7715 -2.4275 0.7082
-85.0055 -11.8971 -2.4169 0.7093
-84.6200 -13.5861 -2.4132 0.7097
-83.2525 -18.5837 -2.4019 0.7108
-82.7263 -20.2236 -2.3980 0.7112
-81.5744 -23.4611 -2.3901 0.7120
-80.2887 -26.6362 -2.3819 0.7128
-46.1117 -20.6496 -1.4227 0.8170
-69.0421 -34.3205 -2.1710 0.7345
-67.6137 -35.3263 -2.1481 0.7369
-70.2345 -42.2812 -2.3084 0.7203
-69.0005 -45.4215 -2.3261 0.7185
-66.2511 -49.5948 -2.3303 0.7181
-65.0825 -59.8218 -2.4891 0.7021
-60.2072 -65.0281 -2.4954 0.7014
-42.6328 -52.0250 -1.8940 0.7640
-51.5717 -65.5843 -2.3493 0.7162
-35.1502 -46.6030 -1.6437 0.7917
-46.2434 -69.6989 -2.3552 0.7155
-31.6501 -54.5969 -1.7770 0.7768
-30.6048 -55.3329 -1.7805 0.7764
-28.4995 -56.8154 -1.7898 0.7754
-27.4377 -57.5631 -1.7956 0.7748
-26.3686 -58.3159 -1.8021 0.7741
-24.2046 -59.8397 -1.8176 0.7724
-16.0190 -59.3745 -1.7316 0.7819
-13.6049 -54.7918 -1.5897 0.7978
-8.4477 -51.4264 -1.4675 0.8118
-7.1717 -49.9253 -1.4202 0.8172
-2.3134 -37.2021 -1.0496 0.8614
-1.5147 -36.0755 -1.0167 0.8655
-0.7642 -35.0170 -0.9862 0.8692
0.6108 -33.0776 -0.9315 0.8760
2.4138 -30.5344 -0.8625 0.8846
4.4489 -27.6638 -0.7890 0.8939
5.3445 -26.4006 -0.7585 0.8978
6.5683 -24.6744 -0.7190 0.9029
6.9488 -24.1375 -0.7073 0.9044
7.6747 -23.1137 -0.6858 0.9071
7.9867 -22.5257 -0.6730 0.9088
8.6871 -21.6858 -0.6578 0.9108
9.0068 -21.2347 -0.6495 0.9118
9.3187 -20.7947 -0.6416 0.9128
10.2125 -19.5341 -0.6207 0.9156
10.4979 -19.1315 -0.6145 0.9164
11.5376 -17.5170 -0.5906 0.9195
11.7998 -17.1529 -0.5862 0.9201
13.8373 -18.4746 -0.6499 0.9118
15.1478 -19.3973 -0.6930 0.9062
18.3729 -21.6684 -0.7999 0.8925
20.3917 -23.0900 -0.8674 0.8840
22.7835 -24.7742 -0.9477 0.8740
25.6649 -26.8032 -1.0449 0.8620
47.1884 -47.3349 -1.8820 0.7653
49.5725 -47.7627 -1.9383 0.7592
45.1311 -41.7637 -1.7314 0.7819
73.2436 -55.2141 -2.5827 0.6928
79.3397 -45.9663 -2.5819 0.6929
80.2417 -44.3548 -2.5816 0.6929
82.7420 -39.4131 -2.5807 0.6930
83.5066 -37.7330 -2.5803 0.6930
79.1037 -33.8419 -2.4227 0.7087
79.7553 -32.2363 -2.4222 0.7088
80.3726 -30.6174 -2.4218 0.7088
80.9571 -28.9868 -2.4213 0.7089
72.7338 -22.7821 -2.1461 0.7371
68.2112 -19.8661 -2.0005 0.7525
64.8314 -17.4732 -1.8906 0.7644
57.9664 -11.9217 -1.6664 0.7891
44.1069 -2.7313 -1.2443 0.8379
42.7714 -1.7847 -1.2054 0.8426
41.4132 -0.8931 -1.1664 0.8473
40.3305 -0.0573 -1.1356 0.8510
39.9050 0.7472 -1.1238 0.8524
54.2309 3.2035 -1.5297 0.8046
52.9831 4.2022 -1.4966 0.8084
26.1817 2.6081 -0.7409 0.9001
40.2663 4.8320 -1.1419 0.8502
42.9349 8.7031 -1.2335 0.8392
44.5740 10.9212 -1.2922 0.8322
45.3219 12.0771 -1.3207 0.8289
46.4913 13.3971 -1.3624 0.8240
47.3708 14.6901 -1.3965 0.8200
48.5338 16.1292 -1.4401 0.8149
49.3908 17.5263 -1.4757 0.8108
50.6149 19.1169 -1.5235 0.8053
53.7640 22.8208 -1.6446 0.7916
51.4728 23.0825 -1.5884 0.7979
55.7544 26.3637 -1.7366 0.7813
56.7677 28.2556 -1.7855 0.7759
18.2199 34.5238 -1.9797 0.8553
17.5699 34.9815 -1.9853 0.8549
20.7784 43.5343 -2.4464 0.8243
19.8963 43.9414 -2.4462 0.8243
14.1845 37.1485 -2.0166 0.8528
12.1259 38.6079 -2.0523 0.8504
9.9853 40.1255 -2.0970 0.8474
3.4948 18.8337 -0.9714 0.9261
6.9655 42.2663 -2.1724 0.8423
4.8773 39.4376 -2.0153 0.8529
3.9344 38.0985 -1.9424 0.8578
2.2378 35.6889 -1.8135 0.8666
1.4707 34.5994 -1.7563 0.8705
0.7502 33.5761 -1.7032 0.8741
0.0716 32.6125 -1.6539 0.8776
-1.0120 26.5582 -1.3479 0.8990
-1.8962 32.5290 -1.6525 0.8777
-4.0086 33.6251 -1.7173 0.8732
-4.7723 34.1629 -1.7494 0.8710
-8.0428 36.0745 -1.8744 0.8624
-8.9682 36.7261 -1.9173 0.8595
-9.9373 37.4085 -1.9629 0.8564
-11.9113 38.5155 -2.0446 0.8509
-15.9971 45.1925 -2.4313 0.8253
-16.7748 44.5182 -2.4127 0.8265
-18.5419 43.7779 -2.4111 0.8266
-19.4050 43.3624 -2.4092 0.8267
-20.2453 42.9011 -2.4058 0.8270
-21.1101 42.4944 -2.4063 0.8269
-23.6084 41.0910 -2.4034 0.8271
-24.4357 40.6146 -2.4038 0.8271
-25.2195 40.0678 -2.4010 0.8273
-26.8154 39.0236 -2.4013 0.8273
-28.3391 37.8772 -2.3990 0.8274
-29.0919 37.2932 -2.3987 0.8274
-30.5421 36.0582 -2.3965 0.8276
-31.2568 35.4297 -2.3961 0.8276
-31.9345 34.7608 -2.3939 0.8277
-33.3022 33.4402 -2.3934 0.8278
-33.9399 32.7347 -2.3914 0.8279
-35.2208 31.3325 -2.3907 0.8279
-35.8385 30.6115 -2.3903 0.8280
-38.1302 27.5876 -2.3868 0.8282
-38.6568 26.7993 -2.3855 0.8283
-39.6737 25.2011 -2.3836 0.8284
-40.1434 24.3788 -2.3818 0.8285
-41.9168 21.0397 -2.3785 0.8287
-42.3066 20.1791 -2.3771 0.8288
-43.0427 18.4408 -2.3748 0.8290
-43.6884 16.6687 -2.3714 0.8292
-43.9868 15.7752 -2.3699 0.8293
-44.5413 13.9769 -2.3675 0.8295
-45.0263 12.1605 -2.3653 0.8296
-19.5381 4.8567 -1.0210 0.9225
-45.4211 10.3240 -2.3622 0.8298
-45.7403 8.4753 -2.3592 0.8300
-45.8785 7.5485 -2.3580 0.8301
-46.1494 4.7538 -2.3528 0.8304
-46.1237 -1.7695 -2.3408 0.8312
-46.0428 -2.6960 -2.3390 0.8313
-45.8242 -4.5408 -2.3353 0.8316
-45.6872 -5.4585 -2.3335 0.8317
-45.1630 -8.1874 -2.3277 0.8321
-44.9508 -9.0876 -2.3258 0.8322
-44.5169 -10.8828 -2.3241 0.8323
-44.3010 -11.7805 -2.3248 0.8323
-43.8155 -13.5627 -2.3261 0.8322
-43.5459 -14.4466 -2.3268 0.8321
-43.2588 -15.3252 -2.3274 0.8321
-43.8120 -19.6198 -2.4345 0.8251
-44.2347 -20.8886 -2.4809 0.8221
-42.9564 -23.5569 -2.4846 0.8218
-42.4870 -24.4251 -2.4854 0.8218
-40.4368 -27.8019 -2.4887 0.8216
-39.8820 -28.6202 -2.4895 0.8215
-38.7233 -30.2236 -2.4912 0.8214
-37.5004 -31.7804 -2.4929 0.8213
-36.8653 -32.5403 -2.4937 0.8212
-36.2151 -33.2878 -2.4946 0.8212
-34.8694 -34.7434 -2.4963 0.8211
-33.4652 -36.1448 -2.4981 0.8210
-29.3501 -35.8161 -2.3484 0.8307
-27.9036 -36.9952 -2.3500 0.8306
-25.6456 -38.6535 -2.3525 0.8304
-24.8706 -39.1759 -2.3533 0.8304
-24.0850 -39.6828 -2.3542 0.8303
-23.2890 -40.1739 -2.3550 0.8303
-21.6673 -41.1078 -2.3566 0.8302
-20.0081 -41.9761 -2.3582 0.8301
-18.3139 -42.7771 -2.3599 0.8300
-17.4545 -43.1519 -2.3607 0.8299
-16.5876 -43.5095 -2.3615 0.8299
-13.9439 -44.4762 -2.3638 0.8297
-13.0495 -44.7630 -2.3646 0.8297
-12.1493 -45.0313 -2.3654 0.8296
-10.3326 -45.5134 -2.3669 0.8295
-9.4168 -45.7269 -2.3677 0.8295
-8.4966 -45.9218 -2.3684 0.8294
-2.3133 -37.2007 -1.8903 0.8613
1.2377 -32.0443 -1.6263 0.8795
2.4137 -30.5334 -1.5533 0.8846
4.8840 -26.9012 -1.3866 0.8963
5.7669 -25.8037 -1.3409 0.8995
6.1745 -25.2289 -1.3172 0.9012
6.5681 -24.6737 -1.2949 0.9028
6.9487 -24.1369 -1.2738 0.9043
7.9865 -22.5252 -1.2120 0.9087
8.6868 -21.6852 -1.1847 0.9107
9.0066 -21.2342 -1.1697 0.9118
9.3185 -20.7942 -1.1556 0.9128
9.9208 -19.9446 -1.1297 0.9146
10.2122 -19.5337 -1.1178 0.9155
10.7776 -18.7362 -1.0962 0.9171
11.3223 -17.9678 -1.0771 0.9185
11.5373 -17.5167 -1.0637 0.9194
11.7996 -17.1525 -1.0558 0.9200
16.4541 -20.2172 -1.3220 0.9009
18.3728 -21.6683 -1.4407 0.8925
20.3917 -23.0899 -1.5623 0.8839
36.1492 -34.8294 -2.5458 0.8179
36.8444 -34.0953 -2.5458 0.8179
37.5246 -33.3471 -2.5459 0.8179
38.1892 -32.5852 -2.5459 0.8179
39.4710 -31.0211 -2.5460 0.8179
40.0877 -30.2198 -2.5460 0.8179
40.6876 -29.4058 -2.5459 0.8179
41.2708 -28.5799 -2.5459 0.8179
43.4307 -25.1621 -2.5455 0.8179
43.9262 -24.2809 -2.5454 0.8179
44.4035 -23.3897 -2.5452 0.8179
44.8625 -22.4892 -2.5450 0.8179
45.3029 -21.5794 -2.5448 0.8179
45.7245 -20.6609 -2.5446 0.8179
46.8752 -17.8568 -2.5439 0.8180
47.2200 -16.9072 -2.5436 0.8180
47.5454 -15.9508 -2.5433 0.8180
48.1369 -14.0196 -2.5427 0.8181
48.3529 -13.0320 -2.5397 0.8183
46.0899 -9.4792 -2.3863 0.8282
46.4186 -7.6127 -2.3855 0.8283
46.5543 -6.6751 -2.3851 0.8283
45.8085 -3.7642 -2.3310 0.8319
43.0364 -1.7958 -2.1845 0.8415
38.2063 1.4855 -1.9391 0.8580
38.6022 2.2803 -1.9611 0.8565
26.1782 2.6078 -1.3342 0.9000
41.0710 5.7698 -2.1033 0.8470
41.8195 6.7365 -2.1482 0.8440
44.1649 9.8825 -2.2952 0.8342
46.1584 14.3142 -2.4509 0.8240
44.4791 18.8796 -2.4505 0.8240
42.5192 21.1636 -2.4087 0.8268
15.5720 29.5067 -2.4463 0.8748
14.9741 29.8133 -2.4462 0.8748
13.7604 30.3903 -2.4461 0.8748
13.1451 30.6602 -2.4460 0.8748
12.5246 30.9178 -2.4459 0.8748
11.8990 31.1628 -2.4458 0.8748
11.2686 31.3951 -2.4457 0.8748
9.3513 32.0154 -2.4455 0.8748
8.7043 32.1963 -2.4455 0.8748
6.7436 32.6604 -2.4452 0.8748
3.4948 18.8337 -1.4045 0.9261
4.0801 33.0311 -2.4401 0.8750
2.0710 33.0274 -2.4264 0.8757
1.4054 33.0642 -2.4265 0.8757
0.7393 33.0875 -2.4267 0.8757
-1.0120 26.5583 -1.9487 0.8989
-2.4629 31.3625 -2.3066 0.8815
-4.5183 32.3445 -2.3946 0.8772
-5.8071 32.0800 -2.3904 0.8774
-6.4466 31.9299 -2.3884 0.8775
-7.0829 31.7692 -2.3866 0.8776
-8.3596 31.4696 -2.3874 0.8776
-9.6067 31.0635 -2.3841 0.8777
-10.2233 30.8424 -2.3824 0.8778
-10.8411 30.6266 -2.3821 0.8778
-11.4583 30.4085 -2.3826 0.8778
-13.2494 29.6072 -2.3783 0.8780
-14.4313 29.0500 -2.3784 0.8780
-15.5693 28.4084 -2.3753 0.8782
-17.2442 27.3970 -2.3736 0.8782
-18.3109 26.6473 -2.3707 0.8784
-19.3652 25.8829 -2.3702 0.8784
-21.8228 23.7542 -2.3651 0.8786
-22.2837 23.2963 -2.3637 0.8787
-22.7356 22.8299 -2.3624 0.8788
-23.1843 22.3610 -2.3617 0.8788
-24.0484 21.3935 -2.3600 0.8789
-25.2684 19.8802 -2.3574 0.8790
-26.3849 18.2916 -2.3540 0.8792
-27.0758 17.1988 -2.3519 0.8793
-27.7261 16.0826 -2.3502 0.8794
-28.5982 14.3546 -2.3462 0.8796
-28.8653 13.7679 -2.3449 0.8796
-29.1276 13.1796 -2.3442 0.8797
-29.3709 12.5834 -2.3429 0.8797
-29.6015 11.9825 -2.3415 0.8798
-29.8247 11.3792 -2.3406 0.8798
-30.5775 8.9227 -2.3355 0.8801
-31.1228 6.4177 -2.3300 0.8803
-31.3185 5.1529 -2.3272 0.8805
-31.4716 3.8839 -2.3251 0.8806
-31.5475 3.2497 -2.3254 0.8806
-31.6108 2.6140 -2.3257 0.8805
-31.6612 1.9771 -2.3260 0.8805
-31.6991 1.3392 -2.3263 0.8805
-31.7241 0.7006 -2.3267 0.8805
-31.7361 -0.5777 -2.3273 0.8805
-31.7229 -1.2170 -2.3277 0.8804
-31.6583 -2.4944 -2.3285 0.8804
-31.5428 -3.7686 -2.3292 0.8804
-32.1446 -4.4988 -2.3799 0.8779
-32.9340 -5.2877 -2.4457 0.8748
-33.0451 -7.3763 -2.4826 0.8730
-32.5581 -9.3639 -2.4840 0.8730
-31.9524 -11.3197 -2.4855 0.8729
-31.4837 -12.6025 -2.4865 0.8728
-31.2301 -13.2368 -2.4871 0.8728
-30.9638 -13.8661 -2.4876 0.8728
-30.6848 -14.4900 -2.4881 0.8728
-30.3934 -15.1084 -2.4887 0.8727
-30.0896 -15.7210 -2.4892 0.8727
-29.4452 -16.9275 -2.4903 0.8726
-28.7526 -18.1079 -2.4915 0.8726
-27.6258 -19.8248 -2.4932 0.8725
-27.2272 -20.3820 -2.4938 0.8725
-25.9652 -22.0046 -2.4955 0.8724
-25.0699 -23.0434 -2.4967 0.8723
-22.2088 -23.0384 -2.3463 0.8796
-21.7456 -23.4867 -2.3469 0.8795
-20.7921 -24.3552 -2.3480 0.8795
-20.3024 -24.7751 -2.3486 0.8794
-19.2975 -25.5850 -2.3497 0.8794
-18.7829 -25.9749 -2.3503 0.8794
-18.2603 -26.3542 -2.3509 0.8793
-17.7302 -26.7232 -2.3514 0.8793
-15.5370 -28.0906 -2.3537 0.8792
-12.6491 -29.5456 -2.3565 0.8791
-12.0544 -29.8013 -2.3571 0.8790
-10.8495 -30.2767 -2.3582 0.8790
-8.3852 -31.0800 -2.3603 0.8789
-7.1299 -31.4065 -2.3614 0.8788
-5.8619 -31.6820 -2.3624 0.8788
-5.2238 -31.8005 -2.3629 0.8788
-4.5832 -31.9060 -2.3634 0.8787
-3.2959 -32.0781 -2.3644 0.8787
-2.6501 -32.1443 -2.3649 0.8787
-2.0025 -32.1977 -2.3654 0.8786
-1.3536 -32.2383 -2.3659 0.8786
-0.7042 -32.2653 -2.3663 0.8786
0.5960 -32.2799 -2.3672 0.8785
1.8430 -31.3372 -2.3017 0.8817
2.9573 -29.7656 -2.1932 0.8869
3.9729 -28.3332 -2.0978 0.8916
4.8839 -26.9004 -2.0046 0.8961
5.3442 -26.3991 -1.9749 0.8976
5.7668 -25.8030 -1.9386 0.8994
6.5679 -24.6731 -1.8721 0.9027
7.3170 -23.6165 -1.8128 0.9056
7.6743 -23.1125 -1.7856 0.9069
7.9863 -22.5246 -1.7523 0.9086
8.3220 -22.0511 -1.7281 0.9098
9.0064 -21.2337 -1.6912 0.9116
9.9206 -19.9442 -1.6333 0.9145
11.3221 -17.9675 -1.5572 0.9183
11.5371 -17.5163 -1.5379 0.9193
15.1477 -19.3972 -1.8045 0.9060
16.4540 -20.2171 -1.9113 0.9007
18.3728 -21.6682 -2.0830 0.8923
21.9489 -23.8666 -2.3775 0.8781
22.4260 -23.4206 -2.3775 0.8780
22.8938 -22.9649 -2.3776 0.8780
24.2405 -21.5419 -2.3778 0.8780
24.6696 -21.0495 -2.3778 0.8780
27.5638 -20.7787 -2.5310 0.8707
27.9888 -20.2281 -2.5321 0.8707
29.0549 -18.4348 -2.5230 0.8711
30.2187 -16.7038 -2.5317 0.8707
30.5477 -16.0911 -2.5316 0.8707
30.8641 -15.4719 -2.5314 0.8707
31.4587 -14.2148 -2.5312 0.8707
32.0015 -12.9347 -2.5308 0.8707
32.2532 -12.2867 -2.5307 0.8707
32.4917 -11.6337 -2.5305 0.8707
32.9283 -10.3140 -2.5300 0.8708
33.1264 -9.6479 -2.5298 0.8708
33.3108 -8.9779 -2.5296 0.8708
33.4816 -8.3043 -2.5293 0.8708
33.6385 -7.6275 -2.5291 0.8708
33.7817 -6.9477 -2.5288 0.8708
34.1276 -4.8933 -2.5279 0.8709
34.2150 -4.2044 -2.5276 0.8709
34.2882 -3.5140 -2.5273 0.8709
32.3264 -1.3489 -2.3723 0.8783
32.3448 -0.0459 -2.3716 0.8783
32.3343 0.6054 -2.3712 0.8784
32.3104 1.2563 -2.3709 0.8784
31.9934 4.4946 -2.3689 0.8785
31.8907 5.1371 -2.3684 0.8785
31.6940 6.4246 -2.3711 0.8784
31.7348 7.7755 -2.3957 0.8772
31.2976 10.4012 -2.4182 0.8761
13.8172 4.9030 -1.0750 0.9429
13.6159 5.1426 -1.0672 0.9433
30.1958 14.2782 -2.4491 0.8746
11.6004 21.9811 -2.3861 0.9050
11.1527 22.2048 -2.3856 0.9050
10.7009 22.4197 -2.3850 0.9050
9.7842 22.8210 -2.3838 0.9050
9.3199 23.0073 -2.3832 0.9051
8.3813 23.3514 -2.3819 0.9051
7.9072 23.5088 -2.3812 0.9051
7.4317 23.6622 -2.3811 0.9051
6.4753 23.9510 -2.3820 0.9051
5.5054 24.1916 -2.3819 0.9051
3.5352 24.5193 -2.3783 0.9052
2.5430 24.6243 -2.3766 0.9053
1.5481 24.6894 -2.3750 0.9054
0.0543 24.7417 -2.3753 0.9054
-0.4438 24.7291 -2.3745 0.9054
-0.9414 24.7054 -2.3736 0.9054
-1.4382 24.6718 -2.3726 0.9055
-2.4288 24.5752 -2.3708 0.9055
-2.9222 24.5122 -2.3700 0.9056
-3.4150 24.4461 -2.3697 0.9056
-3.9075 24.3773 -2.3702 0.9056
-5.3667 24.0715 -2.3677 0.9056
-6.3268 23.8171 -2.3659 0.9057
-8.2168 23.2128 -2.3640 0.9058
-8.6791 23.0332 -2.3631 0.9058
-9.1375 22.8445 -2.3621 0.9059
-11.3723 21.7801 -2.3589 0.9060
-11.8037 21.5376 -2.3579 0.9060
-12.6539 21.0322 -2.3565 0.9061
-13.0739 20.7713 -2.3563 0.9061
-13.4838 20.4950 -2.3553 0.9061
-13.8877 20.2104 -2.3542 0.9062
-14.6782 19.6184 -2.3523 0.9062
-15.0663 19.3136 -2.3516 0.9063
-16.1889 18.3502 -2.3493 0.9063
-16.9007 17.6686 -2.3473 0.9064
-17.2458 17.3173 -2.3463 0.9065
-9.0812 8.7587 -1.2113 0.9506
-18.8696 15.4712 -2.3426 0.9066
-19.1690 15.0814 -2.3416 0.9066
-19.4601 14.6857 -2.3406 0.9067
-20.0185 13.8781 -2.3385 0.9068
-20.2850 13.4662 -2.3375 0.9068
-20.5453 13.0506 -2.3367 0.9068
-20.7953 12.6288 -2.3358 0.9069
-21.2679 11.7706 -2.3337 0.9069
-21.4924 11.3355 -2.3328 0.9070
-21.7066 10.8954 -2.3317 0.9070
-22.2941 9.5514 -2.3285 0.9071
-22.4815 9.1003 -2.3285 0.9071
-22.6614 8.6462 -2.3286 0.9071
-22.8323 8.1885 -2.3287 0.9071
-23.4234 6.3261 -2.3293 0.9071
-19.4053 4.8237 -1.9197 0.9228
-23.6628 5.3784 -2.3297 0.9071
-23.8641 4.4218 -2.3301 0.9071
-23.9505 3.9406 -2.3303 0.9071
-24.0271 3.4578 -2.3305 0.9071
-24.0941 2.9735 -2.3307 0.9071
-24.1515 2.4878 -2.3309 0.9070
-24.2651 1.5152 -2.3341 0.9069
-25.8512 0.0501 -2.4818 0.9013
-25.8670 -0.4709 -2.4838 0.9013
-25.8553 -0.9919 -2.4841 0.9012
-25.8332 -1.5126 -2.4844 0.9012
-25.7578 -2.5524 -2.4850 0.9012
-25.6408 -3.5886 -2.4856 0.9012
-25.3878 -5.1326 -2.4867 0.9012
-25.2828 -5.6436 -2.4870 0.9011
-25.1677 -6.1526 -2.4874 0.9011
-25.0424 -6.6592 -2.4877 0.9011
-24.6057 -8.1631 -2.4889 0.9011
-24.4401 -8.6583 -2.4893 0.9011
-24.2646 -9.1502 -2.4896 0.9010
-23.6792 -10.6039 -2.4909 0.9010
-23.4647 -11.0805 -2.4913 0.9010
-22.5120 -12.9418 -2.4930 0.9009
-22.2506 -13.3949 -2.4934 0.9009
-21.9802 -13.8427 -2.4938 0.9009
-20.4953 -15.9966 -2.4960 0.9008
-19.8416 -16.8151 -2.4969 0.9008
-19.1553 -17.6070 -2.4978 0.9007
-17.3142 -17.2517 -2.3465 0.9065
-16.6115 -17.9416 -2.3474 0.9064
-15.8814 -18.6029 -2.3483 0.9064
-15.5064 -18.9225 -2.3487 0.9064
-15.1249 -19.2346 -2.3491 0.9064
-14.7372 -19.5389 -2.3496 0.9063
-13.1266 -20.6769 -2.3513 0.9063
-12.7099 -20.9409 -2.3518 0.9063
-12.2878 -21.1966 -2.3522 0.9062
-11.8606 -21.4437 -2.3526 0.9062
-11.4284 -21.6823 -2.3531 0.9062
-10.1037 -22.3450 -2.3543 0.9062
-9.1989 -22.7420 -2.3552 0.9061
-8.2785 -23.1022 -2.3560 0.9061
-7.8129 -23.2683 -2.3564 0.9061
-6.8719 -23.5723 -2.3573 0.9060
-6.3969 -23.7100 -2.3577 0.9060
-5.9191 -23.8381 -2.3581 0.9060
-5.4387 -23.9565 -2.3585 0.9060
-3.9840 -24.2533 -2.3596 0.9060
-3.4953 -24.3326 -2.3600 0.9059
-2.5133 -24.4614 -2.3608 0.9059
-2.0205 -24.5109 -2.3612 0.9059
-1.5266 -24.5504 -2.3615 0.9059
-1.0320 -24.5800 -2.3619 0.9059
-0.0413 -24.6089 -2.3626 0.9058
1.9404 -24.5464 -2.3639 0.9058
2.9282 -24.4549 -2.3646 0.9058
3.4206 -24.3942 -2.3649 0.9058
4.4013 -24.2427 -2.3655 0.9057
4.8893 -24.1521 -2.3658 0.9057
5.8594 -23.9413 -2.3663 0.9057
6.3411 -23.8211 -2.3666 0.9057
6.8204 -23.6912 -2.3668 0.9057
7.2969 -23.5516 -2.3671 0.9057
7.9861 -22.5241 -2.2943 0.9084
8.3218 -22.0505 -2.2627 0.9096
8.6864 -21.6842 -2.2426 0.9104
9.0062 -21.2332 -2.2143 0.9115
9.6226 -20.3637 -2.1623 0.9135
9.9204 -19.9438 -2.1385 0.9144
10.2118 -19.5328 -2.1161 0.9152
10.4972 -19.1302 -2.0949 0.9160
11.0519 -18.3479 -2.0564 0.9175
11.3218 -17.9671 -2.0388 0.9182
11.5368 -17.5159 -2.0136 0.9192
11.7991 -17.1518 -1.9987 0.9197
12.6796 -17.6592 -2.0871 0.9163
13.8372 -18.4744 -2.2160 0.9114
15.1476 -19.3971 -2.3628 0.9058
15.5857 -19.1501 -2.3704 0.9055
15.9688 -18.8330 -2.3705 0.9055
16.3454 -18.5083 -2.3706 0.9055
16.7154 -18.1759 -2.3707 0.9055
17.0786 -17.8360 -2.3708 0.9055
18.7868 -16.0299 -2.3710 0.9055
22.2049 -14.0886 -2.5247 0.8997
22.4836 -13.6382 -2.5246 0.8997
23.2642 -12.2545 -2.5244 0.8997
24.1709 -10.3407 -2.5240 0.8997
24.3731 -9.8514 -2.5238 0.8997
24.5652 -9.3579 -2.5237 0.8998
24.9191 -8.3600 -2.5234 0.8998
25.2322 -7.3487 -2.5231 0.8998
25.3733 -6.8386 -2.5229 0.8998
25.9216 -4.2512 -2.5218 0.8998
25.9995 -3.7279 -2.5216 0.8998
26.0668 -3.2032 -2.5214 0.8998
26.1235 -2.6773 -2.5211 0.8999
26.2200 1.0195 -2.5192 0.8999
26.0139 2.0632 -2.5053 0.9004
25.1313 2.5035 -2.4247 0.9035
24.3859 3.4258 -2.3642 0.9058
24.2215 4.4039 -2.3635 0.9058
24.1245 4.8902 -2.3632 0.9058
23.9010 5.8561 -2.3625 0.9058
23.7747 6.3353 -2.3621 0.9059
12.7087 5.0948 -1.3145 0.9465
12.5964 5.3467 -1.3138 0.9465
12.6042 5.6522 -1.3262 0.9460
22.2169 10.5054 -2.3594 0.9060
22.0168 10.9587 -2.3611 0.9059
8.9272 17.7739 -2.3626 0.9230
8.5688 17.9535 -2.3631 0.9230
7.4692 18.4383 -2.3631 0.9230
7.0961 18.5845 -2.3630 0.9230
6.7201 18.7228 -2.3629 0.9230
6.3413 18.8535 -2.3628 0.9230
5.5762 19.0908 -2.3625 0.9230
5.1901 19.1977 -2.3623 0.9230
4.4119 19.3873 -2.3618 0.9230
3.2319 19.6112 -2.3610 0.9231
2.8359 19.6697 -2.3606 0.9231
2.0413 19.7668 -2.3605 0.9231
0.8437 19.8504 -2.3601 0.9231
0.0436 19.8607 -2.3592 0.9231
-0.3563 19.8535 -2.3587 0.9231
-1.1551 19.8149 -2.3577 0.9232
-1.9516 19.7471 -2.3571 0.9232
-2.7450 19.6499 -2.3568 0.9232
-4.3131 19.3458 -2.3544 0.9233
-4.7007 19.2500 -2.3538 0.9233
-5.0861 19.1465 -2.3532 0.9233
-5.8523 18.9237 -2.3529 0.9233
-6.6059 18.6619 -2.3516 0.9234
-7.3478 18.3701 -2.3502 0.9234
-7.9407 16.8269 -2.2102 0.9278
-8.7932 17.7007 -2.3477 0.9235
-9.1466 17.5174 -2.3474 0.9235
-5.4481 9.9408 -1.3465 0.9554
-5.5357 9.6351 -1.3200 0.9562
-5.6893 9.4563 -1.3109 0.9565
-5.8417 9.2811 -1.3027 0.9568
-6.1566 8.5839 -1.2548 0.9583
-6.4030 8.5581 -1.2696 0.9579
-12.7300 15.0291 -2.3396 0.9237
-13.6009 14.2189 -2.3373 0.9238
-8.6109 8.6466 -1.4495 0.9520
-8.7732 8.4617 -1.4479 0.9521
-14.4214 13.3592 -2.3351 0.9239
-15.4286 12.1386 -2.3319 0.9240
-15.6685 11.8243 -2.3317 0.9240
-15.9035 11.5064 -2.3317 0.9240
-17.5461 8.8071 -2.3321 0.9240
-17.8877 8.0938 -2.3322 0.9240
-18.2006 7.3675 -2.3324 0.9240
-18.4842 6.6291 -2.3326 0.9239
-18.8537 5.5017 -2.3330 0.9239
-18.9618 5.1211 -2.3331 0.9239
-19.0622 4.7384 -2.3332 0.9239
-19.4760 4.0161 -2.3621 0.9230
-20.5913 3.3880 -2.4788 0.9194
-20.7020 2.9793 -2.4844 0.9192
-20.8575 1.7248 -2.4860 0.9192
-20.9291 0.4622 -2.4867 0.9191
-20.9346 -0.3811 -2.4871 0.9191
-20.9246 -0.8027 -2.4874 0.9191
-20.5422 -4.1530 -2.4895 0.9190
-20.4567 -4.5664 -2.4898 0.9190
-20.2610 -5.3878 -2.4904 0.9190
-20.1508 -5.7955 -2.4907 0.9190
-20.0325 -6.2009 -2.4910 0.9190
-19.7715 -7.0044 -2.4916 0.9190
-19.6289 -7.4021 -2.4919 0.9190
-19.4783 -7.7969 -2.4922 0.9190
-19.3199 -8.1887 -2.4926 0.9189
-19.1535 -8.5773 -2.4929 0.9189
-18.4111 -10.0964 -2.4942 0.9189
-17.5486 -11.5519 -2.4956 0.9189
-17.0741 -12.2527 -2.4964 0.9188
-16.8263 -12.5959 -2.4967 0.9188
-16.5716 -12.9342 -2.4971 0.9188
-16.0420 -13.5950 -2.4978 0.9188
-15.7672 -13.9174 -2.4982 0.9188
-15.4860 -14.2342 -2.4985 0.9188
-13.8194 -14.3356 -2.3653 0.9229
-13.4276 -14.5027 -2.3477 0.9235
-13.1347 -14.7724 -2.3481 0.9235
-11.9104 -15.7911 -2.3495 0.9234
-11.5917 -16.0301 -2.3498 0.9234
-10.2701 -16.9212 -2.3512 0.9234
-9.5832 -17.3262 -2.3519 0.9233
-8.1625 -18.0519 -2.3533 0.9233
-7.4310 -18.3713 -2.3540 0.9233
-7.0605 -18.5199 -2.3544 0.9233
-5.1664 -19.1494 -2.3560 0.9232
-4.7804 -19.2523 -2.3563 0.9232
-4.3923 -19.3473 -2.3567 0.9232
-3.6105 -19.5137 -2.3573 0.9232
-2.8225 -19.6485 -2.3579 0.9232
-2.4264 -19.7039 -2.3582 0.9231
-2.0294 -19.7513 -2.3585 0.9231
-0.8332 -19.8452 -2.3594 0.9231
-0.0333 -19.8675 -2.3600 0.9231
0.3668 -19.8665 -2.3603 0.9231
0.7670 -19.8573 -2.3605 0.9231
1.5664 -19.8148 -2.3611 0.9231
1.9654 -19.7814 -2.3613 0.9230
2.7610 -19.6904 -2.3618 0.9230
3.9463 -19.4936 -2.3625 0.9230
4.3385 -19.4121 -2.3628 0.9230
5.5043 -19.1199 -2.3634 0.9230
6.6506 -18.7574 -2.3640 0.9230
7.0276 -18.6211 -2.3642 0.9230
7.7730 -18.3257 -2.3646 0.9229
8.1411 -18.1668 -2.3647 0.9229
8.5059 -18.0003 -2.3649 0.9229
8.8673 -17.8266 -2.3650 0.9229
9.9294 -17.2617 -2.3655 0.9229
10.2756 -17.0591 -2.3656 0.9229
10.9554 -16.6331 -2.3658 0.9229
11.2887 -16.4099 -2.3660 0.9229
11.6174 -16.1798 -2.3661 0.9229
11.9414 -15.9432 -2.3661 0.9229
13.4859 -14.6642 -2.3665 0.9229
14.3477 -13.8239 -2.3667 0.9229
14.7012 -13.6043 -2.3793 0.9225
17.1960 -12.4279 -2.5203 0.9181
17.9146 -11.3664 -2.5202 0.9181
18.3571 -10.6354 -2.5201 0.9181
18.9643 -9.5066 -2.5199 0.9181
19.1513 -9.1225 -2.5198 0.9181
19.3305 -8.7346 -2.5197 0.9181
19.5018 -8.3432 -2.5196 0.9181
19.6650 -7.9484 -2.5195 0.9181
20.1063 -6.7454 -2.5192 0.9181
20.2370 -6.3387 -2.5190 0.9181
20.4736 -5.5180 -2.5188 0.9181
20.5793 -5.1042 -2.5186 0.9181
20.6766 -4.6884 -2.5184 0.9181
20.7654 -4.2707 -2.5183 0.9181
20.9176 -3.4305 -2.5179 0.9182
20.9809 -3.0083 -2.5177 0.9182
21.0817 -2.1606 -2.5173 0.9182
21.1192 -1.7354 -2.5171 0.9182
21.1481 -1.3096 -2.5169 0.9182
21.1799 -0.4568 -2.5165 0.9182
21.1083 1.6741 -2.5152 0.9182
21.0681 2.0987 -2.5150 0.9183
21.0193 2.5223 -2.5147 0.9183
20.8217 3.7858 -2.5139 0.9183
20.6981 4.1957 -2.5087 0.9184
15.1100 4.0264 -1.8575 0.9390
13.9377 4.3222 -1.7334 0.9429
13.4540 4.4712 -1.6841 0.9445
12.9949 4.6113 -1.6379 0.9460
12.0876 5.1307 -1.5598 0.9485
12.0180 5.3894 -1.5645 0.9483
12.0311 5.6890 -1.5808 0.9478
7.7408 14.6676 -2.3499 0.9352
7.4444 14.8217 -2.3501 0.9352
7.1449 14.9697 -2.3503 0.9352
6.8423 15.1114 -2.3504 0.9352
6.5369 15.2469 -2.3505 0.9352
6.2288 15.3759 -2.3506 0.9352
5.9179 15.4988 -2.3507 0.9352
5.6047 15.6151 -2.3507 0.9352
4.9713 15.8283 -2.3507 0.9352
4.3297 16.0151 -2.3506 0.9352
3.3543 16.2455 -2.3504 0.9352
3.0263 16.3089 -2.3502 0.9352
2.6970 16.3656 -2.3501 0.9352
2.3667 16.4154 -2.3499 0.9352
2.0355 16.4587 -2.3498 0.9352
1.7038 16.4983 -2.3501 0.9352
0.7041 16.5661 -2.3494 0.9352
0.3703 16.5751 -2.3491 0.9352
0.0364 16.5772 -2.3488 0.9352
-1.2971 16.5173 -2.3475 0.9353
-1.6293 16.4854 -2.3472 0.9353
-1.9607 16.4467 -2.3468 0.9353
-2.2912 16.4012 -2.3464 0.9353
-2.6210 16.3520 -2.3465 0.9353
-2.9493 16.2930 -2.3461 0.9353
-3.6018 16.1551 -2.3452 0.9353
-3.9257 16.0762 -2.3448 0.9353
-4.8864 15.8004 -2.3434 0.9354
-5.2025 15.6955 -2.3429 0.9354
-5.5164 15.5843 -2.3424 0.9354
-6.7475 15.0781 -2.3406 0.9354
-7.0482 14.9356 -2.3400 0.9355
-7.6403 14.6325 -2.3389 0.9355
-5.4720 9.9844 -1.6132 0.9550
-5.9810 9.0909 -1.5419 0.9570
-9.6042 13.3907 -2.3349 0.9356
-10.1358 12.9932 -2.3349 0.9356
-7.2868 8.9628 -1.6367 0.9544
-7.4167 8.7562 -1.6259 0.9547
-7.6548 8.3322 -1.6032 0.9553
-7.8151 8.1702 -1.6020 0.9554
-8.6676 8.7036 -1.7404 0.9516
-12.9489 10.1877 -2.3345 0.9356
-13.5407 9.3872 -2.3345 0.9356
-14.0833 8.5527 -2.3346 0.9356
-14.5749 7.6871 -2.3347 0.9356
-14.7271 7.3921 -2.3348 0.9356
-14.8734 7.0942 -2.3349 0.9356
-15.1480 6.4899 -2.3350 0.9356
-15.2761 6.1837 -2.3351 0.9356
-15.5439 5.5746 -2.3398 0.9355
-16.0425 5.3913 -2.3980 0.9339
-16.8179 4.9076 -2.4823 0.9317
-17.0363 4.2349 -2.4873 0.9315
-17.1949 3.5457 -2.4876 0.9315
-17.2638 3.1989 -2.4877 0.9315
-17.3807 2.5013 -2.4880 0.9315
-17.4287 2.1509 -2.4882 0.9315
-17.4696 1.7995 -2.4884 0.9315
-17.5035 1.4474 -2.4885 0.9315
-17.5501 0.7415 -2.4889 0.9315
-17.5684 0.0341 -2.4893 0.9315
-17.4091 -2.4365 -2.4907 0.9314
-17.2350 -3.4844 -2.4914 0.9314
-17.1630 -3.8311 -2.4917 0.9314
-16.9054 -4.8621 -2.4924 0.9314
-16.8058 -5.2021 -2.4927 0.9314
-16.6994 -5.5400 -2.4929 0.9314
-16.5861 -5.8759 -2.4932 0.9314
-16.4662 -6.2094 -2.4935 0.9314
-16.2062 -6.8690 -2.4940 0.9314
-15.7672 -7.8378 -2.4948 0.9313
-15.2703 -8.7787 -2.4957 0.9313
-15.0922 -9.0855 -2.4960 0.9313
-14.9079 -9.3887 -2.4963 0.9313
-14.5212 -9.9839 -2.4969 0.9313
-14.3189 -10.2755 -2.4972 0.9313
-13.6772 -11.1256 -2.4981 0.9312
-12.2453 -12.7028 -2.5000 0.9312
-11.6966 -13.1550 -2.4941 0.9314
-11.0838 -12.9833 -2.4188 0.9334
-10.2482 -13.0327 -2.3491 0.9352
-9.9849 -13.2382 -2.3494 0.9352
-9.7174 -13.4383 -2.3497 0.9352
-9.4460 -13.6330 -2.3500 0.9352
-9.1707 -13.8222 -2.3503 0.9352
-8.8915 -14.0058 -2.3506 0.9352
-8.6087 -14.1839 -2.3509 0.9352
-7.7394 -14.6833 -2.3518 0.9351
-7.4430 -14.8381 -2.3521 0.9351
-7.1435 -14.9868 -2.3524 0.9351
-6.5358 -15.2661 -2.3529 0.9351
-5.9171 -15.5206 -2.3535 0.9351
-5.2885 -15.7501 -2.3541 0.9351
-4.9708 -15.8553 -2.3543 0.9351
-4.6510 -15.9541 -2.3546 0.9351
-4.3292 -16.0464 -2.3549 0.9351
-2.8444 -11.4556 -1.6724 0.9534
-3.6804 -16.2114 -2.3554 0.9350
-3.3535 -16.2841 -2.3557 0.9350
-3.0252 -16.3502 -2.3560 0.9350
-2.6956 -16.4096 -2.3562 0.9350
-2.3648 -16.4624 -2.3565 0.9350
-1.7002 -16.5479 -2.3570 0.9350
-1.3668 -16.5805 -2.3572 0.9350
-1.0327 -16.6064 -2.3575 0.9350
0.3073 -16.6424 -2.3584 0.9350
0.6425 -16.6344 -2.3587 0.9350
1.3121 -16.5982 -2.3591 0.9349
1.6463 -16.5699 -2.3593 0.9349
1.9799 -16.5349 -2.3595 0.9349
2.6446 -16.4446 -2.3600 0.9349
3.3053 -16.3275 -2.3604 0.9349
3.9608 -16.1837 -2.3607 0.9349
4.2863 -16.1019 -2.3609 0.9349
4.6101 -16.0135 -2.3611 0.9349
4.9320 -15.9185 -2.3613 0.9349
5.5699 -15.7092 -2.3616 0.9349
5.8855 -15.5949 -2.3617 0.9349
7.1232 -15.0743 -2.3623 0.9349
7.4258 -14.9286 -2.3625 0.9349
7.7254 -14.7768 -2.3626 0.9349
8.3150 -14.4551 -2.3628 0.9348
8.8912 -14.1098 -2.3630 0.9348
9.1739 -13.9284 -2.3631 0.9348
9.4530 -13.7413 -2.3632 0.9348
9.7281 -13.5487 -2.3633 0.9348
13.5147 -11.5315 -2.5172 0.9307
13.7442 -11.2570 -2.5172 0.9307
14.3989 -10.4064 -2.5172 0.9307
15.0006 -9.5176 -2.5171 0.9307
15.3713 -8.9055 -2.5171 0.9307
15.5472 -8.5940 -2.5170 0.9307
16.0366 -7.6388 -2.5168 0.9308
16.5972 -6.3226 -2.5165 0.9308
16.9466 -5.3081 -2.5162 0.9308
17.1450 -4.6209 -2.5159 0.9308
17.2337 -4.2744 -2.5158 0.9308
17.3154 -3.9262 -2.5157 0.9308
17.4574 -3.2254 -2.5154 0.9308
17.5178 -2.8730 -2.5152 0.9308
17.5710 -2.5194 -2.5151 0.9308
17.6171 -2.1648 -2.5149 0.9308
17.6875 -1.4534 -2.5146 0.9308
17.7391 -0.3826 -2.5140 0.9308
17.7419 -0.0252 -2.5138 0.9308
17.7256 0.6892 -2.5134 0.9308
17.7067 1.0460 -2.5132 0.9308
17.6805 1.4023 -2.5130 0.9309
17.6066 2.1128 -2.5126 0.9309
17.4421 3.1713 -2.5119 0.9309
15.6960 3.8457 -2.2897 0.9368
15.1018 4.0242 -2.2144 0.9388
14.5385 4.1895 -2.1438 0.9407
12.1847 4.8847 -1.8600 0.9483
11.9637 5.0781 -1.8415 0.9488
12.0636 6.0046 -1.9093 0.9470
6.3931 12.7287 -2.3465 0.9439
6.1348 12.8535 -2.3463 0.9439
5.6110 13.0874 -2.3458 0.9439
5.3457 13.1963 -2.3456 0.9439
5.0784 13.3000 -2.3453 0.9439
4.8090 13.3981 -2.3451 0.9439
4.5377 13.4909 -2.3448 0.9439
4.2646 13.5782 -2.3446 0.9439
3.7136 13.7362 -2.3441 0.9439
3.4358 13.8068 -2.3439 0.9440
2.3126 14.0331 -2.3430 0.9440
1.7453 14.1122 -2.3425 0.9440
0.3175 14.2098 -2.3415 0.9440
0.0312 14.2121 -2.3413 0.9440
-0.2550 14.2087 -2.3411 0.9440
-0.5411 14.1995 -2.3409 0.9440
-1.3972 14.1375 -2.3403 0.9440
-1.9652 14.0676 -2.3400 0.9440
-2.5297 13.9750 -2.3397 0.9441
-3.0900 13.8599 -2.3393 0.9441
-3.3683 13.7939 -2.3392 0.9441
-4.4664 13.4747 -2.3386 0.9441
-4.7366 13.3812 -2.3384 0.9441
-5.0049 13.2824 -2.3383 0.9441
-5.5351 13.0687 -2.3381 0.9441
-5.7969 12.9538 -2.3379 0.9441
-6.0564 12.8338 -2.3378 0.9441
-6.3133 12.7087 -2.3377 0.9441
-6.5677 12.5784 -2.3376 0.9441
-5.5678 10.1593 -1.9085 0.9541
-5.5440 9.6495 -1.8333 0.9559
-5.6779 9.4372 -1.8144 0.9563
-7.7975 11.8520 -2.3372 0.9441
-8.3179 9.4284 -2.0713 0.9503
-7.7158 8.0663 -1.8389 0.9558
-10.0086 10.0501 -2.3366 0.9441
-8.7369 8.4266 -1.9997 0.9520
-8.8451 8.1937 -1.9863 0.9523
-8.9246 7.9393 -1.9678 0.9527
-11.1468 8.7699 -2.3365 0.9441
-11.3212 8.5436 -2.3365 0.9441
-11.4910 8.3139 -2.3365 0.9441
-11.9724 7.6050 -2.3366 0.9441
-12.1232 7.3624 -2.3366 0.9441
-12.2693 7.1168 -2.3366 0.9441
-12.4103 6.8684 -2.3367 0.9441
-12.5464 6.6172 -2.3367 0.9441
-12.8004 6.4250 -2.3595 0.9436
-13.8569 5.9367 -2.4834 0.9407
-13.9950 5.6651 -2.4873 0.9406
-14.1146 5.3852 -2.4887 0.9406
-14.3210 4.8128 -2.4889 0.9406
-14.4156 4.5236 -2.4890 0.9406
-14.5872 3.9396 -2.4892 0.9406
-14.6642 3.6452 -2.4893 0.9406
-14.9129 2.4537 -2.4898 0.9406
-15.0013 1.8513 -2.4900 0.9406
-15.1052 0.6381 -2.4906 0.9406
-15.0979 -0.8840 -2.4915 0.9405
-15.0782 -1.1880 -2.4917 0.9405
-15.0523 -1.4916 -2.4918 0.9405
-14.9382 -2.3984 -2.4924 0.9405
-14.8319 -2.9985 -2.4928 0.9405
-14.7697 -3.2969 -2.4930 0.9405
-14.7016 -3.5940 -2.4932 0.9405
-14.2720 -5.0561 -2.4943 0.9405
-14.1686 -5.3430 -2.4946 0.9405
-14.0594 -5.6278 -2.4948 0.9405
-13.6978 -6.4684 -2.4955 0.9404
-13.4289 -7.0162 -2.4960 0.9404
-13.2861 -7.2860 -2.4963 0.9404
-13.1380 -7.5528 -2.4965 0.9404
-12.8258 -8.0774 -2.4970 0.9404
-11.5719 -9.8068 -2.4988 0.9404
-11.1699 -10.2670 -2.4994 0.9403
-10.7497 -10.7108 -2.4999 0.9403
-10.3118 -11.1375 -2.5004 0.9403
-9.8570 -11.5462 -2.5010 0.9403
-8.7603 -12.1147 -2.4629 0.9412
-8.3093 -11.9924 -2.4035 0.9426
-6.6554 -12.6268 -2.3514 0.9438
-6.4005 -12.7597 -2.3517 0.9438
-6.1428 -12.8874 -2.3519 0.9438
-5.8826 -13.0098 -2.3521 0.9438
-5.6200 -13.1271 -2.3524 0.9438
-5.3550 -13.2390 -2.3526 0.9438
-2.8071 -11.3050 -1.9189 0.9539
-3.1642 -13.9379 -2.3545 0.9437
-2.8831 -14.0002 -2.3548 0.9437
-2.6008 -14.0568 -2.3550 0.9437
-2.3174 -14.1076 -2.3552 0.9437
-2.0330 -14.1528 -2.3555 0.9437
-1.1750 -14.2537 -2.3561 0.9437
-0.8877 -14.2757 -2.3563 0.9437
-0.3121 -14.3024 -2.3567 0.9437
0.8402 -14.2859 -2.3575 0.9436
1.4151 -14.2428 -2.3579 0.9436
1.9878 -14.1764 -2.3583 0.9436
2.2731 -14.1346 -2.3584 0.9436
2.5575 -14.0869 -2.3586 0.9436
2.8409 -14.0336 -2.3588 0.9436
3.1232 -13.9745 -2.3589 0.9436
4.5138 -13.5940 -2.3597 0.9436
5.3274 -13.2989 -2.3601 0.9436
5.8593 -13.0749 -2.3603 0.9436
6.3817 -12.8296 -2.3606 0.9436
6.6391 -12.6991 -2.3607 0.9436
6.8938 -12.5633 -2.3608 0.9436
7.1457 -12.4224 -2.3609 0.9436
8.1235 -11.8088 -2.3612 0.9436
8.4039 -11.7044 -2.3737 0.9433
9.2759 -11.8781 -2.4828 0.9407
10.1050 -11.4420 -2.5148 0.9400
10.3335 -11.2364 -2.5148 0.9400
10.9937 -10.5923 -2.5150 0.9400
11.2049 -10.3688 -2.5150 0.9400
11.4115 -10.1412 -2.5150 0.9400
11.6136 -9.9093 -2.5150 0.9400
12.1908 -9.1899 -2.5150 0.9400
12.3734 -8.9425 -2.5150 0.9400
13.2091 -7.6528 -2.5149 0.9400
13.3603 -7.3851 -2.5148 0.9400
13.7810 -6.5644 -2.5147 0.9400
13.9101 -6.2854 -2.5146 0.9400
14.0335 -6.0038 -2.5145 0.9400
14.2630 -5.4334 -2.5144 0.9400
14.3691 -5.1449 -2.5143 0.9400
14.5635 -4.5617 -2.5141 0.9400
14.6518 -4.2673 -2.5140 0.9400
14.7342 -3.9711 -2.5139 0.9400
14.8105 -3.6734 -2.5138 0.9400
14.8808 -3.3742 -2.5137 0.9400
14.9450 -3.0737 -2.5136 0.9400
15.0032 -2.7719 -2.5134 0.9400
15.1407 -1.8606 -2.5130 0.9400
15.2016 -1.2491 -2.5127 0.9400
15.2377 -0.6358 -2.5124 0.9400
15.2464 -0.3288 -2.5123 0.9401
15.2452 0.2854 -2.5119 0.9401
15.1969 1.2053 -2.5114 0.9401
15.1338 1.8161 -2.5110 0.9401
14.9337 3.0271 -2.5102 0.9401
14.8685 3.3270 -2.5100 0.9401
14.7199 3.9225 -2.5096 0.9401
14.6366 4.2178 -2.5093 0.9401
14.4523 4.8029 -2.5089 0.9401
12.9531 4.5964 -2.2642 0.9458
12.4802 4.7137 -2.1977 0.9474
11.9782 5.0843 -2.1437 0.9486
13.2775 6.2784 -2.4195 0.9422
5.8282 11.0435 -2.3471 0.9504
5.6040 11.1576 -2.3469 0.9505
5.3777 11.2672 -2.3466 0.9505
5.1492 11.3721 -2.3464 0.9505
4.9187 11.4725 -2.3462 0.9505
3.9780 11.8268 -2.3454 0.9505
3.4978 11.9753 -2.3449 0.9505
3.2556 12.0423 -2.3447 0.9505
2.5218 12.2137 -2.3441 0.9505
2.0276 12.3033 -2.3437 0.9505
1.7792 12.3407 -2.3435 0.9505
1.5302 12.3730 -2.3434 0.9505
1.2806 12.4003 -2.3432 0.9505
1.0305 12.4226 -2.3430 0.9505
0.7800 12.4399 -2.3428 0.9505
0.2784 12.4593 -2.3424 0.9505
0.0274 12.4614 -2.3423 0.9505
-0.7250 12.4376 -2.3418 0.9506
-0.9753 12.4196 -2.3416 0.9506
-1.2252 12.3966 -2.3414 0.9506
-1.7232 12.3355 -2.3411 0.9506
-1.9712 12.2976 -2.3410 0.9506
-2.2183 12.2546 -2.3408 0.9506
-2.9538 12.0961 -2.3404 0.9506
-3.1966 12.0334 -2.3403 0.9506
-3.6782 11.8936 -2.3400 0.9506
-3.9168 11.8165 -2.3399 0.9506
-4.1538 11.7346 -2.3398 0.9506
-3.7691 8.4225 -1.7344 0.9631
-5.3113 11.2549 -2.3392 0.9506
-5.6138 10.2432 -2.1955 0.9536
-6.0954 9.2649 -2.0845 0.9559
-6.1351 8.9283 -2.0362 0.9569
-6.2115 8.6604 -2.0032 0.9575
-6.3452 8.4808 -1.9908 0.9578
-7.3190 9.0024 -2.1808 0.9539
-7.3697 8.7008 -2.1432 0.9547
-7.4611 8.4572 -2.1198 0.9551
-7.6127 8.2864 -2.1150 0.9552
-8.9535 8.6356 -2.3381 0.9506
-9.1255 8.4534 -2.3381 0.9506
-9.1014 7.7740 -2.2498 0.9525
-9.7761 7.6915 -2.3381 0.9506
-9.9291 7.4930 -2.3381 0.9506
-10.0780 7.2916 -2.3381 0.9506
-10.2228 7.0871 -2.3381 0.9506
-11.2131 6.8097 -2.4658 0.9480
-11.5783 6.4079 -2.4873 0.9476
-11.7173 6.1799 -2.4899 0.9475
-12.2806 4.9711 -2.4902 0.9475
-12.3786 4.7229 -2.4903 0.9475
-12.4716 4.4728 -2.4904 0.9475
-12.6424 3.9671 -2.4905 0.9475
-12.7928 3.4550 -2.4907 0.9475
-12.8603 3.1968 -2.4908 0.9475
-12.9226 2.9372 -2.4909 0.9475
-12.9796 2.6765 -2.4910 0.9475
-13.0315 2.4146 -2.4911 0.9475
-13.1194 1.8880 -2.4913 0.9475
-13.1554 1.6235 -2.4915 0.9475
-13.2314 0.8262 -2.4918 0.9475
-13.2555 0.2927 -2.4921 0.9475
-13.2513 -0.5084 -2.4926 0.9475
-13.2392 -0.7752 -2.4927 0.9475
-13.1989 -1.3079 -2.4930 0.9474
-13.0985 -2.1030 -2.4935 0.9474
-13.0544 -2.3666 -2.4937 0.9474
-13.0050 -2.6292 -2.4939 0.9474
-12.8254 -3.4105 -2.4944 0.9474
-12.6796 -3.9248 -2.4948 0.9474
-12.5132 -4.4330 -2.4952 0.9474
-12.4224 -4.6845 -2.4954 0.9474
-12.3265 -4.9342 -2.4956 0.9474
-12.1198 -5.4275 -2.4960 0.9474
-12.0091 -5.6710 -2.4963 0.9474
-11.8934 -5.9122 -2.4965 0.9474
-11.6477 -6.3875 -2.4969 0.9474
-11.5177 -6.6213 -2.4971 0.9474
-11.2437 -7.0811 -2.4976 0.9474
-10.4796 -8.1793 -2.4987 0.9473
-9.7910 -8.9995 -2.4996 0.9473
-9.0383 -9.7620 -2.5006 0.9473
-8.8407 -9.9430 -2.5008 0.9473
-8.6395 -10.1200 -2.5010 0.9473
-8.2265 -10.4617 -2.5015 0.9473
-7.5818 -10.9425 -2.5022 0.9473
-7.1341 -11.2376 -2.5019 0.9473
-6.8984 -11.3660 -2.4991 0.9473
-6.6609 -11.4901 -2.4963 0.9474
-6.3479 -11.4769 -2.4652 0.9480
-6.0159 -11.4135 -2.4250 0.9488
-5.1550 -11.4007 -2.3518 0.9504
-4.9248 -11.5033 -2.3520 0.9503
-4.4584 -11.6944 -2.3524 0.9503
-4.2223 -11.7829 -2.3526 0.9503
-3.9845 -11.8666 -2.3528 0.9503
-3.5040 -12.0196 -2.3533 0.9503
-3.0411 -11.2720 -2.1945 0.9536
-2.8042 -11.2937 -2.1872 0.9537
-2.5262 -12.2669 -2.3541 0.9503
-2.0305 -12.3607 -2.3545 0.9503
-1.7813 -12.4001 -2.3547 0.9503
-1.5312 -12.4345 -2.3549 0.9503
-1.0294 -12.4881 -2.3552 0.9503
-0.7778 -12.5073 -2.3554 0.9503
-0.5257 -12.5214 -2.3556 0.9503
-0.2735 -12.5304 -2.3558 0.9503
-0.0210 -12.5343 -2.3560 0.9503
0.4838 -12.5268 -2.3563 0.9503
0.9881 -12.4989 -2.3566 0.9503
1.2397 -12.4774 -2.3568 0.9502
1.9913 -12.3822 -2.3573 0.9502
2.2404 -12.3404 -2.3574 0.9502
2.4887 -12.2935 -2.3576 0.9502
2.7359 -12.2417 -2.3577 0.9502
2.9821 -12.1848 -2.3579 0.9502
3.2271 -12.1230 -2.3580 0.9502
3.4708 -12.0562 -2.3581 0.9502
3.7131 -11.9845 -2.3583 0.9502
3.9539 -11.9079 -2.3584 0.9502
4.1932 -11.8265 -2.3585 0.9502
4.9004 -11.5533 -2.3588 0.9502
5.1324 -11.4528 -2.3589 0.9502
5.8809 -11.2487 -2.3858 0.9496
6.1970 -11.2935 -2.4213 0.9489
6.5227 -11.3393 -2.4588 0.9482
6.8587 -11.3865 -2.4985 0.9473
7.3463 -11.1536 -2.5103 0.9471
8.2289 -10.5374 -2.5130 0.9470
8.6469 -10.1979 -2.5131 0.9470
9.0509 -9.8417 -2.5132 0.9470
9.2474 -9.6576 -2.5132 0.9470
9.4402 -9.4695 -2.5133 0.9470
10.5133 -8.2626 -2.5133 0.9470
10.9930 -7.6126 -2.5133 0.9470
11.4323 -6.9347 -2.5132 0.9470
11.5695 -6.7029 -2.5132 0.9470
11.8297 -6.2313 -2.5131 0.9470
11.9526 -5.9917 -2.5131 0.9470
12.0706 -5.7497 -2.5130 0.9470
12.1836 -5.5053 -2.5130 0.9470
12.2918 -5.2586 -2.5129 0.9470
12.3949 -5.0099 -2.5129 0.9470
12.7563 -3.9956 -2.5126 0.9470
13.2277 -1.8966 -2.5117 0.9471
13.3161 -1.0942 -2.5113 0.9471
13.3479 -0.5570 -2.5111 0.9471
13.3557 -0.2880 -2.5109 0.9471
13.3580 -0.0190 -2.5108 0.9471
13.3549 0.2500 -2.5106 0.9471
13.3463 0.5189 -2.5105 0.9471
13.3323 0.7876 -2.5103 0.9471
13.1348 2.3882 -2.5093 0.9471
12.1700 5.4575 -2.5069 0.9472
12.0566 5.7010 -2.5067 0.9472
4.9837 9.9225 -2.3471 0.9556
4.1676 10.2880 -2.3463 0.9556
3.7493 10.4458 -2.3460 0.9556
3.3250 10.5866 -2.3456 0.9556
2.4615 10.8165 -2.3449 0.9557
2.0236 10.9053 -2.3445 0.9557
1.5825 10.9763 -2.3442 0.9557
1.1390 11.0295 -2.3438 0.9557
0.6938 11.0649 -2.3435 0.9557
0.2476 11.0824 -2.3432 0.9557
-0.6449 11.0635 -2.3426 0.9557
-0.8676 11.0475 -2.3424 0.9557
-1.3116 11.0023 -2.3421 0.9557
-1.9733 10.9011 -2.3417 0.9557
-2.1923 10.8586 -2.3416 0.9557
-2.4104 10.8116 -2.3415 0.9557
-2.8436 10.7047 -2.3412 0.9557
-3.0585 10.6447 -2.3411 0.9557
-3.9045 10.3621 -2.3407 0.9557
-3.5709 8.4309 -1.9354 0.9633
-4.7250 10.0127 -2.3403 0.9557
-4.9255 9.9151 -2.3402 0.9557
-5.3205 9.7080 -2.3401 0.9557
-6.2393 8.6992 -2.2629 0.9572
-6.3635 8.5053 -2.2453 0.9575
-6.8077 8.7268 -2.3396 0.9558
-7.3218 8.2993 -2.3394 0.9558
-7.8094 7.8417 -2.3394 0.9558
-7.9657 7.6828 -2.3393 0.9558
-8.3301 7.4105 -2.3567 0.9554
-8.6106 7.3548 -2.3937 0.9548
-8.9000 7.2971 -2.4328 0.9540
-9.1990 7.2374 -2.4742 0.9533
-9.3855 7.0828 -2.4854 0.9531
-9.8183 6.5179 -2.4911 0.9530
-10.0731 6.1173 -2.4911 0.9530
-10.1943 5.9133 -2.4912 0.9530
-10.4245 5.4980 -2.4912 0.9530
-10.5333 5.2871 -2.4913 0.9530
-10.6378 5.0739 -2.4913 0.9530
-10.7380 4.8588 -2.4914 0.9530
-11.1735 3.7550 -2.4917 0.9530
-11.3809 3.0737 -2.4919 0.9529
-11.4409 2.8439 -2.4920 0.9529
-11.4963 2.6130 -2.4921 0.9529
-11.5470 2.3811 -2.4922 0.9529
-11.6344 1.9142 -2.4923 0.9529
-11.7528 0.9719 -2.4928 0.9529
-11.7835 0.4978 -2.4930 0.9529
-11.7918 0.2604 -2.4931 0.9529
-11.7952 0.0229 -2.4933 0.9529
-11.7410 -1.1634 -2.4940 0.9529
-11.7159 -1.3998 -2.4941 0.9529
-11.6860 -1.6355 -2.4943 0.9529
-11.6514 -1.8707 -2.4944 0.9529
-11.6121 -2.1051 -2.4946 0.9529
-11.4660 -2.8030 -2.4951 0.9529
-11.2063 -3.7177 -2.4957 0.9529
-10.8739 -4.6089 -2.4965 0.9529
-10.3593 -5.6810 -2.4974 0.9528
-10.1237 -6.0945 -2.4978 0.9528
-9.8716 -6.4983 -2.4982 0.9528
-9.7396 -6.6963 -2.4984 0.9528
-9.1720 -7.4609 -2.4992 0.9528
-9.0207 -7.6447 -2.4994 0.9528
-8.5447 -8.1775 -2.5000 0.9528
-8.3790 -8.3487 -2.5003 0.9528
-8.2098 -8.5165 -2.5005 0.9528
-8.0373 -8.6808 -2.5007 0.9528
-7.8615 -8.8417 -2.5009 0.9528
-7.5003 -9.1526 -2.5013 0.9528
-6.9356 -9.5913 -2.5019 0.9528
-6.7416 -9.7298 -2.5021 0.9528
-6.1433 -10.1218 -2.5028 0.9527
-5.9387 -10.2443 -2.5030 0.9527
-5.7316 -10.3627 -2.5032 0.9527
-5.5222 -10.4769 -2.5034 0.9527
-5.3105 -10.5869 -2.5036 0.9527
-5.0967 -10.6926 -2.5038 0.9527
-4.8789 -10.7900 -2.5031 0.9527
-4.6572 -10.8782 -2.5013 0.9528
-4.2097 -11.0421 -2.4979 0.9528
-3.9657 -11.0669 -2.4850 0.9531
-3.7058 -11.0366 -2.4609 0.9535
-3.2058 -10.9968 -2.4213 0.9542
-2.9616 -10.9771 -2.4033 0.9546
-2.7208 -10.9575 -2.3865 0.9549
-2.4847 -10.9447 -2.3723 0.9552
-2.0258 -10.9491 -2.3537 0.9555
-1.8050 -10.9884 -2.3539 0.9555
-0.9151 -11.1013 -2.3546 0.9555
-0.6914 -11.1183 -2.3547 0.9555
-0.4673 -11.1307 -2.3549 0.9555
-0.2431 -11.1386 -2.3550 0.9555
-0.0187 -11.1420 -2.3552 0.9555
0.4301 -11.1352 -2.3555 0.9555
1.3252 -11.0672 -2.3561 0.9555
1.5479 -11.0389 -2.3562 0.9554
2.2121 -10.9271 -2.3566 0.9554
2.4393 -10.9143 -2.3640 0.9553
3.1517 -10.9479 -2.4082 0.9545
3.3976 -10.9662 -2.4268 0.9541
4.4046 -10.9954 -2.5038 0.9527
4.6288 -10.9129 -2.5057 0.9527
4.8516 -10.8263 -2.5077 0.9527
5.0729 -10.7353 -2.5098 0.9526
5.2905 -10.6360 -2.5110 0.9526
5.5039 -10.5276 -2.5111 0.9526
5.7150 -10.4150 -2.5112 0.9526
5.9238 -10.2981 -2.5113 0.9526
6.1302 -10.1770 -2.5113 0.9526
6.7341 -9.7891 -2.5115 0.9526
7.1232 -9.5104 -2.5117 0.9526
7.3135 -9.3652 -2.5117 0.9526
7.6850 -9.0634 -2.5118 0.9526
7.8661 -8.9069 -2.5119 0.9526
8.0440 -8.7468 -2.5119 0.9526
8.3899 -8.4160 -2.5119 0.9526
8.5578 -8.2454 -2.5120 0.9526
8.8830 -7.8941 -2.5120 0.9526
9.0403 -7.7136 -2.5120 0.9526
9.1938 -7.5300 -2.5120 0.9526
9.3436 -7.3433 -2.5120 0.9526
9.6317 -6.9610 -2.5120 0.9526
10.1604 -6.1631 -2.5119 0.9526
10.4001 -5.7488 -2.5119 0.9526
10.6229 -5.3251 -2.5118 0.9526
11.1032 -4.2297 -2.5115 0.9526
11.1859 -4.0051 -2.5115 0.9526
11.2640 -3.7789 -2.5114 0.9526
11.4705 -3.0915 -2.5112 0.9526
11.5301 -2.8598 -2.5111 0.9526
11.8142 -1.2108 -2.5104 0.9526
11.8357 -0.9725 -2.5102 0.9526
11.8523 -0.7339 -2.5101 0.9526
11.8641 -0.4951 -2.5100 0.9526
11.8710 -0.2560 -2.5099 0.9526
11.8732 -0.0169 -2.5098 0.9526
11.8705 0.2223 -2.5096 0.9526
11.8629 0.4613 -2.5095 0.9526
11.8334 0.9385 -2.5092 0.9526
11.8114 1.1766 -2.5091 0.9526
11.7846 1.4142 -2.5089 0.9526
11.6297 2.3574 -2.5083 0.9526
11.4638 3.0548 -2.5078 0.9527
11.3992 3.2848 -2.5076 0.9527
11.2561 3.7407 -2.5073 0.9527
11.0073 4.4127 -2.5067 0.9527
10.9153 4.6332 -2.5065 0.9527
10.8190 4.8517 -2.5063 0.9527
10.7183 5.0682 -2.5062 0.9527
10.6132 5.2827 -2.5060 0.9527
4.6619 8.8336 -2.3475 0.9598
3.9347 9.1774 -2.3468 0.9598
3.7488 9.2541 -2.3466 0.9598
3.3726 9.3962 -2.3463 0.9598
3.1824 9.4616 -2.3461 0.9598
2.9910 9.5231 -2.3459 0.9598
2.6047 9.6344 -2.3456 0.9598
2.0177 9.7721 -2.3451 0.9598
1.6223 9.8442 -2.3448 0.9598
1.4236 9.8742 -2.3447 0.9598
1.2244 9.9002 -2.3445 0.9598
0.8246 9.9402 -2.3442 0.9598
0.6242 9.9542 -2.3441 0.9598
0.2228 9.9700 -2.3438 0.9599
-0.1789 9.9697 -2.3435 0.9599
-0.3796 9.9635 -2.3433 0.9599
-0.5802 9.9533 -2.3432 0.9599
-0.7805 9.9390 -2.3431 0.9599
-0.9805 9.9207 -2.3430 0.9599
-1.1800 9.8984 -2.3428 0.9599
-1.5775 9.8419 -2.3426 0.9599
-1.7754 9.8076 -2.3425 0.9599
-1.9724 9.7694 -2.3423 0.9599
-2.1687 9.7272 -2.3422 0.9599
-2.3640 9.6811 -2.3421 0.9599
-2.5584 9.6310 -2.3420 0.9599
-2.7517 9.5771 -2.3419 0.9599
-2.9439 9.5194 -2.3418 0.9599
-3.3246 9.3923 -2.3416 0.9599
-3.5130 9.3231 -2.3415 0.9599
-3.6999 9.2501 -2.3414 0.9599
-3.5672 8.4222 -2.1496 0.9631
-4.4317 8.9210 -2.3411 0.9599
-4.6104 8.8297 -2.3410 0.9599
-5.3054 8.4291 -2.3408 0.9599
-5.4740 8.3203 -2.3407 0.9599
-5.6403 8.2081 -2.3407 0.9599
-5.8043 8.0927 -2.3406 0.9599
-6.5065 7.6816 -2.3659 0.9595
-6.9873 7.6057 -2.4273 0.9584
-7.2372 7.5660 -2.4607 0.9579
-7.6174 7.3469 -2.4873 0.9574
-7.7701 7.1978 -2.4893 0.9574
-7.9201 7.0458 -2.4914 0.9574
-8.0628 6.8869 -2.4921 0.9574
-8.3336 6.5565 -2.4921 0.9574
-8.4639 6.3874 -2.4921 0.9574
-8.5909 6.2156 -2.4921 0.9574
-8.8343 5.8647 -2.4921 0.9574
-8.9507 5.6856 -2.4921 0.9574
-9.1726 5.3206 -2.4922 0.9574
-9.4775 4.7572 -2.4923 0.9574
-9.6617 4.3718 -2.4924 0.9574
-9.7480 4.1764 -2.4924 0.9574
-9.8304 3.9792 -2.4925 0.9574
-9.9831 3.5803 -2.4926 0.9574
-10.1197 3.1755 -2.4927 0.9574
-10.2400 2.7656 -2.4929 0.9574
-10.2939 2.5588 -2.4929 0.9574
-10.3893 2.1423 -2.4931 0.9573
-10.4679 1.7223 -2.4933 0.9573
-10.5008 1.5112 -2.4934 0.9573
-10.5540 1.0871 -2.4936 0.9573
-10.5742 0.8744 -2.4937 0.9573
-10.5901 0.6613 -2.4938 0.9573
-10.6091 0.2343 -2.4940 0.9573
-10.6121 0.0206 -2.4941 0.9573
-10.6109 -0.1932 -2.4942 0.9573
-10.6054 -0.4069 -2.4943 0.9573
-10.5814 -0.8337 -2.4946 0.9573
-10.5135 -1.4714 -2.4950 0.9573
-10.4823 -1.6830 -2.4951 0.9573
-10.4468 -1.8938 -2.4953 0.9573
-10.4072 -2.1040 -2.4954 0.9573
-10.3633 -2.3133 -2.4956 0.9573
-10.2629 -2.7291 -2.4959 0.9573
-10.2065 -2.9354 -2.4960 0.9573
-10.1460 -3.1406 -2.4962 0.9573
-10.0125 -3.5471 -2.4965 0.9573
-9.9397 -3.7483 -2.4966 0.9573
-9.7820 -4.1461 -2.4970 0.9573
-9.6971 -4.3425 -2.4971 0.9573
-9.6083 -4.5373 -2.4973 0.9573
-9.5157 -4.7302 -2.4975 0.9573
-9.4191 -4.9212 -2.4976 0.9573
-9.3187 -5.1103 -2.4978 0.9573
-8.7608 -6.0234 -2.4987 0.9573
-8.6384 -6.1991 -2.4989 0.9573
-8.5124 -6.3723 -2.4991 0.9572
-8.1139 -6.8762 -2.4996 0.9572
-7.6855 -7.3553 -2.5002 0.9572
-7.5364 -7.5092 -2.5004 0.9572
-7.3842 -7.6600 -2.5006 0.9572
-7.2290 -7.8078 -2.5008 0.9572
-6.9097 -8.0938 -2.5011 0.9572
-6.7458 -8.2320 -2.5013 0.9572
-6.5791 -8.3668 -2.5015 0.9572
-6.4098 -8.4982 -2.5017 0.9572
-5.8862 -8.8718 -2.5023 0.9572
-5.7068 -8.9893 -2.5025 0.9572
-4.9663 -9.4222 -2.5032 0.9572
-4.7759 -9.5210 -2.5034 0.9572
-4.3892 -9.7071 -2.5038 0.9572
-3.9953 -9.8774 -2.5041 0.9572
-3.7958 -9.9566 -2.5043 0.9572
-3.3923 -10.1028 -2.5047 0.9572
-3.1883 -10.1698 -2.5049 0.9572
-2.9831 -10.2327 -2.5050 0.9571
-2.7766 -10.2914 -2.5052 0.9571
-2.5689 -10.3460 -2.5054 0.9571
-1.9393 -10.4815 -2.5052 0.9571
-1.7274 -10.5158 -2.5046 0.9572
-1.5149 -10.5461 -2.5040 0.9572
-1.3020 -10.5724 -2.5035 0.9572
-0.4467 -10.6394 -2.5027 0.9572
-0.0179 -10.6488 -2.5027 0.9572
0.6254 -10.6336 -2.5035 0.9572
1.2671 -10.5826 -2.5049 0.9572
1.4804 -10.5575 -2.5055 0.9571
2.1174 -10.4594 -2.5081 0.9571
2.3283 -10.4178 -2.5088 0.9571
2.5378 -10.3693 -2.5089 0.9571
3.7703 -9.9903 -2.5096 0.9571
3.9709 -9.9127 -2.5097 0.9571
4.1699 -9.8311 -2.5098 0.9571
4.5628 -9.6559 -2.5100 0.9571
4.9483 -9.4649 -2.5101 0.9571
5.1381 -9.3636 -2.5102 0.9571
5.5113 -9.1496 -2.5103 0.9571
5.6946 -9.0370 -2.5104 0.9571
5.8756 -8.9207 -2.5105 0.9571
6.0542 -8.8007 -2.5105 0.9571
6.2304 -8.6772 -2.5106 0.9571
6.5750 -8.4196 -2.5107 0.9571
6.9090 -8.1482 -2.5108 0.9571
7.3887 -7.7165 -2.5109 0.9571
7.6936 -7.4127 -2.5109 0.9571
7.8414 -7.2563 -2.5109 0.9571
8.1274 -6.9347 -2.5109 0.9570
8.2654 -6.7696 -2.5110 0.9570
8.7833 -6.0824 -2.5109 0.9571
8.9040 -5.9043 -2.5109 0.9571
9.1344 -5.5408 -2.5109 0.9571
9.4520 -4.9789 -2.5108 0.9571
9.7350 -4.3988 -2.5107 0.9571
9.9039 -4.0030 -2.5106 0.9571
9.9822 -3.8027 -2.5105 0.9571
10.0566 -3.6008 -2.5105 0.9571
10.1929 -3.1927 -2.5103 0.9571
10.5015 -1.9402 -2.5099 0.9571
10.5380 -1.7282 -2.5098 0.9571
10.5983 -1.3023 -2.5096 0.9571
10.6413 -0.8744 -2.5094 0.9571
10.6669 -0.4451 -2.5091 0.9571
10.6732 -0.2302 -2.5090 0.9571
