ply
format ascii 1.0
element vertex 1571
property float32 x
property float32 y
property float32 z
property float32 I
end_header
11.3249 -6.9070 -2.4933 0.9474
11.4611 -6.6777 -2.4932 0.9474
11.5927 -6.4457 -2.4931 0.9474
11.7195 -6.2112 -2.4931 0.9474
12.1794 -5.2490 -2.4928 0.9475
12.2821 -5.0029 -2.4927 0.9475
12.3800 -4.7548 -2.4927 0.9475
12.6434 -3.9997 -2.4925 0.9475
12.7210 -3.7446 -2.4925 0.9475
12.7936 -3.4880 -2.4925 0.9475
12.8609 -3.2300 -2.4924 0.9475
12.9231 -2.9708 -2.4924 0.9475
13.0784 -2.1863 -2.4923 0.9475
13.1556 -1.6587 -2.4923 0.9475
-2.7371 7.1731 -1.6229 0.9691
-2.9228 7.2203 -1.6465 0.9687
-4.7925 10.0503 -2.3536 0.9555
-4.9939 9.9525 -2.3537 0.9555
-5.1933 9.8507 -2.3539 0.9555
-5.5857 9.6350 -2.3542 0.9555
-6.8847 8.7595 -2.3550 0.9555
-7.4013 8.3297 -2.3554 0.9555
-7.5677 8.1796 -2.3555 0.9555
-7.0951 6.7967 -2.0769 0.9606
-7.3789 6.5203 -2.0814 0.9605
-7.8667 6.1482 -2.1105 0.9600
-8.0812 6.0581 -2.1349 0.9595
-8.5114 5.8613 -2.1845 0.9586
-9.9111 6.5354 -2.5095 0.9526
-10.1665 6.1321 -2.5096 0.9526
-10.2880 5.9266 -2.5097 0.9526
-10.4054 5.7187 -2.5098 0.9526
-10.5186 5.5085 -2.5099 0.9526
-10.7321 5.0814 -2.5100 0.9526
-10.8323 4.8647 -2.5100 0.9526
-11.0196 4.4255 -2.5101 0.9526
-11.1066 4.2031 -2.5102 0.9526
-11.2670 3.7533 -2.5103 0.9526
-11.3403 3.5261 -2.5103 0.9526
-11.4091 3.2975 -2.5104 0.9526
-11.5875 2.6038 -2.5104 0.9526
-11.6376 2.3703 -2.5105 0.9526
-11.7236 1.9005 -2.5105 0.9526
-11.7907 1.4277 -2.5105 0.9526
-11.8170 1.1903 -2.5105 0.9526
-11.8385 0.9525 -2.5105 0.9526
-11.8553 0.7143 -2.5105 0.9526
-11.8766 -0.0017 -2.5105 0.9526
-11.8741 -0.2405 -2.5105 0.9526
-11.8547 -0.7177 -2.5104 0.9526
-11.8159 -1.1936 -2.5104 0.9526
-11.7220 -1.9037 -2.5103 0.9526
-11.6811 -2.1389 -2.5102 0.9526
-11.5302 -2.8391 -2.5101 0.9526
-11.4705 -3.0702 -2.5100 0.9526
-11.4062 -3.3002 -2.5099 0.9526
-11.3373 -3.5287 -2.5099 0.9526
-11.2637 -3.7558 -2.5098 0.9526
-11.1856 -3.9815 -2.5097 0.9526
-11.0159 -4.4277 -2.5096 0.9526
-10.7278 -5.0832 -2.5093 0.9526
-10.6231 -5.2976 -2.5092 0.9526
-10.5141 -5.5100 -2.5092 0.9526
-10.4007 -5.7200 -2.5091 0.9526
-10.2832 -5.9277 -2.5090 0.9526
-10.1616 -6.1331 -2.5089 0.9526
-10.0358 -6.3359 -2.5088 0.9526
-9.4927 -7.1204 -2.5083 0.9526
-8.7280 -8.0352 -2.5077 0.9527
-8.5642 -8.2086 -2.5076 0.9527
-8.0525 -8.7086 -2.5072 0.9527
-7.8754 -8.8683 -2.5070 0.9527
-7.3252 -9.3253 -2.5066 0.9527
-7.1358 -9.4702 -2.5065 0.9527
-6.3504 -10.0104 -2.5059 0.9527
-6.1474 -10.1355 -2.5057 0.9527
-5.3119 -10.5939 -2.5051 0.9527
-4.6619 -10.8909 -2.5042 0.9527
-4.2147 -11.0550 -2.5009 0.9528
-3.9892 -11.1306 -2.4993 0.9528
-3.7624 -11.2020 -2.4979 0.9528
-3.2917 -11.2851 -2.4849 0.9531
-3.0461 -11.2820 -2.4702 0.9533
-2.5627 -11.2749 -2.4441 0.9538
-2.3244 -11.2705 -2.4325 0.9540
-2.0883 -11.2659 -2.4220 0.9542
-1.8540 -11.2612 -2.4124 0.9544
-1.3905 -11.2514 -2.3964 0.9547
-1.1608 -11.2463 -2.3899 0.9548
-0.7047 -11.2356 -2.3797 0.9550
-0.2518 -11.2249 -2.3733 0.9551
-0.0260 -11.2193 -2.3715 0.9552
0.1995 -11.2136 -2.3707 0.9552
0.4249 -11.2077 -2.3708 0.9552
0.6504 -11.2016 -2.3718 0.9552
0.8763 -11.1961 -2.3739 0.9551
1.5575 -11.1793 -2.3859 0.9549
2.7157 -11.1473 -2.4252 0.9542
2.9525 -11.1403 -2.4361 0.9540
3.1914 -11.1330 -2.4481 0.9538
3.4328 -11.1254 -2.4611 0.9535
4.1483 -11.0342 -2.4918 0.9529
4.3714 -10.9537 -2.4930 0.9529
4.5930 -10.8689 -2.4942 0.9529
5.0316 -10.6869 -2.4968 0.9529
5.2467 -10.5862 -2.4975 0.9528
6.0789 -10.1281 -2.4969 0.9529
6.6773 -9.7416 -2.4965 0.9529
6.8714 -9.6049 -2.4963 0.9529
7.0628 -9.4643 -2.4962 0.9529
7.9750 -8.7055 -2.4956 0.9529
8.1481 -8.5430 -2.4955 0.9529
8.4842 -8.2078 -2.4953 0.9529
9.1147 -7.4984 -2.4949 0.9529
9.2633 -7.3134 -2.4948 0.9529
9.5491 -6.9346 -2.4946 0.9529
9.6863 -6.7409 -2.4945 0.9529
9.8195 -6.5446 -2.4944 0.9529
9.9488 -6.3456 -2.4943 0.9529
10.0740 -6.1441 -2.4943 0.9529
10.1952 -5.9402 -2.4942 0.9529
10.6384 -5.1013 -2.4939 0.9529
11.0129 -4.2298 -2.4937 0.9529
11.1736 -3.7835 -2.4936 0.9529
11.2473 -3.5580 -2.4936 0.9529
11.3809 -3.1029 -2.4935 0.9529
11.4962 -2.6428 -2.4934 0.9529
11.5930 -2.1784 -2.4934 0.9529
11.6710 -1.7106 -2.4934 0.9529
11.7030 -1.4756 -2.4934 0.9529
-2.6796 6.2550 -1.5993 0.9724
-2.8806 6.3673 -1.6425 0.9717
-3.0257 6.3453 -1.6522 0.9715
-3.1712 6.3201 -1.6619 0.9714
-4.8474 8.7628 -2.3536 0.9597
-5.0228 8.6640 -2.3537 0.9597
-5.1963 8.5617 -2.3538 0.9597
-5.3676 8.4560 -2.3539 0.9597
-5.5368 8.3467 -2.3540 0.9597
-5.8685 8.1182 -2.3543 0.9597
-6.3480 7.7507 -2.3546 0.9597
-6.7208 7.5639 -2.3781 0.9593
-6.9871 7.5521 -2.4180 0.9586
-6.6819 6.9371 -2.2637 0.9612
-6.9189 6.8999 -2.2965 0.9606
-7.0428 6.7466 -2.2921 0.9607
-7.8453 7.2185 -2.5056 0.9571
-8.1378 6.9046 -2.5082 0.9571
-8.2753 6.7398 -2.5083 0.9571
-8.4094 6.5723 -2.5084 0.9571
-8.1242 6.0903 -2.3863 0.9591
-8.3108 5.9730 -2.4054 0.9588
-8.7911 6.0539 -2.5086 0.9571
-8.9114 5.8762 -2.5087 0.9571
-9.2502 5.3287 -2.5089 0.9571
-9.3557 5.1418 -2.5090 0.9571
-9.6493 4.5687 -2.5092 0.9571
-9.7394 4.3739 -2.5092 0.9571
-9.9078 3.9790 -2.5093 0.9571
-10.3155 2.7579 -2.5095 0.9571
-10.4182 2.3410 -2.5096 0.9571
-10.4633 2.1311 -2.5096 0.9571
-10.5041 1.9203 -2.5096 0.9571
-10.5406 1.7088 -2.5096 0.9571
-10.6009 1.2836 -2.5096 0.9571
-10.6439 0.8564 -2.5096 0.9571
-10.6590 0.6422 -2.5096 0.9571
-10.6697 0.4278 -2.5096 0.9571
-10.6761 0.2132 -2.5096 0.9571
-10.6759 -0.2162 -2.5096 0.9571
-10.6693 -0.4308 -2.5096 0.9571
-10.6584 -0.6452 -2.5096 0.9571
-10.6432 -0.8594 -2.5095 0.9571
-10.6237 -1.0732 -2.5095 0.9571
-10.5717 -1.4994 -2.5094 0.9571
-10.5392 -1.7116 -2.5094 0.9571
-10.4163 -2.3437 -2.5093 0.9571
-10.3669 -2.5526 -2.5092 0.9571
-10.2555 -2.9672 -2.5091 0.9571
-10.1935 -3.1727 -2.5091 0.9571
-10.1274 -3.3769 -2.5090 0.9571
-9.9829 -3.7812 -2.5089 0.9571
-9.9046 -3.9810 -2.5088 0.9571
-9.8223 -4.1792 -2.5087 0.9571
-9.7360 -4.3757 -2.5087 0.9571
-9.6458 -4.5704 -2.5086 0.9571
-9.4536 -4.9542 -2.5084 0.9571
-9.3518 -5.1431 -2.5083 0.9571
-9.2461 -5.3299 -2.5082 0.9571
-8.6629 -6.2298 -2.5078 0.9571
-8.5355 -6.4025 -2.5077 0.9571
-7.8481 -7.2252 -2.5071 0.9571
-7.5506 -7.5342 -2.5069 0.9571
-7.3972 -7.6841 -2.5068 0.9571
-7.2409 -7.8309 -2.5066 0.9571
-6.9195 -8.1148 -2.5064 0.9571
-6.5870 -8.3856 -2.5061 0.9571
-6.4167 -8.5159 -2.5060 0.9571
-6.2439 -8.6427 -2.5059 0.9571
-5.8908 -8.8858 -2.5056 0.9571
-5.5282 -9.1144 -2.5053 0.9571
-5.3435 -9.2232 -2.5052 0.9571
-4.9678 -9.4295 -2.5049 0.9572
-4.7769 -9.5270 -2.5048 0.9572
-4.3895 -9.7102 -2.5045 0.9572
-4.1932 -9.7959 -2.5043 0.9572
-3.9951 -9.8776 -2.5042 0.9572
-3.7955 -9.9554 -2.5040 0.9572
-3.3918 -10.0987 -2.5037 0.9572
-3.1879 -10.1642 -2.5036 0.9572
-2.7764 -10.2829 -2.5033 0.9572
-2.5689 -10.3360 -2.5031 0.9572
-1.9408 -10.4702 -2.5026 0.9572
-1.7298 -10.5064 -2.5025 0.9572
-1.5181 -10.5384 -2.5023 0.9572
-1.3058 -10.5662 -2.5022 0.9572
-1.0930 -10.5896 -2.5020 0.9572
-0.8799 -10.6088 -2.5019 0.9572
-0.4526 -10.6343 -2.5016 0.9572
-0.0247 -10.6426 -2.5013 0.9572
0.4031 -10.6337 -2.5009 0.9572
0.6168 -10.6227 -2.5008 0.9572
1.0433 -10.5881 -2.5005 0.9572
1.2559 -10.5643 -2.5003 0.9572
1.6793 -10.5040 -2.5000 0.9572
1.8901 -10.4675 -2.4999 0.9572
2.3091 -10.3818 -2.4996 0.9572
2.9302 -10.2219 -2.4991 0.9572
3.1350 -10.1604 -2.4990 0.9572
3.3384 -10.0947 -2.4989 0.9573
3.5405 -10.0250 -2.4987 0.9573
3.9403 -9.8734 -2.4984 0.9573
4.5276 -9.6164 -2.4980 0.9573
4.7197 -9.5229 -2.4979 0.9573
4.9100 -9.4256 -2.4978 0.9573
5.0982 -9.3245 -2.4976 0.9573
5.2844 -9.2196 -2.4975 0.9573
5.4684 -9.1110 -2.4974 0.9573
5.6502 -8.9988 -2.4973 0.9573
5.8297 -8.8830 -2.4971 0.9573
6.0069 -8.7635 -2.4970 0.9573
6.1815 -8.6406 -2.4969 0.9573
6.5233 -8.3843 -2.4967 0.9573
6.6903 -8.2511 -2.4966 0.9573
6.8545 -8.1146 -2.4965 0.9573
7.0160 -7.9747 -2.4963 0.9573
7.4830 -7.5364 -2.4960 0.9573
7.6327 -7.3841 -2.4959 0.9573
8.4641 -6.4104 -2.4954 0.9573
8.5910 -6.2388 -2.4953 0.9573
8.7144 -6.0646 -2.4952 0.9573
8.8343 -5.8880 -2.4952 0.9573
9.2778 -5.1586 -2.4949 0.9573
9.3794 -4.9709 -2.4948 0.9573
9.5712 -4.5896 -2.4947 0.9573
9.6614 -4.3962 -2.4947 0.9573
9.7476 -4.2009 -2.4946 0.9573
9.8299 -4.0041 -2.4946 0.9573
10.0529 -3.4040 -2.4944 0.9573
10.1192 -3.2012 -2.4944 0.9573
10.1814 -2.9970 -2.4944 0.9573
10.3432 -2.3777 -2.4943 0.9573
10.3888 -2.1693 -2.4943 0.9573
10.4303 -1.9600 -2.4943 0.9573
10.4675 -1.7498 -2.4942 0.9573
-2.7332 5.7318 -1.6442 0.9741
-2.8731 5.7260 -1.6587 0.9739
-3.0157 5.7202 -1.6743 0.9736
-3.3174 5.7223 -1.7126 0.9730
-4.7159 7.7703 -2.3534 0.9631
-4.8714 7.6742 -2.3535 0.9631
-5.0448 7.6050 -2.3629 0.9630
-5.4820 7.5836 -2.4228 0.9621
-5.7091 7.5722 -2.4554 0.9616
-5.9423 7.5604 -2.4898 0.9610
-6.4256 7.2316 -2.5047 0.9608
-6.5753 7.1070 -2.5069 0.9608
-6.8568 6.8380 -2.5073 0.9608
-6.9932 6.6990 -2.5074 0.9608
-7.1267 6.5573 -2.5075 0.9608
-7.2573 6.4129 -2.5076 0.9608
-7.5098 6.1164 -2.5077 0.9608
-7.6315 5.9643 -2.5078 0.9608
-7.7501 5.8099 -2.5079 0.9608
-7.8656 5.6530 -2.5079 0.9608
-8.0869 5.3325 -2.5081 0.9608
-8.2952 5.0034 -2.5082 0.9608
-8.5823 4.4945 -2.5084 0.9608
-8.6711 4.3212 -2.5084 0.9608
-8.9909 3.6108 -2.5086 0.9608
-9.0619 3.4294 -2.5087 0.9608
-9.1927 3.0624 -2.5087 0.9608
-9.3086 2.6904 -2.5088 0.9608
-9.4541 2.1244 -2.5089 0.9608
-9.4950 1.9339 -2.5089 0.9608
-9.5320 1.7426 -2.5089 0.9608
-9.5651 1.5506 -2.5089 0.9608
-9.5944 1.3580 -2.5089 0.9608
-9.6198 1.1648 -2.5089 0.9608
-9.6413 0.9712 -2.5089 0.9608
-9.6589 0.7771 -2.5089 0.9608
-9.6725 0.5828 -2.5089 0.9608
-9.6823 0.3882 -2.5089 0.9608
-9.6820 -0.3909 -2.5089 0.9608
-9.5934 -1.3606 -2.5087 0.9608
-9.5306 -1.7452 -2.5087 0.9608
-9.4935 -1.9364 -2.5086 0.9608
-9.4525 -2.1269 -2.5086 0.9608
-9.0593 -3.4313 -2.5082 0.9608
-8.8353 -3.9709 -2.5080 0.9608
-8.7534 -4.1476 -2.5080 0.9608
-8.6680 -4.3227 -2.5079 0.9608
-8.3909 -4.8369 -2.5077 0.9608
-8.2917 -5.0045 -2.5076 0.9608
-7.8617 -5.6536 -2.5072 0.9608
-7.7461 -5.8104 -2.5071 0.9608
-7.6275 -5.9647 -2.5070 0.9608
-7.3809 -6.2660 -2.5068 0.9608
-7.2532 -6.4129 -2.5067 0.9608
-6.5715 -7.1070 -2.5062 0.9608
-6.4270 -7.2373 -2.5061 0.9608
-6.2799 -7.3647 -2.5060 0.9608
-6.1303 -7.4892 -2.5059 0.9608
-5.8237 -7.7288 -2.5056 0.9608
-5.6668 -7.8440 -2.5055 0.9608
-5.5077 -7.9559 -2.5054 0.9608
-5.1829 -8.1701 -2.5051 0.9608
-5.0173 -8.2723 -2.5050 0.9608
-4.8498 -8.3710 -2.5049 0.9608
-4.6802 -8.4664 -2.5048 0.9608
-4.5088 -8.5584 -2.5046 0.9608
-4.3356 -8.6468 -2.5045 0.9608
-3.9841 -8.8132 -2.5042 0.9608
-3.6262 -8.9653 -2.5040 0.9608
-3.2624 -9.1029 -2.5037 0.9608
-2.8935 -9.2256 -2.5034 0.9608
-2.7073 -9.2814 -2.5033 0.9608
-2.3317 -9.3817 -2.5030 0.9608
-1.7616 -9.5037 -2.5026 0.9608
-1.5701 -9.5366 -2.5024 0.9609
-1.3780 -9.5657 -2.5023 0.9609
-1.1853 -9.5910 -2.5022 0.9609
-0.9922 -9.6123 -2.5020 0.9609
-0.7987 -9.6298 -2.5019 0.9609
-0.6048 -9.6433 -2.5017 0.9609
0.3660 -9.6526 -2.5010 0.9609
0.9470 -9.6114 -2.5006 0.9609
1.3325 -9.5645 -2.5003 0.9609
1.5245 -9.5353 -2.5002 0.9609
1.9064 -9.4653 -2.4999 0.9609
2.4731 -9.3316 -2.4995 0.9609
2.6601 -9.2795 -2.4994 0.9609
2.8460 -9.2237 -2.4993 0.9609
3.2142 -9.1009 -2.4990 0.9609
4.1103 -8.7302 -2.4984 0.9609
4.4575 -8.5570 -2.4982 0.9609
4.9646 -8.2716 -2.4978 0.9609
5.1297 -8.1697 -2.4977 0.9609
5.2927 -8.0646 -2.4976 0.9609
5.7684 -7.7299 -2.4973 0.9609
5.9224 -7.6120 -2.4972 0.9609
6.2232 -7.3672 -2.4970 0.9609
6.5138 -7.1105 -2.4968 0.9609
6.7939 -6.8424 -2.4966 0.9609
6.9299 -6.7041 -2.4965 0.9609
7.1933 -6.4197 -2.4963 0.9609
7.3207 -6.2735 -2.4962 0.9609
7.4451 -6.1249 -2.4962 0.9609
7.5665 -5.9738 -2.4961 0.9609
7.8001 -5.6644 -2.4959 0.9610
8.1267 -5.1834 -2.4957 0.9610
8.2290 -5.0189 -2.4957 0.9610
8.4238 -4.6838 -2.4955 0.9610
8.6049 -4.3411 -2.4954 0.9610
8.6902 -4.1672 -2.4954 0.9610
8.7721 -3.9915 -2.4953 0.9610
8.9252 -3.6355 -2.4952 0.9610
8.9963 -3.4553 -2.4952 0.9610
9.2443 -2.7212 -2.4951 0.9610
9.3461 -2.3473 -2.4950 0.9610
9.3913 -2.1589 -2.4950 0.9610
9.4327 -1.9696 -2.4950 0.9610
9.5042 -1.5888 -2.4950 0.9610
9.5342 -1.3974 -2.4949 0.9610
-2.1778 5.7073 -1.7293 0.9749
-2.4362 5.6867 -1.7514 0.9746
-2.9987 5.6879 -1.8203 0.9736
-3.1466 5.6882 -1.8403 0.9733
-3.3012 5.6944 -1.8634 0.9730
-4.5797 7.5459 -2.4988 0.9640
-4.7335 7.4569 -2.5004 0.9639
-5.0360 7.2700 -2.5036 0.9639
-5.1846 7.1722 -2.5053 0.9639
-5.6099 6.8495 -2.5064 0.9639
-5.7467 6.7355 -2.5065 0.9639
-6.0133 6.4995 -2.5067 0.9639
-6.1429 6.3775 -2.5068 0.9639
-6.3948 6.1258 -2.5069 0.9639
-6.5169 5.9962 -2.5070 0.9639
-6.8671 5.5929 -2.5072 0.9639
-6.9784 5.4539 -2.5073 0.9639
-7.0868 5.3126 -2.5074 0.9638
-7.1924 5.1692 -2.5074 0.9638
-7.3948 4.8761 -2.5076 0.9638
-7.5852 4.5751 -2.5077 0.9638
-7.6758 4.4218 -2.5077 0.9638
-7.8477 4.1098 -2.5078 0.9638
-7.9289 3.9512 -2.5079 0.9638
-8.2861 3.1358 -2.5081 0.9638
-8.3476 2.9686 -2.5081 0.9638
-8.4057 2.8002 -2.5082 0.9638
-8.6447 1.9425 -2.5083 0.9638
-8.7159 1.5934 -2.5083 0.9638
-8.7462 1.4179 -2.5083 0.9638
-8.7962 1.0651 -2.5083 0.9638
-8.8158 0.8880 -2.5083 0.9638
-8.8319 0.7106 -2.5083 0.9638
-8.8444 0.5329 -2.5083 0.9638
-8.8533 0.3550 -2.5083 0.9638
-8.8531 -0.3575 -2.5083 0.9638
-8.8440 -0.5354 -2.5083 0.9638
-8.8314 -0.7131 -2.5082 0.9638
-8.8152 -0.8905 -2.5082 0.9638
-8.7721 -1.2441 -2.5082 0.9638
-8.7452 -1.4203 -2.5081 0.9638
-8.6808 -1.7706 -2.5081 0.9638
-8.6023 -2.1181 -2.5080 0.9638
-8.5578 -2.2906 -2.5079 0.9638
-8.5099 -2.4622 -2.5079 0.9638
-8.4585 -2.6327 -2.5079 0.9638
-8.4037 -2.8022 -2.5078 0.9638
-8.0791 -3.6311 -2.5075 0.9638
-7.7604 -4.2679 -2.5072 0.9639
-7.5821 -4.5762 -2.5071 0.9639
-7.0834 -5.3132 -2.5067 0.9639
-6.8636 -5.5933 -2.5065 0.9639
-6.7495 -5.7300 -2.5064 0.9639
-6.6327 -5.8643 -2.5063 0.9639
-6.3911 -6.1257 -2.5061 0.9639
-6.2664 -6.2527 -2.5060 0.9639
-6.1391 -6.3772 -2.5059 0.9639
-6.0094 -6.4991 -2.5058 0.9639
-5.7428 -6.7349 -2.5056 0.9639
-5.4670 -6.9597 -2.5054 0.9639
-5.3257 -7.0679 -2.5053 0.9639
-4.8893 -7.3751 -2.5050 0.9639
-4.5884 -7.5651 -2.5047 0.9639
-4.4352 -7.6554 -2.5046 0.9639
-4.2801 -7.7427 -2.5045 0.9639
-3.6436 -8.0600 -2.5040 0.9639
-3.3163 -8.1991 -2.5038 0.9639
-2.8155 -8.3829 -2.5034 0.9639
-2.6463 -8.4374 -2.5033 0.9639
-2.4760 -8.4884 -2.5032 0.9639
-2.3047 -8.5361 -2.5030 0.9639
-2.1325 -8.5803 -2.5029 0.9639
-1.9595 -8.6210 -2.5028 0.9639
-1.7857 -8.6582 -2.5027 0.9639
-1.6111 -8.6919 -2.5025 0.9639
-1.4360 -8.7221 -2.5024 0.9639
-1.2603 -8.7487 -2.5023 0.9639
-1.0841 -8.7718 -2.5021 0.9639
-0.9074 -8.7914 -2.5020 0.9639
-0.7305 -8.8074 -2.5019 0.9639
-0.3757 -8.8288 -2.5016 0.9639
-0.0205 -8.8358 -2.5014 0.9639
0.1572 -8.8340 -2.5012 0.9639
0.5121 -8.8196 -2.5010 0.9639
0.6893 -8.8071 -2.5009 0.9639
0.8662 -8.7910 -2.5007 0.9639
1.0427 -8.7714 -2.5006 0.9639
1.2188 -8.7482 -2.5005 0.9639
1.3944 -8.7215 -2.5004 0.9639
1.5694 -8.6913 -2.5002 0.9640
1.9173 -8.6203 -2.5000 0.9640
2.7721 -8.3823 -2.4994 0.9640
2.9400 -8.3245 -2.4993 0.9640
3.1066 -8.2633 -2.4991 0.9640
3.2720 -8.1988 -2.4990 0.9640
3.5986 -8.0599 -2.4988 0.9640
4.0774 -7.8273 -2.4985 0.9640
4.2338 -7.7434 -2.4984 0.9640
4.3884 -7.6564 -2.4983 0.9640
4.5413 -7.5663 -2.4982 0.9640
4.8414 -7.3770 -2.4980 0.9640
5.1336 -7.1758 -2.4978 0.9640
5.2767 -7.0709 -2.4977 0.9640
5.4176 -6.9631 -2.4976 0.9640
5.5563 -6.8525 -2.4975 0.9640
5.6927 -6.7392 -2.4974 0.9640
5.8268 -6.6231 -2.4973 0.9640
6.0880 -6.3831 -2.4971 0.9640
6.3393 -6.1327 -2.4969 0.9640
6.4611 -6.0039 -2.4969 0.9640
6.5803 -5.8726 -2.4968 0.9640
6.6968 -5.7389 -2.4967 0.9640
7.0300 -5.3243 -2.4965 0.9640
7.1354 -5.1817 -2.4964 0.9640
7.2380 -5.0371 -2.4964 0.9640
7.3376 -4.8904 -2.4963 0.9640
7.4343 -4.7418 -2.4962 0.9640
7.5279 -4.5913 -2.4962 0.9640
7.7905 -4.1288 -2.4960 0.9640
7.8718 -3.9713 -2.4960 0.9640
8.0248 -3.6515 -2.4959 0.9640
8.2299 -3.1609 -2.4958 0.9640
8.5500 -2.1473 -2.4956 0.9640
8.6293 -1.8019 -2.4956 0.9640
8.7221 -1.2784 -2.4955 0.9640
-2.1679 5.6813 -1.8703 0.9749
-2.8517 5.6833 -1.9558 0.9737
-3.3074 5.7050 -2.0283 0.9728
-4.2262 6.9634 -2.5054 0.9665
-4.3655 6.8773 -2.5055 0.9665
-4.5031 6.7884 -2.5056 0.9665
-4.6388 6.6968 -2.5057 0.9665
-5.0346 6.4056 -2.5060 0.9665
-5.1626 6.3033 -2.5060 0.9665
-5.7701 5.7543 -2.5064 0.9665
-5.8848 5.6372 -2.5065 0.9665
-5.9971 5.5180 -2.5066 0.9665
-6.3193 5.1468 -2.5068 0.9665
-6.6187 4.7569 -2.5070 0.9665
-6.7131 4.6229 -2.5071 0.9665
-6.8049 4.4871 -2.5071 0.9665
-6.8939 4.3495 -2.5072 0.9665
-6.9801 4.2101 -2.5072 0.9665
-7.2963 3.6360 -2.5074 0.9665
-7.3681 3.4886 -2.5075 0.9665
-7.4368 3.3399 -2.5075 0.9665
-7.5026 3.1897 -2.5075 0.9665
-7.6250 2.8856 -2.5076 0.9665
-7.7853 2.4207 -2.5077 0.9665
-7.8765 2.1058 -2.5077 0.9665
-7.9173 1.9471 -2.5078 0.9665
-7.9549 1.7875 -2.5078 0.9665
-8.0204 1.4663 -2.5078 0.9665
-8.0729 1.1427 -2.5078 0.9665
-8.1124 0.8172 -2.5078 0.9665
-8.1272 0.6539 -2.5078 0.9665
-8.1469 0.3266 -2.5078 0.9665
-8.1466 -0.3289 -2.5078 0.9665
-8.1383 -0.4927 -2.5078 0.9665
-8.1267 -0.6562 -2.5077 0.9665
-8.1118 -0.8194 -2.5077 0.9665
-8.0194 -1.4684 -2.5076 0.9665
-7.8309 -2.2657 -2.5074 0.9665
-7.7837 -2.4227 -2.5074 0.9665
-7.7333 -2.5786 -2.5073 0.9665
-7.6797 -2.7335 -2.5073 0.9665
-7.5633 -3.0399 -2.5072 0.9665
-7.3658 -3.4901 -2.5070 0.9665
-7.2939 -3.6374 -2.5069 0.9665
-7.2191 -3.7832 -2.5069 0.9665
-7.0608 -4.0702 -2.5068 0.9665
-6.9774 -4.2112 -2.5067 0.9665
-6.2113 -5.2731 -2.5061 0.9665
-5.8815 -5.6373 -2.5058 0.9665
-5.7668 -5.7542 -2.5057 0.9665
-5.6497 -5.8688 -2.5056 0.9665
-5.1591 -6.3028 -2.5052 0.9665
-4.9012 -6.5046 -2.5050 0.9665
-4.3621 -6.8762 -2.5046 0.9665
-4.2227 -6.9622 -2.5045 0.9665
-3.9391 -7.1257 -2.5043 0.9665
-3.7949 -7.2032 -2.5042 0.9665
-3.6491 -7.2777 -2.5041 0.9665
-3.5019 -7.3493 -2.5040 0.9665
-3.3533 -7.4178 -2.5039 0.9665
-3.2033 -7.4834 -2.5038 0.9665
-2.7460 -7.6619 -2.5034 0.9665
-2.4355 -7.7654 -2.5032 0.9665
-2.2788 -7.8124 -2.5031 0.9665
-2.1212 -7.8563 -2.5029 0.9665
-1.9627 -7.8970 -2.5028 0.9665
-1.4829 -7.9998 -2.5025 0.9665
-0.9978 -8.0735 -2.5021 0.9665
-0.8352 -8.0915 -2.5020 0.9665
-0.6723 -8.1063 -2.5019 0.9665
-0.5092 -8.1178 -2.5018 0.9665
-0.3458 -8.1260 -2.5016 0.9665
0.4714 -8.1178 -2.5011 0.9665
0.7973 -8.0915 -2.5008 0.9665
1.6050 -7.9688 -2.5002 0.9666
2.0822 -7.8565 -2.4999 0.9666
2.2396 -7.8127 -2.4998 0.9666
2.7062 -7.6625 -2.4995 0.9666
2.8595 -7.6062 -2.4994 0.9666
3.0118 -7.5468 -2.4993 0.9666
3.1628 -7.4844 -2.4992 0.9666
3.4608 -7.3506 -2.4989 0.9666
3.7532 -7.2050 -2.4987 0.9666
4.5920 -6.6994 -2.4982 0.9666
4.7256 -6.6054 -2.4981 0.9666
4.9870 -6.4097 -2.4979 0.9666
5.1147 -6.3079 -2.4978 0.9666
5.2403 -6.2036 -2.4977 0.9666
5.3638 -6.0968 -2.4977 0.9666
5.4851 -5.9875 -2.4976 0.9666
6.0574 -5.4059 -2.4972 0.9666
6.2695 -5.1578 -2.4971 0.9666
6.3718 -5.0305 -2.4970 0.9666
6.4715 -4.9013 -2.4969 0.9666
6.6630 -4.6369 -2.4968 0.9666
6.7547 -4.5019 -2.4968 0.9666
6.9299 -4.2265 -2.4966 0.9666
7.3874 -3.3615 -2.4964 0.9666
7.4534 -3.2122 -2.4963 0.9666
7.5163 -3.0617 -2.4963 0.9666
7.5763 -2.9099 -2.4963 0.9666
7.7376 -2.4478 -2.4962 0.9666
7.7852 -2.2917 -2.4961 0.9666
7.9439 -1.6588 -2.4961 0.9666
8.0294 -1.1768 -2.4960 0.9666
8.0514 -1.0151 -2.4960 0.9666
-2.3294 5.7544 -2.0636 0.9742
-2.4601 5.7427 -2.0767 0.9740
-2.5939 5.7337 -2.0919 0.9738
-2.8349 5.9451 -2.1894 0.9726
-2.8837 5.7471 -2.1374 0.9733
-3.9102 6.4427 -2.5051 0.9687
-4.0391 6.3630 -2.5052 0.9687
-4.4157 6.1085 -2.5055 0.9687
-4.8929 5.7348 -2.5058 0.9687
-5.0073 5.6354 -2.5059 0.9687
-5.1198 5.5338 -2.5060 0.9687
-5.4445 5.2155 -2.5062 0.9687
-5.7495 4.8782 -2.5064 0.9687
-5.8465 4.7617 -2.5064 0.9687
-5.9412 4.6433 -2.5065 0.9687
-6.0335 4.5230 -2.5066 0.9687
-6.1234 4.4009 -2.5066 0.9687
-6.2956 4.1514 -2.5067 0.9687
-6.5348 3.7645 -2.5069 0.9687
-6.7502 3.3639 -2.5070 0.9687
-6.8166 3.2275 -2.5070 0.9687
-6.8802 3.0899 -2.5071 0.9687
-6.9991 2.8109 -2.5071 0.9687
-7.1066 2.5273 -2.5072 0.9687
-7.1560 2.3839 -2.5072 0.9687
-7.2869 1.9482 -2.5073 0.9687
-7.3595 1.6537 -2.5073 0.9687
-7.3913 1.5054 -2.5073 0.9687
-7.4201 1.3565 -2.5074 0.9687
-7.4459 1.2071 -2.5074 0.9687
-7.4687 1.0571 -2.5074 0.9687
-7.4884 0.9067 -2.5074 0.9687
-7.5295 0.4537 -2.5074 0.9687
-7.5371 0.3022 -2.5074 0.9687
-7.5415 -0.1527 -2.5073 0.9687
-7.4878 -0.9088 -2.5073 0.9687
-7.4451 -1.2091 -2.5072 0.9687
-7.4192 -1.3585 -2.5072 0.9687
-7.3903 -1.5074 -2.5072 0.9687
-7.0526 -2.6712 -2.5068 0.9687
-6.9973 -2.8124 -2.5068 0.9687
-6.8783 -3.0914 -2.5067 0.9687
-6.8146 -3.2289 -2.5066 0.9687
-6.6071 -3.6336 -2.5065 0.9687
-6.5325 -3.7657 -2.5064 0.9687
-6.4553 -3.8961 -2.5063 0.9687
-6.3755 -4.0250 -2.5063 0.9687
-6.2931 -4.1523 -2.5062 0.9687
-6.2082 -4.2778 -2.5061 0.9687
-6.1208 -4.4017 -2.5061 0.9687
-6.0309 -4.5237 -2.5060 0.9687
-5.9385 -4.6439 -2.5059 0.9687
-5.7467 -4.8786 -2.5058 0.9687
-5.6472 -4.9930 -2.5057 0.9687
-5.4416 -5.2157 -2.5055 0.9687
-5.3354 -5.3238 -2.5054 0.9687
-5.1167 -5.5337 -2.5053 0.9687
-5.0043 -5.6352 -2.5052 0.9687
-4.8898 -5.7345 -2.5051 0.9687
-4.2888 -6.1951 -2.5046 0.9687
-4.0359 -6.3621 -2.5044 0.9687
-3.5112 -6.6647 -2.5040 0.9687
-3.1026 -6.8634 -2.5037 0.9687
-2.8240 -6.9820 -2.5035 0.9688
-2.5408 -7.0893 -2.5033 0.9688
-2.2535 -7.1851 -2.5031 0.9688
-1.8160 -7.3069 -2.5028 0.9688
-1.5207 -7.3734 -2.5025 0.9688
-1.2229 -7.4279 -2.5023 0.9688
-0.4711 -7.5115 -2.5018 0.9688
-0.3200 -7.5191 -2.5017 0.9688
-0.0175 -7.5253 -2.5014 0.9688
0.1338 -7.5238 -2.5013 0.9688
0.4362 -7.5117 -2.5011 0.9688
0.8881 -7.4707 -2.5008 0.9688
1.4852 -7.3740 -2.5004 0.9688
1.6331 -7.3423 -2.5003 0.9688
2.6462 -7.0386 -2.4996 0.9688
2.7870 -6.9837 -2.4995 0.9688
2.9268 -6.9260 -2.4994 0.9688
3.2026 -6.8022 -2.4992 0.9688
3.9971 -6.3660 -2.4986 0.9688
4.1241 -6.2841 -2.4985 0.9688
4.2495 -6.1997 -2.4985 0.9688
4.3731 -6.1128 -2.4984 0.9688
4.7332 -5.8375 -2.4981 0.9688
4.8495 -5.7410 -2.4980 0.9688
4.9638 -5.6421 -2.4980 0.9688
5.0761 -5.5410 -2.4979 0.9688
5.1863 -5.4377 -2.4978 0.9688
5.2944 -5.3322 -2.4978 0.9688
5.4004 -5.2245 -2.4977 0.9688
5.6058 -5.0029 -2.4975 0.9688
6.0788 -4.4145 -2.4972 0.9688
6.1662 -4.2913 -2.4972 0.9688
6.2511 -4.1663 -2.4971 0.9688
6.3335 -4.0397 -2.4971 0.9688
6.4133 -3.9115 -2.4970 0.9688
6.4905 -3.7817 -2.4970 0.9688
6.6371 -3.5176 -2.4969 0.9688
6.7064 -3.3833 -2.4969 0.9688
6.7729 -3.2478 -2.4968 0.9688
6.8368 -3.1109 -2.4968 0.9688
6.8978 -2.9728 -2.4967 0.9688
7.0642 -2.5514 -2.4967 0.9688
7.2050 -2.1209 -2.4966 0.9688
7.2461 -1.9756 -2.4966 0.9688
7.2843 -1.8295 -2.4965 0.9688
7.3196 -1.6827 -2.4965 0.9688
7.3519 -1.5351 -2.4965 0.9688
7.4076 -1.2383 -2.4965 0.9688
7.4310 -1.0891 -2.4965 0.9688
7.4513 -0.9395 -2.4965 0.9688
-2.4750 5.7773 -2.2476 0.9737
-2.5966 5.7395 -2.2528 0.9736
-3.1410 6.2599 -2.5046 0.9707
-3.2663 6.1957 -2.5047 0.9707
-3.6343 5.9881 -2.5049 0.9707
-3.9890 5.7587 -2.5052 0.9707
-4.3293 5.5082 -2.5054 0.9707
-4.8610 5.0466 -2.5057 0.9707
-4.9616 4.9480 -2.5058 0.9707
-5.0602 4.8474 -2.5059 0.9707
-5.1568 4.7448 -2.5059 0.9707
-5.2513 4.6402 -2.5060 0.9707
-5.3436 4.5338 -2.5061 0.9707
-5.5218 4.3155 -2.5062 0.9707
-5.6076 4.2037 -2.5062 0.9707
-5.6911 4.0902 -2.5063 0.9707
-5.7723 3.9751 -2.5063 0.9707
-5.8512 3.8583 -2.5064 0.9707
-6.0018 3.6201 -2.5065 0.9707
-6.0735 3.4987 -2.5065 0.9707
-6.1427 3.3760 -2.5066 0.9707
-6.2094 3.2518 -2.5066 0.9707
-6.2736 3.1264 -2.5066 0.9707
-6.3353 2.9997 -2.5067 0.9707
-6.5049 2.6124 -2.5068 0.9707
-6.5562 2.4811 -2.5068 0.9707
-6.6940 2.0814 -2.5069 0.9707
-6.7346 1.9464 -2.5069 0.9707
-6.7724 1.8106 -2.5069 0.9707
-6.8075 1.6741 -2.5069 0.9707
-6.8961 1.2607 -2.5070 0.9707
-6.9201 1.1218 -2.5070 0.9707
-6.9413 0.9825 -2.5070 0.9707
-6.9752 0.7026 -2.5070 0.9707
-7.0048 0.2808 -2.5070 0.9707
-7.0104 -0.0010 -2.5070 0.9707
-7.0089 -0.1420 -2.5070 0.9707
-6.9975 -0.4236 -2.5069 0.9707
-6.9875 -0.5642 -2.5069 0.9707
-6.9194 -1.1237 -2.5068 0.9707
-6.8684 -1.4010 -2.5068 0.9707
-6.8388 -1.5388 -2.5068 0.9707
-6.8064 -1.6759 -2.5067 0.9707
-6.6927 -2.0831 -2.5066 0.9707
-6.6494 -2.2172 -2.5066 0.9707
-6.6033 -2.3504 -2.5065 0.9707
-6.3335 -3.0010 -2.5063 0.9707
-6.2718 -3.1277 -2.5062 0.9707
-6.1407 -3.3771 -2.5061 0.9707
-6.0714 -3.4998 -2.5061 0.9707
-5.9997 -3.6211 -2.5060 0.9707
-5.9255 -3.7409 -2.5060 0.9707
-5.7700 -3.9759 -2.5058 0.9707
-5.5194 -4.3162 -2.5056 0.9707
-5.4313 -4.4261 -2.5056 0.9707
-5.3411 -4.5343 -2.5055 0.9707
-5.2487 -4.6406 -2.5054 0.9707
-4.8583 -5.0467 -2.5051 0.9707
-4.6512 -5.2376 -2.5049 0.9707
-4.5448 -5.3299 -2.5049 0.9707
-4.3265 -5.5079 -2.5047 0.9707
-4.1013 -5.6770 -2.5045 0.9707
-3.9862 -5.7581 -2.5044 0.9707
-3.6315 -5.9873 -2.5042 0.9707
-3.1382 -6.2588 -2.5038 0.9707
-3.0116 -6.3204 -2.5037 0.9707
-2.8838 -6.3794 -2.5036 0.9707
-2.7549 -6.4358 -2.5035 0.9707
-2.4937 -6.5409 -2.5033 0.9707
-2.0946 -6.6785 -2.5030 0.9707
-1.9599 -6.7190 -2.5029 0.9707
-1.8243 -6.7568 -2.5028 0.9707
-1.1367 -6.9044 -2.5023 0.9707
-0.7183 -6.9595 -2.5020 0.9707
-0.5782 -6.9723 -2.5019 0.9707
-0.1569 -6.9936 -2.5016 0.9707
-0.0162 -6.9950 -2.5015 0.9707
0.1244 -6.9937 -2.5014 0.9707
0.2650 -6.9895 -2.5013 0.9707
0.8255 -6.9445 -2.5009 0.9707
1.1040 -6.9051 -2.5007 0.9707
1.6549 -6.7930 -2.5003 0.9707
1.9265 -6.7205 -2.5001 0.9707
2.4599 -6.5430 -2.4997 0.9707
2.5908 -6.4920 -2.4996 0.9707
2.7207 -6.4384 -2.4995 0.9707
2.8495 -6.3821 -2.4995 0.9707
3.1036 -6.2620 -2.4993 0.9707
3.3526 -6.1317 -2.4991 0.9707
3.8339 -5.8418 -2.4988 0.9708
4.0654 -5.6826 -2.4986 0.9708
4.1787 -5.5995 -2.4985 0.9708
4.2903 -5.5142 -2.4985 0.9708
4.4001 -5.4267 -2.4984 0.9708
4.6145 -5.2451 -2.4982 0.9708
4.7189 -5.1511 -2.4982 0.9708
4.8214 -5.0551 -2.4981 0.9708
4.9219 -4.9570 -2.4980 0.9708
5.0204 -4.8569 -2.4980 0.9708
5.2114 -4.6509 -2.4979 0.9708
5.3037 -4.5451 -2.4978 0.9708
5.3939 -4.4374 -2.4977 0.9708
5.4819 -4.3280 -2.4977 0.9708
5.5677 -4.2168 -2.4976 0.9708
5.6512 -4.1039 -2.4976 0.9708
5.7325 -3.9894 -2.4975 0.9708
5.8880 -3.7555 -2.4974 0.9708
6.1702 -3.2701 -2.4973 0.9708
6.2346 -3.1454 -2.4972 0.9708
6.2965 -3.0193 -2.4972 0.9708
6.4668 -2.6342 -2.4971 0.9708
6.5184 -2.5036 -2.4970 0.9708
6.6573 -2.1060 -2.4970 0.9708
6.7365 -1.8366 -2.4969 0.9708
6.8048 -1.5643 -2.4969 0.9708
6.8348 -1.4272 -2.4969 0.9708
6.8866 -1.1512 -2.4969 0.9708
6.9273 -0.8734 -2.4969 0.9708
-2.1844 5.7246 -2.3481 0.9741
-2.3170 5.7239 -2.3664 0.9739
-2.8128 5.8987 -2.5043 0.9724
-2.9309 5.8411 -2.5044 0.9724
-3.2780 5.6543 -2.5046 0.9724
-3.5029 5.5183 -2.5048 0.9724
-3.7221 5.3733 -2.5049 0.9724
-3.8295 5.2976 -2.5050 0.9724
-3.9354 5.2196 -2.5051 0.9724
-4.0396 5.1396 -2.5052 0.9724
-4.2432 4.9733 -2.5053 0.9724
-4.5357 4.7089 -2.5055 0.9724
-4.7215 4.5229 -2.5056 0.9724
-4.9860 4.2304 -2.5058 0.9724
-5.2322 3.9223 -2.5059 0.9724
-5.3859 3.7090 -2.5060 0.9724
-5.5309 3.4896 -2.5061 0.9724
-5.7314 3.1499 -2.5062 0.9724
-5.7937 3.0341 -2.5063 0.9724
-5.8536 2.9171 -2.5063 0.9724
-5.9663 2.6794 -2.5064 0.9724
-6.0191 2.5590 -2.5064 0.9724
-6.1172 2.3150 -2.5065 0.9724
-6.1626 2.1916 -2.5065 0.9724
-6.2054 2.0672 -2.5065 0.9724
-6.2458 1.9420 -2.5065 0.9724
-6.2836 1.8161 -2.5066 0.9724
-6.3517 1.5620 -2.5066 0.9724
-6.3818 1.4340 -2.5066 0.9724
-6.4094 1.3054 -2.5066 0.9724
-6.4344 1.1763 -2.5066 0.9724
-6.4936 0.7863 -2.5066 0.9724
-6.5200 0.5246 -2.5067 0.9724
-6.5358 0.2620 -2.5066 0.9724
-6.5410 -0.0009 -2.5066 0.9724
-6.5290 -0.3952 -2.5066 0.9724
-6.5197 -0.5264 -2.5066 0.9724
-6.5077 -0.6574 -2.5066 0.9724
-6.4931 -0.7881 -2.5065 0.9724
-6.4561 -1.0485 -2.5065 0.9724
-6.4336 -1.1781 -2.5065 0.9724
-6.4086 -1.3072 -2.5065 0.9724
-6.3809 -1.4357 -2.5064 0.9724
-6.3507 -1.5637 -2.5064 0.9724
-6.2825 -1.8177 -2.5063 0.9724
-6.2042 -2.0688 -2.5063 0.9724
-6.1613 -2.1931 -2.5062 0.9724
-5.9648 -2.6808 -2.5060 0.9724
-5.7919 -3.0353 -2.5059 0.9724
-5.7296 -3.1511 -2.5058 0.9724
-5.6650 -3.2656 -2.5058 0.9724
-5.5981 -3.3787 -2.5057 0.9724
-5.4575 -3.6009 -2.5056 0.9724
-5.3838 -3.7098 -2.5056 0.9724
-5.3080 -3.8172 -2.5055 0.9724
-5.2301 -3.9231 -2.5054 0.9724
-5.1500 -4.0273 -2.5054 0.9724
-4.9837 -4.2309 -2.5052 0.9724
-4.8975 -4.3301 -2.5052 0.9724
-4.6271 -4.6171 -2.5050 0.9724
-4.5332 -4.7090 -2.5049 0.9724
-4.4375 -4.7991 -2.5048 0.9724
-4.2407 -4.9733 -2.5047 0.9724
-4.0371 -5.1394 -2.5045 0.9724
-3.7196 -5.3729 -2.5043 0.9724
-3.5003 -5.5178 -2.5041 0.9724
-3.2754 -5.6536 -2.5039 0.9724
-3.1610 -5.7181 -2.5038 0.9724
-3.0453 -5.7803 -2.5037 0.9724
-2.9283 -5.8402 -2.5037 0.9724
-2.3270 -6.1035 -2.5032 0.9724
-2.2037 -6.1488 -2.5031 0.9724
-1.8288 -6.2698 -2.5028 0.9724
-1.7023 -6.3051 -2.5027 0.9724
-1.1901 -6.4205 -2.5024 0.9724
-0.9310 -6.4627 -2.5022 0.9724
-0.8008 -6.4798 -2.5021 0.9724
-0.4087 -6.5156 -2.5018 0.9724
-0.2776 -6.5222 -2.5017 0.9724
-0.1464 -6.5262 -2.5016 0.9724
-0.0151 -6.5276 -2.5015 0.9724
0.1161 -6.5264 -2.5014 0.9724
0.2473 -6.5225 -2.5013 0.9724
0.7704 -6.4805 -2.5009 0.9724
0.9005 -6.4635 -2.5009 0.9724
1.0302 -6.4439 -2.5008 0.9724
1.1595 -6.4216 -2.5007 0.9724
1.6715 -6.3068 -2.5003 0.9724
2.0484 -6.1939 -2.5000 0.9724
2.1724 -6.1512 -2.5000 0.9724
2.2956 -6.1061 -2.4999 0.9724
2.4178 -6.0585 -2.4998 0.9724
2.5390 -6.0085 -2.4997 0.9724
2.6592 -5.9560 -2.4996 0.9724
2.7784 -5.9012 -2.4995 0.9724
2.8964 -5.8439 -2.4995 0.9724
3.1288 -5.7224 -2.4993 0.9724
3.2431 -5.6581 -2.4992 0.9725
3.4677 -5.5228 -2.4991 0.9725
3.5779 -5.4518 -2.4990 0.9725
3.8997 -5.2258 -2.4988 0.9725
4.0039 -5.1462 -2.4987 0.9725
4.2073 -4.9808 -2.4986 0.9725
4.3065 -4.8950 -2.4985 0.9725
4.4040 -4.8073 -2.4984 0.9725
4.6854 -4.5328 -2.4982 0.9725
4.7755 -4.4375 -2.4982 0.9725
4.9498 -4.2418 -2.4981 0.9725
5.0340 -4.1413 -2.4980 0.9725
5.1161 -4.0392 -2.4980 0.9725
5.3500 -3.7232 -2.4978 0.9725
5.4236 -3.6148 -2.4978 0.9725
5.6314 -3.2811 -2.4976 0.9725
5.6961 -3.1672 -2.4976 0.9725
5.8187 -2.9355 -2.4975 0.9725
5.8765 -2.8179 -2.4975 0.9725
5.9318 -2.6992 -2.4975 0.9725
5.9848 -2.5793 -2.4974 0.9725
6.0354 -2.4584 -2.4974 0.9725
6.0836 -2.3366 -2.4974 0.9725
6.2132 -1.9655 -2.4973 0.9725
6.2871 -1.7141 -2.4973 0.9725
6.3508 -1.4600 -2.4972 0.9725
6.3789 -1.3320 -2.4972 0.9725
6.4272 -1.0744 -2.4972 0.9725
6.4475 -0.9450 -2.4972 0.9725
-2.2956 5.6710 -2.5039 0.9739
-2.5219 5.5744 -2.5041 0.9739
-2.6335 5.5228 -2.5042 0.9739
-2.8536 5.4128 -2.5043 0.9739
-2.9619 5.3545 -2.5044 0.9739
-3.0691 5.2940 -2.5045 0.9739
-3.1750 5.2313 -2.5045 0.9739
-3.3829 5.0998 -2.5047 0.9739
-3.4849 5.0309 -2.5047 0.9739
-3.5854 4.9599 -2.5048 0.9739
-4.2465 4.4087 -2.5053 0.9739
-4.5874 4.0536 -2.5055 0.9739
-4.6681 3.9606 -2.5055 0.9739
-4.7468 3.8661 -2.5056 0.9739
-4.8237 3.7699 -2.5056 0.9739
-4.9716 3.5731 -2.5057 0.9739
-5.0425 3.4725 -2.5058 0.9739
-5.1782 3.2670 -2.5059 0.9739
-5.2429 3.1623 -2.5059 0.9739
-5.3055 3.0563 -2.5059 0.9739
-5.4803 2.7310 -2.5060 0.9739
-5.5342 2.6203 -2.5061 0.9739
-5.7271 2.1674 -2.5062 0.9739
-5.7696 2.0518 -2.5062 0.9739
-5.8475 1.8182 -2.5062 0.9739
-5.9748 1.3426 -2.5063 0.9739
-6.0634 0.8582 -2.5063 0.9739
-6.0795 0.7361 -2.5063 0.9739
-6.1128 0.3683 -2.5063 0.9739
-6.1238 -0.0009 -2.5063 0.9739
-6.1226 -0.1240 -2.5063 0.9739
-6.1188 -0.2471 -2.5063 0.9739
-6.1126 -0.3700 -2.5063 0.9739
-6.0927 -0.6155 -2.5063 0.9739
-6.0629 -0.8599 -2.5062 0.9739
-5.9457 -1.4640 -2.5061 0.9739
-5.8819 -1.7018 -2.5060 0.9739
-5.8464 -1.8197 -2.5060 0.9739
-5.8086 -1.9368 -2.5060 0.9739
-5.7258 -2.1687 -2.5059 0.9739
-5.6810 -2.2834 -2.5059 0.9739
-5.6338 -2.3971 -2.5058 0.9739
-5.5844 -2.5098 -2.5058 0.9739
-5.4788 -2.7322 -2.5057 0.9739
-5.4226 -2.8418 -2.5056 0.9739
-5.3643 -2.9502 -2.5056 0.9739
-5.3038 -3.0574 -2.5055 0.9739
-5.2412 -3.1633 -2.5055 0.9739
-5.1095 -3.3713 -2.5054 0.9739
-5.0406 -3.4733 -2.5053 0.9739
-4.8967 -3.6730 -2.5052 0.9739
-4.5027 -4.1454 -2.5049 0.9739
-4.4184 -4.2349 -2.5048 0.9739
-3.8759 -4.7351 -2.5044 0.9739
-3.5831 -4.9597 -2.5042 0.9739
-3.0668 -5.2934 -2.5038 0.9739
-2.9596 -5.3538 -2.5037 0.9739
-2.8513 -5.4121 -2.5036 0.9739
-2.7418 -5.4681 -2.5035 0.9739
-2.6312 -5.5220 -2.5035 0.9739
-2.5196 -5.5736 -2.5034 0.9739
-2.4069 -5.6229 -2.5033 0.9739
-2.2933 -5.6700 -2.5032 0.9739
-2.1788 -5.7147 -2.5031 0.9739
-1.9471 -5.7973 -2.5030 0.9739
-1.8301 -5.8351 -2.5029 0.9739
-1.5939 -5.9035 -2.5027 0.9739
-1.2350 -5.9883 -2.5024 0.9739
-1.1143 -6.0117 -2.5023 0.9739
-0.6277 -6.0809 -2.5020 0.9739
-0.2599 -6.1070 -2.5017 0.9739
-0.1371 -6.1108 -2.5016 0.9739
-0.0142 -6.1121 -2.5015 0.9739
0.5992 -6.0816 -2.5011 0.9739
0.7214 -6.0681 -2.5010 0.9739
0.8432 -6.0522 -2.5009 0.9739
0.9647 -6.0338 -2.5008 0.9739
1.2064 -5.9897 -2.5007 0.9739
1.4461 -5.9360 -2.5005 0.9739
1.5651 -5.9055 -2.5004 0.9739
1.8011 -5.8374 -2.5002 0.9739
2.0342 -5.7599 -2.5001 0.9739
2.2640 -5.6731 -2.4999 0.9739
2.3775 -5.6263 -2.4998 0.9739
2.4901 -5.5771 -2.4998 0.9739
2.7121 -5.4722 -2.4996 0.9739
2.8215 -5.4164 -2.4995 0.9739
2.9298 -5.3584 -2.4995 0.9740
3.3504 -5.1051 -2.4992 0.9740
3.4523 -5.0366 -2.4991 0.9740
3.5527 -4.9660 -2.4990 0.9740
4.0327 -4.5838 -2.4987 0.9740
4.1239 -4.5017 -2.4987 0.9740
4.2135 -4.4177 -2.4986 0.9740
4.3014 -4.3320 -2.4985 0.9740
4.4719 -4.1554 -2.4984 0.9740
4.7909 -3.7824 -2.4982 0.9740
4.8658 -3.6852 -2.4982 0.9740
5.0099 -3.4865 -2.4981 0.9740
5.0789 -3.3850 -2.4980 0.9740
5.1458 -3.2822 -2.4980 0.9740
5.2107 -3.1780 -2.4980 0.9740
5.6045 -2.4154 -2.4977 0.9740
5.6518 -2.3022 -2.4977 0.9740
5.6969 -2.1881 -2.4977 0.9740
5.7802 -1.9572 -2.4976 0.9740
5.8183 -1.8406 -2.4976 0.9740
5.8541 -1.7232 -2.4976 0.9740
5.9186 -1.4865 -2.4975 0.9740
6.0187 -1.0062 -2.4975 0.9740
6.0377 -0.8849 -2.4975 0.9740
-2.5768 5.1355 -2.5041 0.9752
-2.6797 5.0828 -2.5042 0.9752
-2.8820 4.9713 -2.5043 0.9752
-2.9814 4.9124 -2.5044 0.9752
-3.0797 4.8516 -2.5044 0.9752
-3.2724 4.7242 -2.5046 0.9752
-3.4599 4.5890 -2.5047 0.9752
-3.8177 4.2966 -2.5049 0.9752
-4.2301 3.8922 -2.5052 0.9752
-4.3076 3.8064 -2.5053 0.9752
-4.5999 3.4483 -2.5055 0.9752
-4.7349 3.2607 -2.5055 0.9752
-4.7996 3.1649 -2.5056 0.9752
-4.8624 3.0678 -2.5056 0.9752
-4.9231 2.9694 -2.5057 0.9752
-4.9819 2.8699 -2.5057 0.9752
-5.1461 2.5645 -2.5058 0.9752
-5.2915 2.2496 -2.5059 0.9752
-5.3357 2.1428 -2.5059 0.9752
-5.3777 2.0351 -2.5059 0.9752
-5.4908 1.7073 -2.5060 0.9752
-5.5240 1.5966 -2.5060 0.9752
-5.5838 1.3732 -2.5060 0.9752
-5.6346 1.1476 -2.5061 0.9752
-5.6762 0.9202 -2.5061 0.9752
-5.7213 0.5763 -2.5061 0.9752
-5.7318 0.4612 -2.5061 0.9752
-5.7457 0.2304 -2.5061 0.9752
-5.7491 0.1148 -2.5061 0.9752
-5.7455 -0.2320 -2.5060 0.9752
-5.7210 -0.5779 -2.5060 0.9752
-5.7082 -0.6928 -2.5060 0.9752
-5.6756 -0.9218 -2.5060 0.9752
-5.6559 -1.0357 -2.5059 0.9752
-5.6339 -1.1492 -2.5059 0.9752
-5.5830 -1.3747 -2.5059 0.9752
-5.5542 -1.4867 -2.5058 0.9752
-5.5231 -1.5980 -2.5058 0.9752
-5.4898 -1.7087 -2.5058 0.9752
-5.3766 -2.0365 -2.5057 0.9752
-5.3345 -2.1441 -2.5056 0.9752
-5.0919 -2.6685 -2.5054 0.9752
-4.5277 -3.5407 -2.5050 0.9752
-4.4555 -3.6309 -2.5049 0.9752
-3.9855 -4.1401 -2.5045 0.9752
-3.9014 -4.2193 -2.5045 0.9752
-3.6397 -4.4464 -2.5043 0.9752
-3.0775 -4.8513 -2.5038 0.9752
-2.9793 -4.9121 -2.5038 0.9752
-2.8798 -4.9708 -2.5037 0.9752
-2.5747 -5.1349 -2.5034 0.9752
-2.4709 -5.1855 -2.5034 0.9752
-2.1536 -5.3245 -2.5031 0.9753
-1.8285 -5.4441 -2.5029 0.9753
-1.4968 -5.5439 -2.5026 0.9753
-1.2727 -5.5992 -2.5025 0.9753
-1.1598 -5.6235 -2.5024 0.9753
-1.0465 -5.6455 -2.5023 0.9753
-0.9327 -5.6652 -2.5022 0.9753
-0.8186 -5.6826 -2.5021 0.9753
-0.7041 -5.6977 -2.5021 0.9753
-0.5894 -5.7105 -2.5020 0.9753
-0.4745 -5.7211 -2.5019 0.9753
-0.0133 -5.7399 -2.5016 0.9753
0.1021 -5.7388 -2.5015 0.9753
0.3327 -5.7297 -2.5013 0.9753
0.4478 -5.7217 -2.5012 0.9753
0.5627 -5.7113 -2.5011 0.9753
0.6774 -5.6987 -2.5011 0.9753
0.7919 -5.6837 -2.5010 0.9753
0.9059 -5.6665 -2.5009 0.9753
1.0196 -5.6469 -2.5008 0.9753
1.2458 -5.6010 -2.5007 0.9753
1.5810 -5.5152 -2.5004 0.9753
1.8013 -5.4468 -2.5003 0.9753
1.9104 -5.4093 -2.5002 0.9753
2.0187 -5.3697 -2.5001 0.9753
2.1262 -5.3279 -2.5000 0.9753
2.2328 -5.2839 -2.5000 0.9753
2.3386 -5.2377 -2.4999 0.9753
2.4433 -5.1895 -2.4998 0.9753
2.5471 -5.1392 -2.4997 0.9753
2.6498 -5.0868 -2.4997 0.9753
2.8520 -4.9759 -2.4995 0.9753
3.2422 -4.7302 -2.4993 0.9753
3.4296 -4.5958 -2.4991 0.9753
3.5212 -4.5258 -2.4991 0.9753
3.9572 -4.1490 -2.4988 0.9753
4.0398 -4.0685 -2.4987 0.9753
4.2774 -3.8174 -2.4986 0.9753
4.3532 -3.7305 -2.4985 0.9753
4.4995 -3.5524 -2.4984 0.9753
4.6385 -3.3685 -2.4984 0.9753
4.7052 -3.2745 -2.4983 0.9753
4.8938 -2.9847 -2.4982 0.9753
4.9528 -2.8857 -2.4982 0.9753
5.0097 -2.7855 -2.4981 0.9753
5.0646 -2.6842 -2.4981 0.9753
5.1175 -2.5818 -2.4981 0.9753
5.3082 -2.1622 -2.4979 0.9753
5.3505 -2.0550 -2.4979 0.9753
5.3907 -1.9470 -2.4979 0.9753
5.5587 -1.3961 -2.4978 0.9753
5.5856 -1.2841 -2.4978 0.9753
5.6103 -1.1715 -2.4978 0.9753
5.6327 -1.0584 -2.4978 0.9753
5.6706 -0.8311 -2.4978 0.9753
5.6862 -0.7169 -2.4978 0.9753
-1.9283 5.0533 -2.5036 0.9764
-2.0295 5.0137 -2.5037 0.9764
-2.1300 4.9720 -2.5038 0.9764
-2.2296 4.9283 -2.5038 0.9764
-2.3283 4.8826 -2.5039 0.9764
-2.4260 4.8350 -2.5040 0.9764
-2.5228 4.7853 -2.5040 0.9764
-2.8069 4.6249 -2.5042 0.9764
-3.0809 4.4476 -2.5044 0.9764
-3.2573 4.3204 -2.5045 0.9764
-3.3436 4.2541 -2.5046 0.9764
-3.4286 4.1861 -2.5047 0.9764
-3.7541 3.8975 -2.5049 0.9764
-4.1964 3.4177 -2.5052 0.9764
-4.2643 3.3327 -2.5052 0.9764
-4.3950 3.1587 -2.5053 0.9764
-4.4577 3.0697 -2.5053 0.9764
-4.5776 2.8881 -2.5054 0.9764
-4.8923 2.3164 -2.5056 0.9764
-4.9379 2.2176 -2.5056 0.9764
-5.0232 2.0173 -2.5057 0.9764
-5.1003 1.8138 -2.5057 0.9764
-5.2297 1.3982 -2.5058 0.9764
-5.2817 1.1868 -2.5058 0.9764
-5.3437 0.8663 -2.5058 0.9764
-5.3743 0.6507 -2.5058 0.9764
-5.3863 0.5426 -2.5058 0.9764
-5.3961 0.4342 -2.5058 0.9764
-5.4092 0.2169 -2.5058 0.9764
-5.4124 0.1081 -2.5058 0.9764
-5.4135 -0.0008 -2.5058 0.9764
-5.4035 -0.3271 -2.5058 0.9764
-5.3860 -0.5441 -2.5058 0.9764
-5.3597 -0.7602 -2.5057 0.9764
-5.3432 -0.8678 -2.5057 0.9764
-5.2561 -1.2942 -2.5056 0.9764
-5.2289 -1.3996 -2.5056 0.9764
-5.1997 -1.5044 -2.5056 0.9764
-5.0993 -1.8151 -2.5055 0.9764
-4.9368 -2.2188 -2.5053 0.9764
-4.8911 -2.3175 -2.5053 0.9764
-4.7938 -2.5122 -2.5052 0.9764
-4.3934 -3.1595 -2.5049 0.9764
-4.2626 -3.3334 -2.5048 0.9764
-4.1947 -3.4183 -2.5047 0.9764
-4.0537 -3.5841 -2.5046 0.9764
-3.9807 -3.6647 -2.5046 0.9764
-3.6730 -3.9723 -2.5043 0.9764
-3.5923 -4.0453 -2.5042 0.9764
-3.4266 -4.1862 -2.5041 0.9764
-3.3417 -4.2541 -2.5041 0.9764
-3.2554 -4.3203 -2.5040 0.9764
-2.8975 -4.5674 -2.5037 0.9764
-2.8050 -4.6246 -2.5036 0.9764
-2.6166 -4.7334 -2.5035 0.9764
-2.5208 -4.7849 -2.5034 0.9764
-1.9263 -5.0526 -2.5030 0.9764
-1.5140 -5.1904 -2.5027 0.9765
-1.1982 -5.2717 -2.5024 0.9765
-0.9853 -5.3153 -2.5023 0.9765
-0.8782 -5.3339 -2.5022 0.9765
-0.7707 -5.3503 -2.5021 0.9765
-0.5550 -5.3766 -2.5020 0.9765
-0.3383 -5.3942 -2.5018 0.9765
-0.2298 -5.3998 -2.5017 0.9765
-0.1212 -5.4031 -2.5017 0.9765
0.4216 -5.3872 -2.5013 0.9765
0.5298 -5.3774 -2.5012 0.9765
0.7456 -5.3515 -2.5010 0.9765
1.0667 -5.2963 -2.5008 0.9765
1.1730 -5.2736 -2.5007 0.9765
1.2787 -5.2488 -2.5007 0.9765
1.5927 -5.1617 -2.5004 0.9765
1.6961 -5.1285 -2.5004 0.9765
1.7988 -5.0932 -2.5003 0.9765
1.9008 -5.0559 -2.5002 0.9765
2.2019 -4.9317 -2.5000 0.9765
2.3006 -4.8863 -2.4999 0.9765
2.3983 -4.8389 -2.4999 0.9765
2.4950 -4.7896 -2.4998 0.9765
2.6854 -4.6852 -2.4997 0.9765
2.7790 -4.6301 -2.4996 0.9765
2.8715 -4.5732 -2.4996 0.9765
3.1417 -4.3915 -2.4994 0.9765
3.2293 -4.3273 -2.4993 0.9765
3.3155 -4.2614 -2.4992 0.9765
3.7261 -3.9067 -2.4990 0.9765
3.8038 -3.8309 -2.4989 0.9765
3.8800 -3.7536 -2.4989 0.9765
4.0276 -3.5944 -2.4988 0.9765
4.1687 -3.4295 -2.4987 0.9765
4.2367 -3.3449 -2.4986 0.9765
4.3030 -3.2590 -2.4986 0.9765
4.3676 -3.1718 -2.4986 0.9765
4.4304 -3.0833 -2.4985 0.9765
4.4915 -2.9935 -2.4985 0.9765
4.6636 -2.7172 -2.4984 0.9765
4.8187 -2.4310 -2.4983 0.9765
4.8665 -2.3336 -2.4983 0.9765
4.9124 -2.2353 -2.4982 0.9765
4.9982 -2.0360 -2.4982 0.9765
5.2341 -1.3146 -2.4981 0.9765
5.2827 -1.1031 -2.4980 0.9765
5.3396 -0.7826 -2.4980 0.9765
5.3542 -0.6751 -2.4980 0.9765
-1.8195 4.7684 -2.5035 0.9775
-2.1039 4.6504 -2.5037 0.9775
-2.1970 4.6073 -2.5038 0.9775
-2.2892 4.5623 -2.5039 0.9775
-2.3806 4.5155 -2.5039 0.9775
-2.4709 4.4668 -2.5040 0.9775
-2.5603 4.4163 -2.5040 0.9775
-2.6486 4.3641 -2.5041 0.9775
-2.8221 4.2543 -2.5042 0.9775
-2.9071 4.1968 -2.5043 0.9775
-3.0736 4.0767 -2.5044 0.9775
-3.1550 4.0142 -2.5044 0.9775
-3.6875 3.5324 -2.5048 0.9775
-3.7578 3.4576 -2.5048 0.9775
-3.9596 3.2249 -2.5050 0.9775
-4.1470 2.9805 -2.5051 0.9775
-4.2062 2.8966 -2.5051 0.9775
-4.3733 2.6378 -2.5052 0.9775
-4.4255 2.5494 -2.5053 0.9775
-4.5246 2.3695 -2.5053 0.9775
-4.5713 2.2781 -2.5054 0.9775
-4.6593 2.0925 -2.5054 0.9775
-4.7398 1.9035 -2.5055 0.9775
-4.7771 1.8079 -2.5055 0.9775
-4.8460 1.6143 -2.5055 0.9775
-4.9346 1.3193 -2.5056 0.9775
-5.0052 1.0194 -2.5056 0.9775
-5.0710 0.6140 -2.5056 0.9775
-5.0823 0.5119 -2.5056 0.9775
-5.0916 0.4097 -2.5056 0.9775
-5.1070 0.1020 -2.5056 0.9775
-5.1080 -0.0007 -2.5056 0.9775
-5.0986 -0.3087 -2.5056 0.9775
-5.0914 -0.4111 -2.5056 0.9775
-5.0707 -0.6154 -2.5055 0.9775
-5.0418 -0.8188 -2.5055 0.9775
-5.0242 -0.9200 -2.5055 0.9775
-5.0047 -1.0208 -2.5055 0.9775
-4.9831 -1.1212 -2.5054 0.9775
-4.9595 -1.2212 -2.5054 0.9775
-4.8767 -1.5179 -2.5053 0.9775
-4.8452 -1.6156 -2.5053 0.9775
-4.8116 -1.7127 -2.5053 0.9775
-4.7762 -1.8090 -2.5052 0.9775
-4.7388 -1.9047 -2.5052 0.9775
-4.6582 -2.0936 -2.5051 0.9775
-4.5702 -2.2791 -2.5051 0.9775
-4.5233 -2.3705 -2.5050 0.9775
-4.4747 -2.4609 -2.5050 0.9775
-4.4242 -2.5503 -2.5049 0.9775
-4.3720 -2.6387 -2.5049 0.9775
-4.3180 -2.7261 -2.5049 0.9775
-4.0847 -3.0639 -2.5047 0.9775
-4.0222 -3.1454 -2.5046 0.9775
-3.8923 -3.3044 -2.5045 0.9775
-3.7562 -3.4580 -2.5044 0.9775
-3.6140 -3.6061 -2.5043 0.9775
-3.5406 -3.6779 -2.5042 0.9775
-3.4659 -3.7483 -2.5042 0.9775
-3.3122 -3.8844 -2.5041 0.9775
-3.2334 -3.9501 -2.5040 0.9775
-3.1532 -4.0142 -2.5039 0.9775
-2.9892 -4.1376 -2.5038 0.9775
-2.9053 -4.1967 -2.5037 0.9775
-2.8203 -4.2542 -2.5037 0.9775
-2.7341 -4.3099 -2.5036 0.9775
-2.5585 -4.4161 -2.5035 0.9775
-2.4691 -4.4665 -2.5034 0.9775
-2.1952 -4.6069 -2.5032 0.9775
-2.1020 -4.6500 -2.5031 0.9775
-1.9133 -4.7304 -2.5030 0.9775
-1.5269 -4.8683 -2.5027 0.9775
-1.4287 -4.8979 -2.5026 0.9775
-0.9297 -5.0158 -2.5023 0.9775
-0.5237 -5.0737 -2.5020 0.9775
-0.4216 -5.0830 -2.5019 0.9775
-0.3193 -5.0903 -2.5018 0.9775
-0.2169 -5.0955 -2.5017 0.9775
-0.1144 -5.0987 -2.5017 0.9775
0.0907 -5.0989 -2.5015 0.9775
0.1932 -5.0959 -2.5015 0.9775
0.2956 -5.0908 -2.5014 0.9775
0.3979 -5.0837 -2.5013 0.9775
0.7036 -5.0500 -2.5011 0.9775
0.8049 -5.0347 -2.5010 0.9775
1.1069 -4.9766 -2.5008 0.9775
1.2067 -4.9532 -2.5007 0.9775
1.6006 -4.8397 -2.5005 0.9775
1.9840 -4.6950 -2.5002 0.9775
2.3545 -4.5199 -2.4999 0.9775
2.4449 -4.4716 -2.4999 0.9776
2.6225 -4.3695 -2.4997 0.9776
2.7960 -4.2603 -2.4996 0.9776
2.8810 -4.2031 -2.4996 0.9776
3.1289 -4.0215 -2.4994 0.9776
3.2879 -3.8923 -2.4993 0.9776
3.5164 -3.6868 -2.4991 0.9776
3.5897 -3.6153 -2.4991 0.9776
3.7320 -3.4679 -2.4990 0.9776
3.8009 -3.3921 -2.4990 0.9776
3.9341 -3.2365 -2.4989 0.9776
3.9983 -3.1567 -2.4988 0.9776
4.1218 -2.9933 -2.4987 0.9776
4.1811 -2.9098 -2.4987 0.9776
4.2387 -2.8251 -2.4987 0.9776
4.3488 -2.6523 -2.4986 0.9776
4.4518 -2.4753 -2.4985 0.9776
4.7170 -1.9214 -2.4984 0.9776
4.8241 -1.6335 -2.4983 0.9776
4.9137 -1.3397 -2.4983 0.9776
4.9397 -1.2406 -2.4983 0.9776
4.9636 -1.1410 -2.4983 0.9776
4.9855 -1.0410 -2.4982 0.9776
5.0233 -0.8397 -2.4982 0.9776
5.0391 -0.7386 -2.4982 0.9776
-1.8107 4.4732 -2.5035 0.9785
-1.9892 4.3970 -2.5036 0.9785
-2.0772 4.3562 -2.5037 0.9785
-2.2508 4.2694 -2.5038 0.9785
-2.4207 4.1756 -2.5039 0.9785
-2.5043 4.1262 -2.5040 0.9785
-2.6682 4.0224 -2.5041 0.9785
-2.7486 3.9680 -2.5041 0.9785
-2.8279 3.9120 -2.5042 0.9785
-2.9830 3.7953 -2.5043 0.9785
-3.0588 3.7347 -2.5044 0.9785
-3.4185 3.4091 -2.5046 0.9785
-3.6180 3.1970 -2.5047 0.9785
-3.7437 3.0491 -2.5048 0.9785
-3.9209 2.8180 -2.5049 0.9785
-4.0311 2.6581 -2.5050 0.9785
-4.1842 2.4104 -2.5051 0.9785
-4.2319 2.3258 -2.5051 0.9785
-4.4052 1.9783 -2.5052 0.9785
-4.4813 1.7997 -2.5053 0.9785
-4.5501 1.6181 -2.5053 0.9785
-4.6655 1.2474 -2.5054 0.9785
-4.6896 1.1533 -2.5054 0.9785
-4.7119 1.0588 -2.5054 0.9785
-4.7322 0.9638 -2.5054 0.9785
-4.7507 0.8685 -2.5054 0.9785
-4.7672 0.7728 -2.5054 0.9785
-4.7818 0.6768 -2.5054 0.9785
-4.7944 0.5805 -2.5054 0.9785
-4.8207 0.2904 -2.5054 0.9785
-4.8256 0.1935 -2.5054 0.9785
-4.8285 0.0964 -2.5054 0.9785
-4.8254 -0.1949 -2.5054 0.9785
-4.8205 -0.2918 -2.5054 0.9785
-4.7941 -0.5819 -2.5053 0.9785
-4.7814 -0.6781 -2.5053 0.9785
-4.7668 -0.7742 -2.5053 0.9785
-4.7113 -1.0601 -2.5052 0.9785
-4.6890 -1.1546 -2.5052 0.9785
-4.6648 -1.2486 -2.5052 0.9785
-4.5492 -1.6193 -2.5051 0.9785
-4.5157 -1.7104 -2.5051 0.9785
-4.4042 -1.9794 -2.5050 0.9785
-4.3209 -2.1548 -2.5049 0.9785
-4.2767 -2.2412 -2.5049 0.9785
-4.1830 -2.4113 -2.5048 0.9785
-4.1336 -2.4948 -2.5047 0.9785
-3.8029 -2.9739 -2.5045 0.9785
-3.7423 -3.0497 -2.5044 0.9785
-3.6801 -3.1242 -2.5044 0.9785
-3.6165 -3.1975 -2.5043 0.9785
-3.4849 -3.3402 -2.5042 0.9785
-3.3476 -3.4775 -2.5041 0.9785
-3.0571 -3.7348 -2.5039 0.9785
-2.9044 -3.8545 -2.5038 0.9785
-2.5851 -4.0750 -2.5035 0.9785
-2.4190 -4.1754 -2.5034 0.9785
-2.3345 -4.2231 -2.5033 0.9785
-2.2491 -4.2691 -2.5033 0.9785
-2.1628 -4.3133 -2.5032 0.9785
-1.9875 -4.3966 -2.5031 0.9785
-1.8986 -4.4355 -2.5030 0.9785
-1.7187 -4.5080 -2.5029 0.9785
-1.6277 -4.5415 -2.5028 0.9785
-1.5360 -4.5732 -2.5027 0.9785
-1.3508 -4.6310 -2.5026 0.9785
-1.2574 -4.6571 -2.5025 0.9785
-1.0691 -4.7036 -2.5024 0.9785
-0.9743 -4.7241 -2.5023 0.9785
-0.8791 -4.7426 -2.5022 0.9785
-0.7835 -4.7591 -2.5022 0.9785
-0.5915 -4.7865 -2.5020 0.9785
-0.3986 -4.8062 -2.5019 0.9785
-0.3019 -4.8131 -2.5018 0.9785
-0.2050 -4.8180 -2.5018 0.9785
0.0858 -4.8212 -2.5015 0.9785
0.3762 -4.8069 -2.5013 0.9785
0.4728 -4.7982 -2.5013 0.9785
0.5691 -4.7876 -2.5012 0.9785
0.6653 -4.7751 -2.5011 0.9785
0.7611 -4.7606 -2.5011 0.9785
0.8566 -4.7442 -2.5010 0.9785
1.0466 -4.7057 -2.5009 0.9785
1.1410 -4.6836 -2.5008 0.9785
1.2349 -4.6595 -2.5007 0.9785
1.3283 -4.6336 -2.5007 0.9785
1.5134 -4.5763 -2.5005 0.9785
1.6051 -4.5448 -2.5005 0.9785
1.9648 -4.4007 -2.5002 0.9785
2.0529 -4.3602 -2.5002 0.9785
2.1401 -4.3179 -2.5001 0.9785
2.2264 -4.2740 -2.5000 0.9785
2.3118 -4.2282 -2.5000 0.9785
2.3963 -4.1808 -2.4999 0.9785
2.4798 -4.1317 -2.4999 0.9785
2.5623 -4.0809 -2.4998 0.9785
2.7242 -3.9744 -2.4997 0.9785
2.8817 -3.8615 -2.4996 0.9785
2.9587 -3.8027 -2.4995 0.9785
3.0344 -3.7424 -2.4995 0.9785
3.1090 -3.6805 -2.4994 0.9785
3.1823 -3.6172 -2.4994 0.9785
3.2543 -3.5524 -2.4993 0.9785
3.4624 -3.3496 -2.4992 0.9785
3.5290 -3.2793 -2.4992 0.9785
3.5941 -3.2076 -2.4991 0.9785
3.6578 -3.1346 -2.4991 0.9785
3.7201 -3.0604 -2.4990 0.9785
3.7808 -2.9849 -2.4990 0.9785
3.8400 -2.9083 -2.4990 0.9785
4.1122 -2.5080 -2.4988 0.9785
4.3002 -2.1695 -2.4987 0.9785
4.4230 -1.9062 -2.4986 0.9785
4.4960 -1.7268 -2.4986 0.9785
4.5617 -1.5446 -2.4985 0.9785
4.5918 -1.4526 -2.4985 0.9785
4.6710 -1.1731 -2.4985 0.9785
4.6936 -1.0790 -2.4985 0.9785
4.7143 -0.9844 -2.4984 0.9785
4.7501 -0.7941 -2.4984 0.9785
4.7651 -0.6984 -2.4984 0.9785
-1.7150 4.2368 -2.5034 0.9794
-1.7999 4.2016 -2.5035 0.9794
-2.0501 4.0857 -2.5037 0.9794
-2.1319 4.0437 -2.5037 0.9794
-2.2128 4.0001 -2.5038 0.9794
-2.2928 3.9549 -2.5038 0.9794
-2.3719 3.9081 -2.5039 0.9794
-2.5272 3.8098 -2.5040 0.9794
-2.6034 3.7583 -2.5040 0.9794
-2.6784 3.7052 -2.5041 0.9794
-2.7525 3.6507 -2.5041 0.9794
-2.8971 3.5372 -2.5042 0.9794
-3.1722 3.2933 -2.5044 0.9794
-3.2378 3.2289 -2.5045 0.9794
-3.3021 3.1632 -2.5045 0.9794
-3.3651 3.0962 -2.5045 0.9794
-3.4267 3.0280 -2.5046 0.9794
-3.4870 2.9585 -2.5046 0.9794
-3.6032 2.8160 -2.5047 0.9794
-3.7666 2.5938 -2.5048 0.9794
-3.8180 2.5176 -2.5048 0.9794
-3.8679 2.4404 -2.5049 0.9794
-3.9630 2.2829 -2.5049 0.9794
-4.0935 2.0399 -2.5050 0.9794
-4.1337 1.9572 -2.5050 0.9794
-4.2092 1.7895 -2.5051 0.9794
-4.2778 1.6189 -2.5051 0.9794
-4.3394 1.4456 -2.5051 0.9794
-4.4416 1.0923 -2.5052 0.9794
-4.4627 1.0028 -2.5052 0.9794
-4.5731 0.0913 -2.5052 0.9794
-4.5731 -0.0926 -2.5052 0.9794
-4.5591 -0.3681 -2.5052 0.9794
-4.5508 -0.4597 -2.5052 0.9794
-4.5147 -0.7332 -2.5051 0.9794
-4.4815 -0.9141 -2.5051 0.9794
-4.4622 -1.0040 -2.5051 0.9794
-4.4182 -1.1826 -2.5050 0.9794
-4.3934 -1.2712 -2.5050 0.9794
