ply
format ascii 1.0
element vertex 1581
property float32 x
property float32 y
property float32 z
property float32 I
end_header
0.4667 -13.6406 -1.9339 0.9464
1.8688 -13.8006 -1.9732 0.9453
2.1569 -13.8335 -1.9837 0.9450
2.4482 -13.8667 -1.9951 0.9447
3.0416 -13.9344 -2.0208 0.9440
3.3443 -13.9689 -2.0352 0.9436
3.6515 -14.0039 -2.0505 0.9432
3.9635 -14.0396 -2.0670 0.9428
4.2806 -14.0757 -2.0846 0.9423
10.2150 -11.2908 -2.5083 0.9401
10.6604 -10.8719 -2.5084 0.9401
11.0885 -10.4354 -2.5084 0.9401
11.2959 -10.2108 -2.5085 0.9401
11.4988 -9.9820 -2.5085 0.9401
11.6969 -9.7492 -2.5085 0.9401
11.8904 -9.5125 -2.5085 0.9401
12.0791 -9.2718 -2.5085 0.9401
12.2629 -9.0275 -2.5085 0.9401
12.4417 -8.7795 -2.5086 0.9401
12.7841 -8.2729 -2.5086 0.9401
13.1059 -7.7530 -2.5086 0.9401
13.5488 -6.9499 -2.5085 0.9401
13.6855 -6.6764 -2.5085 0.9401
14.0623 -5.8403 -2.5085 0.9401
14.1766 -5.5567 -2.5084 0.9401
14.2851 -5.2709 -2.5084 0.9401
14.3879 -4.9830 -2.5084 0.9401
14.4848 -4.6930 -2.5083 0.9401
14.5759 -4.4012 -2.5083 0.9401
14.6611 -4.1076 -2.5083 0.9401
15.1269 -1.7095 -2.5079 0.9402
15.1826 -1.1008 -2.5077 0.9402
15.2012 -0.7957 -2.5077 0.9402
15.2137 -0.4903 -2.5076 0.9402
15.2202 0.1208 -2.5074 0.9402
15.2142 0.4264 -2.5074 0.9402
15.2021 0.7318 -2.5073 0.9402
15.1595 1.3414 -2.5071 0.9402
15.1290 1.6454 -2.5070 0.9402
15.0923 1.9488 -2.5069 0.9402
15.0496 2.2513 -2.5069 0.9402
14.9460 2.8535 -2.5067 0.9402
14.5818 4.3362 -2.5062 0.9402
14.2924 5.2055 -2.5058 0.9402
14.1844 5.4912 -2.5057 0.9402
13.7909 6.3181 -2.4990 0.9404
13.4169 6.4758 -2.4543 0.9414
12.9586 6.5786 -2.3941 0.9428
12.1713 7.4635 -2.3521 0.9438
12.0184 7.7060 -2.3519 0.9438
11.6981 8.1814 -2.3517 0.9438
11.1826 8.8695 -2.3513 0.9438
11.0017 9.0917 -2.3512 0.9438
10.8164 9.3102 -2.3511 0.9438
10.4328 9.7359 -2.3508 0.9438
10.0324 10.1458 -2.3506 0.9438
9.6159 10.5393 -2.3503 0.9438
9.1840 10.9156 -2.3500 0.9438
8.7374 11.2743 -2.3498 0.9438
8.5088 11.4468 -2.3496 0.9438
7.5613 12.0898 -2.3491 0.9438
7.3166 12.2386 -2.3490 0.9438
6.8186 12.5210 -2.3487 0.9438
6.5655 12.6546 -2.3486 0.9438
6.3097 12.7832 -2.3485 0.9438
5.2626 13.2453 -2.3479 0.9439
3.7897 10.1260 -1.7812 0.9571
4.4550 13.5359 -2.3476 0.9439
2.7790 9.7448 -1.6693 0.9598
2.5730 9.7616 -1.6630 0.9599
2.3688 9.7796 -1.6577 0.9600
2.7521 13.7541 -2.3108 0.9447
1.6318 13.8634 -2.2996 0.9450
1.3685 14.0517 -2.3258 0.9444
0.7992 14.0223 -2.3138 0.9447
0.5193 14.0865 -2.3222 0.9445
-0.0465 14.0629 -2.3167 0.9446
-1.1895 14.1912 -2.3460 0.9439
-1.7579 14.1290 -2.3455 0.9439
-2.3232 14.0437 -2.3450 0.9439
-2.8846 13.9369 -2.3446 0.9439
-3.4416 13.8088 -2.3444 0.9439
-3.7180 13.7363 -2.3443 0.9439
-3.9929 13.6584 -2.3443 0.9439
-4.5377 13.4861 -2.3441 0.9439
-5.6043 13.0768 -2.3438 0.9440
-5.8655 12.9613 -2.3437 0.9440
-6.3808 12.7146 -2.3436 0.9440
-6.8857 12.4475 -2.3434 0.9440
-7.1340 12.3064 -2.3434 0.9440
-7.3795 12.1603 -2.3433 0.9440
-8.7863 11.1839 -2.3430 0.9440
-9.0089 11.0050 -2.3430 0.9440
-9.2279 10.8217 -2.3429 0.9440
-9.8622 10.2461 -2.3428 0.9440
-10.0658 10.0459 -2.3428 0.9440
-10.4608 9.6335 -2.3427 0.9440
-11.0215 8.9860 -2.3427 0.9440
-11.1996 8.7629 -2.3427 0.9440
-11.3732 8.5362 -2.3426 0.9440
-11.5423 8.3061 -2.3426 0.9440
-12.0213 7.5962 -2.3426 0.9440
-12.1714 7.3532 -2.3426 0.9440
-12.3166 7.1074 -2.3426 0.9440
-12.7604 7.0258 -2.3997 0.9427
-13.2325 6.9432 -2.4618 0.9412
-13.5195 6.7512 -2.4894 0.9406
-13.6743 6.4889 -2.4935 0.9405
-14.0472 5.6567 -2.4947 0.9405
-14.1581 5.3736 -2.4947 0.9405
-14.2633 5.0883 -2.4948 0.9405
-14.3628 4.8010 -2.4948 0.9405
-14.4565 4.5117 -2.4948 0.9405
-14.7729 3.3376 -2.4950 0.9404
-14.8372 3.0403 -2.4951 0.9404
-15.0689 1.5381 -2.4953 0.9404
-15.0971 1.2353 -2.4954 0.9404
-15.1193 0.9319 -2.4955 0.9404
-15.1453 0.3242 -2.4956 0.9404
-15.1492 0.0201 -2.4957 0.9404
-15.1471 -0.2841 -2.4957 0.9404
-15.1244 -0.8921 -2.4959 0.9404
-15.0448 -1.8011 -2.4962 0.9404
-15.0061 -2.1029 -2.4963 0.9404
-14.9614 -2.4038 -2.4963 0.9404
-14.8540 -3.0028 -2.4965 0.9404
-14.7913 -3.3005 -2.4966 0.9404
-14.7226 -3.5970 -2.4967 0.9404
-13.9626 -5.9075 -2.4976 0.9404
-13.8418 -6.1869 -2.4977 0.9404
-13.7155 -6.4639 -2.4978 0.9404
-13.5836 -6.7383 -2.4979 0.9404
-13.4462 -7.0100 -2.4981 0.9404
-13.3034 -7.2789 -2.4982 0.9404
-13.1552 -7.5449 -2.4983 0.9404
-12.8430 -8.0678 -2.4986 0.9404
-12.6790 -8.3244 -2.4987 0.9404
-12.5100 -8.5777 -2.4988 0.9404
-11.1891 -10.2495 -2.4997 0.9403
-10.9817 -10.4726 -2.4999 0.9403
-10.7698 -10.6916 -2.5000 0.9403
-10.5535 -10.9063 -2.5001 0.9403
-10.3330 -11.1166 -2.5003 0.9403
-9.5732 -11.6313 -2.4817 0.9408
-8.7464 -11.5414 -2.3856 0.9430
-8.3813 -11.5337 -2.3487 0.9438
-7.9124 -11.8622 -2.3490 0.9438
-7.6730 -12.0193 -2.3491 0.9438
-7.1851 -12.3191 -2.3494 0.9438
-6.6855 -12.5990 -2.3497 0.9438
-6.4315 -12.7314 -2.3498 0.9438
-6.1750 -12.8587 -2.3499 0.9438
-5.9159 -12.9808 -2.3501 0.9438
-5.6544 -13.0977 -2.3502 0.9438
-4.8564 -13.4166 -2.3506 0.9438
-4.5864 -13.5121 -2.3507 0.9438
-4.3144 -13.6022 -2.3508 0.9438
-3.1627 -13.7034 -2.3168 0.9446
-2.2942 -13.6436 -2.2792 0.9455
-2.0105 -13.6241 -2.2687 0.9457
-1.2206 -11.4336 -1.8943 0.9545
-1.1734 -13.5665 -2.2433 0.9463
-0.8981 -13.5476 -2.2367 0.9464
-0.6243 -13.5288 -2.2311 0.9466
-0.3528 -13.5471 -2.2325 0.9465
-0.0809 -13.5781 -2.2369 0.9464
1.3010 -13.7358 -2.2729 0.9456
2.4482 -13.8666 -2.3197 0.9445
2.7430 -13.9003 -2.3341 0.9442
3.6053 -13.8267 -2.3540 0.9437
3.8823 -13.7521 -2.3541 0.9437
4.7037 -13.4949 -2.3543 0.9437
8.7495 -10.0701 -2.5074 0.9472
8.9500 -9.8926 -2.5075 0.9472
9.3402 -9.5255 -2.5075 0.9472
9.7153 -9.1430 -2.5076 0.9471
10.0747 -8.7458 -2.5076 0.9471
10.2483 -8.5418 -2.5076 0.9471
10.5831 -8.1236 -2.5077 0.9471
10.7441 -7.9095 -2.5077 0.9471
11.0531 -7.4718 -2.5077 0.9471
11.4828 -6.7928 -2.5077 0.9471
11.6169 -6.5609 -2.5077 0.9471
11.8708 -6.0892 -2.5077 0.9471
12.1056 -5.6076 -2.5076 0.9471
12.3208 -5.1170 -2.5076 0.9471
12.5160 -4.6182 -2.5076 0.9471
12.7709 -3.8562 -2.5075 0.9472
12.8456 -3.5990 -2.5074 0.9472
12.9151 -3.3403 -2.5074 0.9472
13.0383 -2.8190 -2.5073 0.9472
13.0920 -2.5566 -2.5073 0.9472
13.1405 -2.2932 -2.5072 0.9472
13.1836 -2.0289 -2.5072 0.9472
13.2215 -1.7637 -2.5071 0.9472
13.2539 -1.4979 -2.5071 0.9472
13.3191 -0.6972 -2.5069 0.9472
13.3202 0.6412 -2.5066 0.9472
13.3043 0.9084 -2.5065 0.9472
13.2830 1.1754 -2.5064 0.9472
13.2243 1.7076 -2.5063 0.9472
13.1442 2.2370 -2.5061 0.9472
12.9844 3.0239 -2.5059 0.9472
12.4294 4.8118 -2.5052 0.9472
12.2253 5.3065 -2.5050 0.9472
12.0014 5.7925 -2.5048 0.9472
11.8821 6.0321 -2.5047 0.9472
11.7581 6.2692 -2.5046 0.9472
10.8098 6.9311 -2.4136 0.9491
10.2515 7.1697 -2.3514 0.9504
9.8000 7.7728 -2.3511 0.9504
9.6415 7.9676 -2.3509 0.9504
9.1430 8.5324 -2.3506 0.9504
8.9695 8.7138 -2.3505 0.9504
8.4274 9.2366 -2.3502 0.9504
8.2398 9.4035 -2.3500 0.9504
7.8549 9.7258 -2.3498 0.9504
7.6577 9.8811 -2.3497 0.9504
7.4574 10.0323 -2.3496 0.9504
7.2541 10.1796 -2.3495 0.9504
7.0479 10.3226 -2.3494 0.9504
5.2683 8.0590 -1.8097 0.9616
5.0804 8.1230 -1.8008 0.9618
6.4128 10.7266 -2.3490 0.9504
6.1958 10.8527 -2.3489 0.9504
5.9764 10.9744 -2.3488 0.9504
5.7545 11.0916 -2.3487 0.9504
5.5304 11.2043 -2.3486 0.9504
5.3041 11.3125 -2.3484 0.9504
4.8451 11.5153 -2.3482 0.9504
3.5648 8.9722 -1.8147 0.9615
3.3640 8.9886 -1.8039 0.9617
2.7783 9.7423 -1.9042 0.9596
2.5723 9.7591 -1.8970 0.9598
2.2294 10.0849 -1.9413 0.9588
1.7082 12.3681 -2.3468 0.9505
1.2102 12.4256 -2.3466 0.9505
0.4599 12.4743 -2.3463 0.9505
0.2093 12.4805 -2.3462 0.9505
-0.0413 12.4816 -2.3461 0.9505
-0.5423 12.4689 -2.3459 0.9505
-1.7889 12.3494 -2.3454 0.9505
-2.0364 12.3105 -2.3453 0.9505
-2.2831 12.2667 -2.3453 0.9505
-3.2595 12.0423 -2.3449 0.9505
-4.2146 11.7405 -2.3446 0.9505
-4.4493 11.6532 -2.3446 0.9505
-4.6822 11.5612 -2.3445 0.9505
-5.1423 11.3633 -2.3444 0.9505
-5.3693 11.2574 -2.3443 0.9505
-5.5941 11.1470 -2.3442 0.9505
-5.8166 11.0322 -2.3442 0.9505
-6.6824 10.5290 -2.3440 0.9505
-6.8923 10.3925 -2.3439 0.9505
-7.0995 10.2519 -2.3439 0.9505
-7.7033 9.8053 -2.3438 0.9505
-8.0905 9.4879 -2.3437 0.9505
-8.4647 9.1552 -2.3436 0.9505
-8.6467 8.9833 -2.3436 0.9505
-8.8252 8.8077 -2.3436 0.9505
-9.0002 8.6287 -2.3435 0.9505
-9.1715 8.4462 -2.3435 0.9505
-9.6631 7.8785 -2.3435 0.9505
-9.9716 7.4842 -2.3434 0.9505
-10.2178 7.3530 -2.3661 0.9501
-10.5889 7.3018 -2.4176 0.9490
-11.4992 6.6357 -2.4955 0.9474
-11.8780 5.9315 -2.4955 0.9474
-11.9947 5.6919 -2.4955 0.9474
-12.2138 5.2058 -2.4955 0.9474
-12.4131 4.7113 -2.4956 0.9474
-12.5925 4.2092 -2.4956 0.9474
-12.6747 3.9556 -2.4957 0.9474
-12.8236 3.4437 -2.4957 0.9474
-12.8904 3.1855 -2.4958 0.9474
-12.9519 2.9262 -2.4958 0.9474
-13.1812 1.6135 -2.4960 0.9474
-13.2359 1.0830 -2.4962 0.9474
-13.2553 0.8171 -2.4962 0.9474
-13.2694 0.5508 -2.4963 0.9474
-13.2815 0.0176 -2.4964 0.9474
-13.2795 -0.2491 -2.4965 0.9474
-13.2722 -0.5157 -2.4965 0.9474
-13.2415 -1.0481 -2.4967 0.9474
-13.2182 -1.3138 -2.4968 0.9474
-13.0719 -2.3704 -2.4971 0.9474
-13.0221 -2.6324 -2.4972 0.9474
-12.9671 -2.8935 -2.4972 0.9474
-12.8413 -3.4120 -2.4974 0.9474
-12.7707 -3.6692 -2.4975 0.9474
-12.6141 -4.1793 -2.4977 0.9474
-12.5281 -4.4319 -2.4978 0.9474
-12.3410 -4.9317 -2.4980 0.9473
-12.1340 -5.4236 -2.4982 0.9473
-12.0232 -5.6664 -2.4983 0.9473
-11.3972 -6.8443 -2.4988 0.9473
-10.9659 -7.5190 -2.4992 0.9473
-10.8132 -7.7380 -2.4993 0.9473
-9.9855 -8.7849 -2.4998 0.9473
-9.4399 -9.3714 -2.5002 0.9473
-9.2503 -9.5595 -2.5003 0.9473
-8.2476 -10.4410 -2.5009 0.9473
-7.6052 -10.9202 -2.5013 0.9473
-7.3778 -11.0608 -2.4991 0.9473
-7.1471 -11.1955 -2.4965 0.9474
-6.9141 -11.3256 -2.4941 0.9474
-6.2826 -11.2864 -2.4279 0.9488
-5.9801 -11.2697 -2.3980 0.9494
-5.6848 -11.2531 -2.3697 0.9500
-5.1848 -11.3766 -2.3499 0.9504
-4.9556 -11.4789 -2.3501 0.9504
-4.7243 -11.5767 -2.3502 0.9504
-4.4911 -11.6697 -2.3503 0.9504
-4.2561 -11.7581 -2.3504 0.9504
-4.0194 -11.8418 -2.3505 0.9504
-3.0569 -12.1284 -2.3510 0.9504
-2.5678 -12.2425 -2.3512 0.9504
-2.0744 -12.3368 -2.3514 0.9504
-1.8264 -12.3765 -2.3515 0.9504
-1.5776 -12.4113 -2.3516 0.9504
-1.2194 -11.4221 -2.1591 0.9543
-0.5769 -12.5000 -2.3520 0.9503
-0.3258 -12.5096 -2.3521 0.9503
-0.0746 -12.5141 -2.3522 0.9503
0.1767 -12.5136 -2.3523 0.9503
0.9298 -12.4818 -2.3526 0.9503
1.1803 -12.4611 -2.3527 0.9503
1.4303 -12.4354 -2.3528 0.9503
2.1766 -12.3281 -2.3530 0.9503
2.4237 -12.2823 -2.3531 0.9503
3.1591 -12.1154 -2.3534 0.9503
3.4018 -12.0500 -2.3534 0.9503
3.8831 -11.9044 -2.3536 0.9503
4.1214 -11.8245 -2.3537 0.9503
7.7781 -8.9521 -2.5068 0.9527
7.9564 -8.7943 -2.5068 0.9527
8.1314 -8.6328 -2.5068 0.9527
8.3032 -8.4679 -2.5069 0.9527
8.6366 -8.1279 -2.5069 0.9527
8.9561 -7.7747 -2.5070 0.9527
9.1104 -7.5934 -2.5070 0.9527
9.2611 -7.4090 -2.5070 0.9527
9.5512 -7.0313 -2.5070 0.9527
10.0846 -6.2423 -2.5070 0.9527
10.3270 -5.8324 -2.5070 0.9527
10.5528 -5.4131 -2.5070 0.9527
10.7615 -4.9850 -2.5070 0.9527
10.8593 -4.7679 -2.5069 0.9527
10.9528 -4.5489 -2.5069 0.9527
11.2065 -3.8812 -2.5069 0.9527
11.4194 -3.1994 -2.5068 0.9527
11.5384 -2.7383 -2.5067 0.9527
11.6386 -2.2728 -2.5066 0.9527
11.6817 -2.0386 -2.5066 0.9527
11.7201 -1.8036 -2.5066 0.9527
11.7537 -1.5679 -2.5065 0.9527
11.8407 -0.6198 -2.5063 0.9527
11.8505 -0.3819 -2.5063 0.9527
11.8418 0.5700 -2.5060 0.9527
11.8277 0.8076 -2.5060 0.9527
11.7851 1.2818 -2.5058 0.9527
11.7567 1.5181 -2.5058 0.9527
11.6429 2.2229 -2.5055 0.9527
11.5956 2.4561 -2.5055 0.9527
11.4869 2.9195 -2.5053 0.9527
11.3597 3.3781 -2.5051 0.9527
11.0506 4.2780 -2.5048 0.9527
10.9621 4.4989 -2.5047 0.9527
10.3396 5.7824 -2.5042 0.9527
10.2211 5.9886 -2.5041 0.9527
10.0983 6.1924 -2.5040 0.9527
9.6958 6.7810 -2.5010 0.9528
9.5466 6.9663 -2.4981 0.9528
9.3605 7.1228 -2.4863 0.9530
8.4433 7.2676 -2.3549 0.9555
8.2805 7.4221 -2.3506 0.9556
8.1295 7.5865 -2.3505 0.9556
7.9752 7.7479 -2.3504 0.9556
7.6571 8.0612 -2.3502 0.9556
7.3266 8.3613 -2.3499 0.9556
7.1570 8.5064 -2.3498 0.9556
6.9844 8.6480 -2.3497 0.9556
6.8091 8.7861 -2.3496 0.9556
6.6310 8.9206 -2.3495 0.9556
6.4503 9.0516 -2.3494 0.9556
5.2622 8.0496 -2.0328 0.9614
5.0708 8.1078 -2.0214 0.9617
5.7023 9.5383 -2.3490 0.9556
5.5094 9.6504 -2.3489 0.9556
4.9178 9.9633 -2.3486 0.9556
3.5649 8.9723 -2.0408 0.9613
3.1654 9.0048 -2.0176 0.9617
2.5815 9.0523 -1.9898 0.9622
2.0113 9.0986 -1.9697 0.9626
1.6367 9.1291 -1.9605 0.9628
1.4463 9.1173 -1.9513 0.9630
1.2979 11.0269 -2.3470 0.9556
1.0762 11.0503 -2.3469 0.9556
0.1862 11.0993 -2.3465 0.9556
-0.0367 11.1004 -2.3464 0.9556
-0.4823 11.0892 -2.3462 0.9556
-0.7048 11.0768 -2.3462 0.9556
-0.9270 11.0601 -2.3461 0.9556
-1.5910 10.9831 -2.3458 0.9556
-1.8112 10.9486 -2.3458 0.9556
-2.0305 10.9097 -2.3457 0.9556
-2.2491 10.8663 -2.3456 0.9556
-2.6834 10.7667 -2.3455 0.9556
-2.8989 10.7103 -2.3454 0.9557
-3.5381 10.5154 -2.3452 0.9557
-3.9572 10.3643 -2.3451 0.9557
-4.1644 10.2825 -2.3450 0.9557
-4.5737 10.1066 -2.3449 0.9557
-4.7755 10.0125 -2.3448 0.9557
-6.1302 9.2434 -2.3445 0.9557
-6.3145 9.1183 -2.3445 0.9557
-6.6752 8.8571 -2.3444 0.9557
-7.3639 8.2926 -2.3443 0.9557
-7.5288 8.1430 -2.3442 0.9557
-7.6907 7.9901 -2.3442 0.9557
-8.0052 7.6747 -2.3442 0.9557
-8.2036 7.5548 -2.3574 0.9554
-8.5015 7.5193 -2.3991 0.9547
-8.8100 7.4824 -2.4433 0.9538
-9.1249 7.4397 -2.4887 0.9530
-9.8541 6.5072 -2.4961 0.9529
-9.9828 6.3080 -2.4961 0.9529
-10.1074 6.1063 -2.4961 0.9529
-10.2280 5.9021 -2.4961 0.9529
-10.3445 5.6956 -2.4961 0.9529
-10.5648 5.2758 -2.4962 0.9529
-10.8635 4.6303 -2.4962 0.9529
-10.9543 4.4112 -2.4962 0.9529
-11.0408 4.1904 -2.4962 0.9529
-11.2003 3.7439 -2.4963 0.9529
-11.2734 3.5183 -2.4963 0.9529
-11.4058 3.0629 -2.4964 0.9529
-11.5700 2.3708 -2.4965 0.9529
-11.6155 2.1381 -2.4965 0.9529
-11.6562 1.9045 -2.4966 0.9529
-11.6923 1.6701 -2.4966 0.9529
-11.7896 0.7267 -2.4968 0.9529
-11.8020 0.4899 -2.4969 0.9529
-11.8097 0.2528 -2.4969 0.9529
-11.8127 0.0156 -2.4970 0.9529
-11.8109 -0.2215 -2.4970 0.9529
-11.7563 -1.1685 -2.4973 0.9528
-11.7005 -1.6396 -2.4974 0.9528
-11.6656 -1.8743 -2.4975 0.9528
-11.4207 -3.0345 -2.4979 0.9528
-10.9755 -4.3860 -2.4984 0.9528
-10.8856 -4.6056 -2.4985 0.9528
-10.7913 -4.8235 -2.4986 0.9528
-10.6927 -5.0393 -2.4986 0.9528
-10.4825 -5.4649 -2.4988 0.9528
-10.3711 -5.6745 -2.4989 0.9528
-10.2555 -5.8818 -2.4990 0.9528
-10.1357 -6.0868 -2.4991 0.9528
-9.7520 -6.6867 -2.4994 0.9528
-9.6162 -6.8814 -2.4995 0.9528
-9.4765 -7.0734 -2.4996 0.9528
-9.3329 -7.2625 -2.4997 0.9528
-9.1856 -7.4488 -2.4998 0.9528
-8.8799 -7.8122 -2.5000 0.9528
-8.7216 -7.9892 -2.5001 0.9528
-8.3946 -8.3337 -2.5004 0.9528
-8.2259 -8.5009 -2.5005 0.9528
-8.0539 -8.6647 -2.5006 0.9528
-7.8787 -8.8250 -2.5007 0.9528
-6.7627 -9.7105 -2.5013 0.9528
-6.5667 -9.8447 -2.5014 0.9528
-6.1667 -10.1013 -2.5017 0.9528
-5.9629 -10.2235 -2.5018 0.9528
-5.7567 -10.3416 -2.5019 0.9528
-5.5481 -10.4556 -2.5020 0.9528
-4.6877 -10.8585 -2.5000 0.9528
-3.7764 -11.1259 -2.4836 0.9531
-3.5271 -11.1201 -2.4660 0.9534
-3.0383 -11.1084 -2.4343 0.9540
-2.5626 -11.1032 -2.4087 0.9545
-1.8659 -11.0968 -2.3786 0.9550
-1.1850 -11.0997 -2.3596 0.9554
-0.9604 -11.1035 -2.3558 0.9555
-0.7363 -11.1068 -2.3529 0.9555
-0.5129 -11.1136 -2.3517 0.9555
0.6047 -11.1299 -2.3561 0.9555
0.8295 -11.1350 -2.3602 0.9554
1.0554 -11.1428 -2.3659 0.9553
1.7409 -11.1658 -2.3887 0.9548
2.2079 -11.1889 -2.4107 0.9544
2.4448 -11.2003 -2.4233 0.9542
2.9265 -11.2236 -2.4518 0.9537
3.6657 -11.2381 -2.4987 0.9528
7.7661 -7.3087 -2.5064 0.9571
7.9113 -7.1513 -2.5064 0.9571
8.0534 -6.9911 -2.5064 0.9571
8.1922 -6.8280 -2.5064 0.9571
8.7137 -6.1488 -2.5065 0.9571
8.9535 -5.7941 -2.5065 0.9571
9.0681 -5.6131 -2.5065 0.9571
9.1789 -5.4299 -2.5065 0.9571
9.2861 -5.2445 -2.5065 0.9571
9.3895 -5.0570 -2.5065 0.9571
9.5849 -4.6760 -2.5064 0.9571
9.6768 -4.4825 -2.5064 0.9571
10.0770 -3.4900 -2.5063 0.9571
10.1449 -3.2869 -2.5063 0.9571
10.2087 -3.0826 -2.5063 0.9571
10.3240 -2.6701 -2.5062 0.9571
10.4227 -2.2534 -2.5062 0.9571
10.5044 -1.8332 -2.5061 0.9571
10.5389 -1.6218 -2.5061 0.9571
10.5952 -1.1974 -2.5060 0.9571
10.6344 -0.7710 -2.5059 0.9571
10.6563 -0.3434 -2.5058 0.9571
10.6611 0.0846 -2.5057 0.9571
10.6570 0.2987 -2.5056 0.9571
10.6486 0.5126 -2.5056 0.9571
10.6360 0.7262 -2.5055 0.9571
10.5722 1.3651 -2.5053 0.9571
10.4275 2.2087 -2.5051 0.9571
10.3298 2.6254 -2.5049 0.9572
10.2747 2.8322 -2.5049 0.9572
10.2155 3.0378 -2.5048 0.9572
10.1521 3.2422 -2.5047 0.9572
10.0847 3.4453 -2.5046 0.9572
10.0131 3.6470 -2.5046 0.9572
9.6870 4.4380 -2.5042 0.9572
9.2985 5.2001 -2.5039 0.9572
9.1919 5.3856 -2.5038 0.9572
9.0816 5.5689 -2.5037 0.9572
8.8501 5.9286 -2.5035 0.9572
8.7289 6.1049 -2.5034 0.9572
8.6043 6.2786 -2.5034 0.9572
8.3447 6.6185 -2.5032 0.9572
8.2098 6.7845 -2.5031 0.9572
7.9169 7.0961 -2.4987 0.9573
7.5592 7.3438 -2.4769 0.9576
6.7920 7.4442 -2.3683 0.9594
6.5894 7.5199 -2.3499 0.9597
6.4368 7.6504 -2.3498 0.9598
6.2816 7.7778 -2.3497 0.9598
6.1240 7.9021 -2.3496 0.9598
5.9639 8.0231 -2.3495 0.9598
4.9552 8.6797 -2.3489 0.9598
4.6024 8.8709 -2.3488 0.9598
4.0595 9.1308 -2.3485 0.9598
3.7238 8.8502 -2.2566 0.9613
3.5229 8.8666 -2.2423 0.9616
3.3244 8.8827 -2.2291 0.9618
3.1281 8.8987 -2.2168 0.9620
2.9357 8.9197 -2.2070 0.9621
2.7461 8.9446 -2.1990 0.9623
2.5627 8.9864 -2.1962 0.9623
1.4463 9.1173 -2.1696 0.9628
1.3664 9.8934 -2.3473 0.9598
1.1675 9.9185 -2.3472 0.9598
0.5682 9.9698 -2.3469 0.9598
0.3679 9.9788 -2.3468 0.9598
-0.4338 9.9749 -2.3465 0.9598
-0.6340 9.9638 -2.3465 0.9598
-1.0334 9.9297 -2.3463 0.9598
-1.4312 9.8796 -2.3462 0.9598
-2.0231 9.7747 -2.3460 0.9598
-2.2189 9.7318 -2.3459 0.9598
-2.8006 9.5798 -2.3457 0.9598
-3.1827 9.4592 -2.3456 0.9598
-3.3719 9.3932 -2.3455 0.9598
-3.5598 9.3233 -2.3455 0.9598
-3.9310 9.1725 -2.3454 0.9598
-4.1143 9.0915 -2.3453 0.9598
-4.2959 9.0069 -2.3453 0.9598
-4.6539 8.8268 -2.3452 0.9598
-4.8301 8.7314 -2.3451 0.9598
-5.0043 8.6325 -2.3451 0.9598
-5.3467 8.4244 -2.3450 0.9598
-5.6804 8.2027 -2.3449 0.9598
-6.1636 7.8455 -2.3448 0.9598
-6.5473 7.6781 -2.3715 0.9594
-6.7963 7.6534 -2.4056 0.9588
-7.6573 7.3412 -2.4931 0.9573
-7.9574 7.0381 -2.4967 0.9573
-8.3666 6.5462 -2.4967 0.9573
-8.6226 6.2050 -2.4967 0.9573
-8.8647 5.8538 -2.4967 0.9573
-9.0926 5.4932 -2.4967 0.9573
-9.2011 5.3096 -2.4967 0.9573
-9.3058 5.1238 -2.4967 0.9573
-9.4069 4.9359 -2.4967 0.9573
-9.8545 3.9683 -2.4968 0.9573
-10.0060 3.5696 -2.4968 0.9573
-10.2030 2.9608 -2.4969 0.9573
-10.2605 2.7554 -2.4969 0.9573
-10.3631 2.3413 -2.4970 0.9573
-10.4491 1.9234 -2.4970 0.9573
-10.4857 1.7132 -2.4971 0.9573
-10.5182 1.5024 -2.4971 0.9573
-10.5464 1.2909 -2.4971 0.9573
-10.5704 1.0790 -2.4972 0.9573
-10.5901 0.8665 -2.4972 0.9573
-10.6263 0.0141 -2.4974 0.9573
-10.6247 -0.1993 -2.4975 0.9573
-10.6188 -0.4126 -2.4975 0.9573
-10.5941 -0.8386 -2.4977 0.9573
-10.5754 -1.0511 -2.4977 0.9573
-10.4938 -1.6860 -2.4979 0.9573
-10.4581 -1.8964 -2.4980 0.9573
-10.4182 -2.1061 -2.4980 0.9573
-10.3258 -2.5228 -2.4982 0.9573
-10.2733 -2.7296 -2.4982 0.9573
-10.2168 -2.9355 -2.4983 0.9573
-9.8726 -3.9453 -2.4987 0.9573
-9.5255 -4.7252 -2.4990 0.9572
-9.4290 -4.9157 -2.4991 0.9572
-9.3288 -5.1042 -2.4992 0.9572
-9.2247 -5.2906 -2.4993 0.9572
-9.1169 -5.4750 -2.4994 0.9572
-8.6495 -6.1897 -2.4997 0.9572
-8.5238 -6.3623 -2.4998 0.9572
-8.3947 -6.5324 -2.4999 0.9572
-7.9871 -7.0267 -2.5002 0.9572
-7.8447 -7.1859 -2.5003 0.9572
-7.6991 -7.3423 -2.5004 0.9572
-7.5504 -7.4956 -2.5005 0.9572
-7.3987 -7.6460 -2.5006 0.9572
-7.2440 -7.7933 -2.5007 0.9572
-6.9258 -8.0785 -2.5009 0.9572
-6.7625 -8.2162 -2.5010 0.9572
-6.0824 -8.7337 -2.5013 0.9572
-5.9061 -8.8544 -2.5014 0.9572
-5.7273 -8.9715 -2.5015 0.9572
-5.5463 -9.0851 -2.5016 0.9572
-5.3630 -9.1950 -2.5017 0.9572
-4.9899 -9.4036 -2.5019 0.9572
-4.6087 -9.5971 -2.5021 0.9572
-4.4153 -9.6881 -2.5022 0.9572
-2.8097 -10.2727 -2.5030 0.9572
-2.6030 -10.3274 -2.5031 0.9572
-1.7663 -10.5045 -2.5035 0.9572
-0.9180 -10.6139 -2.5038 0.9572
-0.7047 -10.6302 -2.5038 0.9572
-0.0635 -10.6535 -2.5039 0.9572
0.1504 -10.6533 -2.5040 0.9572
0.3643 -10.6491 -2.5043 0.9572
0.5781 -10.6403 -2.5044 0.9572
0.7916 -10.6269 -2.5045 0.9572
1.0049 -10.6092 -2.5046 0.9572
1.2177 -10.5872 -2.5046 0.9572
1.4301 -10.5609 -2.5047 0.9572
1.8530 -10.4956 -2.5049 0.9572
2.4817 -10.3659 -2.5051 0.9571
2.6894 -10.3143 -2.5051 0.9571
3.3057 -10.1345 -2.5053 0.9571
3.5086 -10.0663 -2.5054 0.9571
6.3476 -7.3057 -2.5058 0.9608
6.4930 -7.1768 -2.5058 0.9608
6.7761 -6.9105 -2.5059 0.9608
6.9135 -6.7731 -2.5059 0.9608
7.3088 -6.3448 -2.5060 0.9608
7.5577 -6.0463 -2.5060 0.9608
7.6776 -5.8933 -2.5060 0.9608
7.7944 -5.7380 -2.5060 0.9608
8.1258 -5.2584 -2.5060 0.9608
8.2297 -5.0942 -2.5060 0.9608
8.6118 -4.4175 -2.5060 0.9608
8.6987 -4.2437 -2.5060 0.9608
8.7822 -4.0681 -2.5060 0.9608
8.8620 -3.8910 -2.5060 0.9608
8.9383 -3.7122 -2.5059 0.9608
9.0800 -3.3504 -2.5059 0.9608
9.2071 -2.9830 -2.5059 0.9608
9.2650 -2.7976 -2.5058 0.9608
9.3192 -2.6110 -2.5058 0.9608
9.4592 -2.0451 -2.5057 0.9608
9.4982 -1.8548 -2.5057 0.9608
9.5922 -1.2796 -2.5056 0.9608
9.6158 -1.0867 -2.5056 0.9608
9.6514 -0.6997 -2.5055 0.9608
9.6633 -0.5058 -2.5054 0.9608
9.6757 0.0768 -2.5053 0.9608
9.6645 0.4652 -2.5052 0.9608
9.6183 1.0461 -2.5050 0.9608
9.4639 2.0046 -2.5047 0.9608
9.3753 2.3828 -2.5046 0.9608
9.3254 2.5705 -2.5045 0.9608
9.0881 3.3100 -2.5043 0.9608
9.0195 3.4917 -2.5042 0.9608
8.7922 4.0280 -2.5040 0.9608
8.2428 5.0545 -2.5035 0.9608
7.9228 5.5411 -2.5033 0.9608
7.8097 5.6988 -2.5032 0.9608
7.6935 5.8543 -2.5031 0.9608
7.0668 6.5948 -2.5027 0.9608
6.6552 7.0063 -2.5020 0.9609
6.5080 7.1329 -2.5000 0.9609
6.2069 7.3772 -2.4962 0.9609
6.0508 7.4920 -2.4934 0.9610
5.8272 7.5191 -2.4630 0.9615
5.3915 7.5658 -2.4054 0.9623
5.1802 7.5871 -2.3786 0.9628
4.8110 7.6923 -2.3491 0.9632
4.3387 7.9671 -2.3489 0.9632
4.1777 8.0524 -2.3488 0.9632
3.6850 8.2884 -2.3486 0.9632
3.5177 8.3604 -2.3485 0.9632
3.1790 8.4943 -2.3483 0.9632
2.6616 8.6694 -2.3481 0.9632
2.3112 8.7686 -2.3479 0.9632
1.9572 8.8538 -2.3477 0.9632
1.6001 8.9246 -2.3476 0.9632
1.0598 9.0039 -2.3474 0.9632
0.8788 9.0231 -2.3473 0.9632
0.5158 9.0505 -2.3471 0.9632
0.3340 9.0587 -2.3471 0.9632
-0.0300 9.0643 -2.3469 0.9632
-0.3938 9.0553 -2.3468 0.9632
-1.1189 8.9934 -2.3465 0.9632
-1.4790 8.9408 -2.3464 0.9632
-2.0144 8.8348 -2.3462 0.9633
-2.1913 8.7924 -2.3461 0.9633
-2.3674 8.7464 -2.3461 0.9633
-2.5424 8.6969 -2.3460 0.9633
-2.7165 8.6439 -2.3460 0.9633
-3.7352 8.2537 -2.3457 0.9633
-4.0634 8.0968 -2.3456 0.9633
-4.2250 8.0135 -2.3455 0.9633
-4.5432 7.8371 -2.3455 0.9633
-4.9285 7.7654 -2.3814 0.9627
-5.7884 7.6804 -2.4901 0.9610
-5.9455 7.5679 -2.4918 0.9610
-6.1007 7.4523 -2.4936 0.9610
-6.4043 7.2120 -2.4973 0.9609
-6.6886 6.9490 -2.4973 0.9609
-7.0946 6.5335 -2.4972 0.9609
-7.4750 6.0945 -2.4972 0.9609
-7.5958 5.9432 -2.4971 0.9609
-7.7136 5.7895 -2.4971 0.9609
-7.9398 5.4751 -2.4971 0.9609
-8.1532 5.1519 -2.4971 0.9609
-8.3534 4.8204 -2.4971 0.9609
-8.4485 4.6518 -2.4971 0.9609
-8.6285 4.3088 -2.4972 0.9609
-8.7134 4.1347 -2.4972 0.9609
-8.7946 3.9590 -2.4972 0.9609
-8.9466 3.6027 -2.4972 0.9609
-9.0842 3.2407 -2.4972 0.9609
-9.1475 3.0577 -2.4973 0.9609
-9.2630 2.6880 -2.4973 0.9609
-9.3152 2.5015 -2.4973 0.9609
-9.3637 2.3140 -2.4974 0.9609
-9.4083 2.1256 -2.4974 0.9609
-9.4493 1.9363 -2.4974 0.9609
-9.5196 1.5554 -2.4975 0.9609
-9.5491 1.3640 -2.4975 0.9609
-9.5964 0.9795 -2.4976 0.9609
-9.6143 0.7867 -2.4976 0.9609
-9.6385 0.4001 -2.4977 0.9609
-9.6447 0.2065 -2.4978 0.9609
-9.6471 0.0128 -2.4978 0.9609
-9.6456 -0.1809 -2.4979 0.9609
-9.6178 -0.7613 -2.4980 0.9609
-9.6008 -0.9543 -2.4981 0.9609
-9.5799 -1.1469 -2.4981 0.9609
-9.5552 -1.3390 -2.4982 0.9609
-9.5266 -1.5306 -2.4982 0.9609
-9.4179 -2.1015 -2.4984 0.9609
-9.1610 -3.0352 -2.4988 0.9609
-9.0985 -3.2186 -2.4988 0.9609
-8.9624 -3.5815 -2.4990 0.9609
-8.8890 -3.7609 -2.4990 0.9609
-8.6472 -4.2896 -2.4993 0.9609
-8.5596 -4.4625 -2.4993 0.9609
-8.2762 -4.9701 -2.4996 0.9609
-8.1750 -5.1354 -2.4997 0.9609
-8.0705 -5.2987 -2.4997 0.9609
-7.9628 -5.4599 -2.4998 0.9609
-7.8518 -5.6188 -2.4999 0.9609
-7.6204 -5.9299 -2.5001 0.9609
-7.5001 -6.0819 -2.5001 0.9609
-7.3767 -6.2315 -2.5002 0.9609
-7.2503 -6.3786 -2.5003 0.9609
-7.1211 -6.5231 -2.5004 0.9609
-6.9889 -6.6649 -2.5005 0.9609
-6.8539 -6.8042 -2.5006 0.9609
-6.7161 -6.9406 -2.5007 0.9609
-6.4325 -7.2052 -2.5008 0.9609
-6.1385 -7.4582 -2.5010 0.9609
-5.3611 -8.0373 -2.5015 0.9609
-5.0344 -8.2466 -2.5016 0.9609
-4.8680 -8.3463 -2.5017 0.9609
-4.6996 -8.4427 -2.5018 0.9609
-4.5293 -8.5356 -2.5019 0.9609
-4.3572 -8.6252 -2.5020 0.9609
-4.1833 -8.7112 -2.5021 0.9609
-3.8304 -8.8728 -2.5023 0.9609
-3.4714 -9.0200 -2.5024 0.9609
-3.2897 -9.0882 -2.5025 0.9609
-2.7369 -9.2708 -2.5028 0.9608
-2.3627 -9.3738 -2.5029 0.9608
-2.1741 -9.4197 -2.5030 0.9608
-1.9846 -9.4617 -2.5031 0.9608
-1.4115 -9.5650 -2.5034 0.9608
-1.2192 -9.5917 -2.5034 0.9608
-1.0264 -9.6146 -2.5035 0.9608
-0.6396 -9.6486 -2.5037 0.9608
-0.2518 -9.6671 -2.5038 0.9608
0.1366 -9.6700 -2.5040 0.9608
0.3307 -9.6656 -2.5041 0.9608
0.5247 -9.6573 -2.5041 0.9608
1.2980 -9.5852 -2.5044 0.9608
1.4902 -9.5574 -2.5045 0.9608
1.6818 -9.5258 -2.5046 0.9608
2.4409 -9.3612 -2.5048 0.9608
2.8149 -9.2561 -2.5049 0.9608
6.0683 -6.4425 -2.5055 0.9639
6.1965 -6.3194 -2.5055 0.9639
6.4453 -6.0656 -2.5056 0.9639
6.5658 -5.9350 -2.5056 0.9639
6.6837 -5.8021 -2.5056 0.9639
6.7989 -5.6667 -2.5056 0.9639
6.9113 -5.5291 -2.5056 0.9639
7.0209 -5.3892 -2.5056 0.9639
7.4308 -4.8086 -2.5056 0.9639
7.7067 -4.3525 -2.5056 0.9639
7.7925 -4.1969 -2.5056 0.9639
7.9547 -3.8807 -2.5056 0.9639
8.0310 -3.7202 -2.5056 0.9639
8.1040 -3.5582 -2.5056 0.9639
8.2402 -3.2299 -2.5056 0.9639
8.4726 -2.5583 -2.5055 0.9639
8.5683 -2.2160 -2.5054 0.9639
8.6859 -1.6961 -2.5054 0.9639
8.7467 -1.3461 -2.5053 0.9639
8.8115 -0.8170 -2.5052 0.9639
8.8260 -0.6399 -2.5051 0.9639
8.8443 -0.2851 -2.5051 0.9639
8.8450 0.2479 -2.5049 0.9639
8.8381 0.4254 -2.5049 0.9639
8.8135 0.7799 -2.5048 0.9639
8.7959 0.9566 -2.5047 0.9639
8.7500 1.3089 -2.5046 0.9639
8.6901 1.6591 -2.5045 0.9639
8.6548 1.8332 -2.5045 0.9639
8.5738 2.1791 -2.5044 0.9639
8.5281 2.3508 -2.5043 0.9639
8.3705 2.8597 -2.5041 0.9639
8.3112 3.0271 -2.5040 0.9639
8.2485 3.1932 -2.5040 0.9639
8.1133 3.5216 -2.5038 0.9639
8.0407 3.6837 -2.5038 0.9639
7.9649 3.8443 -2.5037 0.9639
7.7184 4.3165 -2.5035 0.9639
7.5384 4.6226 -2.5034 0.9639
7.4439 4.7729 -2.5033 0.9639
7.2458 5.0676 -2.5031 0.9639
7.1424 5.2119 -2.5031 0.9639
7.0361 5.3541 -2.5030 0.9639
6.9270 5.4941 -2.5029 0.9639
6.8150 5.6319 -2.5028 0.9639
6.5830 5.9006 -2.5027 0.9639
6.3404 6.1597 -2.5025 0.9639
6.0877 6.4089 -2.5023 0.9639
5.8251 6.6477 -2.5022 0.9639
5.6902 6.7631 -2.5021 0.9639
5.5531 6.8758 -2.5020 0.9639
5.4138 6.9856 -2.5019 0.9639
5.1260 7.1933 -2.5005 0.9639
4.8273 7.3844 -2.4975 0.9640
4.6754 7.4756 -2.4961 0.9640
4.5219 7.5638 -2.4947 0.9640
4.3562 7.6303 -2.4873 0.9641
4.1654 7.6489 -2.4656 0.9644
3.7900 7.6784 -2.4241 0.9650
3.6068 7.6925 -2.4052 0.9653
3.2481 7.7197 -2.3710 0.9658
3.0725 7.7330 -2.3556 0.9660
2.7510 7.8257 -2.3483 0.9661
2.5932 7.8791 -2.3482 0.9661
2.4344 7.9293 -2.3482 0.9661
2.2746 7.9764 -2.3481 0.9661
2.1140 8.0202 -2.3480 0.9661
1.9525 8.0608 -2.3479 0.9661
1.7902 8.0981 -2.3479 0.9661
1.6272 8.1321 -2.3478 0.9661
1.2993 8.1904 -2.3477 0.9661
1.1346 8.2146 -2.3476 0.9661
0.9694 8.2355 -2.3475 0.9661
0.4718 8.2782 -2.3473 0.9661
0.1390 8.2900 -2.3472 0.9661
-0.1939 8.2885 -2.3470 0.9661
-0.5264 8.2736 -2.3469 0.9661
-0.6924 8.2611 -2.3469 0.9661
-0.8581 8.2453 -2.3468 0.9661
-1.3529 8.1781 -2.3466 0.9661
-1.6800 8.1168 -2.3465 0.9661
-1.8426 8.0812 -2.3465 0.9661
-2.3256 7.9551 -2.3463 0.9661
-2.6430 7.8550 -2.3462 0.9661
-2.9891 7.8286 -2.3723 0.9658
-3.5333 7.8077 -2.4261 0.9650
-3.9077 7.7867 -2.4664 0.9644
-4.0997 7.7757 -2.4885 0.9641
-4.2602 7.7013 -2.4915 0.9641
-4.7237 7.4428 -2.4955 0.9640
-4.8750 7.3506 -2.4970 0.9640
-5.3103 7.0461 -2.4978 0.9640
-5.4507 6.9380 -2.4977 0.9640
-5.5888 6.8271 -2.4977 0.9640
-5.7247 6.7134 -2.4977 0.9640
-6.1183 6.3565 -2.4976 0.9640
-6.4897 5.9765 -2.4976 0.9640
-6.6084 5.8450 -2.4976 0.9640
-6.9482 5.4365 -2.4975 0.9640
-7.0559 5.2959 -2.4975 0.9640
-7.2628 5.0083 -2.4975 0.9640
-7.3619 4.8614 -2.4975 0.9640
-7.4580 4.7126 -2.4975 0.9640
-7.5512 4.5620 -2.4975 0.9640
-7.6412 4.4094 -2.4975 0.9640
-7.7282 4.2551 -2.4975 0.9640
-7.8929 3.9415 -2.4975 0.9640
-8.0448 3.6214 -2.4975 0.9640
-8.1838 3.2956 -2.4976 0.9640
-8.2484 3.1306 -2.4976 0.9640
-8.3096 2.9644 -2.4976 0.9640
-8.4221 2.6284 -2.4976 0.9640
-8.6435 1.7712 -2.4978 0.9640
-8.7079 1.4228 -2.4978 0.9640
-8.7348 1.2476 -2.4979 0.9640
-8.7582 1.0720 -2.4979 0.9640
-8.7781 0.8960 -2.4979 0.9640
-8.8073 0.5429 -2.4980 0.9640
-8.8222 0.1889 -2.4981 0.9640
-8.8244 0.0117 -2.4981 0.9640
-8.8181 -0.3426 -2.4982 0.9640
-8.8096 -0.5196 -2.4983 0.9640
-8.7976 -0.6964 -2.4983 0.9640
-8.7141 -1.4001 -2.4985 0.9640
-8.6844 -1.5748 -2.4986 0.9640
-8.6512 -1.7489 -2.4986 0.9640
-8.4838 -2.4375 -2.4989 0.9640
-8.3795 -2.7763 -2.4990 0.9640
-8.2617 -3.1106 -2.4991 0.9640
-8.1978 -3.2760 -2.4992 0.9640
-7.9094 -3.9236 -2.4995 0.9640
-7.6595 -4.3930 -2.4997 0.9640
-7.5700 -4.5460 -2.4997 0.9640
-7.3818 -4.8465 -2.4999 0.9640
-7.2832 -4.9939 -2.5000 0.9640
-7.1817 -5.1393 -2.5000 0.9640
-7.0773 -5.2826 -2.5001 0.9640
-6.8599 -5.5628 -2.5003 0.9639
-6.6315 -5.8341 -2.5004 0.9639
-6.5132 -5.9663 -2.5005 0.9639
-6.3923 -6.0960 -2.5006 0.9639
-5.8834 -6.5901 -2.5009 0.9639
-5.7501 -6.7071 -2.5010 0.9639
-5.4765 -6.9329 -2.5011 0.9639
-5.3364 -7.0418 -2.5012 0.9639
-5.1941 -7.1477 -2.5013 0.9639
-5.0497 -7.2508 -2.5014 0.9639
-4.2982 -7.7216 -2.5018 0.9639
-3.8260 -7.9672 -2.5020 0.9639
-3.6654 -8.0427 -2.5021 0.9639
-3.1748 -8.2495 -2.5024 0.9639
-3.0087 -8.3119 -2.5024 0.9639
-2.5031 -8.4787 -2.5027 0.9639
-1.9883 -8.6148 -2.5029 0.9639
-0.4077 -8.8342 -2.5036 0.9639
-0.2303 -8.8409 -2.5036 0.9639
0.3024 -8.8395 -2.5039 0.9639
0.4798 -8.8318 -2.5039 0.9639
0.8341 -8.8059 -2.5041 0.9639
1.0107 -8.7876 -2.5041 0.9639
1.7127 -8.6791 -2.5044 0.9639
1.8866 -8.6431 -2.5044 0.9639
2.2322 -8.5608 -2.5045 0.9639
2.5742 -8.4647 -2.5046 0.9639
2.7437 -8.4114 -2.5047 0.9639
5.3419 -6.1482 -2.5051 0.9665
5.7025 -5.8156 -2.5052 0.9665
5.8181 -5.7000 -2.5052 0.9665
5.9314 -5.5821 -2.5052 0.9665
6.0424 -5.4619 -2.5053 0.9665
6.2568 -5.2150 -2.5053 0.9665
6.5595 -4.8288 -2.5053 0.9665
6.7481 -4.5616 -2.5053 0.9665
6.9258 -4.2871 -2.5053 0.9665
7.5221 -3.1241 -2.5052 0.9665
7.6414 -2.8195 -2.5052 0.9665
7.6964 -2.6655 -2.5052 0.9665
7.7483 -2.5105 -2.5052 0.9665
7.7971 -2.3543 -2.5052 0.9665
7.8852 -2.0394 -2.5051 0.9665
7.9245 -1.8806 -2.5051 0.9665
7.9606 -1.7211 -2.5051 0.9665
8.0231 -1.4001 -2.5050 0.9665
8.0726 -1.0769 -2.5050 0.9665
8.1326 -0.4257 -2.5048 0.9665
8.1428 -0.0989 -2.5047 0.9665
8.1336 0.3915 -2.5046 0.9665
8.1240 0.5547 -2.5046 0.9665
8.0754 1.0427 -2.5044 0.9665
8.0527 1.2046 -2.5044 0.9665
8.0267 1.3660 -2.5043 0.9665
7.9651 1.6871 -2.5042 0.9665
7.9294 1.8467 -2.5042 0.9665
7.8906 2.0054 -2.5041 0.9665
7.7035 2.6318 -2.5039 0.9665
7.5913 2.9388 -2.5038 0.9665
7.2576 3.6844 -2.5035 0.9665
7.1820 3.8293 -2.5034 0.9665
7.1035 3.9726 -2.5033 0.9665
6.9379 4.2544 -2.5032 0.9665
6.4757 4.9276 -2.5029 0.9665
6.3752 5.0565 -2.5028 0.9665
6.2723 5.1833 -2.5027 0.9665
6.1668 5.3081 -2.5026 0.9665
6.0588 5.4307 -2.5026 0.9665
5.4832 6.0097 -2.5022 0.9665
5.3612 6.1184 -2.5021 0.9665
5.2372 6.2246 -2.5021 0.9665
5.1110 6.3283 -2.5020 0.9665
4.9827 6.4295 -2.5019 0.9665
4.8525 6.5280 -2.5018 0.9665
4.5862 6.7171 -2.5017 0.9665
4.3126 6.8955 -2.5015 0.9665
4.1731 6.9804 -2.5015 0.9665
4.0320 7.0626 -2.5014 0.9665
3.7450 7.2183 -2.5012 0.9665
3.5977 7.2888 -2.5001 0.9666
3.2994 7.4212 -2.4980 0.9666
3.1485 7.4830 -2.4970 0.9666
2.9966 7.5419 -2.4961 0.9666
2.8435 7.5979 -2.4953 0.9666
2.6895 7.6509 -2.4944 0.9666
2.5346 7.7009 -2.4936 0.9666
2.0454 7.7601 -2.4683 0.9670
1.5575 7.7841 -2.4417 0.9673
1.3970 7.7917 -2.4348 0.9674
1.2372 7.7990 -2.4288 0.9675
1.0780 7.8054 -2.4235 0.9676
0.9192 7.8095 -2.4186 0.9676
0.7610 7.8134 -2.4146 0.9677
0.6032 7.8172 -2.4116 0.9677
0.4457 7.8208 -2.4094 0.9677
0.1313 7.8275 -2.4079 0.9678
-0.3408 7.8362 -2.4125 0.9677
-0.4987 7.8370 -2.4154 0.9677
-0.8155 7.8361 -2.4232 0.9676
-0.9748 7.8353 -2.4285 0.9675
-1.1349 7.8344 -2.4348 0.9674
-1.6207 7.8305 -2.4595 0.9671
-1.7850 7.8288 -2.4698 0.9670
-1.9506 7.8266 -2.4809 0.9668
-2.1161 7.8183 -2.4913 0.9667
-2.4296 7.7310 -2.4925 0.9667
-3.1975 7.4609 -2.4967 0.9666
-3.3479 7.3980 -2.4976 0.9666
-3.6433 7.2598 -2.4984 0.9666
-4.2138 6.9437 -2.4982 0.9666
-4.3523 6.8576 -2.4982 0.9666
-4.4890 6.7687 -2.4982 0.9666
-4.6240 6.6771 -2.4981 0.9666
-4.8882 6.4860 -2.4981 0.9666
-5.0174 6.3865 -2.4980 0.9666
-5.5134 5.9631 -2.4980 0.9666
-6.1899 5.2571 -2.4979 0.9666
-6.2942 5.1317 -2.4979 0.9666
-6.4951 4.8749 -2.4978 0.9666
-6.5916 4.7435 -2.4978 0.9666
-6.6855 4.6102 -2.4978 0.9666
-6.8652 4.3381 -2.4978 0.9666
-7.0339 4.0589 -2.4978 0.9666
-7.1139 3.9169 -2.4978 0.9666
-7.2655 3.6281 -2.4978 0.9666
-7.3369 3.4816 -2.4979 0.9666
-7.5333 3.0336 -2.4979 0.9666
-7.5927 2.8818 -2.4979 0.9666
-7.8436 2.1063 -2.4980 0.9666
-7.9876 1.4703 -2.4981 0.9666
-8.0404 1.1485 -2.4982 0.9666
-8.1071 0.4997 -2.4983 0.9666
-8.1208 0.1738 -2.4984 0.9666
-8.1170 -0.3154 -2.4985 0.9666
-8.0837 -0.8035 -2.4986 0.9666
-8.0661 -0.9656 -2.4987 0.9666
-8.0452 -1.1274 -2.4987 0.9666
-8.0211 -1.2887 -2.4988 0.9666
-7.9938 -1.4495 -2.4988 0.9666
-7.9632 -1.6098 -2.4989 0.9666
-7.8091 -2.2437 -2.4991 0.9666
-7.6604 -2.7099 -2.4993 0.9666
-7.5458 -3.0154 -2.4994 0.9666
-7.2064 -3.7570 -2.4997 0.9666
-7.1298 -3.9010 -2.4998 0.9666
-6.9678 -4.1843 -2.4999 0.9666
-6.8825 -4.3235 -2.5000 0.9666
-6.7945 -4.4609 -2.5000 0.9666
-6.7038 -4.5966 -2.5001 0.9666
-6.5142 -4.8623 -2.5002 0.9666
-6.2102 -5.2461 -2.5004 0.9666
-5.8836 -5.6109 -2.5007 0.9665
-5.7699 -5.7281 -2.5007 0.9665
-5.4151 -6.0656 -2.5010 0.9665
-5.2924 -6.1733 -2.5010 0.9665
-4.7806 -6.5788 -2.5013 0.9665
-4.6477 -6.6736 -2.5014 0.9665
-4.0978 -7.0258 -2.5017 0.9665
-3.9560 -7.1069 -2.5018 0.9665
-3.6678 -7.2604 -2.5019 0.9665
-3.5214 -7.3328 -2.5020 0.9665
-3.0738 -7.5322 -2.5022 0.9665
-2.9220 -7.5926 -2.5023 0.9665
-2.7691 -7.6500 -2.5024 0.9665
-2.4599 -7.7554 -2.5025 0.9665
-1.8299 -7.9287 -2.5028 0.9665
-1.6704 -7.9640 -2.5029 0.9665
-1.0262 -8.0733 -2.5031 0.9665
-0.8639 -8.0925 -2.5032 0.9665
-0.5384 -8.1211 -2.5033 0.9665
0.1149 -8.1389 -2.5036 0.9665
0.2783 -8.1352 -2.5037 0.9665
0.9302 -8.0874 -2.5039 0.9665
1.0924 -8.0673 -2.5040 0.9665
1.2542 -8.0439 -2.5040 0.9665
1.4155 -8.0173 -2.5041 0.9665
1.5762 -7.9874 -2.5041 0.9665
2.0543 -7.8786 -2.5043 0.9665
2.2121 -7.8359 -2.5043 0.9665
2.3690 -7.7900 -2.5044 0.9665
2.5250 -7.7411 -2.5044 0.9665
4.9424 -5.6884 -2.5049 0.9687
5.0557 -5.5881 -2.5049 0.9687
5.1669 -5.4855 -2.5049 0.9687
5.3830 -5.2737 -2.5049 0.9687
5.8846 -4.7077 -2.5050 0.9687
5.9779 -4.5887 -2.5050 0.9687
6.0689 -4.4677 -2.5050 0.9687
6.2434 -4.2205 -2.5050 0.9687
6.3269 -4.0943 -2.5050 0.9687
6.4078 -3.9664 -2.5050 0.9687
6.4861 -3.8370 -2.5050 0.9687
6.9001 -3.0296 -2.5050 0.9687
7.0699 -2.6087 -2.5049 0.9687
7.1208 -2.4662 -2.5049 0.9687
7.2140 -2.1783 -2.5049 0.9687
7.2562 -2.0330 -2.5049 0.9687
7.2955 -1.8869 -2.5049 0.9687
7.3652 -1.5924 -2.5048 0.9687
7.3957 -1.4442 -2.5048 0.9687
7.4475 -1.1461 -2.5047 0.9687
7.4689 -0.9963 -2.5047 0.9687
7.5027 -0.6957 -2.5046 0.9687
7.5244 -0.3939 -2.5046 0.9687
7.5313 0.2111 -2.5044 0.9687
7.5165 0.5133 -2.5044 0.9687
7.4896 0.8146 -2.5043 0.9687
7.4716 0.9648 -2.5042 0.9687
7.4506 1.1146 -2.5042 0.9687
7.4266 1.2639 -2.5041 0.9687
7.3996 1.4127 -2.5041 0.9687
7.3696 1.5610 -2.5040 0.9687
7.3366 1.7086 -2.5040 0.9687
7.2618 2.0017 -2.5039 0.9687
7.2200 2.1470 -2.5038 0.9687
7.0239 2.7191 -2.5036 0.9688
6.9677 2.8595 -2.5036 0.9688
6.8469 3.1369 -2.5034 0.9688
6.7824 3.2736 -2.5034 0.9688
6.7152 3.4090 -2.5033 0.9688
6.4973 3.8068 -2.5031 0.9688
6.1703 4.3154 -2.5029 0.9688
6.0823 4.4383 -2.5028 0.9688
5.8989 4.6787 -2.5027 0.9688
5.7060 4.9115 -2.5026 0.9688
5.3995 5.2456 -2.5024 0.9688
5.2930 5.3528 -2.5023 0.9688
4.7292 5.8556 -2.5020 0.9688
4.2437 6.2154 -2.5017 0.9688
4.1179 6.2992 -2.5016 0.9688
3.8615 6.4591 -2.5015 0.9688
3.7309 6.5351 -2.5014 0.9688
3.4653 6.6793 -2.5013 0.9688
3.1942 6.8126 -2.5011 0.9688
2.9180 6.9350 -2.5010 0.9688
2.4950 7.0975 -2.5008 0.9688
2.3519 7.1460 -2.5007 0.9688
2.2079 7.1916 -2.5006 0.9688
1.9173 7.2741 -2.5005 0.9688
1.7708 7.3109 -2.5005 0.9688
1.6234 7.3437 -2.5000 0.9688
1.1778 7.4244 -2.4988 0.9688
1.0283 7.4455 -2.4984 0.9688
0.4275 7.5010 -2.4974 0.9688
0.1260 7.5116 -2.4972 0.9688
-0.0249 7.5125 -2.4972 0.9688
-0.3265 7.5058 -2.4973 0.9688
-0.4771 7.4980 -2.4974 0.9688
-0.7778 7.4737 -2.4977 0.9688
-0.9278 7.4573 -2.4980 0.9688
-1.0775 7.4380 -2.4982 0.9688
-1.2267 7.4158 -2.4986 0.9688
-2.1095 7.2158 -2.4990 0.9688
-2.6814 7.0228 -2.4988 0.9688
-2.8218 6.9675 -2.4988 0.9688
-3.3715 6.7182 -2.4986 0.9688
-3.5057 6.6491 -2.4986 0.9688
-3.6384 6.5772 -2.4985 0.9688
-3.8994 6.4257 -2.4985 0.9688
-4.0276 6.3460 -2.4984 0.9688
-4.2790 6.1791 -2.4984 0.9688
-4.4022 6.0919 -2.4984 0.9688
-4.6431 5.9101 -2.4983 0.9688
-4.7608 5.8156 -2.4983 0.9688
-5.1022 5.5183 -2.4982 0.9688
-5.2119 5.4148 -2.4982 0.9688
-5.5283 5.0911 -2.4982 0.9688
-5.7282 4.8650 -2.4981 0.9688
-5.8247 4.7490 -2.4981 0.9688
-5.9189 4.6311 -2.4981 0.9688
-6.0106 4.5113 -2.4981 0.9688
-6.1869 4.2663 -2.4981 0.9688
-6.2713 4.1412 -2.4981 0.9688
-6.3532 4.0145 -2.4981 0.9688
-6.5092 3.7562 -2.4981 0.9688
-6.5833 3.6248 -2.4981 0.9688
-6.9136 2.9467 -2.4982 0.9688
-6.9714 2.8073 -2.4982 0.9688
-7.0785 2.5252 -2.4982 0.9688
-7.1279 2.3826 -2.4982 0.9688
-7.1743 2.2390 -2.4982 0.9688
-7.2179 2.0945 -2.4982 0.9688
-7.2963 1.8031 -2.4983 0.9688
-7.3629 1.5087 -2.4983 0.9688
-7.4775 0.7632 -2.4985 0.9688
-7.5102 0.3117 -2.4986 0.9688
-7.5150 0.1609 -2.4986 0.9688
-7.5168 0.0100 -2.4986 0.9688
-7.4939 -0.5932 -2.4988 0.9688
-7.4643 -0.8936 -2.4989 0.9688
-7.4227 -1.1926 -2.4990 0.9688
-7.3973 -1.3414 -2.4990 0.9688
-7.3378 -1.6374 -2.4991 0.9688
-7.2264 -2.0763 -2.4993 0.9688
-7.1375 -2.3648 -2.4994 0.9688
-7.0371 -2.6496 -2.4995 0.9688
-6.9826 -2.7904 -2.4995 0.9688
-6.9254 -2.9301 -2.4996 0.9688
-6.8653 -3.0686 -2.4997 0.9688
-6.8025 -3.2059 -2.4997 0.9688
-6.7369 -3.3419 -2.4998 0.9688
-6.6686 -3.4766 -2.4998 0.9688
-6.5239 -3.7417 -2.4999 0.9688
-6.4477 -3.8720 -2.5000 0.9688
-6.3688 -4.0008 -2.5001 0.9688
-5.9365 -4.6196 -2.5004 0.9688
-5.8427 -4.7379 -2.5005 0.9688
-5.6481 -4.9690 -2.5006 0.9688
-5.4443 -5.1920 -2.5007 0.9688
-5.1223 -5.5108 -2.5009 0.9688
-5.0108 -5.6127 -2.5010 0.9688
-4.7817 -5.8096 -2.5011 0.9688
-4.6642 -5.9046 -2.5012 0.9688
-4.5448 -5.9972 -2.5013 0.9688
-4.0495 -6.3432 -2.5015 0.9688
-3.3938 -6.7181 -2.5019 0.9688
-3.1215 -6.8493 -2.5020 0.9688
-2.9834 -6.9108 -2.5021 0.9688
-2.8442 -6.9695 -2.5022 0.9688
-2.4196 -7.1286 -2.5024 0.9688
-2.2761 -7.1760 -2.5024 0.9688
-1.6932 -7.3362 -2.5027 0.9688
-1.5456 -7.3689 -2.5028 0.9688
-0.9495 -7.4699 -2.5030 0.9688
-0.6489 -7.5024 -2.5032 0.9688
-0.4981 -7.5141 -2.5032 0.9688
-0.3472 -7.5228 -2.5033 0.9688
-0.1961 -7.5284 -2.5033 0.9688
-0.0449 -7.5310 -2.5034 0.9688
0.1063 -7.5306 -2.5035 0.9688
0.2575 -7.5271 -2.5035 0.9688
0.5595 -7.5110 -2.5036 0.9688
0.7102 -7.4985 -2.5037 0.9687
0.8607 -7.4828 -2.5037 0.9687
1.1604 -7.4426 -2.5038 0.9687
1.4584 -7.3903 -2.5039 0.9687
1.6065 -7.3597 -2.5040 0.9687
1.8981 -7.2796 -2.5007 0.9688
2.3081 -7.0761 -2.4741 0.9691
2.4796 -7.1141 -2.5043 0.9687
4.6989 -5.1938 -2.5047 0.9707
4.8023 -5.0984 -2.5047 0.9707
4.9037 -5.0010 -2.5047 0.9707
5.0032 -4.9016 -2.5047 0.9707
5.1006 -4.8002 -2.5047 0.9707
5.2892 -4.5916 -2.5047 0.9707
5.3804 -4.4845 -2.5048 0.9707
5.5561 -4.2649 -2.5048 0.9707
5.6406 -4.1524 -2.5048 0.9707
6.0284 -3.5662 -2.5048 0.9707
6.0988 -3.4445 -2.5048 0.9707
6.2322 -3.1968 -2.5048 0.9707
6.4133 -2.8158 -2.5047 0.9707
6.5211 -2.5561 -2.5047 0.9707
6.5710 -2.4246 -2.5047 0.9707
6.6630 -2.1588 -2.5047 0.9707
6.7050 -2.0246 -2.5047 0.9707
6.7807 -1.7537 -2.5046 0.9707
6.8145 -1.6172 -2.5046 0.9707
6.8993 -1.2040 -2.5045 0.9707
6.9591 -0.7865 -2.5045 0.9707
6.9849 -0.5064 -2.5044 0.9707
6.9935 -0.3661 -2.5044 0.9707
6.9994 -0.2256 -2.5043 0.9707
7.0026 0.0556 -2.5043 0.9707
7.0000 0.1962 -2.5042 0.9707
6.9945 0.3367 -2.5042 0.9707
6.9863 0.4770 -2.5042 0.9707
6.9613 0.7571 -2.5041 0.9707
6.9445 0.8967 -2.5040 0.9707
6.9250 1.0359 -2.5040 0.9707
6.8191 1.5881 -2.5038 0.9707
6.7496 1.8605 -2.5037 0.9707
6.7107 1.9956 -2.5037 0.9707
6.6250 2.2633 -2.5036 0.9707
6.5285 2.5274 -2.5035 0.9707
6.4215 2.7873 -2.5034 0.9707
6.3641 2.9156 -2.5033 0.9707
6.3041 3.0427 -2.5033 0.9707
6.2416 3.1686 -2.5032 0.9707
6.0392 3.5384 -2.5030 0.9707
5.9668 3.6588 -2.5030 0.9707
5.8920 3.7778 -2.5029 0.9707
5.8148 3.8952 -2.5029 0.9707
5.4830 4.3488 -2.5026 0.9707
5.0189 4.8758 -2.5023 0.9707
4.9199 4.9755 -2.5022 0.9707
4.8189 5.0731 -2.5022 0.9707
4.7159 5.1687 -2.5021 0.9707
4.6110 5.2622 -2.5021 0.9707
4.5044 5.3536 -2.5020 0.9707
4.2856 5.5299 -2.5019 0.9707
4.1736 5.6146 -2.5018 0.9707
4.0599 5.6972 -2.5017 0.9707
3.8277 5.8553 -2.5016 0.9707
3.5894 6.0039 -2.5015 0.9707
3.4680 6.0746 -2.5014 0.9707
3.3453 6.1429 -2.5013 0.9707
3.2212 6.2086 -2.5013 0.9707
2.7124 6.4464 -2.5010 0.9707
2.1862 6.6425 -2.5008 0.9707
2.0524 6.6850 -2.5007 0.9707
1.9177 6.7246 -2.5007 0.9707
1.3719 6.8561 -2.5004 0.9707
1.2339 6.8821 -2.5003 0.9707
1.0954 6.9054 -2.5003 0.9707
0.5378 6.9704 -2.5001 0.9707
0.3978 6.9796 -2.5000 0.9707
-0.0231 6.9904 -2.4998 0.9707
-0.1635 6.9884 -2.4998 0.9707
-0.3037 6.9835 -2.4997 0.9707
-0.5838 6.9654 -2.4996 0.9707
-0.7235 6.9521 -2.4996 0.9707
-0.8630 6.9361 -2.4995 0.9707
-1.0020 6.9172 -2.4995 0.9707
-1.1407 6.8956 -2.4994 0.9707
-1.2789 6.8712 -2.4994 0.9707
-1.4166 6.8440 -2.4993 0.9707
-1.8259 6.7459 -2.4992 0.9707
-1.9610 6.7078 -2.4991 0.9707
-2.0952 6.6669 -2.4991 0.9707
-2.2286 6.6234 -2.4991 0.9707
-2.4926 6.5284 -2.4990 0.9708
-2.6232 6.4769 -2.4989 0.9708
-2.8810 6.3662 -2.4989 0.9708
-3.0082 6.3070 -2.4988 0.9708
-3.1342 6.2452 -2.4988 0.9708
-3.3823 6.1142 -2.4987 0.9708
-3.5043 6.0450 -2.4987 0.9708
-3.7441 5.8993 -2.4987 0.9708
-3.8618 5.8229 -2.4986 0.9708
-4.2052 5.5797 -2.4986 0.9708
-4.3163 5.4941 -2.4985 0.9708
-4.4257 5.4063 -2.4985 0.9708
-4.6391 5.2242 -2.4985 0.9708
-4.7430 5.1299 -2.4985 0.9708
-4.8450 5.0337 -2.4984 0.9708
-5.1392 4.7328 -2.4984 0.9708
-5.4147 4.4147 -2.4984 0.9708
-5.5876 4.1938 -2.4984 0.9708
-5.6706 4.0807 -2.4984 0.9708
-5.8299 3.8498 -2.4984 0.9708
-5.9060 3.7320 -2.4983 0.9708
-6.0511 3.4918 -2.4984 0.9708
-6.2504 3.1212 -2.4984 0.9708
-6.3707 2.8678 -2.4984 0.9708
-6.4270 2.7393 -2.4984 0.9708
-6.5318 2.4791 -2.4984 0.9708
-6.6262 2.2149 -2.4984 0.9708
-6.6693 2.0814 -2.4985 0.9708
-6.7827 1.6762 -2.4985 0.9708
-6.8151 1.5397 -2.4985 0.9708
-6.8715 1.2649 -2.4986 0.9708
-6.8956 1.1267 -2.4986 0.9708
-6.9354 0.8489 -2.4987 0.9708
-6.9640 0.5698 -2.4987 0.9708
-6.9742 0.4299 -2.4987 0.9708
-6.9815 0.2898 -2.4988 0.9708
-6.9860 0.1495 -2.4988 0.9708
-6.9877 0.0093 -2.4988 0.9708
-6.9866 -0.1311 -2.4989 0.9708
-6.9826 -0.2713 -2.4989 0.9708
-6.9759 -0.4114 -2.4990 0.9708
-6.9663 -0.5514 -2.4990 0.9708
-6.9388 -0.8307 -2.4991 0.9707
-6.9001 -1.1086 -2.4992 0.9707
-6.8765 -1.2470 -2.4992 0.9707
-6.8212 -1.5221 -2.4993 0.9707
-6.7894 -1.6588 -2.4993 0.9707
-6.7548 -1.7948 -2.4994 0.9707
-6.7175 -1.9301 -2.4994 0.9707
-6.6776 -2.0646 -2.4995 0.9707
-6.5896 -2.3311 -2.4996 0.9707
-6.4909 -2.5939 -2.4997 0.9707
-6.3818 -2.8525 -2.4998 0.9707
-6.3234 -2.9801 -2.4998 0.9707
-6.2624 -3.1066 -2.4999 0.9707
-6.1989 -3.2317 -2.4999 0.9707
-6.0645 -3.4781 -2.5001 0.9707
-5.9202 -3.7190 -2.5002 0.9707
-5.8445 -3.8372 -2.5002 0.9707
-5.3417 -4.5125 -2.5006 0.9707
-5.1565 -4.7235 -2.5007 0.9707
-5.0608 -4.8262 -2.5008 0.9707
-4.7614 -5.1225 -2.5010 0.9707
-4.6577 -5.2172 -2.5010 0.9707
-4.4447 -5.4003 -2.5012 0.9707
-4.3355 -5.4885 -2.5012 0.9707
-4.2245 -5.5746 -2.5013 0.9707
-4.1119 -5.6585 -2.5014 0.9707
-3.6450 -5.9707 -2.5016 0.9707
-3.5245 -6.0429 -2.5017 0.9707
-2.9015 -6.3665 -2.5020 0.9707
-2.7731 -6.4236 -2.5021 0.9707
-2.6437 -6.4782 -2.5021 0.9707
-2.5131 -6.5301 -2.5022 0.9707
-2.3816 -6.5795 -2.5023 0.9707
-2.2491 -6.6261 -2.5023 0.9707
-2.1156 -6.6701 -2.5024 0.9707
-1.9813 -6.7114 -2.5024 0.9707
-1.7104 -6.7858 -2.5026 0.9707
-1.5738 -6.8190 -2.5026 0.9707
-1.2989 -6.8770 -2.5027 0.9707
-1.1606 -6.9019 -2.5028 0.9707
-0.7430 -6.9597 -2.5030 0.9707
-0.4630 -6.9843 -2.5031 0.9707
-0.3227 -6.9923 -2.5032 0.9707
-0.0417 -6.9999 -2.5033 0.9707
0.2394 -6.9962 -2.5034 0.9707
0.3798 -6.9902 -2.5034 0.9707
0.9395 -6.9378 -2.5036 0.9707
1.0786 -6.9176 -2.5037 0.9707
1.2173 -6.8947 -2.5037 0.9707
1.4932 -6.8405 -2.5038 0.9707
1.6302 -6.8093 -2.5039 0.9707
1.7666 -6.7753 -2.5039 0.9707
4.2863 -4.9333 -2.5044 0.9724
4.4810 -4.7573 -2.5045 0.9724
4.5756 -4.6664 -2.5045 0.9724
4.6684 -4.5736 -2.5045 0.9724
4.8483 -4.3825 -2.5045 0.9724
5.0204 -4.1844 -2.5045 0.9724
5.1844 -3.9795 -2.5046 0.9724
5.3400 -3.7682 -2.5046 0.9724
5.4145 -3.6602 -2.5046 0.9724
5.5571 -3.4399 -2.5046 0.9724
5.6251 -3.3276 -2.5046 0.9724
5.6907 -3.2140 -2.5046 0.9724
5.8152 -2.9829 -2.5046 0.9724
5.8739 -2.8655 -2.5045 0.9724
5.9302 -2.7470 -2.5045 0.9724
5.9841 -2.6274 -2.5045 0.9724
6.0847 -2.3850 -2.5045 0.9724
6.1314 -2.2624 -2.5045 0.9724
6.1755 -2.1388 -2.5045 0.9724
6.2172 -2.0144 -2.5045 0.9724
6.2930 -1.7631 -2.5044 0.9724
6.3586 -1.5090 -2.5044 0.9724
6.3875 -1.3810 -2.5044 0.9724
6.4377 -1.1235 -2.5043 0.9724
6.4935 -0.7338 -2.5043 0.9724
6.5068 -0.6033 -2.5042 0.9724
6.5176 -0.4725 -2.5042 0.9724
6.5257 -0.3416 -2.5042 0.9724
6.5311 -0.2105 -2.5041 0.9724
6.5340 -0.0793 -2.5041 0.9724
6.5266 0.3142 -2.5040 0.9724
6.5086 0.5759 -2.5039 0.9724
6.4956 0.7065 -2.5039 0.9724
6.4618 0.9666 -2.5038 0.9724
6.4410 1.0962 -2.5038 0.9724
6.3630 1.4819 -2.5037 0.9724
6.3318 1.6093 -2.5036 0.9724
6.2981 1.7361 -2.5036 0.9724
6.2619 1.8621 -2.5035 0.9724
6.1819 2.1119 -2.5034 0.9724
6.1381 2.2356 -2.5034 0.9724
6.0919 2.3583 -2.5033 0.9724
6.0432 2.4801 -2.5033 0.9724
5.9920 2.6009 -2.5032 0.9724
5.9385 2.7206 -2.5032 0.9724
5.8825 2.8392 -2.5031 0.9724
5.8242 2.9567 -2.5031 0.9724
5.7006 3.1880 -2.5030 0.9724
5.6353 3.3018 -2.5029 0.9724
5.4980 3.5252 -2.5028 0.9724
5.2754 3.8496 -2.5027 0.9724
5.1164 4.0581 -2.5025 0.9724
5.0338 4.1599 -2.5025 0.9724
4.9491 4.2600 -2.5024 0.9724
4.6834 4.5499 -2.5023 0.9724
4.5910 4.6429 -2.5022 0.9724
4.4967 4.7340 -2.5021 0.9724
4.4007 4.8232 -2.5021 0.9724
4.2033 4.9958 -2.5020 0.9724
4.1020 5.0791 -2.5019 0.9724
3.9991 5.1602 -2.5018 0.9724
3.8946 5.2394 -2.5018 0.9724
3.4614 5.5344 -2.5015 0.9724
3.2362 5.6687 -2.5014 0.9724
2.6515 5.9638 -2.5011 0.9724
2.2875 6.1121 -2.5009 0.9724
2.0402 6.1988 -2.5008 0.9724
1.9152 6.2383 -2.5008 0.9724
1.5361 6.3419 -2.5006 0.9724
1.1515 6.4224 -2.5004 0.9724
0.7627 6.4796 -2.5003 0.9724
0.5019 6.5048 -2.5002 0.9724
0.2404 6.5194 -2.5001 0.9724
0.1094 6.5228 -2.5000 0.9724
-0.0216 6.5236 -2.4999 0.9724
-0.1525 6.5216 -2.4999 0.9724
-0.5448 6.5003 -2.4998 0.9724
-0.6752 6.4879 -2.4997 0.9724
-0.8053 6.4729 -2.4997 0.9724
-0.9351 6.4553 -2.4996 0.9724
-1.0645 6.4351 -2.4996 0.9724
-1.1935 6.4123 -2.4995 0.9724
-1.5773 6.3285 -2.4994 0.9724
-1.7040 6.2955 -2.4994 0.9724
-2.0798 6.1812 -2.4992 0.9724
-2.2034 6.1381 -2.4992 0.9725
-2.4480 6.0445 -2.4991 0.9725
-2.5689 5.9940 -2.4991 0.9725
-2.6887 5.9412 -2.4991 0.9725
-2.8074 5.8859 -2.4990 0.9725
-2.9249 5.8283 -2.4990 0.9725
-3.6039 5.4342 -2.4988 0.9725
-3.7123 5.3607 -2.4988 0.9725
-4.0282 5.1273 -2.4987 0.9725
-4.1303 5.0454 -2.4987 0.9725
-4.2307 4.9614 -2.4987 0.9725
-4.4264 4.7875 -2.4987 0.9725
-4.6150 4.6059 -2.4986 0.9725
-4.7065 4.5123 -2.4986 0.9725
-5.0533 4.1200 -2.4986 0.9725
-5.2146 3.9138 -2.4986 0.9725
-5.3675 3.7013 -2.4986 0.9725
-5.4407 3.5928 -2.4986 0.9725
-5.5806 3.3715 -2.4986 0.9725
-5.7115 3.1447 -2.4986 0.9725
-5.7735 3.0294 -2.4986 0.9725
-5.8331 2.9129 -2.4986 0.9725
-5.9980 2.5565 -2.4986 0.9725
-6.0481 2.4355 -2.4986 0.9725
-6.0958 2.3136 -2.4986 0.9725
-6.2619 1.8171 -2.4987 0.9725
-6.2972 1.6911 -2.4987 0.9725
-6.3299 1.5643 -2.4987 0.9725
-6.3601 1.4369 -2.4987 0.9725
