ply
format ascii 1.0
element vertex 1545
property float32 x
property float32 y
property float32 z
property float32 I
end_header
-25.3354 4.4439 -1.3045 0.9021
-25.0718 3.8795 -1.2866 0.9034
-30.7688 2.2517 -1.5646 0.8838
-31.6066 0.4014 -1.6030 0.8811
-45.7805 -0.3395 -2.3218 0.8325
-45.7678 -1.2604 -2.3220 0.8325
-45.7367 -2.1810 -2.3221 0.8324
-45.6198 -4.0195 -2.3225 0.8324
-45.4296 -5.8524 -2.3230 0.8324
-47.1076 -8.0064 -2.4233 0.8258
-47.8593 -9.1282 -2.4709 0.8227
-47.7400 -10.1048 -2.4747 0.8225
-47.5327 -11.0643 -2.4750 0.8225
-47.3063 -12.0197 -2.4753 0.8224
-47.0609 -12.9705 -2.4756 0.8224
-46.7966 -13.9163 -2.4760 0.8224
-44.8196 -19.4667 -2.4781 0.8223
-44.4260 -20.3676 -2.4785 0.8222
-44.0146 -21.2606 -2.4789 0.8222
-43.1382 -23.0215 -2.4798 0.8221
-42.6738 -23.8887 -2.4802 0.8221
-42.1922 -24.7467 -2.4806 0.8221
-41.6933 -25.5950 -2.4811 0.8221
-40.0962 -28.0788 -2.4825 0.8220
-37.1226 -27.1255 -2.3317 0.8318
-36.0158 -28.6080 -2.3326 0.8318
-33.6273 -31.4363 -2.3345 0.8316
-32.9952 -32.1132 -2.3350 0.8316
-32.3496 -32.7775 -2.3355 0.8316
-14.8179 -16.2742 -1.1162 0.9156
-14.2480 -16.2950 -1.0977 0.9170
-10.7059 -16.4244 -0.9943 0.9245
-9.7598 -16.3771 -0.9669 0.9265
-8.9478 -16.4886 -0.9514 0.9276
-8.5309 -16.5039 -0.9422 0.9283
-8.1218 -16.5188 -0.9335 0.9289
-7.3250 -16.5479 -0.9178 0.9301
-6.9363 -16.5621 -0.9106 0.9306
-3.7778 -11.5489 -0.6162 0.9525
-3.9834 -16.5881 -0.8652 0.9340
-3.6350 -16.6008 -0.8618 0.9342
-3.3050 -16.6947 -0.8631 0.9341
-2.2743 -16.7324 -0.8564 0.9346
-1.9338 -16.7448 -0.8548 0.9347
-0.9176 -16.7819 -0.8524 0.9349
-0.2419 -16.8066 -0.8524 0.9349
0.0963 -16.8189 -0.8530 0.9349
1.7926 -16.7991 -0.8568 0.9346
2.2178 -17.4487 -0.8920 0.9320
2.5774 -17.4619 -0.8952 0.9317
8.1922 -43.3499 -2.2374 0.8380
9.0893 -43.3035 -2.2440 0.8376
9.6048 -41.5810 -2.1643 0.8429
8.3740 -33.1928 -1.7361 0.8719
10.0064 -31.5117 -1.6767 0.8760
10.1104 -27.8957 -1.5048 0.8880
9.0269 -22.0895 -1.2102 0.9089
10.4821 -22.9661 -1.2803 0.9038
10.9072 -22.6785 -1.2762 0.9041
10.7421 -20.2110 -1.1608 0.9124
24.9470 -39.0071 -2.3482 0.8307
26.7628 -38.3548 -2.3718 0.8292
24.8307 -34.1030 -2.1394 0.8445
28.2924 -37.2586 -2.3726 0.8291
30.3069 -30.0127 -2.1631 0.8430
30.3488 -28.8683 -2.1242 0.8456
30.3891 -27.7639 -2.0875 0.8480
25.4554 -20.5821 -1.6601 0.8771
30.6059 -21.8307 -1.9065 0.8602
31.7087 -21.6683 -1.9477 0.8574
32.8493 -20.5599 -1.9653 0.8562
38.0382 -19.7436 -2.1735 0.8423
40.1408 -19.8203 -2.2704 0.8359
43.5803 -17.3149 -2.3782 0.8288
43.9207 -16.4350 -2.3782 0.8288
44.8333 -13.7565 -2.3783 0.8288
45.1010 -12.8519 -2.3783 0.8288
48.2923 -12.7167 -2.5326 0.8187
48.5377 -11.7426 -2.5326 0.8187
48.7636 -10.7638 -2.5325 0.8187
48.9692 -9.7805 -2.5325 0.8187
49.1548 -8.7933 -2.5324 0.8187
49.6951 -4.8130 -2.5320 0.8188
49.7794 -3.8122 -2.5319 0.8188
49.9098 -0.8028 -2.5315 0.8188
49.9123 0.2013 -2.5313 0.8188
49.8562 2.2084 -2.5309 0.8188
49.7975 3.2106 -2.5307 0.8188
49.3743 6.1908 -2.5236 0.8193
46.3524 6.7616 -2.3756 0.8289
46.0329 8.6187 -2.3751 0.8290
45.8449 9.5418 -2.3748 0.8290
25.7541 7.5640 -1.3613 0.8981
36.2003 12.2340 -1.9379 0.8581
33.6773 12.1414 -1.8155 0.8664
32.3594 12.4073 -1.7576 0.8704
30.7665 12.5121 -1.6844 0.8754
24.7876 12.4891 -1.4076 0.8948
24.1071 12.7606 -1.3833 0.8965
22.7351 12.6263 -1.3189 0.9011
20.7579 12.6465 -1.2327 0.9072
19.9838 12.7331 -1.2017 0.9095
19.1720 12.7652 -1.1681 0.9119
18.4042 12.7956 -1.1368 0.9141
16.4498 12.9759 -1.0625 0.9195
24.0619 23.2608 -1.6972 0.8746
23.3638 23.5133 -1.6810 0.8757
22.2345 23.2957 -1.6332 0.8790
21.5406 23.4974 -1.6166 0.8801
19.9456 23.5967 -1.5669 0.8836
19.0603 23.4920 -1.5342 0.8859
18.4516 23.7007 -1.5233 0.8867
17.8628 23.9220 -1.5141 0.8873
5.8009 8.1037 -0.5054 0.9609
14.9654 23.8212 -1.4267 0.8934
13.7040 23.8961 -1.3970 0.8955
11.0389 24.7119 -1.3726 0.8973
10.1648 24.0426 -1.3238 0.9007
9.6774 24.2379 -1.3236 0.9007
9.3198 24.7785 -1.3426 0.8994
16.0696 45.4799 -2.4462 0.8243
7.9926 24.1567 -1.2904 0.9031
7.6335 24.7286 -1.3125 0.9015
7.0981 24.7501 -1.3058 0.9020
3.3447 18.5165 -0.9542 0.9274
2.9626 24.9136 -1.2724 0.9044
2.4517 24.8755 -1.2677 0.9047
1.5470 26.6391 -1.3533 0.8986
1.8256 48.1579 -2.4440 0.8245
0.8563 48.1729 -2.4434 0.8245
-0.0789 33.7109 -1.7096 0.8737
-1.0813 48.1407 -2.4420 0.8246
-1.6172 37.9614 -1.9269 0.8588
-1.9261 30.6831 -1.5591 0.8841
-2.2500 27.1083 -1.3795 0.8968
-2.6430 25.5878 -1.3046 0.9021
-28.2447 15.2656 -2.3541 0.8792
-28.4947 14.6679 -2.3499 0.8794
-28.7410 14.0707 -2.3463 0.8795
-29.6495 11.6640 -2.3361 0.8800
-29.8466 11.0536 -2.3337 0.8802
-30.0349 10.4413 -2.3315 0.8803
-30.2102 9.8256 -2.3293 0.8804
-30.4018 9.2160 -2.3293 0.8804
-30.5810 8.6026 -2.3293 0.8804
-30.7480 7.9857 -2.3293 0.8804
-30.9026 7.3657 -2.3293 0.8804
-23.5280 3.6406 -1.7457 0.9089
-28.8046 2.1079 -2.1177 0.8906
-30.5120 1.0017 -2.2384 0.8848
-31.6184 0.4016 -2.3185 0.8809
-33.8063 -1.6121 -2.4816 0.8731
-33.7689 -2.2919 -2.4817 0.8731
-33.7180 -2.9709 -2.4819 0.8731
-33.4842 -5.0002 -2.4824 0.8730
-33.3792 -5.6731 -2.4825 0.8730
-33.2609 -6.3439 -2.4827 0.8730
-33.1292 -7.0122 -2.4829 0.8730
-32.8258 -8.3405 -2.4833 0.8730
-32.0611 -10.9561 -2.4843 0.8729
-31.8373 -11.5999 -2.4845 0.8729
-31.6008 -12.2392 -2.4848 0.8729
-31.3516 -12.8738 -2.4850 0.8729
-31.0896 -13.5033 -2.4853 0.8729
-30.5281 -14.7462 -2.4858 0.8729
-29.5936 -16.5665 -2.4867 0.8728
-29.2579 -17.1604 -2.4870 0.8728
-26.8118 -17.2114 -2.3361 0.8800
-26.4636 -17.7496 -2.3364 0.8800
-25.7351 -18.8047 -2.3370 0.8800
-24.5642 -20.3310 -2.3380 0.8800
-23.7334 -21.3087 -2.3387 0.8799
-22.8638 -22.2526 -2.3393 0.8799
-22.4149 -22.7114 -2.3397 0.8799
-14.8179 -16.2742 -1.6138 0.9155
-14.2479 -16.2950 -1.5871 0.9168
-13.1618 -16.3346 -1.5381 0.9193
-9.7597 -16.3771 -1.3979 0.9264
-8.1217 -16.5187 -1.3497 0.9288
-7.7199 -16.5334 -1.3379 0.9294
-6.1759 -16.5898 -1.2980 0.9315
-3.7774 -11.5477 -0.8908 0.9524
-5.0720 -16.6301 -1.2748 0.9326
-3.9835 -16.5880 -1.2508 0.9339
-3.3050 -16.6947 -1.2478 0.9340
-2.9596 -16.7073 -1.2441 0.9342
-2.6161 -16.7198 -1.2408 0.9344
-1.9338 -16.7447 -1.2359 0.9346
-1.2557 -16.7695 -1.2330 0.9348
-0.5798 -16.7942 -1.2321 0.9348
-0.2419 -16.8065 -1.2324 0.9348
0.4350 -16.8312 -1.2345 0.9347
0.7746 -16.8437 -1.2363 0.9346
1.4575 -16.8686 -1.2415 0.9343
2.2242 -17.4989 -1.2934 0.9317
2.5848 -17.5121 -1.2979 0.9315
4.6752 -27.7925 -2.0664 0.8931
4.8645 -25.7412 -1.9208 0.9003
9.1224 -30.8667 -2.3600 0.8789
9.2415 -29.1027 -2.2389 0.8847
9.2093 -25.4096 -1.9817 0.8973
9.5345 -24.7416 -1.9442 0.8991
9.4006 -21.7443 -1.7370 0.9094
10.2528 -22.4637 -1.8105 0.9057
10.3256 -20.4077 -1.6770 0.9124
10.4247 -19.6139 -1.6287 0.9148
10.8249 -19.4141 -1.6298 0.9147
18.5001 -28.9268 -2.5176 0.8713
19.6530 -28.1655 -2.5182 0.8713
20.2177 -27.7674 -2.5185 0.8713
20.7743 -27.3579 -2.5187 0.8713
21.3226 -26.9372 -2.5190 0.8713
22.3931 -26.0628 -2.5195 0.8713
22.9149 -25.6094 -2.5197 0.8712
23.4213 -25.1388 -2.5193 0.8713
23.9703 -21.8996 -2.3806 0.8779
24.8980 -20.1313 -2.3477 0.8795
25.5152 -19.7950 -2.3678 0.8785
25.7806 -19.1829 -2.3562 0.8791
26.2938 -18.7550 -2.3681 0.8785
26.6673 -18.2233 -2.3682 0.8785
27.3814 -17.1376 -2.3685 0.8785
27.7219 -16.5841 -2.3686 0.8785
28.0510 -16.0238 -2.3687 0.8785
28.6749 -14.8836 -2.3689 0.8785
29.2521 -13.7190 -2.3690 0.8785
29.5228 -13.1281 -2.3690 0.8785
29.7920 -12.5362 -2.3699 0.8784
32.6853 -10.7531 -2.5229 0.8711
33.4437 -8.0910 -2.5229 0.8711
33.7412 -6.7391 -2.5228 0.8711
33.8695 -6.0589 -2.5228 0.8711
34.0842 -4.6915 -2.5227 0.8711
34.1707 -4.0047 -2.5226 0.8711
34.2433 -3.3165 -2.5225 0.8711
34.3771 -1.2450 -2.5223 0.8711
34.3962 0.1387 -2.5220 0.8711
34.3592 1.5220 -2.5218 0.8712
34.2660 2.9024 -2.5215 0.8712
34.1171 4.2778 -2.5211 0.8712
34.0217 4.9628 -2.5209 0.8712
33.9125 5.6458 -2.5208 0.8712
33.7794 6.3244 -2.5198 0.8712
31.4612 7.2112 -2.3666 0.8786
25.6228 7.5255 -1.9581 0.8984
30.7686 9.7132 -2.3658 0.8786
29.8761 12.1500 -2.3648 0.8787
27.6697 12.5724 -2.2284 0.8852
24.7878 12.4892 -2.0352 0.8946
21.9820 12.7932 -1.8649 0.9030
20.7580 12.6466 -1.7822 0.9071
20.1574 12.8437 -1.7525 0.9086
19.7494 13.1497 -1.7397 0.9092
17.9416 13.0171 -1.6253 0.9149
16.9115 12.7968 -1.5550 0.9185
15.8511 13.0294 -1.5045 0.9210
14.6962 13.1053 -1.4438 0.9241
14.2030 13.1879 -1.4211 0.9252
13.5543 13.1030 -1.3823 0.9272
11.9601 13.0466 -1.2977 0.9315
11.5017 13.0647 -1.2763 0.9326
10.6282 13.0993 -1.2368 0.9346
10.2110 13.1158 -1.2188 0.9355
5.7999 8.1023 -0.7306 0.9608
8.6160 13.1209 -1.1509 0.9390
7.9294 13.2040 -1.1293 0.9401
7.5802 13.2179 -1.1172 0.9407
7.2382 13.2314 -1.1058 0.9413
6.9231 13.2833 -1.0983 0.9417
6.6535 13.4176 -1.0981 0.9417
6.3811 13.5464 -1.0979 0.9417
10.0451 23.7595 -1.8914 0.9017
8.9842 23.8860 -1.8712 0.9027
4.6903 13.2743 -1.0323 0.9451
6.3164 23.8231 -1.8071 0.9059
5.8557 24.0263 -1.8132 0.9056
5.3398 23.9982 -1.8026 0.9061
3.7643 18.6827 -1.3974 0.9264
3.8495 24.0691 -1.7872 0.9069
3.3589 24.1011 -1.7842 0.9070
1.9083 24.3763 -1.7928 0.9066
0.5155 13.5980 -0.9977 0.9469
0.2415 13.5819 -0.9960 0.9470
-2.0449 32.5752 -2.3932 0.8773
-20.4198 13.2611 -2.3375 0.9068
-20.6633 12.8357 -2.3354 0.9069
-20.9087 12.4124 -2.3344 0.9069
-14.2243 8.0618 -1.5697 0.9364
-21.3898 11.5607 -2.3343 0.9069
-22.4402 9.3534 -2.3340 0.9069
-22.6235 8.9001 -2.3340 0.9069
-23.1186 7.5192 -2.3339 0.9069
-23.2652 7.0526 -2.3339 0.9069
-24.5106 4.8093 -2.3980 0.9045
-25.4996 4.4726 -2.4855 0.9012
-24.1565 3.2418 -2.3399 0.9067
-25.7244 2.9267 -2.4856 0.9012
-25.7787 2.4087 -2.4857 0.9012
-25.8225 1.8897 -2.4857 0.9012
-25.8561 1.3699 -2.4858 0.9012
-25.8792 0.8496 -2.4859 0.9012
-25.8920 0.3288 -2.4860 0.9012
-25.8943 -0.1920 -2.4860 0.9012
-25.8677 -1.2335 -2.4862 0.9012
-25.8388 -1.7537 -2.4864 0.9012
-25.7995 -2.2732 -2.4865 0.9012
-25.7497 -2.7918 -2.4866 0.9012
-25.6897 -3.3094 -2.4867 0.9011
-25.6193 -3.8257 -2.4868 0.9011
-25.5385 -4.3405 -2.4870 0.9011
-25.4476 -4.8537 -2.4871 0.9011
-25.3463 -5.3649 -2.4873 0.9011
-25.2349 -5.8740 -2.4874 0.9011
-24.5260 -8.3812 -2.4883 0.9011
-24.1728 -9.3623 -2.4887 0.9011
-23.9815 -9.8475 -2.4889 0.9011
-23.7805 -10.3287 -2.4891 0.9011
-23.1203 -11.7473 -2.4897 0.9010
-22.6332 -12.6700 -2.4902 0.9010
-22.3758 -13.1239 -2.4904 0.9010
-22.0885 -13.5598 -2.4883 0.9011
-21.0001 -13.4807 -2.3958 0.9046
-19.9618 -13.9790 -2.3396 0.9067
-19.6786 -14.3792 -2.3399 0.9067
-19.0883 -15.1623 -2.3404 0.9067
-18.7815 -15.5448 -2.3406 0.9067
-18.4670 -15.9212 -2.3409 0.9067
-17.8156 -16.6548 -2.3414 0.9066
-17.4790 -17.0117 -2.3416 0.9066
-15.3325 -16.1734 -2.1396 0.9143
-14.8178 -16.2741 -2.1130 0.9154
-14.2479 -16.2949 -2.0781 0.9167
-13.6963 -16.3150 -2.0451 0.9180
-13.1618 -16.3346 -2.0139 0.9192
-12.1391 -16.3719 -1.9567 0.9214
-11.6488 -16.3898 -1.9304 0.9224
-10.7058 -16.4243 -1.8822 0.9242
-8.5308 -16.5037 -1.7836 0.9281
-8.1217 -16.5187 -1.7672 0.9287
-7.7199 -16.5333 -1.7518 0.9293
-7.3249 -16.5478 -1.7374 0.9299
-6.9362 -16.5620 -1.7238 0.9304
-6.5533 -16.5760 -1.7112 0.9309
-6.1759 -16.5897 -1.6995 0.9313
-5.8034 -16.6033 -1.6886 0.9318
-3.7770 -11.5465 -1.1663 0.9524
-4.7984 -15.7330 -1.5791 0.9360
-4.7122 -16.6432 -1.6606 0.9329
-4.3348 -16.5752 -1.6448 0.9335
-2.6161 -16.7198 -1.6247 0.9343
-2.2743 -16.7323 -1.6211 0.9344
-0.9177 -16.7818 -1.6135 0.9347
-0.5798 -16.7941 -1.6133 0.9347
0.0963 -16.8188 -1.6147 0.9346
0.4350 -16.8312 -1.6164 0.9346
0.7746 -16.8436 -1.6188 0.9345
1.4575 -16.8685 -1.6255 0.9342
2.5848 -17.5120 -1.6995 0.9313
3.7629 -22.3687 -2.1777 0.9129
4.0549 -17.5546 -1.7297 0.9302
4.7763 -18.9324 -1.8746 0.9245
6.9594 -23.5481 -2.3574 0.9060
7.4325 -23.4059 -2.3577 0.9060
7.9026 -23.2542 -2.3579 0.9060
8.8295 -21.6064 -2.2408 0.9105
9.2522 -21.4011 -2.2384 0.9106
10.3407 -21.5005 -2.2905 0.9086
10.3964 -19.5606 -2.1267 0.9148
10.2512 -18.3853 -2.0209 0.9189
13.2066 -22.6043 -2.5134 0.9001
14.1076 -22.0587 -2.5138 0.9001
14.5497 -21.7723 -2.5140 0.9001
15.8402 -20.8602 -2.5146 0.9001
17.0734 -19.8713 -2.5152 0.9001
17.8613 -19.1711 -2.5155 0.9001
18.2445 -18.8092 -2.5157 0.9001
20.3836 -16.4812 -2.5166 0.9000
21.3435 -15.2240 -2.5169 0.9000
21.9403 -14.3543 -2.5171 0.9000
22.2255 -13.9106 -2.5172 0.9000
22.5016 -13.4612 -2.5173 0.9000
22.7685 -13.0062 -2.5174 0.9000
23.0262 -12.5459 -2.5175 0.9000
23.2745 -12.0805 -2.5175 0.9000
23.5134 -11.6102 -2.5176 0.9000
24.1722 -10.1714 -2.5177 0.9000
25.0723 -7.6931 -2.5178 0.9000
25.2220 -7.1872 -2.5178 0.9000
25.4905 -6.1669 -2.5178 0.9000
25.6092 -5.6529 -2.5178 0.9000
25.7174 -5.1365 -2.5178 0.9000
25.8152 -4.6180 -2.5177 0.9000
25.9792 -3.5759 -2.5176 0.9000
26.0453 -3.0525 -2.5176 0.9000
26.1458 -2.0023 -2.5175 0.9000
26.2036 -0.9490 -2.5173 0.9000
26.2187 0.1058 -2.5171 0.9000
26.1613 1.6867 -2.5168 0.9000
26.0698 2.7374 -2.5166 0.9000
25.9359 3.7833 -2.5163 0.9000
25.7598 4.8229 -2.5160 0.9000
25.6560 5.3398 -2.5159 0.9000
25.4171 6.3666 -2.5156 0.9001
25.2263 6.8609 -2.5098 0.9003
23.4597 7.4059 -2.3618 0.9059
23.3042 7.8757 -2.3616 0.9059
23.1393 8.3422 -2.3614 0.9059
22.9650 8.8053 -2.3613 0.9059
22.7814 9.2647 -2.3611 0.9059
22.5885 9.7203 -2.3609 0.9059
22.1755 10.6192 -2.3605 0.9059
21.7265 11.5005 -2.3600 0.9059
18.7555 13.0398 -2.1930 0.9123
17.9133 12.9965 -2.1247 0.9149
16.9116 12.7969 -2.0360 0.9183
16.4492 12.9754 -2.0114 0.9193
14.6635 13.0762 -1.8862 0.9241
14.1753 13.1621 -1.8571 0.9252
13.5544 13.1031 -1.8099 0.9270
12.0640 13.1599 -1.7140 0.9308
11.7294 13.3233 -1.7042 0.9312
10.9964 13.5532 -1.6756 0.9323
10.2099 13.6731 -1.6383 0.9337
5.7989 8.1008 -0.9564 0.9608
9.1060 13.2771 -1.5456 0.9374
8.6160 13.1210 -1.5070 0.9389
8.2522 13.1354 -1.4893 0.9396
7.9983 13.3188 -1.4915 0.9395
7.6461 13.3327 -1.4756 0.9401
7.3343 13.4070 -1.4671 0.9404
6.9907 13.4129 -1.4521 0.9410
6.4809 13.7583 -1.4601 0.9407
6.0000 13.4319 -1.4123 0.9426
5.6816 13.4386 -1.4007 0.9431
5.3595 13.4233 -1.3876 0.9436
5.0534 13.4354 -1.3781 0.9440
4.6903 13.2743 -1.3516 0.9450
4.3959 13.2860 -1.3435 0.9453
3.5772 13.4917 -1.3400 0.9455
3.2954 13.5212 -1.3361 0.9456
2.4242 13.4199 -1.3092 0.9467
2.1481 13.4309 -1.3058 0.9468
1.8734 13.4417 -1.3029 0.9469
1.5997 13.4526 -1.3006 0.9470
0.5095 13.4377 -1.2910 0.9474
-0.0315 13.4592 -1.2921 0.9474
-0.8504 13.5475 -1.3032 0.9469
-1.4016 13.5693 -1.3096 0.9467
-2.0423 14.1679 -1.3742 0.9441
-2.2634 13.7392 -1.3368 0.9456
-16.7141 10.3825 -2.3373 0.9238
-14.1161 8.0004 -1.9274 0.9367
-17.3085 9.3548 -2.3371 0.9238
-17.4929 9.0046 -2.3370 0.9238
-17.8403 8.2934 -2.3370 0.9238
-18.0032 7.9327 -2.3369 0.9238
-18.4981 6.8507 -2.3432 0.9236
-19.2300 6.6850 -2.4183 0.9213
-20.1662 5.6728 -2.4884 0.9191
-20.2763 5.2661 -2.4884 0.9191
-20.3782 4.8572 -2.4885 0.9191
-20.4719 4.4463 -2.4885 0.9191
-20.5574 4.0336 -2.4885 0.9191
-20.6346 3.6193 -2.4885 0.9191
-20.7035 3.2036 -2.4885 0.9191
-20.7640 2.7865 -2.4886 0.9191
-20.9225 1.1085 -2.4888 0.9191
-20.9411 0.6875 -2.4889 0.9191
-20.9463 -0.5769 -2.4891 0.9191
-20.9312 -0.9981 -2.4892 0.9191
-20.9076 -1.4190 -2.4892 0.9191
-20.8756 -1.8393 -2.4893 0.9190
-20.6637 -3.5120 -2.4898 0.9190
-20.5899 -3.9271 -2.4899 0.9190
-20.5077 -4.3407 -2.4900 0.9190
-20.4173 -4.7526 -2.4901 0.9190
-20.3186 -5.1626 -2.4903 0.9190
-19.9736 -6.3798 -2.4907 0.9190
-19.4010 -7.9666 -2.4913 0.9190
-18.7030 -9.5029 -2.4920 0.9190
-18.0999 -10.6160 -2.4925 0.9189
-17.4308 -11.6911 -2.4931 0.9189
-17.1670 -12.0218 -2.4895 0.9190
-16.5680 -12.1062 -2.4374 0.9207
-15.1900 -12.5723 -2.3422 0.9236
-14.9354 -12.8764 -2.3424 0.9236
-14.4080 -13.4692 -2.3429 0.9236
-14.1354 -13.7575 -2.3431 0.9236
-13.8571 -14.0404 -2.3433 0.9236
-12.3831 -15.3682 -2.3444 0.9236
-11.7572 -15.8569 -2.3449 0.9236
-11.4370 -16.0918 -2.3451 0.9236
-11.1121 -16.3202 -2.3453 0.9235
-10.7058 -16.4242 -2.3288 0.9241
-6.9362 -16.5619 -2.1329 0.9302
-6.5533 -16.5759 -2.1173 0.9307
-6.1759 -16.5897 -2.1027 0.9312
-5.8034 -16.6033 -2.0892 0.9316
-4.3348 -16.5751 -2.0351 0.9333
-3.3050 -16.6945 -2.0216 0.9337
-2.9596 -16.7072 -2.0155 0.9339
-2.6161 -16.7197 -2.0102 0.9341
-1.9337 -16.7446 -2.0022 0.9344
-1.5943 -16.7570 -1.9995 0.9344
-1.2557 -16.7694 -1.9975 0.9345
-0.2419 -16.8064 -1.9966 0.9345
0.0963 -16.8188 -1.9979 0.9345
0.4350 -16.8311 -2.0000 0.9344
0.7746 -16.8435 -2.0029 0.9343
1.7926 -16.7989 -2.0068 0.9342
2.2242 -17.4988 -2.0953 0.9314
2.5773 -17.4611 -2.0966 0.9314
2.9356 -17.4513 -2.1021 0.9312
3.6799 -17.5319 -2.1279 0.9304
4.0494 -17.5304 -2.1372 0.9301
6.3824 -18.7809 -2.3562 0.9232
7.1340 -18.5121 -2.3566 0.9232
7.5055 -18.3664 -2.3568 0.9232
8.2395 -18.0526 -2.3572 0.9232
8.6017 -17.8846 -2.3574 0.9232
9.3155 -17.5269 -2.3577 0.9232
9.6669 -17.3372 -2.3579 0.9232
10.0144 -17.1405 -2.3581 0.9231
10.3579 -16.9369 -2.3583 0.9231
12.1001 -17.3412 -2.5118 0.9184
12.4473 -17.0954 -2.5119 0.9183
13.1265 -16.5829 -2.5123 0.9183
13.4582 -16.3165 -2.5124 0.9183
13.7845 -16.0435 -2.5126 0.9183
14.1052 -15.7638 -2.5127 0.9183
14.7295 -15.1854 -2.5130 0.9183
15.0327 -14.8868 -2.5131 0.9183
15.6209 -14.2714 -2.5133 0.9183
16.1837 -13.6328 -2.5136 0.9183
16.7203 -12.9719 -2.5138 0.9183
17.2298 -12.2897 -2.5140 0.9183
17.7113 -11.5875 -2.5141 0.9183
17.9414 -11.2292 -2.5142 0.9183
18.1641 -10.8663 -2.5143 0.9183
19.1655 -8.9885 -2.5145 0.9183
19.3427 -8.6012 -2.5146 0.9183
19.6735 -7.8164 -2.5146 0.9183
19.9722 -7.0189 -2.5147 0.9183
20.1095 -6.6158 -2.5147 0.9183
20.3594 -5.8016 -2.5147 0.9183
20.5761 -4.9779 -2.5147 0.9183
20.6719 -4.5630 -2.5146 0.9183
20.8384 -3.7278 -2.5146 0.9183
20.9089 -3.3078 -2.5146 0.9183
20.9709 -2.8865 -2.5145 0.9183
21.0243 -2.4640 -2.5145 0.9183
21.0693 -2.0406 -2.5144 0.9183
21.1056 -1.6163 -2.5144 0.9183
21.1333 -1.1914 -2.5143 0.9183
21.1525 -0.7661 -2.5143 0.9183
21.1630 -0.3404 -2.5142 0.9183
21.1192 1.3616 -2.5139 0.9183
21.0867 1.7861 -2.5138 0.9183
20.9961 2.6326 -2.5136 0.9183
20.9380 3.0543 -2.5135 0.9183
20.7127 4.3110 -2.5131 0.9183
20.0256 6.7677 -2.5109 0.9184
19.8187 7.1451 -2.5025 0.9186
18.7711 7.1972 -2.3880 0.9222
17.9060 8.5746 -2.3583 0.9231
17.5440 9.2866 -2.3579 0.9232
17.3524 9.6369 -2.3578 0.9232
17.1537 9.9832 -2.3576 0.9232
16.9481 10.3255 -2.3574 0.9232
16.7357 10.6635 -2.3572 0.9232
16.2906 11.3261 -2.3568 0.9232
15.0645 12.8992 -2.3558 0.9232
14.1821 13.1684 -2.2989 0.9250
12.8724 12.9547 -2.1693 0.9291
12.3830 12.9741 -2.1304 0.9303
12.0641 13.1600 -2.1207 0.9306
11.7291 13.3231 -2.1085 0.9310
11.3583 13.4375 -2.0900 0.9316
10.8811 13.4110 -2.0514 0.9328
10.1372 13.5758 -2.0126 0.9340
9.1060 13.2771 -1.9124 0.9372
8.6161 13.1211 -1.8646 0.9387
8.2522 13.1355 -1.8427 0.9394
7.6461 13.3328 -1.8257 0.9400
7.3133 13.3687 -1.8101 0.9405
6.9783 13.3891 -1.7935 0.9410
6.7677 13.6480 -1.8096 0.9405
6.4657 13.7260 -1.8023 0.9407
6.0065 13.4464 -1.7493 0.9424
5.7775 13.6653 -1.7624 0.9420
5.3595 13.4233 -1.7169 0.9434
5.0534 13.4354 -1.7051 0.9438
4.3959 13.2860 -1.6623 0.9452
4.1048 13.2976 -1.6531 0.9455
3.0784 13.8349 -1.6836 0.9445
2.7903 13.8484 -1.6781 0.9447
2.4969 13.8232 -1.6686 0.9450
2.2118 13.8292 -1.6636 0.9451
0.7899 13.6021 -1.6185 0.9466
0.5094 13.4378 -1.5974 0.9473
0.2391 13.4485 -1.5977 0.9473
-0.0315 13.4592 -1.5988 0.9472
-0.3064 13.6434 -1.6211 0.9465
-0.8627 13.7425 -1.6356 0.9460
-1.1535 13.8973 -1.6565 0.9454
-1.7277 13.9701 -1.6721 0.9449
-13.8460 8.9919 -2.3392 0.9355
-14.0237 8.7113 -2.3392 0.9355
-14.0938 7.9878 -2.2954 0.9366
-14.6774 7.5553 -2.3390 0.9355
-15.1229 7.4037 -2.3858 0.9342
-16.3575 6.4350 -2.4906 0.9314
-16.8215 5.0993 -2.4905 0.9315
-16.9207 4.7598 -2.4905 0.9315
-17.0131 4.4185 -2.4905 0.9315
-17.2489 3.3844 -2.4906 0.9314
-17.3136 3.0368 -2.4906 0.9314
-17.3714 2.6880 -2.4906 0.9314
-17.4222 2.3380 -2.4907 0.9314
-17.5027 1.6354 -2.4907 0.9314
-17.5789 0.2232 -2.4909 0.9314
-17.5618 -0.8375 -2.4911 0.9314
-17.5419 -1.1906 -2.4912 0.9314
-17.4809 -1.8953 -2.4914 0.9314
-17.3918 -2.5971 -2.4916 0.9314
-17.3367 -2.9465 -2.4916 0.9314
-17.2746 -3.2948 -2.4917 0.9314
-17.2055 -3.6418 -2.4918 0.9314
-16.9568 -4.6735 -2.4922 0.9314
-16.8602 -5.0139 -2.4923 0.9314
-16.5295 -6.0225 -2.4927 0.9314
-16.2757 -6.6832 -2.4929 0.9314
-15.9955 -7.3333 -2.4932 0.9314
-15.6895 -7.9717 -2.4935 0.9314
-15.0017 -9.2093 -2.4941 0.9314
-14.6211 -9.8066 -2.4945 0.9313
-14.4218 -10.0994 -2.4946 0.9313
-14.0059 -10.6728 -2.4950 0.9313
-13.5505 -11.2153 -2.4923 0.9314
-13.2737 -11.4438 -2.4832 0.9316
-12.6588 -11.3655 -2.4105 0.9336
-11.3835 -12.0079 -2.3444 0.9353
-11.1405 -12.2354 -2.3446 0.9353
-10.8930 -12.4580 -2.3448 0.9353
-10.6411 -12.6756 -2.3450 0.9353
-10.3848 -12.8881 -2.3452 0.9353
-9.8596 -13.2976 -2.3455 0.9353
-9.5909 -13.4944 -2.3457 0.9353
-8.4781 -14.2264 -2.3465 0.9353
-7.9004 -14.5585 -2.3469 0.9353
-7.0097 -15.0124 -2.3475 0.9353
-6.4013 -15.2849 -2.3480 0.9352
-6.0931 -15.4119 -2.3482 0.9352
-5.4692 -15.6472 -2.3486 0.9352
-3.7521 -11.4703 -1.7100 0.9524
-4.1953 -16.0419 -2.3494 0.9352
-2.5644 -16.3893 -2.3504 0.9352
-2.2344 -16.4390 -2.3507 0.9352
-1.9034 -16.4821 -2.3509 0.9352
-1.5717 -16.5185 -2.3511 0.9352
-1.2392 -16.5482 -2.3513 0.9352
-0.5726 -16.5875 -2.3517 0.9351
0.4290 -16.5961 -2.3523 0.9351
0.7628 -16.5855 -2.3525 0.9351
1.0964 -16.5682 -2.3527 0.9351
1.4295 -16.5441 -2.3529 0.9351
2.0941 -16.4759 -2.3532 0.9351
2.4253 -16.4318 -2.3534 0.9351
2.7556 -16.3810 -2.3536 0.9351
3.0848 -16.3235 -2.3538 0.9351
3.4128 -16.2595 -2.3540 0.9351
3.7395 -16.1888 -2.3542 0.9351
4.0647 -16.1115 -2.3544 0.9351
4.7101 -15.9374 -2.3547 0.9351
5.3481 -15.7373 -2.3551 0.9351
5.6640 -15.6277 -2.3552 0.9351
5.9777 -15.5117 -2.3554 0.9350
6.5977 -15.2609 -2.3557 0.9350
7.2071 -14.9851 -2.3560 0.9350
7.5076 -14.8381 -2.3562 0.9350
8.0994 -14.5259 -2.3565 0.9350
8.3905 -14.3610 -2.3566 0.9350
8.6781 -14.1902 -2.3568 0.9350
8.9794 -14.0403 -2.3614 0.9349
9.8269 -14.7050 -2.5060 0.9310
10.1375 -14.5284 -2.5101 0.9309
10.4282 -14.3223 -2.5102 0.9309
10.7148 -14.1104 -2.5104 0.9309
10.9970 -13.8927 -2.5105 0.9309
11.5481 -13.4405 -2.5108 0.9309
12.0805 -12.9663 -2.5110 0.9309
12.5933 -12.4710 -2.5112 0.9309
12.8421 -12.2157 -2.5113 0.9309
13.0858 -11.9554 -2.5114 0.9309
13.7846 -11.1456 -2.5117 0.9309
14.2226 -10.5828 -2.5119 0.9309
14.4331 -10.2949 -2.5119 0.9309
14.6376 -10.0028 -2.5120 0.9309
14.8363 -9.7065 -2.5121 0.9309
15.0289 -9.4063 -2.5121 0.9309
15.2154 -9.1023 -2.5122 0.9309
15.5699 -8.4833 -2.5123 0.9309
16.3442 -6.8775 -2.5125 0.9309
16.7296 -5.8793 -2.5125 0.9309
17.1481 -4.5156 -2.5125 0.9309
17.3157 -3.8222 -2.5125 0.9309
17.5143 -2.7708 -2.5124 0.9309
17.5662 -2.4179 -2.5124 0.9309
17.6111 -2.0640 -2.5124 0.9309
17.6487 -1.7093 -2.5123 0.9309
17.7026 -0.9980 -2.5122 0.9309
17.7276 -0.2851 -2.5121 0.9309
17.7293 0.0715 -2.5121 0.9309
17.7238 0.4281 -2.5120 0.9309
17.6642 1.4962 -2.5118 0.9309
17.5399 2.5586 -2.5115 0.9309
17.4842 2.9108 -2.5114 0.9309
17.3516 3.6114 -2.5112 0.9309
17.2747 3.9595 -2.5111 0.9309
17.1908 4.3060 -2.5110 0.9309
17.0999 4.6508 -2.5109 0.9309
17.0021 4.9936 -2.5108 0.9309
16.8974 5.3343 -2.5106 0.9309
16.6675 6.0090 -2.5104 0.9309
16.5423 6.3427 -2.5103 0.9309
15.9812 7.2614 -2.4872 0.9315
15.2448 7.3003 -2.3949 0.9340
14.8536 7.4839 -2.3566 0.9350
14.0226 8.9348 -2.3559 0.9350
13.8391 9.2144 -2.3557 0.9350
13.4554 9.7622 -2.3554 0.9350
13.2554 10.0302 -2.3552 0.9351
13.0500 10.2941 -2.3551 0.9351
12.8393 10.5537 -2.3549 0.9351
12.6235 10.8090 -2.3547 0.9351
12.1767 11.3064 -2.3544 0.9351
11.9459 11.5482 -2.3542 0.9351
11.2250 12.2447 -2.3536 0.9351
9.9347 13.3046 -2.3527 0.9351
5.7969 8.0980 -1.4111 0.9606
9.1060 13.2771 -2.2812 0.9370
8.6161 13.1211 -2.2241 0.9386
8.2523 13.1355 -2.1980 0.9393
7.9984 13.3189 -2.2013 0.9392
7.3139 13.3698 -2.1593 0.9403
5.7779 13.6663 -2.1023 0.9418
4.6903 13.2744 -1.9948 0.9447
4.3959 13.2861 -1.9829 0.9450
3.5772 13.4918 -1.9777 0.9452
1.6534 13.9046 -1.9840 0.9450
1.3525 13.7221 -1.9537 0.9458
0.2391 13.4485 -1.9058 0.9471
-0.0315 13.4593 -1.9070 0.9471
-0.3064 13.6435 -1.9336 0.9464
-0.8589 13.6824 -1.9425 0.9461
-1.6961 13.7155 -1.9581 0.9457
-2.0062 13.9179 -1.9924 0.9448
-2.2635 13.7399 -1.9730 0.9453
-11.9444 7.7570 -2.3462 0.9439
-12.4069 7.7070 -2.4061 0.9425
-12.8870 7.6504 -2.4689 0.9411
-13.4508 6.9239 -2.4922 0.9405
-13.7181 6.3771 -2.4922 0.9405
-13.9632 5.8201 -2.4921 0.9405
-14.1858 5.2537 -2.4921 0.9405
-14.2886 4.9673 -2.4921 0.9405
-14.3856 4.6788 -2.4921 0.9405
-14.4768 4.3885 -2.4921 0.9405
-14.6416 3.8027 -2.4921 0.9405
-14.7828 3.2107 -2.4921 0.9405
-14.9002 2.6135 -2.4921 0.9405
-15.0628 1.4074 -2.4922 0.9405
-15.0883 1.1042 -2.4923 0.9405
-15.1077 0.8005 -2.4923 0.9405
-15.1294 -0.1122 -2.4925 0.9405
-15.1244 -0.4165 -2.4925 0.9405
-15.1133 -0.7207 -2.4926 0.9405
-15.0435 -1.6310 -2.4928 0.9405
-15.0081 -1.9334 -2.4929 0.9405
-14.9667 -2.2350 -2.4929 0.9405
-14.9192 -2.5356 -2.4930 0.9405
-14.8657 -2.8354 -2.4931 0.9405
-14.7406 -3.4312 -2.4933 0.9405
-14.6692 -3.7272 -2.4934 0.9405
-14.5918 -4.0217 -2.4935 0.9405
-14.5086 -4.3146 -2.4936 0.9405
-14.3245 -4.8950 -2.4938 0.9405
-14.2238 -5.1824 -2.4939 0.9405
-14.1173 -5.4677 -2.4940 0.9405
-13.6348 -6.5861 -2.4945 0.9405
-13.0640 -7.6624 -2.4950 0.9404
-12.7467 -8.1825 -2.4953 0.9404
-12.4087 -8.6897 -2.4956 0.9404
-12.0506 -9.1828 -2.4959 0.9404
-11.6729 -9.6613 -2.4962 0.9404
-11.0711 -10.3498 -2.4967 0.9404
-10.8614 -10.5711 -2.4969 0.9404
-10.6396 -10.7803 -2.4952 0.9404
-10.4061 -10.9769 -2.4918 0.9405
-10.0921 -11.0840 -2.4695 0.9410
-9.2777 -11.0516 -2.3771 0.9432
-8.9339 -11.0875 -2.3457 0.9439
-8.4819 -11.4395 -2.3460 0.9439
-8.2506 -11.6086 -2.3462 0.9439
-8.0160 -11.7731 -2.3464 0.9439
-7.7782 -11.9328 -2.3465 0.9439
-7.2930 -12.2378 -2.3469 0.9439
-6.7958 -12.5231 -2.3472 0.9439
-6.5430 -12.6582 -2.3474 0.9439
-6.2875 -12.7882 -2.3476 0.9439
-6.0295 -12.9131 -2.3478 0.9439
-5.2409 -13.2562 -2.3483 0.9439
-4.9735 -13.3600 -2.3485 0.9438
-4.7042 -13.4583 -2.3486 0.9438
-3.8848 -13.7207 -2.3492 0.9438
-3.6083 -13.7971 -2.3494 0.9438
-2.4883 -14.0467 -2.3501 0.9438
-1.9216 -14.1376 -2.3504 0.9438
-1.6369 -14.1744 -2.3506 0.9438
-1.3516 -14.2056 -2.3508 0.9438
-1.0656 -14.2310 -2.3510 0.9438
-0.7792 -14.2506 -2.3511 0.9438
-0.4925 -14.2644 -2.3513 0.9438
-0.2054 -14.2725 -2.3515 0.9438
0.3689 -14.2713 -2.3518 0.9438
0.9427 -14.2470 -2.3522 0.9438
1.2292 -14.2261 -2.3523 0.9438
1.5152 -14.1995 -2.3525 0.9438
1.8007 -14.1671 -2.3527 0.9437
2.0854 -14.1290 -2.3528 0.9437
2.3694 -14.0852 -2.3530 0.9437
2.6524 -14.0357 -2.3531 0.9437
2.9344 -13.9804 -2.3533 0.9437
3.2153 -13.9195 -2.3535 0.9437
3.4948 -13.8529 -2.3536 0.9437
3.7730 -13.7807 -2.3538 0.9437
4.3248 -13.6195 -2.3541 0.9437
4.8698 -13.4362 -2.3544 0.9437
5.1393 -13.3363 -2.3545 0.9437
5.4069 -13.2311 -2.3547 0.9437
5.6723 -13.1204 -2.3548 0.9437
5.9354 -13.0044 -2.3549 0.9437
6.4544 -12.7566 -2.3552 0.9437
6.7101 -12.6249 -2.3553 0.9437
6.9631 -12.4880 -2.3555 0.9437
7.3901 -12.6489 -2.4133 0.9423
7.9229 -12.9552 -2.5017 0.9403
8.1977 -12.8179 -2.5065 0.9402
8.4614 -12.6618 -2.5088 0.9401
8.7148 -12.4896 -2.5089 0.9401
8.9647 -12.3123 -2.5090 0.9401
9.2110 -12.1301 -2.5091 0.9401
9.6923 -11.7508 -2.5094 0.9401
9.9271 -11.5539 -2.5095 0.9401
10.1580 -11.3524 -2.5096 0.9401
10.3847 -11.1462 -2.5097 0.9401
11.0392 -10.5007 -2.5099 0.9401
11.6536 -9.8168 -2.5102 0.9401
12.2256 -9.0968 -2.5104 0.9401
12.4064 -8.8493 -2.5105 0.9401
13.0787 -7.8241 -2.5107 0.9401
13.2337 -7.5596 -2.5107 0.9401
13.3833 -7.2920 -2.5108 0.9401
13.6661 -6.7479 -2.5108 0.9401
13.9268 -6.1929 -2.5109 0.9401
14.0487 -5.9116 -2.5109 0.9401
14.1649 -5.6278 -2.5109 0.9401
14.2753 -5.3418 -2.5110 0.9401
14.3800 -5.0536 -2.5110 0.9401
14.5717 -4.4711 -2.5110 0.9401
14.7397 -3.8814 -2.5110 0.9401
14.8147 -3.5841 -2.5110 0.9401
14.9467 -2.9853 -2.5109 0.9401
15.0037 -2.6840 -2.5109 0.9401
15.0545 -2.3816 -2.5109 0.9401
15.0992 -2.0783 -2.5109 0.9401
15.1702 -1.4692 -2.5108 0.9401
15.1964 -1.1638 -2.5108 0.9401
15.2304 -0.5516 -2.5107 0.9401
15.2381 -0.2451 -2.5106 0.9401
15.2241 0.6744 -2.5105 0.9401
15.1190 1.8957 -2.5102 0.9401
15.0773 2.1994 -2.5101 0.9401
15.0295 2.5021 -2.5100 0.9401
14.9157 3.1044 -2.5099 0.9401
14.7777 3.7016 -2.5097 0.9401
14.6156 4.2926 -2.5095 0.9401
14.5257 4.5856 -2.5094 0.9401
14.4299 4.8766 -2.5093 0.9401
14.3283 5.1657 -2.5091 0.9401
13.7338 6.5767 -2.5085 0.9401
13.2207 7.3423 -2.4913 0.9405
12.2085 7.4379 -2.3551 0.9437
12.0557 7.6815 -2.3549 0.9437
11.7356 8.1593 -2.3547 0.9437
11.3965 8.6236 -2.3544 0.9437
11.0391 9.0740 -2.3541 0.9437
10.2713 9.9293 -2.3535 0.9437
10.0689 10.1333 -2.3533 0.9437
9.8623 10.3330 -2.3532 0.9437
9.6518 10.5287 -2.3530 0.9437
9.2192 10.9068 -2.3527 0.9437
8.7718 11.2672 -2.3523 0.9438
8.5428 11.4406 -2.3522 0.9438
8.0746 11.7732 -2.3518 0.9438
7.3482 12.2362 -2.3513 0.9438
7.1000 12.3806 -2.3511 0.9438
6.8490 12.5200 -2.3510 0.9438
4.1285 8.3256 -1.5309 0.9630
5.5552 13.1395 -2.3501 0.9438
5.2893 13.2476 -2.3499 0.9438
4.6903 13.2745 -2.3193 0.9445
4.3959 13.2861 -2.3054 0.9448
3.5772 13.4918 -2.2994 0.9450
3.0738 13.8145 -2.3314 0.9442
2.7296 13.5472 -2.2766 0.9455
1.8927 13.5804 -2.2588 0.9459
1.3788 13.9900 -2.3159 0.9446
1.0640 13.5914 -2.2459 0.9462
0.5094 13.4379 -2.2153 0.9469
-1.1717 14.1164 -2.3335 0.9442
-1.4160 13.7093 -2.2705 0.9457
-1.6968 13.7204 -2.2775 0.9455
-2.0295 14.0791 -2.3434 0.9440
-2.2640 13.7429 -2.2945 0.9451
-11.4073 6.7719 -2.4935 0.9474
-11.5410 6.5410 -2.4934 0.9474
-11.6701 6.3074 -2.4934 0.9474
-11.9141 5.8328 -2.4933 0.9474
-12.1388 5.3487 -2.4933 0.9474
-12.2438 5.1034 -2.4933 0.9474
-12.5291 4.3556 -2.4932 0.9474
-12.6142 4.1027 -2.4932 0.9474
-12.7690 3.5920 -2.4932 0.9474
-13.0166 2.5540 -2.4933 0.9474
-13.1090 2.0284 -2.4933 0.9474
-13.2079 1.2341 -2.4934 0.9474
-13.2589 0.4353 -2.4935 0.9474
-13.2652 0.1685 -2.4935 0.9474
-13.2617 -0.3652 -2.4936 0.9474
-13.2520 -0.6319 -2.4937 0.9474
-13.2164 -1.1645 -2.4938 0.9474
-13.1232 -1.9597 -2.4940 0.9474
-13.0815 -2.2233 -2.4941 0.9474
-12.9248 -3.0085 -2.4943 0.9474
-12.6429 -4.0382 -2.4946 0.9474
-12.4712 -4.5439 -2.4948 0.9474
-12.3778 -4.7940 -2.4949 0.9474
-12.2793 -5.0422 -2.4950 0.9474
-12.1759 -5.2884 -2.4951 0.9474
-12.0676 -5.5325 -2.4953 0.9474
-11.8364 -6.0140 -2.4955 0.9474
-11.3168 -6.9472 -2.4959 0.9474
-11.1753 -7.1738 -2.4961 0.9474
-11.0293 -7.3975 -2.4962 0.9474
-10.8789 -7.6183 -2.4963 0.9474
-10.5647 -8.0506 -2.4966 0.9474
-10.4012 -8.2619 -2.4967 0.9474
-10.2335 -8.4699 -2.4969 0.9474
-10.0616 -8.6745 -2.4970 0.9474
-9.8856 -8.8756 -2.4971 0.9474
-9.7056 -9.0732 -2.4973 0.9474
-8.9470 -9.8263 -2.4979 0.9473
-8.5456 -10.1795 -2.4982 0.9473
-8.3396 -10.3500 -2.4983 0.9473
-8.1302 -10.5162 -2.4985 0.9473
-7.9102 -10.6685 -2.4963 0.9474
-7.1587 -10.9824 -2.4641 0.9480
-6.8530 -10.9907 -2.4345 0.9486
-5.7352 -11.0953 -2.3476 0.9504
-5.2849 -11.3185 -2.3479 0.9504
-5.0565 -11.4233 -2.3481 0.9504
-4.8261 -11.5234 -2.3482 0.9504
-4.5936 -11.6189 -2.3484 0.9504
-4.3592 -11.7098 -2.3485 0.9504
-3.6458 -11.9538 -2.3490 0.9504
-3.1624 -12.0924 -2.3493 0.9504
-2.9187 -12.1543 -2.3495 0.9504
-1.4346 -12.4223 -2.3504 0.9504
-0.9339 -12.4716 -2.3507 0.9504
-0.4315 -12.5006 -2.3510 0.9504
-0.1800 -12.5076 -2.3512 0.9504
0.0716 -12.5095 -2.3513 0.9504
0.3233 -12.5063 -2.3515 0.9504
0.5748 -12.4981 -2.3516 0.9504
1.3278 -12.4430 -2.3521 0.9503
1.8275 -12.3810 -2.3524 0.9503
3.5485 -12.0069 -2.3533 0.9503
3.7895 -11.9338 -2.3535 0.9503
4.0290 -11.8558 -2.3536 0.9503
4.2669 -11.7729 -2.3537 0.9503
4.5031 -11.6854 -2.3538 0.9503
4.7375 -11.5930 -2.3540 0.9503
5.3234 -11.6634 -2.4098 0.9492
5.6597 -11.7677 -2.4544 0.9482
6.0048 -11.8679 -2.5000 0.9473
6.4951 -11.6488 -2.5069 0.9472
7.6354 -10.9426 -2.5080 0.9471
7.8543 -10.7872 -2.5081 0.9471
8.0700 -10.6275 -2.5082 0.9471
8.4916 -10.2950 -2.5084 0.9471
9.2929 -9.5805 -2.5087 0.9471
9.6714 -9.1996 -2.5089 0.9471
9.8548 -9.0034 -2.5090 0.9471
10.0342 -8.8036 -2.5090 0.9471
10.2095 -8.6002 -2.5091 0.9471
10.8688 -7.7525 -2.5094 0.9471
11.3173 -7.0833 -2.5095 0.9471
11.4577 -6.8543 -2.5095 0.9471
11.7245 -6.3881 -2.5096 0.9471
11.8508 -6.1511 -2.5097 0.9471
12.0889 -5.6696 -2.5097 0.9471
12.2006 -5.4253 -2.5097 0.9471
12.3073 -5.1788 -2.5098 0.9471
12.5058 -4.6796 -2.5098 0.9471
12.5975 -4.4272 -2.5098 0.9471
12.6840 -4.1729 -2.5098 0.9471
12.7654 -3.9169 -2.5098 0.9471
12.9784 -3.1398 -2.5098 0.9471
13.0389 -2.8781 -2.5098 0.9471
13.0940 -2.6152 -2.5098 0.9471
13.1439 -2.3513 -2.5098 0.9471
13.1884 -2.0864 -2.5097 0.9471
13.2614 -1.5542 -2.5097 0.9471
13.3305 -0.7515 -2.5096 0.9471
13.3427 -0.4832 -2.5095 0.9471
13.3509 0.0539 -2.5095 0.9471
13.3468 0.3224 -2.5094 0.9471
13.3374 0.5908 -2.5094 0.9471
13.3225 0.8589 -2.5093 0.9471
13.3022 1.1267 -2.5092 0.9471
13.2765 1.3941 -2.5092 0.9471
13.2090 1.9268 -2.5090 0.9471
13.1672 2.1921 -2.5090 0.9471
12.9467 3.2429 -2.5087 0.9471
12.8784 3.5026 -2.5086 0.9471
12.8049 3.7608 -2.5085 0.9471
12.7262 4.0175 -2.5084 0.9471
12.6423 4.2725 -2.5083 0.9471
12.5533 4.5258 -2.5082 0.9471
12.4592 4.7772 -2.5081 0.9471
12.3601 5.0266 -2.5080 0.9471
12.2560 5.2740 -2.5079 0.9471
12.0329 5.7622 -2.5077 0.9471
11.6618 6.4766 -2.5073 0.9472
11.5286 6.7095 -2.5072 0.9472
11.0700 7.3707 -2.4998 0.9473
10.6810 7.4260 -2.4451 0.9484
9.9858 7.5561 -2.3537 0.9503
9.8312 7.7551 -2.3536 0.9503
9.1740 8.5183 -2.3531 0.9503
9.0003 8.7006 -2.3529 0.9503
8.4576 9.2260 -2.3525 0.9503
8.2698 9.3937 -2.3524 0.9503
7.8843 9.7175 -2.3521 0.9503
7.6868 9.8735 -2.3519 0.9503
7.4862 10.0255 -2.3518 0.9503
5.7410 8.0200 -1.8539 0.9607
5.6380 8.2206 -1.8736 0.9602
6.8666 10.4568 -2.3513 0.9504
6.6544 10.5921 -2.3512 0.9504
6.2222 10.8498 -2.3509 0.9504
5.7800 11.0899 -2.3506 0.9504
3.8326 8.1362 -1.6905 0.9641
4.6356 11.6104 -2.3498 0.9504
4.4009 11.7005 -2.3497 0.9504
3.6864 11.9422 -2.3492 0.9504
2.7139 12.1967 -2.3486 0.9504
1.9729 12.3357 -2.3481 0.9504
1.4749 12.4034 -2.3478 0.9504
0.9747 12.4511 -2.3475 0.9504
0.7240 12.4674 -2.3473 0.9504
0.4731 12.4786 -2.3472 0.9504
0.2219 12.4848 -2.3470 0.9504
-0.2804 12.4820 -2.3467 0.9505
-0.7821 12.4591 -2.3464 0.9505
-1.0325 12.4401 -2.3463 0.9505
-1.5319 12.3869 -2.3460 0.9505
-1.7806 12.3528 -2.3458 0.9505
-9.8969 6.4273 -2.4944 0.9529
-10.2660 5.8183 -2.4943 0.9529
-10.5979 5.1884 -2.4942 0.9529
-10.7978 4.7579 -2.4942 0.9529
-10.8913 4.5397 -2.4942 0.9529
-11.2919 3.4230 -2.4941 0.9529
-11.4778 2.7358 -2.4941 0.9529
-11.5306 2.5043 -2.4942 0.9529
-11.6221 2.0385 -2.4942 0.9529
-11.6949 1.5694 -2.4942 0.9529
-11.7242 1.3339 -2.4942 0.9529
-11.7488 1.0978 -2.4943 0.9529
-11.7686 0.8612 -2.4943 0.9529
-11.7837 0.6243 -2.4943 0.9529
-11.7941 0.3872 -2.4944 0.9529
-11.7965 -0.3249 -2.4945 0.9529
-11.7878 -0.5621 -2.4945 0.9529
-11.7744 -0.7991 -2.4946 0.9529
-11.7562 -1.0358 -2.4946 0.9529
-11.7055 -1.5079 -2.4948 0.9529
-11.6731 -1.7431 -2.4948 0.9529
-11.6360 -1.9776 -2.4949 0.9529
-11.5942 -2.2114 -2.4949 0.9529
-11.5476 -2.4442 -2.4950 0.9529
-11.4965 -2.6761 -2.4951 0.9529
-11.4406 -2.9069 -2.4952 0.9529
-11.3152 -3.3649 -2.4953 0.9529
-11.0096 -4.2641 -2.4957 0.9529
-10.8300 -4.7038 -2.4958 0.9529
-10.7336 -4.9209 -2.4959 0.9529
-10.6328 -5.1360 -2.4960 0.9529
-10.5278 -5.3491 -2.4961 0.9529
-10.4185 -5.5600 -2.4962 0.9529
-9.9396 -6.3806 -2.4967 0.9529
-9.8097 -6.5795 -2.4968 0.9529
-9.5380 -6.9694 -2.4970 0.9529
-9.3963 -7.1602 -2.4971 0.9528
-9.2508 -7.3481 -2.4973 0.9528
-8.7921 -7.8938 -2.4976 0.9528
-8.6319 -8.0695 -2.4978 0.9528
-8.4683 -8.2420 -2.4979 0.9528
-8.3012 -8.4110 -2.4980 0.9528
-8.1308 -8.5768 -2.4981 0.9528
-7.9571 -8.7391 -2.4983 0.9528
-7.7801 -8.8978 -2.4984 0.9528
-7.4167 -9.2046 -2.4987 0.9528
-7.0412 -9.4965 -2.4990 0.9528
-6.6543 -9.7731 -2.4992 0.9528
-6.4567 -9.9055 -2.4994 0.9528
-6.2565 -10.0340 -2.4995 0.9528
-5.8485 -10.2787 -2.4998 0.9528
-5.2174 -10.6116 -2.4995 0.9528
-4.7812 -10.8012 -2.4968 0.9529
-4.5607 -10.8897 -2.4956 0.9529
-4.3387 -10.9741 -2.4944 0.9529
-4.1144 -11.0522 -2.4928 0.9529
-3.6220 -11.0725 -2.4625 0.9535
-3.1404 -11.0917 -2.4367 0.9540
-2.6679 -11.1097 -2.4151 0.9544
-1.9725 -11.1350 -2.3904 0.9548
-1.7435 -11.1430 -2.3841 0.9549
-1.5156 -11.1508 -2.3787 0.9550
-1.2886 -11.1584 -2.3743 0.9551
-1.0624 -11.1658 -2.3709 0.9552
-0.6113 -11.1800 -2.3668 0.9553
-0.1611 -11.1935 -2.3663 0.9553
0.2896 -11.2063 -2.3696 0.9552
0.7423 -11.2185 -2.3766 0.9551
1.1984 -11.2301 -2.3873 0.9549
2.6013 -11.2616 -2.4432 0.9538
3.0859 -11.2710 -2.4701 0.9533
3.3355 -11.2862 -2.4877 0.9530
4.2595 -11.0531 -2.5039 0.9527
4.7050 -10.8830 -2.5062 0.9527
5.5655 -10.4714 -2.5067 0.9527
5.7753 -10.3578 -2.5068 0.9527
6.1877 -10.1179 -2.5070 0.9527
6.3903 -9.9918 -2.5071 0.9527
6.5902 -9.8616 -2.5072 0.9527
6.7875 -9.7274 -2.5073 0.9527
6.9820 -9.5893 -2.5074 0.9527
7.3626 -9.3013 -2.5075 0.9527
7.5485 -9.1517 -2.5076 0.9527
7.9110 -8.8412 -2.5078 0.9527
8.0875 -8.6805 -2.5079 0.9527
8.5970 -8.1777 -2.5081 0.9526
8.7600 -8.0033 -2.5081 0.9526
8.9195 -7.8256 -2.5082 0.9526
9.0753 -7.6448 -2.5083 0.9526
9.2275 -7.4609 -2.5083 0.9526
9.3759 -7.2739 -2.5084 0.9526
9.7981 -6.6956 -2.5085 0.9526
10.0599 -6.2963 -2.5086 0.9526
10.1846 -6.0928 -2.5087 0.9526
10.3053 -5.8868 -2.5087 0.9526
10.4217 -5.6783 -2.5087 0.9526
10.5340 -5.4676 -2.5087 0.9526
10.6419 -5.2547 -2.5088 0.9526
10.9398 -4.6034 -2.5088 0.9526
11.1977 -3.9352 -2.5089 0.9526
11.2746 -3.7092 -2.5089 0.9526
11.3469 -3.4817 -2.5089 0.9526
11.4147 -3.2527 -2.5089 0.9526
11.4778 -3.0224 -2.5089 0.9526
11.5362 -2.7909 -2.5089 0.9526
11.5900 -2.5583 -2.5089 0.9526
11.7230 -1.8546 -2.5088 0.9526
11.7578 -1.6184 -2.5088 0.9526
11.8132 -1.1441 -2.5088 0.9526
11.8493 -0.6680 -2.5087 0.9526
11.8602 -0.4295 -2.5087 0.9526
11.8639 0.2866 -2.5085 0.9526
11.8243 1.0015 -2.5084 0.9526
11.8015 1.2392 -2.5083 0.9526
11.7739 1.4763 -2.5083 0.9526
11.7045 1.9486 -2.5081 0.9526
11.6626 2.1836 -2.5081 0.9526
11.5647 2.6508 -2.5079 0.9527
11.5087 2.8828 -2.5079 0.9527
11.4480 3.1136 -2.5078 0.9527
11.3128 3.5713 -2.5076 0.9527
11.2383 3.7980 -2.5075 0.9527
11.1592 4.0231 -2.5074 0.9527
11.0756 4.2467 -2.5074 0.9527
10.9876 4.4684 -2.5073 0.9527
10.8951 4.6883 -2.5072 0.9527
10.7981 4.9064 -2.5071 0.9527
10.6968 5.1224 -2.5070 0.9527
10.3671 5.7575 -2.5067 0.9527
10.2488 5.9646 -2.5066 0.9527
9.9997 6.3715 -2.5063 0.9527
9.7344 6.7679 -2.5061 0.9527
9.5959 6.9620 -2.5060 0.9527
9.2871 7.3259 -2.5004 0.9528
9.0827 7.4658 -2.4853 0.9531
8.7422 7.4856 -2.4328 0.9540
8.1561 7.5731 -2.3526 0.9555
8.0017 7.7353 -2.3525 0.9555
7.3525 8.3516 -2.3520 0.9555
7.1826 8.4974 -2.3519 0.9555
6.8343 8.7785 -2.3516 0.9555
5.7343 8.0106 -2.0824 0.9605
5.6275 8.2053 -2.1032 0.9601
6.1052 9.2973 -2.3511 0.9555
5.9166 9.4177 -2.3510 0.9555
5.5323 9.6469 -2.3507 0.9556
5.3369 9.7557 -2.3506 0.9556
4.1219 10.3237 -2.3497 0.9556
3.9132 10.4039 -2.3496 0.9556
3.7029 10.4799 -2.3495 0.9556
3.4911 10.5516 -2.3493 0.9556
3.2780 10.6191 -2.3492 0.9556
2.8479 10.7411 -2.3489 0.9556
2.1945 10.8914 -2.3485 0.9556
1.9748 10.9327 -2.3483 0.9556
1.7544 10.9695 -2.3482 0.9556
1.5333 11.0020 -2.3481 0.9556
1.3116 11.0299 -2.3479 0.9556
1.0894 11.0534 -2.3478 0.9556
0.4207 11.0971 -2.3474 0.9556
0.1974 11.1027 -2.3472 0.9556
-0.0260 11.1037 -2.3471 0.9556
-0.2493 11.1004 -2.3470 0.9556
-0.6955 11.0801 -2.3467 0.9556
-0.9182 11.0633 -2.3466 0.9556
-1.1405 11.0419 -2.3465 0.9556
-1.8041 10.9513 -2.3461 0.9556
-9.1289 5.4194 -2.4951 0.9573
-9.3393 5.0477 -2.4950 0.9573
-9.5346 4.6678 -2.4950 0.9573
-9.7985 4.0842 -2.4949 0.9573
-9.8786 3.8862 -2.4949 0.9573
-9.9548 3.6867 -2.4949 0.9573
-10.0269 3.4857 -2.4949 0.9573
-10.2746 2.6685 -2.4949 0.9573
-10.4169 2.0439 -2.4949 0.9573
-10.4560 1.8340 -2.4949 0.9573
-10.4909 1.6233 -2.4949 0.9573
-10.6106 0.3483 -2.4951 0.9573
-10.6156 0.1348 -2.4951 0.9573
-10.5928 -0.7189 -2.4953 0.9573
-10.5764 -0.9319 -2.4953 0.9573
-10.5308 -1.3566 -2.4954 0.9573
-10.4682 -1.7792 -2.4955 0.9573
-10.3426 -2.4075 -2.4957 0.9573
-10.2379 -2.8217 -2.4959 0.9573
-10.1794 -3.0271 -2.4959 0.9573
-10.0500 -3.4343 -2.4961 0.9573
-9.8255 -4.0346 -2.4963 0.9573
-9.5653 -4.6204 -2.4966 0.9573
-9.4707 -4.8120 -2.4967 0.9573
-9.3724 -5.0017 -2.4968 0.9573
-9.1643 -5.3751 -2.4970 0.9573
-9.0547 -5.5585 -2.4971 0.9573
-8.9414 -5.7398 -2.4972 0.9573
-8.7040 -6.0953 -2.4974 0.9573
-8.4525 -6.4410 -2.4976 0.9573
-8.3216 -6.6100 -2.4977 0.9573
-7.9088 -7.1008 -2.4980 0.9573
-7.7647 -7.2588 -2.4981 0.9573
-7.6175 -7.4139 -2.4982 0.9573
-7.4672 -7.5660 -2.4984 0.9573
-7.3138 -7.7150 -2.4985 0.9573
-6.9983 -8.0037 -2.4987 0.9573
-6.8362 -8.1433 -2.4988 0.9573
-6.6713 -8.2795 -2.4990 0.9573
-6.5038 -8.4125 -2.4991 0.9572
-5.9854 -8.7907 -2.4995 0.9572
-5.8077 -8.9098 -2.4996 0.9572
-5.6276 -9.0253 -2.4997 0.9572
-5.0738 -9.3497 -2.5001 0.9572
-4.6941 -9.5472 -2.5004 0.9572
-4.3067 -9.7294 -2.5006 0.9572
-4.1104 -9.8145 -2.5008 0.9572
-3.9123 -9.8958 -2.5009 0.9572
-3.7126 -9.9730 -2.5010 0.9572
-3.5115 -10.0462 -2.5012 0.9572
-3.1049 -10.1804 -2.5014 0.9572
-2.6932 -10.2981 -2.5017 0.9572
-2.0675 -10.4435 -2.5021 0.9572
-1.8571 -10.4835 -2.5022 0.9572
-1.6459 -10.5193 -2.5024 0.9572
-1.4341 -10.5509 -2.5025 0.9572
-1.2216 -10.5781 -2.5026 0.9572
-0.5815 -10.6342 -2.5030 0.9572
-0.3675 -10.6443 -2.5031 0.9572
0.0610 -10.6516 -2.5034 0.9572
0.2753 -10.6487 -2.5035 0.9572
0.7034 -10.6301 -2.5038 0.9572
0.9171 -10.6143 -2.5039 0.9572
1.1305 -10.5943 -2.5040 0.9572
1.3435 -10.5699 -2.5042 0.9572
1.5559 -10.5413 -2.5043 0.9572
1.7677 -10.5083 -2.5044 0.9572
2.6071 -10.3341 -2.5049 0.9572
3.6325 -10.0224 -2.5054 0.9571
4.0330 -9.8690 -2.5056 0.9571
4.8140 -9.5144 -2.5060 0.9571
5.0046 -9.4160 -2.5061 0.9571
5.1932 -9.3138 -2.5062 0.9571
5.5640 -9.0980 -2.5064 0.9571
5.7461 -8.9846 -2.5065 0.9571
5.9259 -8.8675 -2.5066 0.9571
6.6203 -8.3636 -2.5069 0.9571
7.5805 -7.5069 -2.5073 0.9571
7.7301 -7.3531 -2.5074 0.9571
7.8767 -7.1962 -2.5075 0.9571
8.0200 -7.0365 -2.5075 0.9571
8.1601 -6.8739 -2.5076 0.9571
8.4304 -6.5404 -2.5077 0.9571
8.6869 -6.1962 -2.5078 0.9571
8.9294 -5.8420 -2.5079 0.9571
9.0453 -5.6613 -2.5079 0.9571
9.1574 -5.4783 -2.5079 0.9571
9.2659 -5.2930 -2.5080 0.9571
9.8363 -4.1391 -2.5081 0.9571
9.9950 -3.7401 -2.5081 0.9571
10.1374 -3.3351 -2.5081 0.9571
10.2633 -2.9246 -2.5081 0.9571
10.3201 -2.7176 -2.5081 0.9571
10.3726 -2.5094 -2.5081 0.9571
10.4651 -2.0902 -2.5081 0.9571
10.5719 -1.4551 -2.5081 0.9571
10.6217 -1.0287 -2.5080 0.9571
10.6640 -0.3862 -2.5079 0.9571
10.6706 0.0430 -2.5079 0.9571
10.6674 0.2577 -2.5078 0.9571
10.6599 0.4722 -2.5078 0.9571
10.6480 0.6865 -2.5077 0.9571
10.6319 0.9005 -2.5077 0.9571
10.5866 1.3274 -2.5076 0.9571
10.5575 1.5401 -2.5075 0.9571
10.5242 1.7521 -2.5075 0.9571
10.4866 1.9634 -2.5074 0.9571
10.4447 2.1739 -2.5073 0.9571
10.2938 2.7996 -2.5071 0.9571
10.2350 3.0060 -2.5071 0.9571
10.1722 3.2112 -2.5070 0.9571
10.1053 3.4151 -2.5069 0.9571
9.9591 3.8186 -2.5068 0.9571
9.7097 4.4118 -2.5065 0.9571
9.6186 4.6061 -2.5064 0.9571
9.4249 4.9888 -2.5062 0.9571
9.3223 5.1773 -2.5061 0.9571
9.2159 5.3635 -2.5061 0.9571
9.1058 5.5476 -2.5060 0.9571
8.9920 5.7294 -2.5059 0.9571
8.8745 5.9089 -2.5058 0.9571
8.3694 6.6020 -2.5053 0.9571
8.2346 6.7687 -2.5052 0.9571
8.0964 6.9327 -2.5051 0.9571
7.8002 7.2427 -2.5016 0.9572
7.6451 7.3906 -2.4991 0.9572
7.4652 7.5130 -2.4892 0.9574
6.9164 7.5447 -2.4055 0.9588
6.3039 7.7696 -2.3515 0.9597
6.1461 7.8945 -2.3514 0.9597
5.7275 8.0011 -2.3126 0.9604
5.6170 8.1900 -2.3340 0.9600
5.3209 8.4696 -2.3508 0.9597
5.1492 8.5745 -2.3507 0.9597
3.8934 9.2089 -2.3498 0.9598
3.1399 9.4900 -2.3493 0.9598
2.5614 9.6606 -2.3489 0.9598
2.1705 9.7548 -2.3487 0.9598
1.9737 9.7960 -2.3485 0.9598
1.7762 9.8332 -2.3484 0.9598
1.3791 9.8956 -2.3482 0.9598
0.5791 9.9723 -2.3477 0.9598
0.3784 9.9815 -2.3476 0.9598
0.1775 9.9865 -2.3474 0.9598
-0.0234 9.9876 -2.3473 0.9598
-0.2243 9.9846 -2.3472 0.9598
-0.4251 9.9775 -2.3471 0.9598
-0.8260 9.9514 -2.3468 0.9598
-1.0259 9.9323 -2.3467 0.9598
-1.2254 9.9091 -2.3466 0.9598
-1.4245 9.8820 -2.3465 0.9598
-1.6229 9.8508 -2.3464 0.9598
-8.0840 5.2499 -2.4957 0.9610
-8.1878 5.0862 -2.4957 0.9610
-8.2884 4.9204 -2.4957 0.9610
-8.3856 4.7526 -2.4956 0.9610
-8.7401 4.0630 -2.4955 0.9610
-8.8964 3.7082 -2.4955 0.9610
-9.0383 3.3473 -2.4955 0.9610
-9.2126 2.7927 -2.4925 0.9610
-9.4186 2.0456 -2.4955 0.9610
-9.4933 1.6651 -2.4955 0.9610
-9.5250 1.4738 -2.4955 0.9610
-9.5528 1.2820 -2.4956 0.9610
-9.5837 -1.0391 -2.4959 0.9610
-9.5611 -1.2317 -2.4960 0.9610
-9.5346 -1.4238 -2.4960 0.9610
-9.5042 -1.6153 -2.4961 0.9609
-9.4320 -1.9964 -2.4962 0.9609
-9.3445 -2.3742 -2.4963 0.9609
-9.2419 -2.7483 -2.4964 0.9609
-9.1243 -3.1180 -2.4966 0.9609
-9.0600 -3.3010 -2.4967 0.9609
-8.9921 -3.4827 -2.4967 0.9609
-8.9204 -3.6630 -2.4968 0.9609
-8.7664 -4.0191 -2.4970 0.9609
-8.6841 -4.1947 -2.4970 0.9609
-8.5983 -4.3687 -2.4971 0.9609
-8.1175 -5.2109 -2.4976 0.9609
-8.0113 -5.3733 -2.4976 0.9609
-7.9019 -5.5336 -2.4977 0.9609
-7.4327 -6.1518 -2.4981 0.9609
-7.3078 -6.3003 -2.4982 0.9609
-6.7788 -6.8685 -2.4986 0.9609
-6.3531 -7.2658 -2.4990 0.9609
-5.7495 -7.7543 -2.4994 0.9609
-5.4335 -7.9800 -2.4996 0.9609
-5.2721 -8.0881 -2.4998 0.9609
-4.7753 -8.3925 -2.5001 0.9609
-4.4343 -8.5787 -2.5004 0.9609
-4.2611 -8.6665 -2.5005 0.9609
-4.0860 -8.7509 -2.5006 0.9609
-3.9094 -8.8317 -2.5007 0.9609
-3.5513 -8.9827 -2.5009 0.9609
-3.3701 -9.0528 -2.5011 0.9609
-3.1875 -9.1192 -2.5012 0.9609
-2.8184 -9.2409 -2.5014 0.9609
-2.2562 -9.3954 -2.5018 0.9609
-2.0669 -9.4393 -2.5019 0.9609
-1.8767 -9.4795 -2.5020 0.9609
-1.6857 -9.5157 -2.5022 0.9609
-1.3017 -9.5768 -2.5024 0.9609
-0.9155 -9.6223 -2.5026 0.9608
-0.5278 -9.6523 -2.5029 0.9608
-0.1391 -9.6666 -2.5031 0.9608
0.2498 -9.6653 -2.5033 0.9608
1.0261 -9.6156 -2.5038 0.9608
1.7960 -9.5037 -2.5042 0.9608
2.5545 -9.3302 -2.5047 0.9608
3.4792 -9.0283 -2.5052 0.9608
4.0178 -8.8030 -2.5054 0.9608
4.1942 -8.7208 -2.5055 0.9608
4.3690 -8.6349 -2.5056 0.9608
4.5419 -8.5456 -2.5057 0.9608
4.8823 -8.3565 -2.5059 0.9608
5.2148 -8.1539 -2.5060 0.9608
5.3780 -8.0476 -2.5061 0.9608
5.6977 -7.8253 -2.5063 0.9608
5.8541 -7.7093 -2.5063 0.9608
6.3089 -7.3428 -2.5066 0.9608
6.4555 -7.2146 -2.5066 0.9608
6.5995 -7.0834 -2.5067 0.9608
6.8794 -6.8126 -2.5068 0.9608
7.1482 -6.5307 -2.5069 0.9608
7.5295 -6.0880 -2.5071 0.9608
7.6506 -5.9354 -2.5071 0.9608
7.7686 -5.7804 -2.5072 0.9608
7.8834 -5.6231 -2.5072 0.9608
7.9950 -5.4635 -2.5072 0.9608
8.1034 -5.3016 -2.5073 0.9608
8.3103 -4.9715 -2.5073 0.9608
8.4088 -4.8034 -2.5074 0.9608
8.6834 -4.2876 -2.5074 0.9608
8.8490 -3.9349 -2.5075 0.9608
8.9264 -3.7561 -2.5075 0.9608
9.1368 -3.2110 -2.5075 0.9608
9.2586 -2.8409 -2.5075 0.9608
9.3139 -2.6541 -2.5075 0.9608
9.4970 -1.8968 -2.5075 0.9608
9.6185 -1.1273 -2.5074 0.9608
9.6776 -0.3505 -2.5073 0.9608
9.6739 0.4285 -2.5072 0.9608
9.6299 1.0112 -2.5071 0.9608
9.5167 1.7818 -2.5069 0.9608
9.3418 2.5408 -2.5066 0.9608
9.2316 2.9143 -2.5065 0.9608
8.9664 3.6465 -2.5062 0.9608
8.8120 4.0039 -2.5060 0.9608
8.7293 4.1802 -2.5060 0.9608
8.6432 4.3548 -2.5059 0.9608
8.5536 4.5277 -2.5058 0.9608
8.3640 4.8677 -2.5056 0.9608
8.2641 5.0348 -2.5055 0.9608
8.1608 5.1998 -2.5054 0.9608
8.0543 5.3627 -2.5054 0.9608
7.9445 5.5234 -2.5053 0.9608
7.8315 5.6819 -2.5052 0.9608
7.7153 5.8381 -2.5051 0.9608
7.5960 5.9919 -2.5050 0.9608
6.8176 6.8612 -2.5044 0.9608
6.3837 7.2512 -2.5014 0.9609
6.2313 7.3720 -2.4993 0.9609
5.6558 7.5742 -2.4475 0.9617
4.6737 7.7827 -2.3505 0.9632
4.5160 7.8747 -2.3504 0.9632
4.3565 7.9636 -2.3503 0.9632
4.1952 8.0493 -2.3502 0.9632
3.5340 8.3588 -2.3497 0.9632
3.3650 8.4278 -2.3496 0.9632
3.0229 8.5555 -2.3494 0.9632
2.8501 8.6142 -2.3493 0.9632
1.9702 8.8547 -2.3487 0.9632
1.7916 8.8921 -2.3486 0.9632
1.6123 8.9259 -2.3485 0.9632
1.0709 9.0056 -2.3481 0.9632
0.8895 9.0249 -2.3480 0.9632
0.7077 9.0405 -2.3479 0.9632
0.3435 9.0608 -2.3477 0.9632
-0.2036 9.0638 -2.3474 0.9632
-0.3859 9.0575 -2.3473 0.9632
-0.7498 9.0338 -2.3470 0.9632
-0.9313 9.0165 -2.3469 0.9632
-1.1125 8.9955 -2.3468 0.9632
-1.2931 8.9709 -2.3467 0.9632
-7.3951 4.8025 -2.4962 0.9640
-7.6710 4.3476 -2.4961 0.9640
-7.7568 4.1924 -2.4961 0.9640
-7.8395 4.0355 -2.4961 0.9640
-7.9191 3.8769 -2.4961 0.9640
-8.0685 3.5552 -2.4960 0.9640
-8.1383 3.3922 -2.4960 0.9640
-8.3846 2.7270 -2.4960 0.9640
-8.4875 2.3876 -2.4960 0.9640
-8.5338 2.2163 -2.4960 0.9640
-8.6160 1.8713 -2.4960 0.9640
-8.6844 1.5233 -2.4960 0.9640
-8.7134 1.3483 -2.4960 0.9640
-8.7938 0.6436 -2.4961 0.9640
-8.8169 0.1120 -2.4962 0.9640
