ply
format ascii 1.0
element vertex 1528
property float32 x
property float32 y
property float32 z
property float32 I
end_header
-21.4873 -18.4394 -0.1594 0.8929
-21.4926 -20.0021 -0.1653 0.8892
-21.4984 -21.6874 -0.1719 0.8850
-21.4578 -24.4359 -0.1831 0.8780
-21.4613 -25.4562 -0.1875 0.8753
-21.4649 -26.5268 -0.1921 0.8724
-21.5479 -30.1901 -0.2088 0.8621
-14.8323 -21.6921 -0.1479 0.9002
-21.5091 -39.4621 -0.2530 0.8355
-21.5159 -41.4395 -0.2629 0.8296
-14.5902 -31.1032 -0.1934 0.8716
-21.0404 -47.3090 -0.2915 0.8129
-21.6072 -51.3442 -0.3136 0.8003
-21.5337 -61.2823 -0.3657 0.7712
-21.6170 -65.7225 -0.3895 0.7582
-14.9489 -52.4829 -0.3072 0.8039
-14.8888 -61.5869 -0.3567 0.7761
-14.2652 -79.8537 -0.4567 0.7229
-1.5601 -99.7083 -0.5614 0.6711
4.0466 -90.3080 -0.5090 0.6966
1.6954 -19.8826 -0.1123 0.9233
2.0991 -19.8792 -0.1125 0.9232
6.7060 -45.7677 -0.2604 0.8311
6.7190 -40.1954 -0.2295 0.8496
6.7339 -35.8311 -0.2053 0.8643
6.7460 -32.2974 -0.1858 0.8764
6.7644 -26.9184 -0.1563 0.8949
6.7715 -24.8209 -0.1449 0.9022
6.7831 -21.4248 -0.1265 0.9140
6.7181 -18.5830 -0.1112 0.9240
8.0184 -20.8559 -0.1258 0.9145
8.8189 -19.3585 -0.1198 0.9184
8.9154 -18.5695 -0.1160 0.9209
9.4362 -18.6804 -0.1178 0.9197
9.9142 -18.6820 -0.1191 0.9189
10.9023 -18.6854 -0.1218 0.9171
11.4139 -18.6871 -0.1233 0.9161
11.9550 -18.7149 -0.1250 0.9150
12.4940 -18.7168 -0.1267 0.9139
13.6174 -18.7206 -0.1303 0.9116
14.2041 -18.7226 -0.1323 0.9103
14.8092 -18.7246 -0.1344 0.9089
16.0801 -18.7290 -0.1390 0.9060
18.1631 -18.7361 -0.1469 0.9009
18.9124 -18.7387 -0.1499 0.8990
21.3759 -18.7617 -0.1603 0.8925
63.6716 -47.3859 -0.4469 0.7280
65.0864 -42.5840 -0.4379 0.7326
68.0553 -42.5941 -0.4520 0.7253
82.6739 -42.9004 -0.5244 0.6890
40.6321 -16.1327 -0.2461 0.8396
88.2416 -30.9834 -0.5266 0.6879
88.7584 -19.5523 -0.5117 0.6952
5.1766 9.4868 -0.3043 0.9577
39.5499 79.9815 -2.5124 0.6997
37.9167 80.7313 -2.5115 0.6998
36.2692 81.4474 -2.5105 0.6999
26.1255 85.0293 -2.5047 0.7005
22.6624 85.9457 -2.5028 0.7007
20.9187 86.3511 -2.5018 0.7008
19.1679 86.7214 -2.5008 0.7009
15.6479 87.3554 -2.4989 0.7011
13.8799 87.6187 -2.4979 0.7012
6.7730 88.3157 -2.4941 0.7016
4.9911 88.4005 -2.4931 0.7017
3.2085 88.4499 -2.4922 0.7018
1.4259 88.4634 -2.4913 0.7018
-0.3559 88.4406 -2.4903 0.7019
-2.1362 88.3824 -2.4894 0.7020
-3.9144 88.2887 -2.4885 0.7021
-5.6897 88.1597 -2.4875 0.7022
-7.4613 87.9946 -2.4866 0.7023
-9.2286 87.7947 -2.4857 0.7024
-10.9910 87.5593 -2.4848 0.7025
-12.7476 87.2887 -2.4839 0.7026
-19.7036 85.8594 -2.4805 0.7029
-23.1295 84.9381 -2.4788 0.7031
-22.7785 63.1007 -1.8890 0.7646
-22.8060 59.4025 -1.7917 0.7752
-22.8626 56.1438 -1.7069 0.7846
-22.6720 49.8299 -1.5415 0.8033
-22.7920 45.1735 -1.4247 0.8167
-22.8610 41.1051 -1.3244 0.8284
-22.7942 39.1092 -1.2746 0.8343
-22.7507 37.2877 -1.2299 0.8396
-22.8252 34.2286 -1.1584 0.8482
-22.8420 31.4333 -1.0941 0.8560
-28.3701 34.4558 -1.2568 0.8364
-28.4114 27.0640 -1.1049 0.8547
-21.5058 18.8937 -0.8061 0.8918
-41.3253 33.4557 -1.4972 0.8083
-28.8405 21.4850 -1.0127 0.8660
-42.1953 28.8664 -1.4396 0.8150
-50.0500 28.6180 -1.6234 0.7940
-52.6721 28.7254 -1.6893 0.7866
-55.9132 29.0476 -1.7742 0.7771
-61.9268 29.0671 -1.9263 0.7605
-65.3417 29.0788 -2.0139 0.7511
-72.7872 28.9395 -2.2056 0.7309
-77.3665 28.9697 -2.3261 0.7185
-48.7843 13.9078 -1.4284 0.8163
-77.7641 20.4855 -2.2644 0.7248
-77.7754 17.1715 -2.2427 0.7271
-81.8527 14.6423 -2.3414 0.7170
-83.1627 11.4422 -2.3637 0.7147
-50.7348 1.8284 -1.4295 0.8162
-55.4545 -0.2362 -1.5615 0.8010
-82.7528 -2.0197 -2.3308 0.7180
-82.5747 -3.6805 -2.3274 0.7184
-69.5360 -4.5042 -1.9621 0.7567
-69.2210 -5.8858 -1.9561 0.7573
-71.0151 -8.9312 -2.0154 0.7510
-81.1050 -11.8641 -2.3080 0.7204
-80.8614 -13.4971 -2.3084 0.7203
-80.2773 -16.7478 -2.3091 0.7203
-79.9370 -18.3643 -2.3095 0.7202
-80.4658 -23.6829 -2.3618 0.7149
-81.8787 -27.7278 -2.4341 0.7076
-82.1373 -29.6724 -2.4591 0.7051
-81.0097 -33.0107 -2.4632 0.7047
-37.0640 -16.8742 -1.1467 0.8496
-35.1815 -16.8807 -1.0988 0.8554
-33.4268 -16.8752 -1.0544 0.8608
-31.8491 -16.8920 -1.0151 0.8657
-28.9837 -16.9019 -0.9447 0.8744
-27.5802 -16.8367 -0.9099 0.8787
-26.4862 -16.9104 -0.8848 0.8818
-25.3517 -16.9143 -0.8581 0.8852
-24.2832 -16.9179 -0.8333 0.8883
-22.2121 -16.8432 -0.7849 0.8944
-22.1089 -17.4773 -0.7936 0.8934
-21.4850 -17.6988 -0.7838 0.8946
-21.4428 -19.9557 -0.8248 0.8894
-21.6554 -20.9831 -0.8491 0.8863
-21.4516 -22.5302 -0.8760 0.8830
-21.5403 -27.7445 -0.9890 0.8689
-20.2074 -30.8695 -1.0389 0.8627
-20.2386 -32.3194 -1.0738 0.8585
-21.7399 -36.3233 -1.1920 0.8442
-21.5034 -37.6278 -1.2203 0.8408
-21.7087 -41.8109 -1.3265 0.8282
-21.7573 -44.0519 -1.3834 0.8215
-13.3296 -40.5260 -1.2013 0.8431
-12.9818 -53.6984 -1.5556 0.8017
-13.0713 -73.1702 -2.0929 0.7427
-13.0635 -82.7172 -2.3580 0.7153
-6.7725 -88.8589 -2.5093 0.7000
-3.1910 -89.1276 -2.5113 0.6999
-1.3958 -89.2076 -2.5122 0.6998
1.9274 -78.2119 -2.2029 0.7312
0.7758 -17.3141 -0.4880 0.9330
10.5018 -83.3437 -2.3653 0.7145
6.7298 -40.2599 -1.1494 0.8493
6.7771 -32.4460 -0.9333 0.8758
6.7745 -29.4563 -0.8511 0.8861
6.7956 -27.0425 -0.7851 0.8944
6.8028 -24.9354 -0.7278 0.9017
6.8090 -23.1143 -0.6785 0.9081
7.0780 -20.8846 -0.6209 0.9155
6.7180 -18.5828 -0.5564 0.9240
8.0306 -20.8879 -0.6301 0.9143
8.8446 -20.4995 -0.6287 0.9145
8.8187 -19.3579 -0.5990 0.9184
8.9154 -18.5695 -0.5800 0.9209
9.9311 -18.7139 -0.5965 0.9187
11.4334 -18.7190 -0.6176 0.9160
12.5153 -18.7487 -0.6347 0.9137
13.6406 -18.7525 -0.6530 0.9114
14.2041 -18.7225 -0.6617 0.9102
14.8345 -18.7566 -0.6734 0.9087
16.1075 -18.7609 -0.6963 0.9058
17.4725 -18.7656 -0.7220 0.9025
18.9447 -18.7706 -0.7509 0.8988
42.1157 -40.0805 -1.6371 0.7924
39.4980 -36.1015 -1.5068 0.8072
21.3756 -18.7614 -0.8008 0.8924
64.6775 -54.5012 -2.3816 0.7129
66.8427 -51.8700 -2.3824 0.7128
63.4315 -45.2510 -2.1940 0.7321
63.4380 -43.3547 -2.1636 0.7353
64.5148 -42.2100 -2.1709 0.7345
67.4576 -42.2200 -2.2408 0.7273
70.5976 -42.2307 -2.3164 0.7195
73.8112 -42.1581 -2.3935 0.7117
41.0262 -21.2889 -1.3015 0.8311
79.6691 -29.7890 -2.3950 0.7115
81.3318 -24.9264 -2.3953 0.7115
82.2723 -21.6315 -2.3953 0.7115
82.6919 -19.9703 -2.3954 0.7115
83.0766 -18.3006 -2.3954 0.7115
83.7440 -14.9398 -2.3953 0.7115
84.2723 -11.5543 -2.3951 0.7115
89.9648 -10.4936 -2.5504 0.6960
5.2198 9.1239 -0.5331 0.9588
5.1765 9.4866 -0.5481 0.9576
11.9494 24.1653 -1.3672 0.8977
11.6398 24.7832 -1.3886 0.8961
10.7450 24.1295 -1.3396 0.8996
8.1147 24.6323 -1.3152 0.9013
5.4609 24.7066 -1.2832 0.9036
3.9063 24.6593 -1.2662 0.9048
3.4069 24.7186 -1.2654 0.9049
2.9013 24.7221 -1.2624 0.9051
0.7947 8.1944 -0.4175 0.9676
1.8965 24.7292 -1.2578 0.9054
0.8973 24.7361 -1.2553 0.9056
-2.0990 24.7547 -1.2599 0.9053
-2.6025 24.7582 -1.2625 0.9051
-3.6082 24.7071 -1.2663 0.9048
-4.1280 24.7665 -1.2733 0.9043
-7.1566 24.3366 -1.2865 0.9034
-7.8180 24.7341 -1.3155 0.9013
-15.3561 45.3810 -2.4296 0.8254
-8.7629 24.2747 -1.3088 0.9018
-9.3492 24.3516 -1.3229 0.9008
-10.4929 24.3513 -1.3447 0.8992
-11.0462 24.2778 -1.3527 0.8987
-11.6757 24.3483 -1.3694 0.8975
-12.2554 24.2900 -1.3798 0.8968
-12.9221 24.3776 -1.3992 0.8954
-13.4799 24.2375 -1.4065 0.8949
-14.1337 24.2500 -1.4235 0.8937
-15.4602 24.2274 -1.4575 0.8913
-16.1505 24.2192 -1.4763 0.8899
-16.7968 24.1215 -1.4907 0.8889
-21.4964 24.0632 -1.6364 0.8788
-22.4120 24.0935 -1.6688 0.8765
-27.6551 27.4270 -1.9753 0.8556
-27.7313 26.4161 -1.9423 0.8578
-27.6933 25.3360 -1.9035 0.8604
-21.4723 18.8643 -1.4495 0.8918
-16.1745 13.6428 -1.0731 0.9187
-17.1827 13.3469 -1.1034 0.9165
-18.7043 13.3568 -1.1656 0.9121
-22.6233 13.5476 -1.3373 0.8998
-24.4497 13.3340 -1.4124 0.8945
-26.5831 13.8102 -1.5192 0.8869
-27.9208 13.7983 -1.5795 0.8827
-44.0615 15.4942 -2.3687 0.8294
-43.9693 13.4983 -2.3326 0.8318
-44.1129 12.5761 -2.3263 0.8322
-44.5483 10.7808 -2.3244 0.8323
-45.1188 8.0711 -2.3245 0.8323
-45.2730 7.1609 -2.3245 0.8323
-48.4213 4.6846 -2.4671 0.8230
-48.6720 3.7212 -2.4756 0.8224
-48.7388 2.7403 -2.4757 0.8224
-48.7860 1.7582 -2.4758 0.8224
-48.8139 0.7754 -2.4759 0.8224
-48.8218 -0.2080 -2.4760 0.8224
-48.8104 -1.1913 -2.4761 0.8224
-48.7792 -2.1742 -2.4763 0.8224
-48.7284 -3.1564 -2.4764 0.8224
-48.6583 -4.1374 -2.4766 0.8224
-48.5684 -5.1169 -2.4767 0.8223
-48.4590 -6.0945 -2.4769 0.8223
-48.0142 -9.0119 -2.4775 0.8223
-47.3956 -11.8982 -2.4782 0.8222
-47.1511 -12.8516 -2.4785 0.8222
-43.7660 -13.8450 -2.3280 0.8321
-42.5280 -14.4019 -2.2771 0.8354
-43.1827 -15.5999 -2.3285 0.8320
-42.8650 -16.4684 -2.3288 0.8320
-31.8489 -16.8919 -1.8283 0.8656
-27.5806 -16.8370 -1.6388 0.8786
-26.4860 -16.9103 -1.5936 0.8817
-25.3516 -16.9142 -1.5456 0.8851
-24.2831 -16.9178 -1.5009 0.8882
-22.2120 -16.8432 -1.4137 0.8944
-22.1718 -17.5270 -1.4333 0.8930
-21.4879 -18.4400 -1.4360 0.8928
-21.4906 -19.2072 -1.4617 0.8910
-21.6908 -21.8815 -1.5625 0.8839
-21.4552 -23.4626 -1.6124 0.8804
-21.4585 -24.4368 -1.6493 0.8779
-21.6539 -25.6846 -1.7037 0.8741
-18.9234 -24.3738 -1.5649 0.8837
-13.1831 -20.1390 -1.2207 0.9081
-13.2376 -22.1175 -1.3072 0.9019
-13.0194 -22.7821 -1.3307 0.9002
-12.9375 -26.1943 -1.4816 0.8896
-13.0001 -29.2305 -1.6224 0.8797
-12.9402 -30.7493 -1.6919 0.8749
-12.9620 -32.6238 -1.7803 0.8688
-12.9885 -36.9637 -1.9870 0.8548
-13.0901 -42.6753 -2.2638 0.8363
-12.9731 -45.5465 -2.4017 0.8272
-10.6256 -48.1808 -2.5022 0.8207
-2.7627 -49.3458 -2.5065 0.8204
-1.7687 -49.4018 -2.5070 0.8204
0.2088 -46.4412 -2.3553 0.8303
0.7756 -17.3093 -0.8787 0.9330
1.9030 -29.2707 -1.4876 0.8892
1.6873 -19.7878 -1.0072 0.9235
4.8819 -46.2326 -2.3577 0.8301
6.5672 -44.8204 -2.2973 0.8341
6.6124 -31.6579 -1.6402 0.8785
6.6223 -28.7946 -1.4984 0.8884
6.7637 -26.9158 -1.4075 0.8948
6.8025 -24.9343 -1.3107 0.9017
7.0780 -20.8846 -1.1183 0.9155
6.7180 -18.5826 -1.0021 0.9239
9.4523 -18.7122 -1.0632 0.9195
12.5152 -18.7486 -1.1432 0.9137
13.0700 -18.7505 -1.1591 0.9125
14.8344 -18.7565 -1.2128 0.9087
15.4603 -18.7587 -1.2328 0.9072
16.1075 -18.7609 -1.2540 0.9057
16.6279 -18.5957 -1.2651 0.9049
17.4724 -18.7655 -1.3003 0.9024
36.7547 -33.5941 -2.5253 0.8192
38.0856 -32.0932 -2.5258 0.8192
38.7279 -31.3226 -2.5260 0.8191
38.9812 -30.2494 -2.5023 0.8207
38.9963 -27.8193 -2.4293 0.8254
39.0032 -26.6555 -2.3958 0.8276
39.2850 -25.7029 -2.3808 0.8286
40.2937 -24.1033 -2.3812 0.8286
40.7734 -23.2882 -2.3813 0.8286
40.2725 -21.9384 -2.3258 0.8322
39.4796 -20.4864 -2.2557 0.8368
45.1367 -21.1601 -2.5281 0.8190
47.0432 -16.5178 -2.5285 0.8190
47.6718 -14.6104 -2.5286 0.8190
48.2224 -12.6789 -2.5287 0.8190
48.6939 -10.7266 -2.5287 0.8190
48.8997 -9.7436 -2.5287 0.8190
49.0856 -8.7568 -2.5286 0.8190
49.5220 -5.7763 -2.5285 0.8190
49.6269 -4.7776 -2.5284 0.8190
5.1764 9.4864 -0.7924 0.9576
6.6408 13.4296 -1.0985 0.9417
6.3680 13.5586 -1.0983 0.9417
10.7490 24.1385 -1.9374 0.8994
10.1366 24.0555 -1.9140 0.9006
9.5373 23.9714 -1.8916 0.9017
8.4826 24.1042 -1.8736 0.9026
4.0446 13.1639 -1.0097 0.9463
3.7567 13.1658 -1.0039 0.9466
6.3215 23.9739 -1.8179 0.9053
4.8003 24.0022 -1.7947 0.9065
4.2942 23.9731 -1.7857 0.9069
3.8035 24.0106 -1.7825 0.9071
3.3081 24.0018 -1.7765 0.9074
2.8114 23.9563 -1.7686 0.9078
1.8372 23.9554 -1.7616 0.9081
1.3586 24.0640 -1.7672 0.9079
0.2195 13.6152 -0.9984 0.9469
-0.0536 13.3219 -0.9768 0.9480
-1.0673 24.0721 -1.7668 0.9079
-1.5503 24.0208 -1.7649 0.9080
-2.5251 24.0216 -1.7710 0.9077
-3.0007 23.9045 -1.7665 0.9079
-3.5101 24.0353 -1.7810 0.9072
-4.0073 24.0428 -1.7872 0.9069
-4.5099 24.0592 -1.7948 0.9065
-4.9925 23.9584 -1.7944 0.9065
-5.5225 24.0648 -1.8103 0.9057
-8.6568 23.9810 -1.8694 0.9028
-9.2388 24.0642 -1.8900 0.9018
-9.8296 24.1385 -1.9110 0.9007
-5.8928 13.6758 -1.0919 0.9420
-6.1663 13.5527 -1.0917 0.9420
-6.4373 13.4242 -1.0916 0.9420
-6.7055 13.2904 -1.0915 0.9420
-7.3912 13.2897 -1.1150 0.9408
-8.0759 13.2362 -1.1369 0.9397
-8.8671 13.2972 -1.1719 0.9379
-9.6665 13.3023 -1.2057 0.9362
-10.0841 13.3051 -1.2241 0.9352
-10.5149 13.3079 -1.2436 0.9342
-10.9597 13.3107 -1.2642 0.9332
-11.4198 13.3137 -1.2861 0.9321
-14.5077 13.8197 -1.4691 0.9228
-15.1989 13.9050 -1.5104 0.9207
-15.4026 13.5319 -1.5033 0.9211
-15.9560 13.4584 -1.5305 0.9197
-17.3352 13.4653 -1.6094 0.9157
-18.9957 13.5648 -1.7115 0.9106
-20.3213 13.3094 -1.7811 0.9072
-23.6868 13.5439 -2.0006 0.8963
-26.0619 13.5395 -2.1534 0.8889
-27.4149 13.5483 -2.2422 0.8846
-29.0615 12.9331 -2.3323 0.8802
-30.0056 10.5515 -2.3321 0.8802
-30.2116 9.9449 -2.3321 0.8802
-30.5870 8.7200 -2.3321 0.8802
-30.7563 8.1022 -2.3321 0.8802
-31.4148 7.6025 -2.3699 0.8784
-33.2128 6.6343 -2.4833 0.8730
-33.3400 5.9641 -2.4834 0.8730
-33.4536 5.2914 -2.4834 0.8730
-33.8194 1.9014 -2.4836 0.8730
-33.8448 -1.5085 -2.4840 0.8729
-33.8090 -2.1899 -2.4841 0.8729
-33.6199 -4.2282 -2.4845 0.8729
-33.5297 -4.9047 -2.4846 0.8729
-33.4260 -5.5793 -2.4848 0.8729
-33.1782 -6.9218 -2.4851 0.8729
-33.0342 -7.5890 -2.4852 0.8729
-32.8768 -8.2534 -2.4854 0.8729
-32.7062 -8.9145 -2.4856 0.8729
-32.5224 -9.5720 -2.4858 0.8729
-32.3254 -10.2259 -2.4859 0.8729
-31.3430 -11.3227 -2.4435 0.8749
-29.7280 -11.4212 -2.3351 0.8801
-29.4945 -12.0187 -2.3353 0.8801
-29.2490 -12.6114 -2.3355 0.8801
-28.9917 -13.1991 -2.3357 0.8801
-28.7226 -13.7816 -2.3359 0.8801
-28.4419 -14.3586 -2.3361 0.8800
-28.1497 -14.9300 -2.3363 0.8800
-27.5311 -16.0547 -2.3368 0.8800
-26.4859 -16.9102 -2.3041 0.8816
-22.2119 -16.8431 -2.0439 0.8942
-22.1717 -17.5269 -2.0723 0.8928
-21.2320 -17.4903 -2.0170 0.8955
-20.4906 -17.5841 -1.9798 0.8974
-19.1388 -18.5447 -1.9540 0.8986
-19.5892 -20.5742 -2.0829 0.8923
-20.1259 -22.0089 -2.1867 0.8873
-18.9772 -22.5097 -2.1587 0.8886
-13.0169 -21.7487 -1.8585 0.9033
-12.9550 -22.6693 -1.9144 0.9006
-12.9738 -23.8025 -1.9877 0.8970
-12.9623 -26.2446 -2.1462 0.8892
-12.9332 -30.7326 -2.4448 0.8748
-12.5764 -31.6532 -2.4974 0.8723
-11.9461 -31.9263 -2.4994 0.8722
-11.3024 -32.1651 -2.4998 0.8722
-8.6823 -32.9900 -2.5013 0.8721
-8.0173 -33.1632 -2.5016 0.8721
-7.3489 -33.3228 -2.5020 0.8721
-4.6460 -33.8262 -2.5035 0.8720
-3.2809 -33.9960 -2.5042 0.8720
-2.5960 -34.0602 -2.5046 0.8720
-1.9098 -34.1105 -2.5050 0.8720
0.1445 -32.1329 -2.3561 0.8791
0.7754 -17.3045 -1.2701 0.9329
1.6857 -19.7695 -1.4548 0.9235
3.3729 -31.9421 -2.3551 0.8791
4.6578 -31.7892 -2.3557 0.8791
5.9359 -31.5845 -2.3564 0.8791
6.5717 -31.4628 -2.3567 0.8791
6.6373 -24.3289 -1.8490 0.9038
6.6435 -22.5523 -1.7238 0.9100
6.6488 -21.0005 -1.6151 0.9154
6.7179 -18.5823 -1.4488 0.9238
7.9663 -20.7206 -1.6277 0.9148
8.4498 -20.7222 -1.6409 0.9142
8.8445 -20.4994 -1.6370 0.9143
8.8182 -19.3568 -1.5596 0.9182
9.9311 -18.7138 -1.5534 0.9185
10.4204 -18.7155 -1.5706 0.9177
10.9209 -18.7172 -1.5889 0.9168
11.4333 -18.7189 -1.6083 0.9158
11.8684 -18.5794 -1.6165 0.9154
12.4035 -18.5813 -1.6381 0.9143
12.9533 -18.5831 -1.6609 0.9132
13.5188 -18.5851 -1.6851 0.9119
14.1013 -18.5870 -1.7107 0.9107
14.7020 -18.5891 -1.7378 0.9093
15.9637 -18.5934 -1.7968 0.9064
18.0316 -18.6004 -1.8995 0.9013
18.7755 -18.6030 -1.9380 0.8994
23.3591 -22.2303 -2.3644 0.8787
21.3750 -18.7609 -2.0853 0.8922
24.6643 -20.7836 -2.3649 0.8787
25.0796 -20.2840 -2.3650 0.8786
25.4846 -19.7760 -2.3652 0.8786
25.8793 -19.2599 -2.3653 0.8786
26.2633 -18.7358 -2.3655 0.8786
26.9994 -17.6649 -2.3657 0.8786
30.1770 -16.4389 -2.5196 0.8713
30.5031 -15.8284 -2.5197 0.8712
31.1179 -14.5881 -2.5199 0.8712
31.4063 -13.9588 -2.5200 0.8712
31.6819 -13.3238 -2.5200 0.8712
32.1941 -12.0376 -2.5202 0.8712
32.4305 -11.3870 -2.5202 0.8712
32.6538 -10.7317 -2.5202 0.8712
33.2430 -8.7404 -2.5203 0.8712
33.4123 -8.0692 -2.5203 0.8712
33.5681 -7.3946 -2.5203 0.8712
34.1396 -3.9821 -2.5202 0.8712
5.1763 9.4861 -1.0375 0.9575
6.9759 13.4201 -1.4521 0.9410
4.3361 13.1620 -1.3304 0.9458
4.0447 13.1639 -1.3221 0.9462
2.9235 13.2271 -1.3005 0.9470
2.0962 13.2324 -1.2862 0.9476
1.5534 13.2359 -1.2794 0.9479
0.7476 13.2411 -1.2732 0.9481
0.4804 13.2429 -1.2722 0.9481
-0.3188 13.1901 -1.2667 0.9484
-0.5873 13.2477 -1.2731 0.9481
-0.8551 13.2494 -1.2747 0.9480
-1.3931 13.2529 -1.2794 0.9479
-1.9360 13.2564 -1.2862 0.9476
-2.2098 13.2582 -1.2904 0.9474
-2.4855 13.2600 -1.2952 0.9472
-3.3268 13.2655 -1.3130 0.9465
-4.1764 13.2130 -1.3304 0.9458
-4.8338 13.3905 -1.3667 0.9444
-5.3508 13.9371 -1.4332 0.9418
-7.0422 13.9574 -1.5009 0.9391
-7.1397 13.4693 -1.4635 0.9406
-7.4567 13.4075 -1.4729 0.9402
-8.9458 13.4151 -1.5480 0.9373
-9.4255 13.5358 -1.5835 0.9359
-10.0345 13.8087 -1.6388 0.9337
-10.3797 13.6950 -1.6498 0.9333
-11.2651 13.6816 -1.7014 0.9313
-11.5210 13.4318 -1.6989 0.9314
-12.0017 13.4349 -1.7295 0.9302
-13.0160 13.4394 -1.7962 0.9276
-15.3338 13.4714 -1.9595 0.9213
-15.9560 13.4585 -2.0040 0.9195
-16.4113 13.2861 -2.0272 0.9187
-18.1113 13.4922 -2.1682 0.9132
-20.3214 13.3094 -2.3322 0.9070
-20.8816 12.5045 -2.3367 0.9068
-21.1285 12.0810 -2.3366 0.9068
-21.3669 11.6527 -2.3365 0.9068
-21.5966 11.2197 -2.3365 0.9068
-22.2331 9.8943 -2.3363 0.9068
-19.2030 8.0865 -2.0004 0.9197
-22.6128 8.9906 -2.3362 0.9068
-24.7012 7.5831 -2.4807 0.9014
-24.9189 7.1041 -2.4877 0.9011
-25.5939 4.0482 -2.4877 0.9011
-25.6705 3.5320 -2.4877 0.9011
-25.7367 3.0143 -2.4877 0.9011
-25.7926 2.4954 -2.4878 0.9011
-25.8380 1.9755 -2.4878 0.9011
-25.8730 1.4547 -2.4879 0.9011
-25.9118 0.4116 -2.4880 0.9011
-25.9155 -0.1104 -2.4880 0.9011
-25.9087 -0.6323 -2.4881 0.9011
-25.8639 -1.6753 -2.4883 0.9011
-25.7773 -2.7157 -2.4884 0.9011
-25.7183 -3.2345 -2.4885 0.9011
-25.6490 -3.7519 -2.4886 0.9011
-25.5694 -4.2679 -2.4887 0.9011
-25.4793 -4.7822 -2.4889 0.9011
-25.3791 -5.2947 -2.4890 0.9011
-24.8759 -7.3215 -2.4895 0.9010
-24.7248 -7.8215 -2.4896 0.9010
-24.5637 -8.3183 -2.4898 0.9010
-24.2118 -9.3020 -2.4901 0.9010
-24.0211 -9.7884 -2.4903 0.9010
-23.8207 -10.2708 -2.4904 0.9010
-23.3327 -11.1954 -2.4846 0.9012
-20.0030 -13.9359 -2.3405 0.9067
-19.7200 -14.3372 -2.3407 0.9067
-19.4289 -14.7328 -2.3409 0.9067
-18.8232 -15.5060 -2.3413 0.9067
-18.1868 -16.2545 -2.3417 0.9066
-17.5208 -16.9769 -2.3422 0.9066
-17.1769 -17.3280 -2.3424 0.9066
-16.8261 -17.6721 -2.3426 0.9066
-16.4684 -18.0092 -2.3429 0.9066
-15.3555 -18.9766 -2.3436 0.9066
-13.5225 -18.1610 -2.1738 0.9130
-13.1728 -19.2650 -2.2406 0.9105
-12.9639 -20.7024 -2.3451 0.9065
-12.9189 -21.5851 -2.4151 0.9039
-12.8724 -22.5248 -2.4907 0.9010
-12.4525 -22.8462 -2.4980 0.9007
-11.9912 -23.0949 -2.4983 0.9007
-10.5781 -23.7848 -2.4991 0.9007
-9.6139 -24.1969 -2.4997 0.9007
-9.1256 -24.3884 -2.4999 0.9007
-8.6336 -24.5700 -2.5002 0.9006
-8.1379 -24.7417 -2.5005 0.9006
-5.6124 -25.4490 -2.5019 0.9006
-4.5840 -25.6601 -2.5025 0.9006
-3.5477 -25.8298 -2.5031 0.9005
-3.0271 -25.8989 -2.5034 0.9005
-1.4581 -26.0432 -2.5042 0.9005
-0.9334 -26.0703 -2.5045 0.9005
-0.4080 -26.0766 -2.5038 0.9005
0.6037 -24.4984 -2.3527 0.9062
0.7752 -17.2997 -1.6625 0.9328
1.3012 -20.0147 -1.9256 0.9226
1.5510 -18.1903 -1.7527 0.9293
4.0434 -24.1887 -2.3545 0.9062
5.9794 -23.7946 -2.3554 0.9061
6.6485 -20.9996 -2.1147 0.9153
6.7178 -18.5821 -1.8970 0.9237
8.8445 -20.4993 -2.1434 0.9142
8.8179 -19.3563 -2.0420 0.9181
9.9310 -18.7137 -2.0339 0.9184
11.8684 -18.5794 -2.1166 0.9152
12.4035 -18.5812 -2.1448 0.9141
13.5188 -18.5850 -2.2064 0.9118
14.1013 -18.5870 -2.2399 0.9105
15.3222 -18.5911 -2.3129 0.9077
15.9636 -18.5933 -2.3527 0.9062
16.7540 -17.9938 -2.3604 0.9059
17.4671 -17.3066 -2.3607 0.9059
17.8131 -16.9523 -2.3608 0.9059
18.4834 -16.2230 -2.3611 0.9059
14.3998 -11.6464 -1.7780 0.9283
19.4323 -15.0794 -2.3614 0.9059
19.7329 -14.6857 -2.3615 0.9059
20.8542 -13.0521 -2.3619 0.9059
21.1136 -12.6300 -2.3620 0.9059
21.6065 -11.7701 -2.3621 0.9059
21.8398 -11.3329 -2.3622 0.9059
23.7249 -11.1223 -2.5156 0.9001
23.9446 -10.6424 -2.5156 0.9001
24.1546 -10.1582 -2.5157 0.9001
24.5449 -9.1775 -2.5158 0.9001
24.7250 -8.6814 -2.5158 0.9001
25.0550 -7.6788 -2.5158 0.9001
25.5920 -5.6376 -2.5159 0.9001
25.8853 -4.0818 -2.5158 0.9001
25.9620 -3.5596 -2.5158 0.9001
26.0282 -3.0359 -2.5158 0.9001
5.2194 9.1232 -1.2485 0.9585
5.1761 9.4859 -1.2836 0.9574
6.9448 13.3601 -1.7886 0.9412
6.4880 13.8142 -1.8129 0.9404
6.1204 13.7442 -1.7872 0.9412
5.6470 13.4010 -1.7274 0.9431
5.3296 13.3955 -1.7125 0.9436
4.9961 13.3331 -1.6913 0.9443
4.3361 13.1621 -1.6461 0.9457
4.0447 13.1639 -1.6358 0.9460
3.5177 13.3406 -1.6388 0.9459
3.2322 13.3424 -1.6307 0.9462
2.9988 13.5678 -1.6506 0.9456
2.7386 13.6935 -1.6588 0.9453
2.4586 13.7253 -1.6563 0.9454
1.8932 13.7364 -1.6471 0.9457
0.7542 13.3585 -1.5893 0.9475
0.4846 13.3602 -1.5880 0.9476
-0.0531 13.1884 -1.5666 0.9483
-0.3188 13.1901 -1.5673 0.9482
-0.5925 13.3651 -1.5891 0.9475
-0.8627 13.3669 -1.5911 0.9475
-1.1658 13.7487 -1.6390 0.9459
-1.4564 13.8546 -1.6548 0.9454
-2.0091 13.7570 -1.6515 0.9455
-2.2950 13.7693 -1.6582 0.9453
-2.5220 13.4546 -1.6261 0.9464
-2.8450 13.6530 -1.6566 0.9454
-3.1497 13.7250 -1.6727 0.9449
-3.6448 13.3849 -1.6478 0.9457
-5.2723 13.7327 -1.7473 0.9425
-5.7943 13.4472 -1.7393 0.9427
-6.1359 13.4860 -1.7600 0.9421
-6.7774 13.4327 -1.7872 0.9412
-7.4567 13.4075 -1.8224 0.9401
-8.0760 13.2363 -1.8418 0.9395
-8.4480 13.2387 -1.8655 0.9387
-9.3552 13.4348 -1.9446 0.9362
-10.7739 13.6356 -2.0643 0.9324
-11.1794 13.5776 -2.0892 0.9316
-11.5211 13.4318 -2.1020 0.9312
-12.3363 13.2618 -2.1515 0.9296
-13.0161 13.4394 -2.2224 0.9274
-13.5769 13.4649 -2.2714 0.9259
-15.0564 12.6996 -2.3397 0.9237
-15.3085 12.3933 -2.3396 0.9237
-15.5544 12.0820 -2.3396 0.9237
-16.0272 11.4450 -2.3394 0.9237
-16.6875 10.4553 -2.3392 0.9237
-17.2870 9.4277 -2.3390 0.9237
-17.8237 8.3661 -2.3388 0.9238
-17.9882 8.0053 -2.3388 0.9238
-19.2180 7.6409 -2.4566 0.9201
-19.6130 7.3441 -2.4877 0.9191
-19.7780 6.9550 -2.4904 0.9190
-19.9139 6.5552 -2.4904 0.9190
-20.0418 6.1527 -2.4903 0.9190
-20.3766 4.9312 -2.4903 0.9190
-20.5587 4.1066 -2.4903 0.9190
-20.6373 3.6917 -2.4903 0.9190
-20.7695 2.8577 -2.4904 0.9190
-20.8231 2.4388 -2.4904 0.9190
-20.8682 2.0190 -2.4904 0.9190
-20.9050 1.5983 -2.4905 0.9190
-20.9332 1.1769 -2.4905 0.9190
-20.9531 0.7552 -2.4905 0.9190
-20.9644 0.3330 -2.4906 0.9190
-20.9673 -0.0893 -2.4906 0.9190
-20.9617 -0.5116 -2.4907 0.9190
-20.9477 -0.9337 -2.4908 0.9190
-20.8942 -1.7766 -2.4909 0.9190
-20.7507 -3.0354 -2.4911 0.9190
-20.6131 -3.8689 -2.4913 0.9190
-20.4422 -4.6962 -2.4915 0.9190
-20.3443 -5.1072 -2.4916 0.9190
-20.2382 -5.5161 -2.4917 0.9190
-19.8709 -6.7292 -2.4921 0.9190
-19.5858 -7.5247 -2.4923 0.9190
-18.9208 -9.0785 -2.4929 0.9189
-18.5420 -9.8343 -2.4931 0.9189
-18.3413 -10.2063 -2.4933 0.9189
-18.1332 -10.5744 -2.4935 0.9189
-17.4650 -11.6523 -2.4939 0.9189
-17.2056 -11.9870 -2.4909 0.9190
-16.6457 -12.6222 -2.4815 0.9193
-15.9541 -13.1425 -2.4553 0.9201
-15.3327 -13.7035 -2.4427 0.9205
-14.5126 -14.6403 -2.4487 0.9203
-14.2665 -14.9838 -2.4576 0.9200
-12.5551 -16.8617 -2.4972 0.9188
-11.5169 -17.5937 -2.4978 0.9188
-10.8009 -18.0463 -2.4983 0.9188
-10.0672 -18.4699 -2.4987 0.9188
-9.3168 -18.8637 -2.4991 0.9187
-8.9358 -19.0493 -2.4994 0.9187
-8.1629 -19.3971 -2.4998 0.9187
-7.3765 -19.7137 -2.5003 0.9187
-6.5778 -19.9984 -2.5007 0.9187
-6.1742 -20.1287 -2.5010 0.9187
-5.7681 -20.2509 -2.5012 0.9187
-4.5359 -20.5679 -2.5019 0.9187
-4.1212 -20.6570 -2.5021 0.9187
-3.2865 -20.8100 -2.5026 0.9186
-2.0244 -20.9762 -2.5033 0.9186
-0.3295 -21.0609 -2.5020 0.9187
0.0890 -19.7986 -2.3518 0.9233
0.4878 -19.7945 -2.3520 0.9233
0.7695 -17.1736 -2.0420 0.9331
1.6518 -19.3720 -2.3095 0.9247
2.4765 -19.6538 -2.3531 0.9233
3.2665 -19.5415 -2.3535 0.9233
3.6598 -19.4734 -2.3537 0.9233
4.0516 -19.3974 -2.3539 0.9233
4.4418 -19.3134 -2.3541 0.9233
5.2168 -19.1220 -2.3544 0.9233
5.9836 -18.8994 -2.3548 0.9233
6.3635 -18.7765 -2.3550 0.9232
7.1156 -18.5079 -2.3554 0.9232
7.8564 -18.2090 -2.3557 0.9232
8.5846 -17.8805 -2.3561 0.9232
9.9985 -17.1363 -2.3567 0.9232
10.6819 -16.7219 -2.3570 0.9232
11.0172 -16.5044 -2.3572 0.9232
11.3480 -16.2802 -2.3573 0.9232
11.9959 -15.8119 -2.3576 0.9232
12.3127 -15.5680 -2.3577 0.9232
13.2325 -14.7985 -2.3581 0.9231
14.6568 -13.3964 -2.3587 0.9231
15.1857 -12.7964 -2.3589 0.9231
14.3818 -11.6318 -2.1972 0.9282
15.6900 -12.1754 -2.3591 0.9231
16.1687 -11.5345 -2.3592 0.9231
16.3983 -11.2069 -2.3593 0.9231
17.0501 -11.1554 -2.4203 0.9212
17.7978 -11.1392 -2.4941 0.9189
18.3680 -10.4911 -2.5127 0.9183
18.5761 -10.1193 -2.5127 0.9183
18.7765 -9.7433 -2.5128 0.9183
18.9694 -9.3634 -2.5129 0.9183
19.1545 -8.9796 -2.5129 0.9183
19.3318 -8.5922 -2.5129 0.9183
19.5012 -8.2012 -2.5130 0.9183
20.0989 -6.6056 -2.5131 0.9183
20.4614 -5.3798 -2.5131 0.9183
20.5656 -4.9667 -2.5131 0.9183
20.6615 -4.5514 -2.5131 0.9183
20.7489 -4.1343 -2.5131 0.9183
20.8278 -3.7154 -2.5131 0.9183
20.8983 -3.2954 -2.5131 0.9183
20.9603 -2.8738 -2.5131 0.9183
5.2193 9.1230 -1.4892 0.9584
5.1760 9.4856 -1.5311 0.9573
6.9583 13.3862 -2.1376 0.9409
6.6170 13.3814 -2.1151 0.9415
6.1281 13.7615 -2.1344 0.9410
5.6476 13.4024 -2.0607 0.9429
4.6928 13.3351 -2.0030 0.9445
4.3361 13.1621 -1.9635 0.9456
3.7568 13.1659 -1.9399 0.9462
3.2322 13.3424 -1.9452 0.9460
2.9532 13.3612 -1.9388 0.9462
2.7601 13.8007 -1.9941 0.9447
2.3940 13.3649 -1.9238 0.9466
2.1175 13.3667 -1.9175 0.9468
1.5691 13.3702 -1.9074 0.9471
0.7944 8.1907 -1.1660 0.9673
0.7542 13.3585 -1.8958 0.9474
0.4846 13.3603 -1.8942 0.9474
0.2126 13.1867 -1.8687 0.9481
-0.0531 13.1885 -1.8687 0.9481
-0.3188 13.1902 -1.8694 0.9481
-0.5925 13.3651 -1.8956 0.9474
-0.8627 13.3669 -1.8979 0.9473
-1.1350 13.3856 -1.9034 0.9472
-1.4465 13.7604 -1.9604 0.9456
-1.6807 13.3892 -1.9120 0.9469
-2.2863 13.7171 -1.9704 0.9454
-2.8650 13.7490 -1.9899 0.9448
-3.0747 13.3982 -1.9477 0.9460
-3.6448 13.3849 -1.9656 0.9455
-3.8850 13.2112 -1.9511 0.9459
-4.1764 13.2131 -1.9634 0.9456
-4.4717 13.2150 -1.9767 0.9452
-4.8338 13.3906 -2.0171 0.9441
-5.5527 13.6357 -2.0861 0.9423
-5.7979 13.4556 -2.0760 0.9425
-6.1599 13.5387 -2.1075 0.9417
-6.6014 13.7664 -2.1632 0.9402
-6.9495 13.7738 -2.1859 0.9396
-7.4567 13.4076 -2.1737 0.9399
-7.8157 13.4099 -2.1992 0.9392
-8.0760 13.2363 -2.1970 0.9393
-8.9458 13.4151 -2.2846 0.9369
-9.3586 13.4397 -2.3204 0.9360
-9.7187 13.3742 -2.3425 0.9354
-9.9856 13.1751 -2.3424 0.9354
-10.2484 12.9706 -2.3422 0.9354
-10.5071 12.7610 -2.3421 0.9354
-11.4980 11.8720 -2.3417 0.9354
-11.7343 11.6375 -2.3416 0.9354
-11.9658 11.3983 -2.3415 0.9354
-12.6309 10.6538 -2.3413 0.9354
-13.4456 9.6015 -2.3410 0.9354
-13.6359 9.3285 -2.3409 0.9354
-13.8207 9.0518 -2.3409 0.9354
-13.9998 8.7713 -2.3408 0.9354
-14.1733 8.4874 -2.3407 0.9354
-14.3410 8.2000 -2.3407 0.9354
-15.4908 7.6555 -2.4483 0.9326
-15.8950 7.4608 -2.4879 0.9315
-16.2110 6.8266 -2.4923 0.9314
-16.3450 6.4986 -2.4922 0.9314
-16.5931 5.8350 -2.4922 0.9314
-16.9149 4.8223 -2.4922 0.9314
-17.1752 3.7920 -2.4921 0.9314
-17.2481 3.4453 -2.4922 0.9314
-17.3141 3.0973 -2.4922 0.9314
-17.3731 2.7479 -2.4922 0.9314
-17.4250 2.3975 -2.4922 0.9314
-17.4699 2.0461 -2.4922 0.9314
-17.5077 1.6938 -2.4922 0.9314
-17.5385 1.3409 -2.4923 0.9314
-17.5622 0.9874 -2.4923 0.9314
-17.5788 0.6335 -2.4923 0.9314
-17.5906 -0.0749 -2.4924 0.9314
-17.5290 -1.4905 -2.4926 0.9314
-17.4958 -1.8432 -2.4927 0.9314
-17.4084 -2.5465 -2.4928 0.9314
-17.0669 -4.2844 -2.4932 0.9314
-16.9777 -4.6275 -2.4933 0.9314
-16.7789 -5.3079 -2.4935 0.9314
-16.5529 -5.9798 -2.4937 0.9314
-16.4298 -6.3122 -2.4938 0.9314
-16.3000 -6.6421 -2.4939 0.9314
-16.1637 -6.9693 -2.4940 0.9314
-15.7156 -7.9338 -2.4944 0.9313
-15.5534 -8.2491 -2.4945 0.9313
-15.2101 -8.8698 -2.4948 0.9313
-14.8422 -9.4762 -2.4951 0.9313
-14.6492 -9.7737 -2.4952 0.9313
-13.5963 -11.2002 -2.4959 0.9313
-13.1359 -11.7402 -2.4962 0.9313
-12.8976 -12.0031 -2.4964 0.9313
-12.6540 -12.2612 -2.4966 0.9313
-12.1516 -12.7625 -2.4969 0.9313
-11.8929 -13.0056 -2.4971 0.9313
-11.6293 -13.2434 -2.4972 0.9313
-11.3610 -13.4758 -2.4974 0.9313
-11.0881 -13.7028 -2.4976 0.9313
-9.9521 -14.5548 -2.4983 0.9312
-9.6577 -14.7534 -2.4985 0.9312
-8.7510 -15.3130 -2.4990 0.9312
-8.4415 -15.4873 -2.4992 0.9312
-7.8121 -15.8171 -2.4996 0.9312
-6.8442 -16.2637 -2.5001 0.9312
-6.1847 -16.5286 -2.5005 0.9312
-5.8510 -16.6511 -2.5007 0.9312
-5.1764 -16.8758 -2.5011 0.9312
-4.8359 -16.9779 -2.5013 0.9312
-4.4933 -17.0732 -2.5015 0.9312
-3.8027 -17.2429 -2.5019 0.9312
-3.1056 -17.3848 -2.5022 0.9311
-2.0506 -17.5446 -2.5028 0.9311
-1.3426 -17.6157 -2.5032 0.9311
-0.9876 -17.6405 -2.5034 0.9311
-0.2765 -17.6686 -2.5038 0.9311
0.0793 -17.6343 -2.4986 0.9312
0.4186 -16.9859 -2.4074 0.9337
0.7430 -16.5814 -2.3518 0.9351
1.7433 -16.5099 -2.3523 0.9351
2.7377 -16.3780 -2.3528 0.9351
3.3956 -16.2567 -2.3531 0.9351
3.7225 -16.1862 -2.3533 0.9351
4.0481 -16.1090 -2.3534 0.9351
4.3720 -16.0253 -2.3536 0.9351
4.6942 -15.9351 -2.3538 0.9351
5.3328 -15.7352 -2.3541 0.9351
5.6490 -15.6256 -2.3542 0.9351
5.9629 -15.5097 -2.3544 0.9351
6.2745 -15.3874 -2.3545 0.9351
6.5835 -15.2589 -2.3547 0.9351
6.8899 -15.1241 -2.3548 0.9351
7.1935 -14.9832 -2.3550 0.9351
8.0866 -14.5240 -2.3554 0.9350
8.9504 -14.0114 -2.3558 0.9350
9.2313 -13.8291 -2.3559 0.9350
9.5084 -13.6411 -2.3560 0.9350
10.0511 -13.2484 -2.3562 0.9350
10.8343 -12.6191 -2.3566 0.9350
11.0868 -12.3988 -2.3567 0.9350
11.8168 -11.7082 -2.3570 0.9350
12.2796 -11.2237 -2.3572 0.9350
14.2140 -10.5784 -2.5105 0.9309
14.4246 -10.2903 -2.5106 0.9309
14.6293 -9.9979 -2.5106 0.9309
15.5622 -8.4775 -2.5109 0.9309
16.0466 -7.5227 -2.5111 0.9309
16.3370 -6.8705 -2.5111 0.9309
16.7226 -5.8716 -2.5112 0.9309
17.2285 -4.1607 -2.5113 0.9309
17.3088 -3.8129 -2.5113 0.9309
17.3821 -3.4635 -2.5113 0.9309
17.5592 -2.4075 -2.5112 0.9309
17.6040 -2.0533 -2.5112 0.9309
5.1759 9.4854 -1.7801 0.9571
6.5825 12.6633 -2.3511 0.9438
6.0664 12.9164 -2.3508 0.9438
5.8047 13.0352 -2.3507 0.9438
5.5406 13.1486 -2.3505 0.9438
5.2743 13.2566 -2.3504 0.9438
4.3361 13.1621 -2.2829 0.9454
4.0447 13.1640 -2.2687 0.9457
3.5177 13.3406 -2.2728 0.9456
3.2323 13.3425 -2.2616 0.9459
2.9543 13.3661 -2.2551 0.9460
2.7578 13.7896 -2.3167 0.9446
1.5697 13.3751 -2.2185 0.9469
0.7943 8.1898 -1.3555 0.9672
-0.0531 13.1885 -2.1727 0.9479
-0.5925 13.3652 -2.2039 0.9472
-0.8626 13.3669 -2.2066 0.9471
-1.4566 13.8571 -2.2954 0.9451
-1.6813 13.3940 -2.2238 0.9467
-2.3056 13.8329 -2.3103 0.9447
-2.9074 13.9525 -2.3479 0.9439
-3.6448 13.3850 -2.2853 0.9453
-3.8850 13.2113 -2.2686 0.9457
-4.8333 13.3892 -2.3450 0.9439
-5.3680 13.1822 -2.3448 0.9439
-5.6321 13.0708 -2.3447 0.9439
-6.4102 12.7048 -2.3443 0.9439
-7.1646 12.2927 -2.3439 0.9440
-7.4104 12.1454 -2.3438 0.9440
-7.6531 11.9931 -2.3437 0.9440
-7.8928 11.8360 -2.3436 0.9440
-8.1292 11.6741 -2.3435 0.9440
-8.3623 11.5075 -2.3434 0.9440
-8.8182 11.1605 -2.3432 0.9440
-9.0408 10.9802 -2.3431 0.9440
-9.6863 10.4130 -2.3429 0.9440
-10.0971 10.0138 -2.3427 0.9440
-10.4915 9.5984 -2.3425 0.9440
-10.8688 9.1675 -2.3424 0.9440
-11.5701 8.2622 -2.3421 0.9440
-11.7339 8.0273 -2.3421 0.9440
-12.2563 7.6790 -2.3826 0.9431
-12.7970 7.6633 -2.4573 0.9413
-13.1154 7.4992 -2.4889 0.9406
-13.2862 7.2458 -2.4931 0.9405
-13.4328 6.9785 -2.4937 0.9405
-13.9501 5.8745 -2.4936 0.9405
-14.0655 5.5923 -2.4936 0.9405
-14.1751 5.3079 -2.4935 0.9405
-14.3772 4.7326 -2.4935 0.9405
-14.4695 4.4421 -2.4935 0.9405
-14.7800 3.2632 -2.4935 0.9405
-14.8427 2.9649 -2.4935 0.9405
-14.8995 2.6653 -2.4935 0.9405
-14.9949 2.0631 -2.4935 0.9405
-15.0660 1.4576 -2.4936 0.9405
-15.1128 0.8497 -2.4936 0.9405
-15.1271 0.5452 -2.4936 0.9405
-15.1352 0.2404 -2.4937 0.9405
-15.1372 -0.0645 -2.4937 0.9405
-15.1331 -0.3693 -2.4938 0.9405
-15.1065 -0.9785 -2.4938 0.9405
-15.0840 -1.2826 -2.4939 0.9405
-15.0554 -1.5861 -2.4939 0.9405
-15.0208 -1.8891 -2.4940 0.9405
-14.9800 -2.1912 -2.4941 0.9405
-14.9332 -2.4926 -2.4941 0.9405
-14.7567 -3.3901 -2.4943 0.9405
-14.6859 -3.6867 -2.4944 0.9405
-14.5264 -4.2754 -2.4946 0.9405
-14.3434 -4.8573 -2.4947 0.9405
-14.2432 -5.1454 -2.4948 0.9405
-14.1372 -5.4314 -2.4949 0.9405
-13.7850 -6.2759 -2.4952 0.9404
-13.5222 -6.8265 -2.4954 0.9404
-13.3826 -7.0978 -2.4955 0.9404
-12.6040 -8.4092 -2.4961 0.9404
-12.4327 -8.6618 -2.4962 0.9404
-12.2564 -8.9109 -2.4963 0.9404
-12.0751 -9.1564 -2.4965 0.9404
-11.8888 -9.3982 -2.4966 0.9404
-11.6977 -9.6362 -2.4967 0.9404
-11.5019 -9.8704 -2.4969 0.9404
-10.8866 -10.5487 -2.4973 0.9404
-10.6726 -10.7664 -2.4974 0.9404
-10.0047 -11.3932 -2.4978 0.9404
-9.7738 -11.5931 -2.4980 0.9404
-9.0575 -12.1643 -2.4984 0.9404
-6.9920 -13.4666 -2.4997 0.9403
-6.7198 -13.6056 -2.4999 0.9403
-6.4449 -13.7391 -2.5000 0.9403
-5.6045 -14.1059 -2.5005 0.9403
-4.4523 -14.5150 -2.5012 0.9403
-4.1593 -14.6027 -2.5013 0.9403
-3.8647 -14.6845 -2.5015 0.9403
-2.9714 -14.8941 -2.5020 0.9403
-2.0670 -15.0493 -2.5025 0.9403
-1.4594 -15.1223 -2.5028 0.9403
-1.1547 -15.1496 -2.5030 0.9403
-0.8494 -15.1708 -2.5031 0.9403
-0.2378 -15.1947 -2.5035 0.9403
0.0683 -15.1974 -2.5036 0.9402
0.3744 -15.1939 -2.5038 0.9402
0.9846 -15.1450 -2.5002 0.9403
1.2849 -15.0693 -2.4915 0.9405
1.8094 -14.3595 -2.3843 0.9430
2.0700 -14.1272 -2.3522 0.9438
2.3542 -14.0835 -2.3523 0.9438
2.6375 -14.0341 -2.3524 0.9438
3.2009 -13.9181 -2.3527 0.9437
3.7593 -13.7796 -2.3530 0.9437
4.0363 -13.7018 -2.3531 0.9437
4.3117 -13.6185 -2.3533 0.9437
5.1270 -13.3355 -2.3537 0.9437
5.3949 -13.2303 -2.3538 0.9437
5.9239 -13.0037 -2.3540 0.9437
6.1850 -12.8824 -2.3542 0.9437
7.9366 -11.8895 -2.3550 0.9437
8.1748 -11.7277 -2.3551 0.9437
8.4097 -11.5612 -2.3552 0.9437
8.6412 -11.3900 -2.3553 0.9437
10.3484 -11.1142 -2.5017 0.9403
11.2414 -10.2746 -2.5089 0.9401
12.0332 -9.3378 -2.5092 0.9401
12.2192 -9.0938 -2.5093 0.9401
12.4002 -8.8460 -2.5093 0.9401
12.5761 -8.5947 -2.5094 0.9401
12.7469 -8.3399 -2.5094 0.9401
12.9126 -8.0817 -2.5095 0.9401
13.3779 -7.2876 -2.5096 0.9401
13.5221 -7.0168 -2.5097 0.9401
13.6609 -6.7431 -2.5097 0.9401
14.2705 -5.3358 -2.5099 0.9401
14.3751 -5.0474 -2.5099 0.9401
14.5669 -4.4644 -2.5099 0.9401
14.6539 -4.1701 -2.5099 0.9401
14.7350 -3.8742 -2.5099 0.9401
14.8790 -3.2776 -2.5099 0.9401
14.9420 -2.9773 -2.5099 0.9401
15.0943 -2.0695 -2.5099 0.9401
15.1328 -1.7651 -2.5099 0.9401
5.3797 9.4034 -2.0363 0.9569
5.0871 11.4239 -2.3505 0.9504
4.8557 11.5234 -2.3504 0.9504
4.3872 11.7082 -2.3501 0.9504
4.1503 11.7935 -2.3500 0.9504
3.6716 11.9497 -2.3497 0.9504
3.4300 12.0205 -2.3496 0.9504
2.4509 12.2547 -2.3490 0.9504
2.2034 12.3009 -2.3489 0.9504
1.7061 12.3782 -2.3486 0.9504
1.4563 12.4094 -2.3485 0.9504
0.7942 8.1888 -1.5464 0.9671
0.9553 12.4565 -2.3482 0.9504
0.7042 12.4725 -2.3481 0.9504
0.2013 12.4893 -2.3478 0.9504
-0.3018 12.4859 -2.3475 0.9504
-0.5532 12.4766 -2.3474 0.9504
-0.8043 12.4622 -2.3473 0.9504
-1.0550 12.4428 -2.3471 0.9504
-1.3054 12.4183 -2.3470 0.9504
-1.5551 12.3889 -2.3469 0.9505
-2.0526 12.3149 -2.3466 0.9505
-2.3001 12.2704 -2.3465 0.9505
-3.5211 11.9739 -2.3459 0.9505
-3.7614 11.8999 -2.3458 0.9505
-4.0001 11.8212 -2.3457 0.9505
-4.7060 11.5564 -2.3453 0.9505
-4.9375 11.4587 -2.3452 0.9505
-5.1670 11.3564 -2.3451 0.9505
-5.3945 11.2496 -2.3450 0.9505
-6.2812 10.7771 -2.3446 0.9505
-6.7096 10.5145 -2.3444 0.9505
-7.1270 10.2350 -2.3442 0.9505
-7.9264 9.6268 -2.3439 0.9505
-8.1184 9.4648 -2.3438 0.9505
-8.3071 9.2991 -2.3437 0.9505
-8.8527 8.7796 -2.3435 0.9505
-9.0274 8.5993 -2.3434 0.9505
-9.1985 8.4155 -2.3434 0.9505
-9.3659 8.2283 -2.3433 0.9505
-9.6892 7.8440 -2.3432 0.9505
-9.9027 7.6920 -2.3569 0.9502
-10.3087 7.6796 -2.4162 0.9490
-10.9357 7.4812 -2.4905 0.9475
-11.2480 7.0472 -2.4949 0.9474
-11.6525 6.3548 -2.4947 0.9474
-11.7779 6.1188 -2.4947 0.9474
-12.0144 5.6393 -2.4946 0.9474
-12.2315 5.1508 -2.4946 0.9474
-12.3327 4.9034 -2.4946 0.9474
-12.4288 4.6540 -2.4945 0.9474
-12.6870 3.8949 -2.4945 0.9474
-12.7628 3.6385 -2.4945 0.9474
-12.8335 3.3808 -2.4945 0.9474
-12.8990 3.1216 -2.4945 0.9474
-12.9592 2.8612 -2.4945 0.9474
-13.0142 2.5996 -2.4945 0.9474
-13.1815 1.5438 -2.4945 0.9474
-13.2100 1.2781 -2.4946 0.9474
-13.2332 1.0118 -2.4946 0.9474
-13.2510 0.7450 -2.4946 0.9474
-13.2634 0.4780 -2.4946 0.9474
-13.2706 0.2108 -2.4947 0.9474
-13.2723 -0.0565 -2.4947 0.9474
-13.2596 -0.5910 -2.4948 0.9474
-13.2453 -0.8579 -2.4948 0.9474
-13.1700 -1.6563 -2.4949 0.9474
-13.1343 -1.9213 -2.4950 0.9474
-12.9383 -2.9723 -2.4952 0.9474
-12.8761 -3.2324 -2.4953 0.9474
-12.8087 -3.4912 -2.4954 0.9474
-12.7362 -3.7485 -2.4954 0.9474
-12.6585 -4.0044 -2.4955 0.9474
-12.2967 -5.0108 -2.4958 0.9474
-12.1937 -5.2576 -2.4959 0.9474
-12.0858 -5.5023 -2.4960 0.9474
-11.9730 -5.7448 -2.4961 0.9474
-11.6055 -6.4581 -2.4964 0.9474
-11.4735 -6.6908 -2.4965 0.9474
-11.1957 -7.1480 -2.4967 0.9474
-10.4226 -8.2392 -2.4972 0.9474
-9.9074 -8.8548 -2.4976 0.9474
-9.7275 -9.0529 -2.4977 0.9474
-8.7703 -9.9875 -2.4983 0.9473
-7.2825 -11.1250 -2.4992 0.9473
-7.0573 -11.2700 -2.4994 0.9473
-6.5985 -11.5463 -2.4997 0.9473
-5.1601 -12.2618 -2.5005 0.9473
-4.9124 -12.3639 -2.5006 0.9473
-4.4110 -12.5532 -2.5009 0.9473
-4.1575 -12.6402 -2.5011 0.9473
-3.9023 -12.7221 -2.5012 0.9473
-3.1275 -12.9368 -2.5017 0.9473
-2.6043 -13.0538 -2.5020 0.9473
-1.8116 -13.1895 -2.5024 0.9473
-1.5456 -13.2241 -2.5025 0.9473
-1.2791 -13.2533 -2.5027 0.9473
-1.0119 -13.2771 -2.5028 0.9472
-0.7444 -13.2956 -2.5030 0.9472
0.0599 -13.3185 -2.5034 0.9472
0.5963 -13.3068 -2.5037 0.9472
1.1318 -13.2735 -2.5039 0.9472
1.6656 -13.2186 -2.5042 0.9472
1.9316 -13.1830 -2.5044 0.9472
3.2382 -12.8862 -2.4974 0.9474
3.6993 -12.5580 -2.4607 0.9481
3.9274 -12.4047 -2.4457 0.9484
4.3896 -12.1421 -2.4268 0.9488
5.8267 -11.5348 -2.4290 0.9488
6.3438 -11.3937 -2.4511 0.9483
6.8891 -11.2790 -2.4842 0.9476
7.3893 -11.0697 -2.5016 0.9473
7.8438 -10.7833 -2.5063 0.9472
8.6903 -10.1219 -2.5075 0.9472
9.4780 -9.3909 -2.5079 0.9471
9.8490 -9.0021 -2.5080 0.9471
10.0286 -8.8021 -2.5081 0.9471
10.2041 -8.5986 -2.5081 0.9471
10.5427 -8.1811 -2.5083 0.9471
10.7055 -7.9673 -2.5083 0.9471
11.0182 -7.5300 -2.5084 0.9471
11.1678 -7.3068 -2.5085 0.9471
11.3130 -7.0805 -2.5085 0.9471
11.9684 -5.9077 -2.5087 0.9471
12.0851 -5.6655 -2.5088 0.9471
12.4056 -4.9255 -2.5088 0.9471
12.8383 -3.6535 -2.5089 0.9471
13.0355 -2.8715 -2.5089 0.9471
13.0906 -2.6084 -2.5089 0.9471
13.2862 -1.2791 -2.5088 0.9471
5.5229 9.6538 -2.3510 0.9555
5.1756 9.4849 -2.2840 0.9568
4.9292 9.9682 -2.3506 0.9556
4.5233 10.1576 -2.3504 0.9556
4.3176 10.2462 -2.3503 0.9556
3.9010 10.4106 -2.3500 0.9556
3.6904 10.4866 -2.3499 0.9556
3.4782 10.5582 -2.3498 0.9556
3.0499 10.6886 -2.3495 0.9556
2.1794 10.8971 -2.3490 0.9556
1.9594 10.9383 -2.3489 0.9556
1.7386 10.9750 -2.3488 0.9556
1.5171 11.0072 -2.3487 0.9556
0.7866 8.1101 -1.7224 0.9672
0.8495 11.0770 -2.3483 0.9556
0.6262 11.0913 -2.3482 0.9556
0.4027 11.1011 -2.3481 0.9556
0.1790 11.1064 -2.3480 0.9556
-0.0447 11.1072 -2.3478 0.9556
-0.9383 11.0654 -2.3474 0.9556
-1.1609 11.0437 -2.3473 0.9556
-2.0455 10.9123 -2.3468 0.9556
-2.7003 10.7674 -2.3465 0.9556
-3.3452 10.5833 -2.3462 0.9556
-3.5575 10.5133 -2.3461 0.9556
-3.7683 10.4390 -2.3460 0.9556
-3.9777 10.3606 -2.3459 0.9556
-4.1853 10.2779 -2.3458 0.9556
-4.3913 10.1912 -2.3457 0.9556
-4.7978 10.0052 -2.3455 0.9556
-4.9981 9.9062 -2.3454 0.9557
-5.3926 9.6961 -2.3452 0.9557
-5.5866 9.5852 -2.3451 0.9557
-5.7782 9.4703 -2.3450 0.9557
-5.9676 9.3517 -2.3450 0.9557
-6.3389 9.1032 -2.3448 0.9557
-6.8764 8.7029 -2.3446 0.9557
-7.0501 8.5624 -2.3445 0.9557
-7.3887 8.2710 -2.3443 0.9557
-7.5536 8.1203 -2.3443 0.9557
-7.7154 7.9663 -2.3442 0.9557
-8.0812 7.6979 -2.3592 0.9554
-8.4032 7.6879 -2.4075 0.9545
-8.7386 7.6772 -2.4588 0.9536
-9.1649 7.4196 -2.4925 0.9529
-9.3234 7.2421 -2.4955 0.9529
-9.4686 7.0537 -2.4958 0.9529
-9.6086 6.8615 -2.4957 0.9529
-10.1289 6.0655 -2.4956 0.9529
-10.2488 5.8602 -2.4955 0.9529
-10.3646 5.6525 -2.4955 0.9529
-10.4762 5.4425 -2.4955 0.9529
-10.5836 5.2304 -2.4954 0.9529
-10.6867 5.0161 -2.4954 0.9529
-10.7854 4.7998 -2.4954 0.9529
-10.9698 4.3615 -2.4953 0.9529
-11.2130 3.6910 -2.4953 0.9529
-11.2850 3.4645 -2.4953 0.9529
-11.3524 3.2364 -2.4953 0.9529
-11.4153 3.0071 -2.4953 0.9529
-11.4735 2.7766 -2.4953 0.9529
-11.6203 2.0787 -2.4953 0.9529
-11.8055 -0.0503 -2.4955 0.9529
-11.8022 -0.2880 -2.4955 0.9529
-11.7942 -0.5257 -2.4955 0.9529
-11.7638 -1.0003 -2.4956 0.9529
-11.7415 -1.2370 -2.4956 0.9529
-11.6825 -1.7089 -2.4957 0.9529
-11.6047 -2.1781 -2.4958 0.9529
-11.5588 -2.4114 -2.4959 0.9529
-11.5081 -2.6438 -2.4959 0.9529
-11.3928 -3.1052 -2.4961 0.9529
-11.0244 -4.2355 -2.4964 0.9529
-10.9372 -4.4568 -2.4965 0.9529
-10.8455 -4.6763 -2.4966 0.9529
-10.6491 -5.1096 -2.4967 0.9529
-10.5444 -5.3232 -2.4968 0.9529
-10.4354 -5.5347 -2.4969 0.9529
-10.3221 -5.7439 -2.4970 0.9529
-10.0832 -6.1554 -2.4971 0.9528
-9.8278 -6.5570 -2.4973 0.9528
-9.6941 -6.7538 -2.4974 0.9528
-9.4150 -7.1393 -2.4976 0.9528
-8.8114 -7.8752 -2.4980 0.9528
-8.6514 -8.0513 -2.4981 0.9528
-8.4878 -8.2243 -2.4982 0.9528
-8.1504 -8.5602 -2.4985 0.9528
-7.7998 -8.8823 -2.4987 0.9528
-7.6197 -9.0380 -2.4988 0.9528
-7.2502 -9.3384 -2.4990 0.9528
-6.4764 -9.8935 -2.4995 0.9528
-6.2761 -10.0224 -2.4996 0.9528
-5.6602 -10.3846 -2.5000 0.9528
-5.2380 -10.6052 -2.5003 0.9528
-4.8071 -10.8087 -2.5005 0.9528
-4.3684 -10.9946 -2.5008 0.9528
-4.1463 -11.0809 -2.5009 0.9528
-3.9224 -11.1628 -2.5010 0.9528
-3.4701 -11.3128 -2.5013 0.9528
-3.0120 -11.4446 -2.5015 0.9528
-2.7810 -11.5035 -2.5017 0.9528
-2.3157 -11.6074 -2.5019 0.9528
-1.8466 -11.6924 -2.5022 0.9528
-1.3743 -11.7585 -2.5024 0.9528
-1.1373 -11.7844 -2.5026 0.9527
-0.8998 -11.8055 -2.5027 0.9527
-0.6619 -11.8219 -2.5028 0.9527
-0.4237 -11.8334 -2.5029 0.9527
-0.1853 -11.8401 -2.5031 0.9527
0.2917 -11.8391 -2.5033 0.9527
0.5301 -11.8314 -2.5034 0.9527
1.0063 -11.8017 -2.5037 0.9527
1.2438 -11.7796 -2.5038 0.9527
1.4809 -11.7527 -2.5039 0.9527
1.9532 -11.6847 -2.5042 0.9527
2.1882 -11.6435 -2.5043 0.9527
2.4224 -11.5976 -2.5044 0.9527
2.6556 -11.5470 -2.5045 0.9527
3.3485 -11.3671 -2.5049 0.9527
3.5769 -11.2979 -2.5050 0.9527
4.4754 -10.9753 -2.5054 0.9527
4.6957 -10.8834 -2.5055 0.9527
5.1306 -10.6863 -2.5057 0.9527
5.3450 -10.5812 -2.5058 0.9527
5.7672 -10.3582 -2.5060 0.9527
5.9749 -10.2403 -2.5061 0.9527
6.1802 -10.1183 -2.5062 0.9527
6.5831 -9.8619 -2.5064 0.9527
6.7806 -9.7277 -2.5065 0.9527
6.9754 -9.5895 -2.5066 0.9527
7.1673 -9.4473 -2.5066 0.9527
7.3564 -9.3014 -2.5067 0.9527
7.7255 -8.9981 -2.5069 0.9527
8.0821 -8.6802 -2.5070 0.9527
8.4256 -8.3481 -2.5072 0.9527
8.5922 -8.1770 -2.5072 0.9527
8.7554 -8.0025 -2.5073 0.9527
9.3719 -7.2726 -2.5075 0.9527
9.5167 -7.0825 -2.5076 0.9527
9.9275 -6.4953 -2.5077 0.9527
10.0565 -6.2941 -2.5078 0.9527
10.1814 -6.0904 -2.5078 0.9527
10.3022 -5.8842 -2.5078 0.9527
10.4187 -5.6756 -2.5079 0.9527
10.5311 -5.4647 -2.5079 0.9527
10.8422 -4.8189 -2.5080 0.9526
11.1137 -4.1555 -2.5081 0.9526
11.2721 -3.7046 -2.5081 0.9526
11.3445 -3.4768 -2.5081 0.9526
11.4122 -3.2476 -2.5081 0.9526
11.4754 -3.0171 -2.5081 0.9526
11.5876 -2.5526 -2.5081 0.9526
11.6809 -2.0838 -2.5081 0.9526
11.7553 -1.6117 -2.5081 0.9526
4.9670 8.6820 -2.3508 0.9597
4.6129 8.8742 -2.3506 0.9597
4.0680 9.1353 -2.3503 0.9597
3.8830 9.2150 -2.3502 0.9597
3.3190 9.4314 -2.3498 0.9597
2.7431 9.6132 -2.3495 0.9598
2.5488 9.6661 -2.3494 0.9598
1.9601 9.8010 -2.3491 0.9598
1.5637 9.8711 -2.3489 0.9598
0.9508 8.1013 -1.9171 0.9670
0.7641 9.9631 -2.3484 0.9598
0.5632 9.9760 -2.3483 0.9598
-0.4425 9.9798 -2.3478 0.9598
-0.6433 9.9684 -2.3477 0.9598
-0.8439 9.9530 -2.3476 0.9598
-1.0442 9.9335 -2.3475 0.9598
-2.0371 9.7761 -2.3470 0.9598
-2.4290 9.6854 -2.3468 0.9598
-2.6235 9.6341 -2.3467 0.9598
-2.8168 9.5789 -2.3466 0.9598
-3.0091 9.5199 -2.3465 0.9598
-3.2001 9.4569 -2.3464 0.9598
-3.7649 9.2454 -2.3461 0.9598
-4.3158 9.0001 -2.3459 0.9598
-4.4961 8.9111 -2.3458 0.9598
-4.6744 8.8184 -2.3457 0.9598
-5.0254 8.6224 -2.3455 0.9598
-5.3683 8.4125 -2.3454 0.9598
-6.1859 7.8290 -2.3450 0.9598
-6.3487 7.7104 -2.3473 0.9598
-6.6034 7.6986 -2.3837 0.9592
-6.8699 7.6903 -2.4235 0.9585
-7.3717 7.6115 -2.4903 0.9574
-7.5306 7.4685 -2.4927 0.9574
-8.1198 6.8488 -2.4965 0.9573
-8.2559 6.6838 -2.4965 0.9573
-8.3887 6.5160 -2.4964 0.9573
-8.6440 6.1727 -2.4963 0.9573
-8.7664 5.9972 -2.4963 0.9573
-8.8853 5.8194 -2.4963 0.9573
-9.0005 5.6391 -2.4962 0.9573
-9.3243 5.0851 -2.4961 0.9573
-9.4247 4.8962 -2.4961 0.9573
-9.5213 4.7054 -2.4961 0.9573
-9.6140 4.5126 -2.4960 0.9573
-9.8688 3.9237 -2.4960 0.9573
-10.0875 3.3206 -2.4959 0.9573
-10.2130 2.9116 -2.4959 0.9573
-10.3220 2.4979 -2.4959 0.9573
-10.3702 2.2896 -2.4959 0.9573
-10.4142 2.0803 -2.4959 0.9573
-10.4896 1.6592 -2.4959 0.9573
-10.5480 1.2354 -2.4960 0.9573
-10.5893 0.8096 -2.4960 0.9573
-10.6036 0.5962 -2.4960 0.9573
-10.6192 0.1687 -2.4961 0.9573
-10.6205 -0.0452 -2.4961 0.9573
-10.6176 -0.2591 -2.4961 0.9573
-10.5988 -0.6865 -2.4962 0.9573
-10.5629 -1.1128 -2.4963 0.9573
-10.5098 -1.5373 -2.4963 0.9573
-10.4398 -1.9595 -2.4964 0.9573
-10.3984 -2.1693 -2.4965 0.9573
-10.3528 -2.3784 -2.4965 0.9573
-10.1909 -2.9994 -2.4967 0.9573
-10.1287 -3.2041 -2.4967 0.9573
-9.9919 -3.6096 -2.4969 0.9573
-9.6701 -4.4025 -2.4971 0.9573
-9.5797 -4.5965 -2.4972 0.9573
-9.2855 -5.1671 -2.4974 0.9573
-9.1798 -5.3532 -2.4975 0.9573
-8.9574 -5.7189 -2.4977 0.9573
-8.8407 -5.8984 -2.4978 0.9573
-8.7204 -6.0754 -2.4978 0.9573
-8.5966 -6.2500 -2.4979 0.9573
-8.3385 -6.5916 -2.4981 0.9573
-8.2044 -6.7585 -2.4982 0.9573
-8.0669 -6.9226 -2.4983 0.9573
-7.9261 -7.0839 -2.4984 0.9573
-7.6350 -7.3980 -2.4986 0.9573
-7.4847 -7.5505 -2.4987 0.9573
-7.3315 -7.7000 -2.4988 0.9573
-7.0160 -7.9897 -2.4990 0.9573
-6.8539 -8.1297 -2.4991 0.9572
-6.6891 -8.2665 -2.4992 0.9572
-6.3513 -8.5299 -2.4994 0.9572
-6.1785 -8.6564 -2.4995 0.9572
-6.0031 -8.7795 -2.4996 0.9572
-5.8253 -8.8990 -2.4997 0.9572
-5.6452 -9.0149 -2.4998 0.9572
-5.2780 -9.2358 -2.5001 0.9572
-4.9022 -9.4416 -2.5003 0.9572
-4.5184 -9.6323 -2.5005 0.9572
-4.1272 -9.8073 -2.5007 0.9572
-3.9290 -9.8889 -2.5009 0.9572
-3.7293 -9.9665 -2.5010 0.9572
-2.0827 -10.4396 -2.5019 0.9572
-1.6608 -10.5160 -2.5021 0.9572
-1.4487 -10.5478 -2.5022 0.9572
-0.5953 -10.6321 -2.5027 0.9572
-0.3810 -10.6424 -2.5028 0.9572
0.2624 -10.6474 -2.5032 0.9572
0.4768 -10.6405 -2.5033 0.9572
0.9050 -10.6136 -2.5035 0.9572
1.1186 -10.5936 -2.5036 0.9572
1.9679 -10.4711 -2.5040 0.9572
2.3882 -10.3842 -2.5042 0.9572
2.5970 -10.3344 -2.5043 0.9572
3.0113 -10.2223 -2.5046 0.9572
3.6235 -10.0230 -2.5049 0.9572
3.8248 -9.9484 -2.5049 0.9572
4.0245 -9.8697 -2.5050 0.9571
4.4191 -9.7003 -2.5052 0.9571
4.8065 -9.5152 -2.5054 0.9571
5.3729 -9.2085 -2.5057 0.9571
5.5574 -9.0987 -2.5058 0.9571
5.7397 -8.9853 -2.5058 0.9571
5.9197 -8.8681 -2.5059 0.9571
6.4450 -8.4952 -2.5061 0.9571
6.6150 -8.3639 -2.5062 0.9571
6.9469 -8.0912 -2.5064 0.9571
7.1086 -7.9499 -2.5064 0.9571
7.4234 -7.6576 -2.5066 0.9571
7.5763 -7.5067 -2.5066 0.9571
7.7261 -7.3527 -2.5067 0.9571
8.0163 -7.0359 -2.5068 0.9571
8.1566 -6.8732 -2.5068 0.9571
8.2935 -6.7077 -2.5069 0.9571
8.4271 -6.5394 -2.5069 0.9571
9.1549 -5.4763 -2.5072 0.9571
9.2635 -5.2909 -2.5072 0.9571
9.3683 -5.1033 -2.5073 0.9571
9.6597 -4.5285 -2.5073 0.9571
9.9157 -3.9370 -2.5074 0.9571
9.9931 -3.7365 -2.5074 0.9571
10.0664 -3.5345 -2.5074 0.9571
10.1355 -3.3311 -2.5074 0.9571
10.2615 -2.9202 -2.5075 0.9571
10.3183 -2.7129 -2.5075 0.9571
10.4192 -2.2952 -2.5075 0.9571
10.5970 -1.2360 -2.5074 0.9571
10.6196 -1.0223 -2.5074 0.9571
4.5083 7.8803 -2.3507 0.9632
4.1870 8.0548 -2.3505 0.9632
4.0237 8.1372 -2.3504 0.9632
3.8589 8.2162 -2.3503 0.9632
3.5246 8.3643 -2.3501 0.9632
3.3552 8.4332 -2.3500 0.9632
3.0126 8.5608 -2.3498 0.9632
2.6652 8.6744 -2.3496 0.9632
2.4899 8.7260 -2.3495 0.9632
2.3135 8.7740 -2.3494 0.9632
1.5996 8.9302 -2.3490 0.9632
1.4194 8.9603 -2.3489 0.9632
0.9498 8.0932 -2.1098 0.9669
0.7850 8.0939 -2.1055 0.9670
0.3288 9.0637 -2.3483 0.9632
0.1462 9.0682 -2.3482 0.9632
-0.5840 9.0490 -2.3478 0.9632
-0.7661 9.0351 -2.3477 0.9632
-1.1293 8.9962 -2.3475 0.9632
-1.3102 8.9712 -2.3475 0.9632
-1.4905 8.9427 -2.3474 0.9632
-1.6703 8.9105 -2.3473 0.9632
-1.8493 8.8747 -2.3472 0.9632
-2.3816 8.7459 -2.3469 0.9632
-2.5572 8.6958 -2.3468 0.9632
-2.7317 8.6422 -2.3467 0.9632
-3.7528 8.2482 -2.3463 0.9632
-3.9181 8.1706 -2.3462 0.9633
-4.0817 8.0898 -2.3461 0.9633
-4.2436 8.0057 -2.3460 0.9633
-4.4039 7.9184 -2.3460 0.9633
-4.5624 7.8278 -2.3459 0.9633
-5.1356 7.7013 -2.3967 0.9625
-5.9673 7.5523 -2.4921 0.9610
-6.2762 7.3171 -2.4960 0.9610
-6.5693 7.0622 -2.4973 0.9609
-6.7101 6.9283 -2.4973 0.9609
