ply
format ascii 1.0
element vertex 1583
property float32 x
property float32 y
property float32 z
property float32 I
end_header
24.7520 -6.6586 -2.4608 0.9021
24.9977 -5.6583 -2.4606 0.9021
25.1057 -5.1547 -2.4605 0.9021
25.2037 -4.6490 -2.4605 0.9021
25.2917 -4.1416 -2.4605 0.9021
25.3696 -3.6325 -2.4604 0.9021
25.4375 -3.1220 -2.4604 0.9021
25.4952 -2.6102 -2.4605 0.9021
25.5429 -2.0974 -2.4605 0.9021
25.5804 -1.5838 -2.4605 0.9021
25.6250 -0.5547 -2.4607 0.9021
25.6288 0.4754 -2.4609 0.9021
25.6154 0.9904 -2.4610 0.9021
25.5919 1.5050 -2.4612 0.9021
25.5582 2.0191 -2.4614 0.9021
25.3962 3.5562 -2.4619 0.9021
25.3220 4.0661 -2.4622 0.9021
25.0390 5.5862 -2.4630 0.9020
24.9247 6.0889 -2.4633 0.9020
24.6662 7.0873 -2.4639 0.9020
24.4646 7.5648 -2.4584 0.9022
23.2059 7.6898 -2.3470 0.9064
22.7306 8.0427 -2.3148 0.9077
22.5679 8.4991 -2.3152 0.9076
22.0260 9.8484 -2.3163 0.9076
21.6203 10.7293 -2.3172 0.9076
21.1800 11.5939 -2.3181 0.9075
20.9469 12.0196 -2.3186 0.9075
20.4557 12.8570 -2.3195 0.9075
19.4717 14.5443 -2.3334 0.9070
19.2436 14.9845 -2.3415 0.9066
19.0039 15.4211 -2.3496 0.9063
14.3920 13.1939 -1.8745 0.9245
7.1733 8.0427 -1.0346 0.9576
7.1478 8.3458 -1.0549 0.9568
7.1507 8.6971 -1.0809 0.9558
7.1538 9.0662 -1.1087 0.9547
7.1096 9.3923 -1.1309 0.9538
9.8943 13.6319 -1.6171 0.9346
9.4045 13.5205 -1.5812 0.9360
5.7154 9.3753 -1.0541 0.9568
5.4613 9.3774 -1.0418 0.9573
4.9582 9.3592 -1.0168 0.9583
4.7320 9.3834 -1.0089 0.9586
3.8718 8.5121 -0.8978 0.9631
3.8435 8.9212 -0.9326 0.9617
3.9219 13.3260 -1.3336 0.9457
3.5966 13.1941 -1.3129 0.9465
2.7448 13.1458 -1.2893 0.9475
2.4708 13.1488 -1.2844 0.9477
1.9365 13.2107 -1.2818 0.9478
1.6665 13.2138 -1.2786 0.9479
1.3977 13.2168 -1.2759 0.9480
0.3305 13.2288 -1.2704 0.9482
-0.2014 13.2348 -1.2708 0.9482
-0.7344 13.2408 -1.2731 0.9481
-2.0830 13.2539 -1.2881 0.9475
-3.1941 13.2664 -1.3100 0.9466
-3.7658 13.2728 -1.3246 0.9461
-4.2943 14.0537 -1.4108 0.9427
-4.9970 13.4041 -1.3734 0.9441
-5.5494 13.2350 -1.3778 0.9440
-6.2707 13.4163 -1.4218 0.9422
-8.0580 13.5132 -1.5105 0.9387
-8.7680 13.4444 -1.5410 0.9375
-9.1612 13.4488 -1.5623 0.9367
-9.4400 13.2767 -1.5640 0.9366
-9.8510 13.2813 -1.5875 0.9357
-11.0538 13.7148 -1.6911 0.9317
-11.5443 13.7485 -1.7235 0.9304
-12.8186 13.5206 -1.7887 0.9279
-13.3179 13.4935 -1.8202 0.9266
-13.6883 13.3224 -1.8338 0.9261
-14.4447 13.5041 -1.8984 0.9236
-15.0661 13.5280 -1.9439 0.9219
-15.7135 13.5489 -1.9919 0.9200
-17.0338 13.5332 -2.0886 0.9163
-17.5323 13.3635 -2.1164 0.9152
-18.5354 13.5480 -2.2042 0.9119
-21.1849 13.0118 -2.3869 0.9049
-22.3973 10.8279 -2.3883 0.9049
-22.6127 10.3767 -2.3886 0.9049
-20.3980 8.3854 -2.1173 0.9152
-23.3812 8.5305 -2.3894 0.9048
-23.5496 8.0596 -2.3896 0.9048
-25.6906 6.5425 -2.5451 0.8989
-25.8178 6.0251 -2.5452 0.8989
-25.9345 5.5053 -2.5453 0.8989
-26.2204 3.9329 -2.5454 0.8989
-26.2941 3.4052 -2.5454 0.8989
-26.3571 2.8761 -2.5454 0.8989
-26.4093 2.3459 -2.5454 0.8989
-6.6382 -20.0486 -2.5086 0.9184
-5.4138 -20.3954 -2.5066 0.9185
-4.1717 -20.6675 -2.5045 0.9186
-3.7545 -20.7414 -2.5038 0.9186
-3.3360 -20.8070 -2.5031 0.9186
-2.9164 -20.8640 -2.5024 0.9186
-2.0746 -20.9528 -2.5011 0.9187
-1.6491 -20.9390 -2.4950 0.9189
-1.1554 -19.7282 -2.3474 0.9235
0.4239 -19.3659 -2.3010 0.9249
1.2239 -19.6917 -2.3436 0.9236
1.6189 -19.6578 -2.3430 0.9236
2.4062 -19.5664 -2.3417 0.9237
2.7981 -19.5090 -2.3411 0.9237
3.9654 -19.2898 -2.3393 0.9237
4.3511 -19.2012 -2.3387 0.9238
5.1164 -19.0012 -2.3375 0.9238
5.4097 -18.5937 -2.3002 0.9250
6.2325 -18.6005 -2.3302 0.9240
6.6191 -18.5106 -2.3351 0.9239
6.9880 -18.3694 -2.3346 0.9239
7.3539 -18.2209 -2.3340 0.9239
9.8203 -16.9828 -2.3303 0.9240
10.1574 -16.7784 -2.3298 0.9240
10.4903 -16.5674 -2.3293 0.9241
10.8188 -16.3499 -2.3288 0.9241
11.4624 -15.8955 -2.3279 0.9241
12.0871 -15.4161 -2.3270 0.9241
12.6920 -14.9124 -2.3261 0.9242
12.9868 -14.6517 -2.3257 0.9242
13.8388 -13.8355 -2.3245 0.9242
14.1117 -13.5524 -2.3241 0.9242
14.3789 -13.2640 -2.3237 0.9242
12.9541 -11.4766 -2.0558 0.9327
15.3884 -12.0595 -2.3224 0.9243
16.9803 -11.2301 -2.4182 0.9213
17.5417 -11.1013 -2.4659 0.9198
18.0098 -10.4084 -2.4709 0.9196
18.2134 -10.0434 -2.4706 0.9196
18.4098 -9.6745 -2.4704 0.9196
18.5988 -9.3017 -2.4702 0.9196
18.9544 -8.5455 -2.4698 0.9197
19.4307 -7.3864 -2.4692 0.9197
19.5740 -6.9940 -2.4691 0.9197
19.8372 -6.2013 -2.4688 0.9197
20.0687 -5.3987 -2.4686 0.9197
20.1725 -4.9942 -2.4686 0.9197
20.2682 -4.5877 -2.4685 0.9197
20.4354 -3.7695 -2.4684 0.9197
20.5068 -3.3581 -2.4684 0.9197
20.5700 -2.9453 -2.4683 0.9197
20.6251 -2.5314 -2.4683 0.9197
20.7822 -0.0322 -2.4686 0.9197
20.7794 0.3855 -2.4687 0.9197
20.7491 1.2202 -2.4690 0.9197
20.7215 1.6370 -2.4691 0.9197
20.6416 2.4686 -2.4694 0.9197
20.4600 3.7086 -2.4700 0.9197
20.3831 4.1193 -2.4702 0.9196
20.1037 5.3415 -2.4709 0.9196
19.8772 6.1463 -2.4714 0.9196
19.7519 6.5452 -2.4717 0.9196
19.4639 7.3301 -2.4706 0.9196
17.8505 7.9814 -2.3227 0.9243
17.3450 9.0465 -2.3237 0.9242
16.9730 9.7393 -2.3245 0.9242
16.7767 10.0801 -2.3249 0.9242
16.5736 10.4169 -2.3253 0.9242
16.3638 10.7498 -2.3257 0.9242
16.1474 11.0784 -2.3261 0.9242
15.6951 11.7227 -2.3270 0.9241
15.4594 12.0380 -2.3274 0.9241
15.2173 12.3487 -2.3279 0.9241
14.7148 12.9554 -2.3288 0.9241
12.2947 13.2393 -2.1462 0.9298
7.1733 8.0427 -1.2801 0.9575
7.1482 8.3463 -1.3053 0.9567
7.1511 8.6975 -1.3375 0.9557
7.1100 9.3928 -1.3993 0.9537
9.7028 13.3681 -1.9621 0.9356
8.8409 13.2713 -1.8942 0.9378
5.9757 9.3731 -1.3204 0.9562
5.2129 9.3794 -1.2747 0.9577
4.9581 9.3591 -1.2581 0.9582
4.4987 9.3853 -1.2363 0.9589
3.8718 8.5120 -1.1108 0.9630
3.8038 9.3413 -1.1981 0.9602
3.3435 13.3142 -1.6307 0.9462
2.7447 13.1457 -1.5952 0.9473
1.9537 13.3278 -1.6001 0.9472
0.6208 13.7659 -1.6369 0.9460
0.3438 13.7631 -1.6354 0.9461
0.0664 13.6213 -1.6180 0.9466
-0.2043 13.4291 -1.5954 0.9473
-0.4718 13.3551 -1.5874 0.9476
-1.5331 13.1918 -1.5775 0.9479
-1.8265 13.3683 -1.6027 0.9471
-2.1015 13.3714 -1.6078 0.9469
-4.5079 13.7572 -1.7197 0.9434
-4.6913 13.4005 -1.6865 0.9444
-5.5494 13.2349 -1.7047 0.9438
-5.8664 13.2385 -1.7200 0.9433
-6.6240 13.4604 -1.7820 0.9414
-7.0209 13.5715 -1.8151 0.9403
-7.4705 13.7559 -1.8594 0.9389
-7.6576 13.4488 -1.8383 0.9396
-8.3957 13.4571 -1.8841 0.9381
-8.7679 13.4443 -1.9066 0.9374
-9.1612 13.4488 -1.9330 0.9366
-11.0872 13.7563 -2.0987 0.9313
-11.5855 13.7976 -2.1401 0.9300
-12.8180 13.5199 -2.2130 0.9277
-13.6882 13.3223 -2.2689 0.9259
-14.4446 13.5040 -2.3489 0.9234
-14.8879 13.3679 -2.3768 0.9226
-15.1558 13.0681 -2.3771 0.9226
-15.4177 12.7628 -2.3775 0.9225
-16.1655 11.8157 -2.3785 0.9225
-17.4818 9.7925 -2.3802 0.9225
-17.8646 9.0839 -2.3806 0.9224
-20.0528 7.3162 -2.5356 0.9176
-20.2020 6.9139 -2.5364 0.9176
-20.4655 6.0972 -2.5366 0.9176
-20.5847 5.6850 -2.5367 0.9176
-20.6955 5.2704 -2.5368 0.9176
-21.1218 3.1681 -2.5370 0.9176
-21.1812 2.7430 -2.5370 0.9176
-21.3074 1.4618 -2.5370 0.9176
-21.3479 0.6045 -2.5369 0.9176
-5.9007 -16.6895 -2.5082 0.9310
-5.5629 -16.8009 -2.5076 0.9310
-4.8811 -17.0031 -2.5065 0.9310
-4.1920 -17.1776 -2.5053 0.9311
-2.7966 -17.4426 -2.5030 0.9311
-2.0925 -17.5328 -2.5018 0.9312
-1.7394 -17.5672 -2.5013 0.9312
-0.6361 -16.5543 -2.3473 0.9353
0.6945 -16.5367 -2.3451 0.9353
1.3579 -16.4880 -2.3441 0.9353
1.6885 -16.4537 -2.3436 0.9354
2.6750 -16.3112 -2.3420 0.9354
3.6505 -16.1098 -2.3405 0.9354
3.9727 -16.0298 -2.3400 0.9355
4.2931 -15.9433 -2.3395 0.9355
4.6116 -15.8505 -2.3390 0.9355
4.9281 -15.7513 -2.3385 0.9355
6.7787 -15.0260 -2.3356 0.9356
7.0779 -14.8838 -2.3352 0.9356
7.3741 -14.7358 -2.3347 0.9356
7.6673 -14.5819 -2.3343 0.9356
7.9573 -14.4222 -2.3339 0.9356
8.8070 -13.9090 -2.3326 0.9357
9.0831 -13.7268 -2.3322 0.9357
9.3555 -13.5392 -2.3318 0.9357
9.8887 -13.1480 -2.3310 0.9357
10.1492 -12.9445 -2.3306 0.9357
10.9056 -12.3038 -2.3296 0.9357
11.3879 -11.8522 -2.3289 0.9358
11.6221 -11.6193 -2.3285 0.9358
12.6747 -11.2290 -2.3993 0.9339
13.5206 -11.0414 -2.4734 0.9319
13.9760 -10.5063 -2.4774 0.9318
14.5790 -9.6421 -2.4766 0.9318
15.1292 -8.7437 -2.4759 0.9318
15.3006 -8.4372 -2.4757 0.9318
15.6248 -7.8143 -2.4753 0.9319
15.9239 -7.1792 -2.4749 0.9319
16.6666 -5.2101 -2.4742 0.9319
16.7673 -4.8740 -2.4741 0.9319
17.1028 -3.5115 -2.4738 0.9319
17.1697 -3.1671 -2.4738 0.9319
17.2297 -2.8214 -2.4738 0.9319
17.3291 -2.1268 -2.4738 0.9319
17.3684 -1.7782 -2.4738 0.9319
17.4008 -1.4288 -2.4738 0.9319
17.4262 -1.0789 -2.4738 0.9319
17.4447 -0.7285 -2.4739 0.9319
17.4562 -0.3779 -2.4739 0.9319
17.4607 -0.0270 -2.4740 0.9319
17.4489 0.6746 -2.4742 0.9319
17.4092 1.3753 -2.4744 0.9319
17.3417 2.0739 -2.4746 0.9319
17.2976 2.4221 -2.4748 0.9319
17.1886 3.1156 -2.4751 0.9319
16.9735 4.1465 -2.4757 0.9318
16.7961 4.8260 -2.4761 0.9318
16.5918 5.4981 -2.4766 0.9318
16.2356 6.4898 -2.4774 0.9318
16.1038 6.8155 -2.4777 0.9318
15.9654 7.1386 -2.4780 0.9318
15.7973 7.4478 -2.4746 0.9319
15.4833 7.6838 -2.4491 0.9326
14.7663 7.7016 -2.3597 0.9349
14.4137 7.8901 -2.3282 0.9358
13.7415 9.0271 -2.3296 0.9357
13.5594 9.3028 -2.3299 0.9357
13.3718 9.5749 -2.3303 0.9357
12.7768 10.3682 -2.3314 0.9357
12.5680 10.6246 -2.3318 0.9357
12.3541 10.8769 -2.3322 0.9357
12.1351 11.1249 -2.3326 0.9357
11.9113 11.3685 -2.3330 0.9356
11.6825 11.6077 -2.3334 0.9356
11.4490 11.8423 -2.3339 0.9356
11.2108 12.0722 -2.3343 0.9356
7.1733 8.0426 -1.5270 0.9574
7.1486 8.3468 -1.5571 0.9566
7.1105 9.3934 -1.6693 0.9535
9.6887 13.3486 -2.3370 0.9355
9.2640 13.3185 -2.2987 0.9366
8.8441 13.2761 -2.2602 0.9376
5.4612 9.3773 -1.5376 0.9571
4.9581 9.3591 -1.5007 0.9581
4.7320 9.3833 -1.4890 0.9584
4.4987 9.3852 -1.4747 0.9588
3.8442 8.9229 -1.3766 0.9615
5.2530 13.6813 -2.0765 0.9425
4.6122 13.6248 -2.0381 0.9435
4.2641 13.4824 -2.0036 0.9445
3.9215 13.3247 -1.9680 0.9454
3.6285 13.3110 -1.9548 0.9458
2.7447 13.1456 -1.9028 0.9472
2.4708 13.1487 -1.8956 0.9474
2.2276 13.3247 -1.9142 0.9469
1.6834 13.3478 -1.9062 0.9471
1.4370 13.5884 -1.9361 0.9463
0.6026 13.3599 -1.8949 0.9474
0.0668 13.6930 -1.9402 0.9462
-1.8265 13.3682 -1.9117 0.9470
-2.4335 13.6847 -1.9694 0.9454
-2.9422 13.3978 -1.9436 0.9461
-3.3111 13.7521 -2.0042 0.9445
-3.5136 13.4042 -1.9634 0.9456
-4.6912 13.4005 -2.0117 0.9443
-4.9970 13.4039 -2.0269 0.9438
-5.2378 13.2313 -2.0163 0.9441
-6.6332 13.4790 -2.1286 0.9411
-7.6603 13.4536 -2.1936 0.9394
-8.0250 13.4577 -2.2201 0.9387
-8.3987 13.4619 -2.2482 0.9379
-9.1611 13.4487 -2.3056 0.9364
-10.2292 13.2272 -2.3692 0.9347
-11.0128 12.5928 -2.3703 0.9346
-11.2654 12.3709 -2.3707 0.9346
-11.9955 11.6747 -2.3717 0.9346
-12.2293 11.4329 -2.3720 0.9346
-12.4582 11.1863 -2.3724 0.9346
-12.6822 10.9351 -2.3727 0.9346
-13.1146 10.4193 -2.3733 0.9346
-13.3228 10.1549 -2.3735 0.9346
-13.5257 9.8862 -2.3738 0.9346
-13.7232 9.6135 -2.3741 0.9345
-13.9150 9.3368 -2.3743 0.9345
-14.4565 8.4839 -2.3750 0.9345
-14.8017 7.9047 -2.3776 0.9345
-15.2230 7.7407 -2.4198 0.9333
-15.9777 7.7244 -2.5146 0.9308
-16.2110 7.4391 -2.5272 0.9305
-16.5174 6.7901 -2.5304 0.9304
-16.6515 6.4572 -2.5305 0.9304
-16.7787 6.1217 -2.5307 0.9304
-17.3971 4.0599 -2.5312 0.9304
-17.4755 3.7096 -2.5313 0.9304
-17.4884 3.3466 -2.5229 0.9306
-17.6678 2.6500 -2.5313 0.9304
-17.7952 1.5807 -2.5313 0.9304
-17.8232 1.2228 -2.5313 0.9304
-17.8572 0.5056 -2.5312 0.9304
-4.4910 -14.5362 -2.5064 0.9402
-3.6049 -14.7716 -2.5049 0.9402
-3.3067 -14.8381 -2.5044 0.9402
-3.0072 -14.8986 -2.5039 0.9402
-2.7067 -14.9530 -2.5034 0.9403
-2.1029 -15.0437 -2.5024 0.9403
0.0264 -14.7586 -2.4313 0.9419
0.3148 -14.3822 -2.3699 0.9433
0.5976 -14.2269 -2.3458 0.9439
1.1683 -14.1859 -2.3449 0.9439
1.7366 -14.1221 -2.3440 0.9440
2.0197 -14.0816 -2.3435 0.9440
3.1415 -13.8635 -2.3418 0.9440
3.9689 -13.6415 -2.3405 0.9440
4.5122 -13.4662 -2.3396 0.9441
5.3125 -13.1630 -2.3384 0.9441
5.5750 -13.0513 -2.3380 0.9441
5.8352 -12.9345 -2.3376 0.9441
6.0929 -12.8125 -2.3372 0.9441
6.6006 -12.5532 -2.3365 0.9441
7.3415 -12.1270 -2.3354 0.9442
7.5825 -11.9752 -2.3350 0.9442
7.8205 -11.8186 -2.3346 0.9442
8.0552 -11.6574 -2.3343 0.9442
8.2866 -11.4915 -2.3340 0.9442
9.1730 -11.2272 -2.3884 0.9429
9.9390 -11.2133 -2.4685 0.9411
10.6577 -10.6552 -2.4827 0.9407
10.8684 -10.4377 -2.4824 0.9407
11.8542 -9.2898 -2.4811 0.9408
12.2155 -8.8043 -2.4806 0.9408
12.3888 -8.5563 -2.4804 0.9408
12.7204 -8.0502 -2.4799 0.9408
12.8786 -7.7923 -2.4797 0.9408
13.3218 -7.0007 -2.4792 0.9408
13.5905 -6.4589 -2.4789 0.9408
14.1663 -5.0618 -2.4782 0.9408
14.3572 -4.4882 -2.4781 0.9408
14.6003 -3.6147 -2.4779 0.9408
14.6697 -3.3205 -2.4778 0.9408
14.7908 -2.7283 -2.4777 0.9408
14.8884 -2.1318 -2.4777 0.9408
14.9282 -1.8322 -2.4777 0.9408
15.0118 -0.9294 -2.4778 0.9408
15.0277 -0.6276 -2.4778 0.9408
15.0414 -0.0233 -2.4779 0.9408
15.0311 0.5811 -2.4781 0.9408
15.0169 0.8831 -2.4781 0.9408
14.9967 1.1847 -2.4782 0.9408
14.8561 2.3856 -2.4787 0.9408
14.8060 2.6838 -2.4789 0.9408
14.7500 2.9809 -2.4790 0.9408
14.5466 3.8650 -2.4795 0.9408
14.4672 4.1569 -2.4797 0.9408
14.3819 4.4471 -2.4799 0.9408
14.0915 5.3069 -2.4806 0.9408
13.8696 5.8700 -2.4811 0.9408
13.7503 6.1481 -2.4813 0.9408
13.6254 6.4238 -2.4816 0.9408
13.3592 6.9677 -2.4821 0.9407
13.0490 7.4876 -2.4784 0.9408
12.7930 7.6865 -2.4587 0.9413
12.2529 7.7013 -2.3841 0.9430
11.8331 7.7734 -2.3324 0.9442
11.6760 8.0107 -2.3327 0.9442
11.5142 8.2448 -2.3330 0.9442
11.3478 8.4757 -2.3333 0.9442
10.8211 9.1479 -2.3343 0.9442
10.6367 9.3649 -2.3347 0.9442
10.2549 9.7877 -2.3354 0.9442
9.8564 10.1950 -2.3361 0.9441
9.6512 10.3926 -2.3365 0.9441
7.0966 8.2860 -1.7972 0.9567
9.0119 10.9607 -2.3376 0.9441
8.7913 11.1414 -2.3380 0.9441
8.1083 11.6569 -2.3392 0.9441
5.8107 9.1144 -1.7807 0.9571
5.7153 9.3752 -1.8088 0.9565
5.4612 9.3773 -1.7877 0.9570
4.9581 9.3590 -1.7448 0.9580
3.8037 9.3412 -1.6616 0.9599
5.1011 13.2856 -2.3444 0.9439
4.2452 13.4227 -2.3192 0.9445
3.9229 13.3294 -2.2890 0.9452
3.3434 13.3141 -2.2615 0.9459
3.0209 13.1424 -2.2215 0.9468
2.4707 13.1487 -2.2040 0.9472
1.6840 13.3525 -2.2171 0.9469
1.1418 13.3586 -2.2087 0.9471
0.8881 13.6096 -2.2468 0.9462
0.6028 13.3647 -2.2039 0.9472
0.3340 13.3677 -2.2029 0.9472
-0.4718 13.3550 -2.2015 0.9473
-1.0085 13.3313 -2.2025 0.9472
-1.2647 13.1886 -2.1827 0.9477
-2.6615 13.3994 -2.2505 0.9461
-2.9432 13.4025 -2.2605 0.9459
-3.3520 13.9219 -2.3590 0.9436
-3.5149 13.4090 -2.2836 0.9454
-3.8054 13.4123 -2.2967 0.9450
-4.1740 13.6597 -2.3530 0.9437
-4.3970 13.4189 -2.3263 0.9444
-4.6912 13.4004 -2.3389 0.9441
-4.9970 13.4039 -2.3566 0.9437
-5.2378 13.2313 -2.3443 0.9439
-5.8089 13.1086 -2.3620 0.9435
-6.0721 12.9914 -2.3624 0.9435
-6.3330 12.8689 -2.3628 0.9435
-6.8472 12.6082 -2.3636 0.9435
-7.1003 12.4701 -2.3640 0.9435
-7.3507 12.3268 -2.3644 0.9435
-7.5980 12.1785 -2.3647 0.9435
-7.8424 12.0252 -2.3651 0.9435
-8.3218 11.7039 -2.3658 0.9434
-8.5565 11.5360 -2.3661 0.9434
-8.7878 11.3633 -2.3665 0.9434
-9.0157 11.1860 -2.3668 0.9434
-9.2399 11.0041 -2.3671 0.9434
-9.8900 10.4315 -2.3681 0.9434
-10.5043 9.8202 -2.3689 0.9434
-11.2639 8.9490 -2.3700 0.9433
-11.4426 8.7217 -2.3702 0.9433
-11.9506 8.0187 -2.3709 0.9433
-12.1104 7.7777 -2.3711 0.9433
-13.3555 7.4811 -2.5218 0.9398
-13.5235 7.2221 -2.5256 0.9397
-13.6668 6.9494 -2.5258 0.9397
-14.0632 6.1144 -2.5263 0.9397
-14.2990 5.5450 -2.5265 0.9397
-14.4082 5.2568 -2.5266 0.9397
-14.6089 4.6740 -2.5268 0.9397
-14.7004 4.3796 -2.5269 0.9397
-14.7859 4.0835 -2.5270 0.9397
-15.1711 2.2755 -2.5272 0.9397
-15.2138 1.9702 -2.5272 0.9397
-15.2805 1.3573 -2.5272 0.9397
-3.4192 -12.8811 -2.5050 0.9472
-2.3722 -13.1049 -2.5032 0.9472
-1.8431 -13.1850 -2.5024 0.9473
-1.3113 -13.2438 -2.5015 0.9473
-1.0448 -13.2652 -2.5011 0.9473
-0.7779 -13.2812 -2.5006 0.9473
0.0237 -13.2970 -2.4993 0.9473
0.8239 -13.2560 -2.4964 0.9474
1.0888 -13.2204 -2.4933 0.9474
1.3526 -13.1801 -2.4904 0.9475
1.6033 -13.0375 -2.4690 0.9479
2.3136 -12.5259 -2.3942 0.9495
3.4803 -11.9621 -2.3416 0.9506
3.7193 -11.8878 -2.3413 0.9506
3.9569 -11.8089 -2.3409 0.9506
4.1927 -11.7251 -2.3405 0.9506
4.4268 -11.6367 -2.3402 0.9506
5.1335 -11.3792 -2.3464 0.9505
5.6527 -11.2957 -2.3742 0.9499
5.9187 -11.2564 -2.3904 0.9496
6.2013 -11.2396 -2.4128 0.9491
7.0633 -11.1551 -2.4817 0.9477
7.2917 -11.0196 -2.4836 0.9476
7.7403 -10.7339 -2.4874 0.9476
7.9535 -10.5749 -2.4871 0.9476
8.5731 -10.0729 -2.4862 0.9476
8.7727 -9.8975 -2.4859 0.9476
8.9688 -9.7181 -2.4856 0.9476
9.3501 -9.3478 -2.4851 0.9476
9.7161 -8.9628 -2.4846 0.9476
10.0664 -8.5635 -2.4841 0.9476
10.8700 -7.5073 -2.4830 0.9477
11.1612 -7.0634 -2.4827 0.9477
11.3000 -6.8372 -2.4825 0.9477
11.4343 -6.6083 -2.4823 0.9477
11.5641 -6.3768 -2.4822 0.9477
11.6892 -6.1427 -2.4820 0.9477
12.1421 -5.1832 -2.4815 0.9477
12.2433 -4.9380 -2.4814 0.9477
12.4308 -4.4417 -2.4812 0.9477
12.5171 -4.1909 -2.4811 0.9477
12.6747 -3.6843 -2.4809 0.9477
12.8119 -3.1719 -2.4808 0.9477
12.8728 -2.9138 -2.4808 0.9477
13.0246 -2.1328 -2.4807 0.9477
13.1294 -1.3442 -2.4807 0.9477
13.1731 -0.8156 -2.4808 0.9477
13.1870 -0.5507 -2.4808 0.9477
13.1956 -0.2856 -2.4808 0.9477
13.1990 -0.0204 -2.4809 0.9477
13.1970 0.2448 -2.4810 0.9477
13.1773 0.7749 -2.4811 0.9477
13.1082 1.5676 -2.4814 0.9477
12.6190 3.9020 -2.4827 0.9477
12.3638 4.6562 -2.4832 0.9476
12.1688 5.1501 -2.4837 0.9476
12.0639 5.3941 -2.4839 0.9476
11.7204 6.1129 -2.4846 0.9476
11.3343 6.8101 -2.4854 0.9476
11.1964 7.0372 -2.4856 0.9476
10.8897 7.4712 -2.4823 0.9477
10.7235 7.6786 -2.4791 0.9477
9.9012 7.7099 -2.3587 0.9502
9.3300 8.2144 -2.3365 0.9507
9.1643 8.4014 -2.3368 0.9507
8.8217 8.7652 -2.3375 0.9506
8.6450 8.9419 -2.3378 0.9506
8.4647 9.1151 -2.3381 0.9506
7.1732 8.0425 -2.0256 0.9571
8.0940 9.4506 -2.3388 0.9506
7.7100 9.7710 -2.3395 0.9506
7.3133 10.0760 -2.3402 0.9506
6.9047 10.3649 -2.3409 0.9506
6.2707 10.7672 -2.3420 0.9506
5.2045 9.3642 -2.0137 0.9573
4.6842 8.8420 -1.8808 0.9601
4.4545 8.8330 -1.8594 0.9605
3.8040 9.3418 -1.8959 0.9598
4.0019 11.8218 -2.3459 0.9505
3.7642 11.9019 -2.3463 0.9505
3.5249 11.9771 -2.3467 0.9505
3.2841 12.0476 -2.3471 0.9504
2.5535 12.2300 -2.3483 0.9504
1.5644 12.4042 -2.3500 0.9504
1.0651 12.4613 -2.3508 0.9504
0.5637 12.4984 -2.3516 0.9504
-0.1905 12.5162 -2.3528 0.9503
-0.9447 12.4884 -2.3540 0.9503
-1.1957 12.4690 -2.3544 0.9503
-2.1945 12.3411 -2.3560 0.9503
-2.4425 12.2965 -2.3564 0.9503
-2.6895 12.2470 -2.3568 0.9502
-3.1804 12.1329 -2.3576 0.9502
-3.4242 12.0685 -2.3580 0.9502
-3.6666 11.9992 -2.3583 0.9502
-4.1471 11.8459 -2.3591 0.9502
-4.3849 11.7620 -2.3594 0.9502
-4.6211 11.6733 -2.3598 0.9502
-4.8555 11.5799 -2.3602 0.9502
-5.3184 11.3788 -2.3609 0.9502
-5.7730 11.1592 -2.3616 0.9501
-5.9969 11.0425 -2.3619 0.9501
-6.2185 10.9213 -2.3622 0.9501
-6.4376 10.7956 -2.3626 0.9501
-6.8680 10.5311 -2.3632 0.9501
-7.0792 10.3923 -2.3635 0.9501
-7.2875 10.2493 -2.3638 0.9501
-7.4930 10.1021 -2.3641 0.9501
-8.0910 9.6358 -2.3650 0.9501
-8.2839 9.4724 -2.3652 0.9501
-8.4736 9.3051 -2.3655 0.9501
-9.0218 8.7805 -2.3663 0.9501
-9.3692 8.4126 -2.3668 0.9500
-9.7015 8.0309 -2.3672 0.9500
-9.8619 7.8351 -2.3674 0.9500
-10.1495 7.7361 -2.3987 0.9494
-10.9574 7.6760 -2.5146 0.9470
-11.1262 7.4655 -2.5184 0.9469
-11.2900 7.2508 -2.5220 0.9469
-11.7088 6.5587 -2.5226 0.9468
-12.0849 5.8424 -2.5230 0.9468
-12.3112 5.3527 -2.5233 0.9468
-12.6129 4.6018 -2.5236 0.9468
-12.7885 4.0916 -2.5238 0.9468
-12.8685 3.8339 -2.5238 0.9468
-12.9433 3.5746 -2.5239 0.9468
-13.1894 2.5239 -2.5241 0.9468
-13.3177 1.7247 -2.5241 0.9468
-13.4128 0.6497 -2.5240 0.9468
-13.4229 0.3801 -2.5240 0.9468
-3.4988 -11.3246 -2.5054 0.9527
-3.0400 -11.4526 -2.5047 0.9527
-2.5766 -11.5619 -2.5039 0.9527
-1.8744 -11.6907 -2.5027 0.9527
-1.4027 -11.7529 -2.5020 0.9528
-1.1661 -11.7769 -2.5016 0.9528
-0.2165 -11.8252 -2.5000 0.9528
0.0211 -11.8254 -2.4996 0.9528
0.2587 -11.8207 -2.4993 0.9528
0.7332 -11.7972 -2.4985 0.9528
0.9700 -11.7783 -2.4981 0.9528
1.4420 -11.7263 -2.4974 0.9528
1.6771 -11.6932 -2.4970 0.9529
1.9115 -11.6554 -2.4966 0.9529
3.0687 -11.3966 -2.4948 0.9529
3.7482 -11.1863 -2.4938 0.9529
3.9717 -11.1072 -2.4934 0.9529
4.1935 -11.0236 -2.4931 0.9529
4.4136 -10.9356 -2.4927 0.9529
4.6318 -10.8433 -2.4924 0.9529
5.0624 -10.6456 -2.4918 0.9529
5.6925 -10.3174 -2.4908 0.9530
6.1010 -10.0778 -2.4902 0.9530
6.3015 -9.9520 -2.4899 0.9530
6.4994 -9.8222 -2.4896 0.9530
6.8873 -9.5510 -2.4890 0.9530
7.0770 -9.4096 -2.4888 0.9530
7.6287 -8.9633 -2.4880 0.9530
7.8064 -8.8072 -2.4877 0.9530
7.9810 -8.6478 -2.4875 0.9530
8.1524 -8.4848 -2.4872 0.9530
8.3205 -8.3185 -2.4870 0.9530
8.9583 -7.6208 -2.4861 0.9531
9.1089 -7.4387 -2.4859 0.9531
9.5384 -6.8747 -2.4853 0.9531
9.6739 -6.6812 -2.4852 0.9531
9.8055 -6.4850 -2.4850 0.9531
9.9332 -6.2863 -2.4848 0.9531
10.1765 -5.8813 -2.4845 0.9531
10.2920 -5.6753 -2.4844 0.9531
10.4034 -5.4671 -2.4842 0.9531
10.8969 -4.3949 -2.4837 0.9531
10.9826 -4.1750 -2.4836 0.9531
11.0639 -3.9533 -2.4835 0.9531
11.2131 -3.5053 -2.4834 0.9531
11.2810 -3.2792 -2.4833 0.9531
11.3444 -3.0518 -2.4832 0.9531
11.4032 -2.8232 -2.4832 0.9531
11.5072 -2.3626 -2.4831 0.9531
11.5926 -1.8983 -2.4831 0.9531
11.6595 -1.4310 -2.4831 0.9531
11.7077 -0.9614 -2.4831 0.9531
11.7248 -0.7259 -2.4831 0.9531
11.7448 -0.2542 -2.4832 0.9531
11.7395 0.4539 -2.4834 0.9531
11.7284 0.6897 -2.4834 0.9531
11.7125 0.9253 -2.4835 0.9531
11.6919 1.1605 -2.4836 0.9531
11.6367 1.6295 -2.4838 0.9531
11.6021 1.8631 -2.4839 0.9531
11.5629 2.0959 -2.4840 0.9531
11.5190 2.3279 -2.4841 0.9531
11.4174 2.7892 -2.4844 0.9531
11.3597 3.0182 -2.4845 0.9531
11.2306 3.4726 -2.4848 0.9531
11.1593 3.6979 -2.4850 0.9531
11.0835 3.9216 -2.4852 0.9531
10.9186 4.3644 -2.4855 0.9531
10.8295 4.5833 -2.4857 0.9531
10.7361 4.8004 -2.4859 0.9531
10.6383 5.0155 -2.4861 0.9531
10.4300 5.4399 -2.4865 0.9530
10.2048 5.8556 -2.4870 0.9530
9.9632 6.2622 -2.4875 0.9530
9.4321 7.0448 -2.4885 0.9530
9.2897 7.2337 -2.4888 0.9530
9.1328 7.4111 -2.4861 0.9531
8.7377 7.6929 -2.4608 0.9535
8.4025 7.7030 -2.4095 0.9545
7.8489 7.7986 -2.3388 0.9558
7.6916 7.9557 -2.3391 0.9558
7.1731 8.0425 -2.2780 0.9569
7.2010 8.4079 -2.3400 0.9558
7.0315 8.5520 -2.3403 0.9557
6.8591 8.6927 -2.3406 0.9557
6.6840 8.8300 -2.3409 0.9557
6.5061 8.9637 -2.3412 0.9557
6.1423 9.2204 -2.3419 0.9557
5.9566 9.3433 -2.3422 0.9557
5.5780 9.5778 -2.3429 0.9557
4.9580 9.3589 -2.2388 0.9576
4.9929 9.9007 -2.3439 0.9557
3.8717 8.5118 -1.9766 0.9625
3.9776 10.3593 -2.3456 0.9556
3.7692 10.4387 -2.3460 0.9556
3.5592 10.5140 -2.3463 0.9556
2.9206 10.7142 -2.3474 0.9556
2.7051 10.7724 -2.3478 0.9556
2.2708 10.8757 -2.3485 0.9556
2.0521 10.9209 -2.3489 0.9556
1.6121 10.9979 -2.3496 0.9556
1.3910 11.0298 -2.3500 0.9556
1.1693 11.0572 -2.3503 0.9556
0.9470 11.0802 -2.3507 0.9556
0.7243 11.0987 -2.3510 0.9555
-0.1693 11.1279 -2.3525 0.9555
-0.4497 8.1073 -1.7164 0.9673
-0.6134 8.1086 -1.7189 0.9673
-1.5080 11.0368 -2.3546 0.9555
-1.7297 11.0059 -2.3550 0.9555
-2.1712 10.9308 -2.3557 0.9555
-2.6094 10.8379 -2.3564 0.9554
-3.0436 10.7273 -2.3571 0.9554
-3.6860 10.5289 -2.3580 0.9554
-4.1072 10.3751 -2.3587 0.9554
-4.3154 10.2919 -2.3590 0.9554
-4.5220 10.2045 -2.3593 0.9554
-4.7267 10.1129 -2.3596 0.9554
-4.9296 10.0172 -2.3599 0.9554
-5.1306 9.9174 -2.3602 0.9554
-5.3295 9.8135 -2.3605 0.9554
-5.5263 9.7057 -2.3608 0.9554
-5.7210 9.5938 -2.3611 0.9554
-6.1033 9.3584 -2.3617 0.9553
-6.2908 9.2350 -2.3620 0.9553
-6.4759 9.1078 -2.3622 0.9553
-6.6583 8.9768 -2.3625 0.9553
-6.8381 8.8422 -2.3628 0.9553
-7.3608 8.4168 -2.3635 0.9553
-7.5292 8.2680 -2.3638 0.9553
-7.8569 7.9604 -2.3642 0.9553
-8.0160 7.8017 -2.3645 0.9553
-8.6034 7.7251 -2.4441 0.9538
-9.3213 7.4056 -2.5165 0.9525
-9.4780 7.2243 -2.5191 0.9524
-9.6220 7.0329 -2.5193 0.9524
-9.8982 6.6416 -2.5196 0.9524
-10.0304 6.4418 -2.5198 0.9524
-10.6291 5.4048 -2.5206 0.9524
-10.7361 5.1903 -2.5207 0.9524
-10.9370 4.7552 -2.5209 0.9524
-11.1201 4.3122 -2.5211 0.9524
-11.2049 4.0881 -2.5212 0.9524
-11.2852 3.8622 -2.5213 0.9524
-11.3608 3.6348 -2.5214 0.9524
-11.4983 3.1755 -2.5215 0.9524
-11.5600 2.9439 -2.5215 0.9524
-11.6170 2.7110 -2.5216 0.9524
-11.7596 2.0062 -2.5217 0.9524
-11.7976 1.7695 -2.5217 0.9524
-11.9014 0.8165 -2.5216 0.9524
-11.9153 0.5772 -2.5216 0.9524
-3.3509 -10.1202 -2.5055 0.9571
-3.1464 -10.1841 -2.5051 0.9571
-2.9407 -10.2438 -2.5048 0.9572
-2.7339 -10.2994 -2.5044 0.9572
-2.5260 -10.3509 -2.5041 0.9572
-2.1075 -10.4411 -2.5034 0.9572
-1.6858 -10.5144 -2.5027 0.9572
-1.2616 -10.5707 -2.5020 0.9572
-1.0488 -10.5925 -2.5016 0.9572
-0.8356 -10.6099 -2.5013 0.9572
-0.4085 -10.6320 -2.5006 0.9572
-0.1948 -10.6365 -2.5003 0.9572
0.0190 -10.6369 -2.4999 0.9572
0.6596 -10.6120 -2.4989 0.9573
0.8726 -10.5952 -2.4985 0.9573
1.7196 -10.4852 -2.4972 0.9573
1.9297 -10.4472 -2.4969 0.9573
2.9659 -10.1943 -2.4952 0.9573
3.3723 -10.0644 -2.4946 0.9573
4.1675 -9.7563 -2.4934 0.9573
4.3622 -9.6695 -2.4931 0.9573
4.5551 -9.5787 -2.4928 0.9574
4.7461 -9.4842 -2.4925 0.9574
4.9352 -9.3858 -2.4922 0.9574
5.3071 -9.1779 -2.4917 0.9574
5.4899 -9.0684 -2.4914 0.9574
5.6704 -8.9553 -2.4911 0.9574
6.1977 -8.5947 -2.4904 0.9574
6.8652 -8.0662 -2.4894 0.9574
7.0252 -7.9259 -2.4892 0.9574
7.1824 -7.7824 -2.4889 0.9574
7.3367 -7.6358 -2.4887 0.9574
7.6363 -7.3336 -2.4883 0.9574
7.7815 -7.1781 -2.4881 0.9574
7.9235 -7.0198 -2.4879 0.9574
8.1980 -6.6947 -2.4875 0.9574
8.4591 -6.3590 -2.4872 0.9574
8.5846 -6.1873 -2.4870 0.9575
9.0516 -5.4767 -2.4864 0.9575
9.2633 -5.1081 -2.4862 0.9575
9.3636 -4.9207 -2.4860 0.9575
9.4602 -4.7313 -2.4859 0.9575
9.5529 -4.5400 -2.4858 0.9575
9.6418 -4.3470 -2.4857 0.9575
9.8852 -3.7578 -2.4854 0.9575
9.9584 -3.5583 -2.4854 0.9575
10.0276 -3.3573 -2.4853 0.9575
10.2110 -2.7469 -2.4851 0.9575
10.3981 -1.9180 -2.4850 0.9575
10.4344 -1.7087 -2.4850 0.9575
10.4946 -1.2880 -2.4850 0.9575
10.5534 -0.6534 -2.4850 0.9575
10.5645 -0.4412 -2.4851 0.9575
10.5713 -0.2288 -2.4851 0.9575
10.5740 -0.0164 -2.4851 0.9575
10.5724 0.1961 -2.4852 0.9575
10.5665 0.4085 -2.4852 0.9575
10.5565 0.6208 -2.4853 0.9575
10.5421 0.8328 -2.4854 0.9575
10.5008 1.2558 -2.4855 0.9575
10.4739 1.4666 -2.4856 0.9575
10.4073 1.8864 -2.4858 0.9575
10.3677 2.0953 -2.4859 0.9575
10.3240 2.3033 -2.4860 0.9575
10.1681 2.9216 -2.4864 0.9575
10.1079 3.1255 -2.4866 0.9575
10.0436 3.3282 -2.4867 0.9575
9.9030 3.7295 -2.4870 0.9575
9.6624 4.3203 -2.4875 0.9574
9.5743 4.5139 -2.4877 0.9574
9.4824 4.7057 -2.4879 0.9574
9.3867 4.8957 -2.4881 0.9574
9.2871 5.0838 -2.4883 0.9574
9.1839 5.2698 -2.4885 0.9574
8.8520 5.8151 -2.4892 0.9574
8.6128 6.1672 -2.4896 0.9574
8.4879 6.3396 -2.4899 0.9574
8.2280 6.6769 -2.4904 0.9574
8.0930 6.8416 -2.4906 0.9574
7.9547 7.0035 -2.4909 0.9574
7.6646 7.3154 -2.4901 0.9574
7.5095 7.4614 -2.4880 0.9574
6.8700 7.7026 -2.4257 0.9585
6.0139 7.9447 -2.3418 0.9599
5.1898 8.5132 -2.3433 0.9599
3.8717 8.5118 -2.1977 0.9623
3.9486 9.1651 -2.3454 0.9598
3.7641 9.2439 -2.3457 0.9598
3.3905 9.3902 -2.3464 0.9598
3.2016 9.4577 -2.3467 0.9598
2.2383 9.7378 -2.3483 0.9598
1.0516 9.9447 -2.3503 0.9597
0.4508 9.9942 -2.3512 0.9597
0.2499 10.0026 -2.3516 0.9597
-0.1523 10.0073 -2.3522 0.9597
-0.6128 8.1004 -1.9092 0.9672
-0.9559 9.9682 -2.3535 0.9597
-1.3560 9.9244 -2.3542 0.9597
-1.5554 9.8965 -2.3545 0.9597
-1.7541 9.8646 -2.3548 0.9597
-2.1497 9.7887 -2.3554 0.9597
-2.3462 9.7448 -2.3557 0.9597
-2.5419 9.6970 -2.3560 0.9596
-4.0654 9.1742 -2.3584 0.9596
-4.4318 9.0056 -2.3589 0.9596
-4.6124 8.9157 -2.3592 0.9596
-4.9680 8.7251 -2.3597 0.9596
-5.1429 8.6245 -2.3600 0.9596
-5.6550 8.3017 -2.3607 0.9596
-5.9852 8.0694 -2.3612 0.9596
-6.3059 7.8239 -2.3617 0.9596
-7.0306 7.7206 -2.4541 0.9580
-7.3125 7.7129 -2.4979 0.9573
-7.6622 7.4573 -2.5129 0.9570
-8.1103 6.9931 -2.5168 0.9570
-8.2498 6.8292 -2.5170 0.9569
-8.8963 5.9693 -2.5179 0.9569
-9.1300 5.6077 -2.5182 0.9569
-9.2414 5.4234 -2.5183 0.9569
-9.3490 5.2368 -2.5185 0.9569
-9.5528 4.8574 -2.5187 0.9569
-9.9939 3.8755 -2.5192 0.9569
-10.0700 3.6740 -2.5193 0.9569
-10.2739 3.0608 -2.5195 0.9569
-10.3890 2.6457 -2.5196 0.9569
-10.5683 1.8030 -2.5197 0.9569
-10.6025 1.5903 -2.5197 0.9569
-10.6790 0.9486 -2.5197 0.9569
-10.7164 0.3034 -2.5196 0.9569
-3.2256 -9.1233 -2.5055 0.9608
-3.0413 -9.1851 -2.5052 0.9608
-2.6691 -9.2976 -2.5045 0.9608
-2.2928 -9.3950 -2.5039 0.9608
-2.1032 -9.4380 -2.5036 0.9608
-1.9129 -9.4771 -2.5033 0.9608
-1.7219 -9.5124 -2.5030 0.9608
-1.3379 -9.5715 -2.5023 0.9609
-1.1452 -9.5953 -2.5020 0.9609
-0.9520 -9.6151 -2.5017 0.9609
-0.3709 -9.6514 -2.5007 0.9609
-0.1768 -9.6556 -2.5004 0.9609
0.0172 -9.6560 -2.5001 0.9609
0.2112 -9.6525 -2.4998 0.9609
0.9851 -9.5996 -2.4986 0.9609
1.5612 -9.5194 -2.4977 0.9609
1.9419 -9.4467 -2.4971 0.9609
2.3194 -9.3588 -2.4965 0.9609
2.5067 -9.3092 -2.4962 0.9609
2.6929 -9.2559 -2.4959 0.9610
2.8780 -9.1989 -2.4956 0.9610
3.7841 -8.8588 -2.4942 0.9610
3.9610 -8.7801 -2.4939 0.9610
4.1361 -8.6978 -2.4937 0.9610
4.4814 -8.5228 -2.4931 0.9610
4.6512 -8.4301 -2.4929 0.9610
4.9852 -8.2348 -2.4924 0.9610
5.1492 -8.1322 -2.4922 0.9610
5.3110 -8.0263 -2.4919 0.9610
5.4707 -7.9172 -2.4917 0.9610
5.9362 -7.5711 -2.4910 0.9610
6.0866 -7.4496 -2.4908 0.9610
6.2345 -7.3252 -2.4906 0.9610
6.3799 -7.1979 -2.4904 0.9610
6.5228 -7.0676 -2.4902 0.9610
6.8004 -6.7988 -2.4898 0.9610
7.0670 -6.5191 -2.4894 0.9611
7.5656 -5.9290 -2.4887 0.9611
7.7968 -5.6195 -2.4884 0.9611
8.0154 -5.3011 -2.4881 0.9611
8.3189 -4.8078 -2.4877 0.9611
8.4134 -4.6394 -2.4876 0.9611
8.5923 -4.2972 -2.4874 0.9611
8.6766 -4.1236 -2.4873 0.9611
8.9083 -3.5929 -2.4871 0.9611
9.0450 -3.2319 -2.4869 0.9611
9.1671 -2.8657 -2.4868 0.9611
9.2226 -2.6809 -2.4867 0.9611
9.2745 -2.4950 -2.4867 0.9611
9.3670 -2.1202 -2.4866 0.9611
9.4076 -1.9316 -2.4866 0.9611
9.4444 -1.7421 -2.4866 0.9611
9.4775 -1.5520 -2.4866 0.9611
9.5855 -0.5935 -2.4866 0.9611
9.6027 0.1781 -2.4867 0.9611
9.5974 0.3710 -2.4868 0.9611
9.5752 0.7564 -2.4869 0.9611
9.5376 1.1406 -2.4871 0.9611
9.3333 2.2801 -2.4876 0.9611
9.2861 2.4673 -2.4877 0.9611
9.1804 2.8387 -2.4880 0.9611
9.1220 3.0228 -2.4881 0.9611
9.0599 3.2056 -2.4883 0.9611
8.6118 4.2737 -2.4892 0.9611
8.4344 4.6170 -2.4896 0.9610
8.1428 5.1179 -2.4902 0.9610
7.9319 5.4419 -2.4906 0.9610
7.7081 5.7572 -2.4910 0.9610
7.5916 5.9114 -2.4912 0.9610
7.4719 6.0634 -2.4915 0.9610
7.3492 6.2128 -2.4917 0.9610
7.0950 6.5044 -2.4922 0.9610
6.8293 6.7855 -2.4926 0.9610
6.5525 7.0559 -2.4932 0.9610
4.2393 8.0022 -2.3447 0.9633
3.9153 8.1680 -2.3453 0.9633
3.7508 8.2460 -2.3455 0.9633
3.5848 8.3207 -2.3458 0.9633
3.4173 8.3921 -2.3461 0.9633
3.2483 8.4601 -2.3464 0.9632
3.0781 8.5247 -2.3467 0.9632
2.9065 8.5859 -2.3470 0.9632
2.7337 8.6437 -2.3473 0.9632
2.3848 8.7487 -2.3479 0.9632
2.2088 8.7960 -2.3481 0.9632
1.6755 8.9165 -2.3490 0.9632
1.4961 8.9494 -2.3493 0.9632
1.3162 8.9788 -2.3496 0.9632
0.5913 9.0601 -2.3508 0.9632
0.4091 9.0713 -2.3511 0.9632
0.2268 9.0789 -2.3514 0.9632
-0.1382 9.0829 -2.3520 0.9632
-0.3208 9.0794 -2.3523 0.9632
-0.6121 8.0922 -2.1012 0.9670
-0.8675 9.0470 -2.3532 0.9631
-1.0493 9.0288 -2.3535 0.9631
-1.4116 8.9816 -2.3540 0.9631
-1.5920 8.9525 -2.3543 0.9631
-1.7717 8.9197 -2.3546 0.9631
-1.9508 8.8834 -2.3549 0.9631
-3.1797 8.5291 -2.3568 0.9631
-3.5206 8.3963 -2.3573 0.9631
-3.6890 8.3247 -2.3576 0.9631
-3.8559 8.2498 -2.3578 0.9631
-4.1852 8.0899 -2.3583 0.9631
-4.6664 7.8255 -2.3590 0.9631
-4.8280 7.7384 -2.3616 0.9630
-5.0408 7.7293 -2.3892 0.9626
-5.4879 7.7184 -2.4521 0.9616
-5.7205 7.7124 -2.4862 0.9611
-6.0806 7.5444 -2.5089 0.9608
-6.2365 7.4272 -2.5111 0.9607
-6.3902 7.3070 -2.5133 0.9607
-6.6819 7.0477 -2.5145 0.9607
-6.8227 6.9126 -2.5147 0.9607
-7.0960 6.6338 -2.5151 0.9607
-8.0706 5.4152 -2.5164 0.9606
-8.2826 5.0871 -2.5167 0.9606
-8.4811 4.7507 -2.5170 0.9606
-8.6659 4.4065 -2.5172 0.9606
-8.7531 4.2316 -2.5173 0.9606
-8.9167 3.8768 -2.5175 0.9606
-8.9931 3.6970 -2.5176 0.9606
-9.1349 3.3328 -2.5177 0.9606
-9.3198 2.7766 -2.5179 0.9606
-9.4706 2.2101 -2.5180 0.9606
-9.5520 1.8279 -2.5181 0.9606
-9.5869 1.6355 -2.5181 0.9606
-9.6449 1.2490 -2.5181 0.9606
-9.6680 1.0550 -2.5181 0.9606
-9.6872 0.8605 -2.5181 0.9606
-2.9498 -8.3433 -2.5052 0.9639
-2.7813 -8.3999 -2.5049 0.9639
-2.6116 -8.4531 -2.5046 0.9639
-1.9235 -8.6316 -2.5035 0.9639
-1.7495 -8.6675 -2.5032 0.9639
-1.3995 -8.7288 -2.5026 0.9639
-0.8708 -8.7942 -2.5017 0.9639
-0.6938 -8.8089 -2.5015 0.9639
-0.5166 -8.8200 -2.5012 0.9639
-0.1617 -8.8316 -2.5006 0.9639
0.0158 -8.8321 -2.5003 0.9639
0.1932 -8.8290 -2.5000 0.9640
0.9011 -8.7810 -2.4989 0.9640
1.0773 -8.7601 -2.4986 0.9640
1.6026 -8.6764 -2.4978 0.9640
1.7764 -8.6415 -2.4975 0.9640
2.2931 -8.5160 -2.4967 0.9640
2.6329 -8.4152 -2.4962 0.9640
2.9682 -8.3009 -2.4956 0.9640
3.2987 -8.1733 -2.4951 0.9640
3.6237 -8.0325 -2.4946 0.9640
3.7840 -7.9573 -2.4944 0.9640
3.9428 -7.8789 -2.4942 0.9640
4.2554 -7.7127 -2.4937 0.9640
4.5610 -7.5341 -2.4932 0.9640
4.7111 -7.4403 -2.4930 0.9641
4.8592 -7.3434 -2.4928 0.9641
5.0054 -7.2437 -2.4926 0.9641
5.5690 -6.8162 -2.4918 0.9641
5.8375 -6.5859 -2.4914 0.9641
5.9682 -6.4668 -2.4912 0.9641
6.3456 -6.0941 -2.4907 0.9641
6.4664 -5.9650 -2.4905 0.9641
6.7000 -5.6996 -2.4902 0.9641
6.8127 -5.5635 -2.4900 0.9641
7.2358 -4.9974 -2.4895 0.9641
7.7822 -4.0896 -2.4888 0.9641
7.8625 -3.9323 -2.4887 0.9641
8.1518 -3.2878 -2.4883 0.9641
8.2160 -3.1232 -2.4883 0.9641
8.4870 -2.2831 -2.4880 0.9641
8.7228 -1.0706 -2.4879 0.9641
8.7426 -0.8951 -2.4879 0.9641
8.7589 -0.7192 -2.4879 0.9641
8.7808 -0.3667 -2.4880 0.9641
8.7824 0.3395 -2.4881 0.9641
8.7052 1.2189 -2.4884 0.9641
8.6498 1.5678 -2.4886 0.9641
8.4973 2.2577 -2.4890 0.9641
8.4506 2.4281 -2.4891 0.9641
8.4005 2.5975 -2.4892 0.9641
8.2902 2.9332 -2.4895 0.9641
8.0997 3.4280 -2.4899 0.9641
7.9564 3.7511 -2.4902 0.9641
7.7174 4.2245 -2.4907 0.9641
7.6315 4.3790 -2.4908 0.9641
7.4505 4.6828 -2.4912 0.9641
7.2574 4.9792 -2.4916 0.9641
7.1564 5.1244 -2.4918 0.9641
6.9459 5.4087 -2.4922 0.9641
6.8363 5.5476 -2.4924 0.9641
6.7241 5.6843 -2.4926 0.9641
6.6091 5.8188 -2.4928 0.9641
6.3710 6.0807 -2.4932 0.9640
5.9948 6.4553 -2.4939 0.9640
5.5965 6.8068 -2.4946 0.9640
5.4592 6.9185 -2.4949 0.9640
5.3196 7.0275 -2.4951 0.9640
4.7342 7.4259 -2.4931 0.9641
4.5818 7.5157 -2.4919 0.9641
4.4277 7.6026 -2.4906 0.9641
4.2720 7.6865 -2.4895 0.9641
4.0790 7.6996 -2.4667 0.9644
3.8853 7.7044 -2.4427 0.9648
3.1440 7.7210 -2.3600 0.9659
2.9713 7.7386 -2.3467 0.9661
2.3414 7.9558 -2.3478 0.9661
2.1813 8.0022 -2.3480 0.9661
1.8584 8.0852 -2.3486 0.9661
1.3684 8.1854 -2.3494 0.9661
1.2038 8.2121 -2.3496 0.9661
1.0386 8.2356 -2.3499 0.9661
0.8730 8.2558 -2.3502 0.9661
0.0405 8.3065 -2.3515 0.9661
-0.1264 8.3066 -2.3518 0.9661
-0.2933 8.3033 -2.3521 0.9660
-0.6115 8.0839 -2.2950 0.9669
-0.9596 8.2567 -2.3532 0.9660
-1.2908 8.2133 -2.3537 0.9660
-1.4558 8.1866 -2.3539 0.9660
-1.6202 8.1566 -2.3542 0.9660
-1.9470 8.0867 -2.3547 0.9660
-2.1093 8.0468 -2.3550 0.9660
-2.2708 8.0036 -2.3552 0.9660
-2.4315 7.9572 -2.3555 0.9660
-2.5912 7.9076 -2.3557 0.9660
-2.9074 7.7987 -2.3562 0.9660
-3.6094 7.7225 -2.4132 0.9652
-3.7985 7.7186 -2.4354 0.9649
-3.9910 7.7146 -2.4589 0.9645
-4.3761 7.6855 -2.5037 0.9639
-5.1421 7.2320 -2.5121 0.9638
-5.2868 7.1278 -2.5123 0.9638
-5.4295 7.0207 -2.5125 0.9638
-5.7081 6.7979 -2.5129 0.9638
-5.8440 6.6824 -2.5131 0.9638
-6.2374 6.3195 -2.5137 0.9638
-6.3635 6.1934 -2.5138 0.9638
-6.4871 6.0647 -2.5140 0.9638
-6.8421 5.6639 -2.5145 0.9637
-7.1722 5.2423 -2.5149 0.9637
-7.2765 5.0974 -2.5151 0.9637
-7.3778 4.9504 -2.5152 0.9637
-7.4762 4.8014 -2.5153 0.9637
-7.5715 4.6504 -2.5155 0.9637
-7.7530 4.3428 -2.5157 0.9637
-8.0779 3.7068 -2.5161 0.9637
-8.2208 3.3795 -2.5162 0.9637
-8.2873 3.2137 -2.5163 0.9637
-8.4665 2.7088 -2.5165 0.9637
-8.5194 2.5381 -2.5165 0.9637
-8.5688 2.3665 -2.5166 0.9637
-8.6148 2.1938 -2.5166 0.9637
-8.6962 1.8460 -2.5167 0.9637
-8.7917 1.3187 -2.5167 0.9637
-8.8165 1.1417 -2.5167 0.9637
-8.8376 0.9643 -2.5167 0.9637
-8.8552 0.7866 -2.5167 0.9637
-8.8862 0.2516 -2.5166 0.9637
-2.5596 -7.7306 -2.5047 0.9665
-2.4035 -7.7796 -2.5044 0.9665
-1.7704 -7.9442 -2.5034 0.9665
-1.4494 -8.0072 -2.5028 0.9665
-0.6386 -8.1079 -2.5015 0.9665
-0.4755 -8.1182 -2.5012 0.9665
-0.3122 -8.1252 -2.5010 0.9665
0.3411 -8.1206 -2.4999 0.9666
0.8295 -8.0828 -2.4991 0.9666
0.9916 -8.0637 -2.4989 0.9666
1.3146 -8.0157 -2.4984 0.9666
1.4752 -7.9868 -2.4981 0.9666
1.6352 -7.9548 -2.4979 0.9666
1.9531 -7.8811 -2.4974 0.9666
2.2678 -7.7947 -2.4969 0.9666
2.7325 -7.6417 -2.4962 0.9666
3.1871 -7.4611 -2.4955 0.9666
3.4837 -7.3257 -2.4950 0.9666
3.6298 -7.2536 -2.4948 0.9666
3.7745 -7.1785 -2.4946 0.9666
4.0592 -7.0199 -2.4942 0.9666
4.4737 -6.7609 -2.4935 0.9666
4.6083 -6.6691 -2.4933 0.9666
4.7410 -6.5746 -2.4931 0.9666
5.0006 -6.3779 -2.4928 0.9667
5.2521 -6.1709 -2.4924 0.9667
5.3746 -6.0637 -2.4922 0.9667
5.6132 -5.8420 -2.4919 0.9667
5.7291 -5.7277 -2.4917 0.9667
5.8426 -5.6111 -2.4916 0.9667
5.9538 -5.4922 -2.4914 0.9667
6.1690 -5.2479 -2.4911 0.9667
6.3741 -4.9952 -2.4908 0.9667
6.4729 -4.8659 -2.4907 0.9667
6.5690 -4.7346 -2.4906 0.9667
6.7533 -4.4664 -2.4904 0.9667
7.0092 -4.0509 -2.4900 0.9667
7.1658 -3.7657 -2.4898 0.9667
7.3789 -3.3267 -2.4896 0.9667
7.4440 -3.1777 -2.4895 0.9667
7.5062 -3.0274 -2.4894 0.9667
7.5653 -2.8759 -2.4894 0.9667
7.7712 -2.2589 -2.4892 0.9667
7.8149 -2.1023 -2.4891 0.9667
7.8554 -1.9448 -2.4891 0.9667
7.8929 -1.7866 -2.4891 0.9667
7.9271 -1.6276 -2.4891 0.9667
7.9581 -1.4680 -2.4890 0.9667
8.0321 -0.9858 -2.4890 0.9667
8.0770 -0.5001 -2.4891 0.9667
8.0855 -0.3377 -2.4891 0.9667
8.0927 -0.0125 -2.4891 0.9667
8.0914 0.1501 -2.4892 0.9667
8.0869 0.3127 -2.4892 0.9667
8.0792 0.4751 -2.4893 0.9667
8.0682 0.6374 -2.4893 0.9667
8.0539 0.7994 -2.4894 0.9667
8.0364 0.9611 -2.4894 0.9667
8.0157 1.1224 -2.4895 0.9667
7.9343 1.6035 -2.4897 0.9667
7.8640 1.9211 -2.4899 0.9667
7.7811 2.2357 -2.4901 0.9667
7.5779 2.8538 -2.4906 0.9667
7.4578 3.1563 -2.4909 0.9667
7.3933 3.3057 -2.4910 0.9667
7.1820 3.7458 -2.4914 0.9667
7.1057 3.8896 -2.4916 0.9667
7.0265 4.0319 -2.4917 0.9667
6.8598 4.3116 -2.4921 0.9667
6.4933 4.8498 -2.4928 0.9667
6.3950 4.9797 -2.4930 0.9666
6.2941 5.1075 -2.4932 0.9666
6.1907 5.2334 -2.4933 0.9666
5.9763 5.4788 -2.4937 0.9666
5.8655 5.5983 -2.4940 0.9666
5.6368 5.8304 -2.4944 0.9666
4.8972 6.4695 -2.4957 0.9666
4.7666 6.5672 -2.4959 0.9666
4.4998 6.7547 -2.4964 0.9666
4.3635 6.8445 -2.4966 0.9666
4.2255 6.9314 -2.4969 0.9666
4.0858 7.0156 -2.4971 0.9666
3.8014 7.1756 -2.4976 0.9666
3.6567 7.2510 -2.4978 0.9666
3.5089 7.3203 -2.4969 0.9666
3.3600 7.3868 -2.4960 0.9666
3.2098 7.4503 -2.4952 0.9666
2.7527 7.6236 -2.4930 0.9666
2.5983 7.6755 -2.4924 0.9667
1.4495 7.7138 -2.4141 0.9677
1.2899 7.7156 -2.4061 0.9678
1.1312 7.7171 -2.3990 0.9679
0.9734 7.7185 -2.3929 0.9680
0.8164 7.7198 -2.3877 0.9680
0.5039 7.7217 -2.3801 0.9681
0.3483 7.7224 -2.3777 0.9682
0.1929 7.7229 -2.3762 0.9682
-0.1175 7.7235 -2.3759 0.9682
-0.2728 7.7236 -2.3771 0.9682
-0.4284 7.7234 -2.3792 0.9681
-0.5842 7.7231 -2.3823 0.9681
-0.8974 7.7220 -2.3911 0.9680
-1.0550 7.7212 -2.3969 0.9679
-1.2133 7.7202 -2.4037 0.9678
-1.5330 7.7177 -2.4202 0.9676
-1.6945 7.7161 -2.4299 0.9675
-2.0217 7.7125 -2.4524 0.9672
-2.1877 7.7104 -2.4652 0.9670
-2.5250 7.7056 -2.4941 0.9666
-2.6868 7.6749 -2.5011 0.9665
-2.9958 7.5677 -2.5034 0.9665
-3.6012 7.3178 -2.5086 0.9664
-3.7494 7.2476 -2.5098 0.9664
-4.1803 7.0103 -2.5105 0.9664
-4.4594 6.8378 -2.5109 0.9664
-4.9956 6.4597 -2.5117 0.9664
-5.4997 6.0394 -2.5124 0.9664
-5.7387 5.8144 -2.5127 0.9664
-5.9685 5.5798 -2.5131 0.9664
-6.0798 5.4591 -2.5132 0.9664
-6.1886 5.3361 -2.5134 0.9664
-6.2950 5.2110 -2.5135 0.9664
-6.5000 4.9544 -2.5138 0.9664
-6.5985 4.8230 -2.5139 0.9664
-6.6945 4.6897 -2.5141 0.9664
-6.7877 4.5544 -2.5142 0.9664
-6.9658 4.2784 -2.5144 0.9664
-7.2118 3.8514 -2.5147 0.9664
-7.3613 3.5588 -2.5149 0.9664
-7.4988 3.2603 -2.5150 0.9664
-7.5630 3.1091 -2.5151 0.9664
-7.7890 2.4920 -2.5153 0.9664
-7.8831 2.1771 -2.5154 0.9664
-7.9644 1.8586 -2.5155 0.9664
-8.0621 1.3754 -2.5155 0.9664
-8.1303 0.8872 -2.5156 0.9664
-8.1465 0.7236 -2.5155 0.9664
-8.1593 0.5598 -2.5155 0.9664
-8.1751 0.2315 -2.5155 0.9664
-2.2239 -7.1981 -2.5043 0.9687
-1.9325 -7.2802 -2.5038 0.9687
-1.7856 -7.3169 -2.5035 0.9688
-1.6381 -7.3505 -2.5033 0.9688
-1.4899 -7.3813 -2.5030 0.9688
-1.3411 -7.4090 -2.5028 0.9688
-1.0421 -7.4554 -2.5023 0.9688
-0.5909 -7.5024 -2.5016 0.9688
-0.4400 -7.5120 -2.5013 0.9688
0.1646 -7.5202 -2.5003 0.9688
0.3156 -7.5146 -2.5001 0.9688
0.4665 -7.5060 -2.4999 0.9688
0.6172 -7.4944 -2.4996 0.9688
0.7676 -7.4798 -2.4994 0.9688
1.0673 -7.4415 -2.4989 0.9688
1.3652 -7.3912 -2.4984 0.9688
1.8075 -7.2935 -2.4977 0.9688
2.0988 -7.2137 -2.4973 0.9688
2.6703 -7.0194 -2.4964 0.9688
2.9496 -6.9052 -2.4960 0.9688
3.0875 -6.8440 -2.4958 0.9688
3.2242 -6.7800 -2.4956 0.9688
3.4934 -6.6439 -2.4951 0.9689
3.6259 -6.5718 -2.4950 0.9689
3.8865 -6.4198 -2.4946 0.9689
4.0144 -6.3400 -2.4944 0.9689
4.5092 -5.9954 -2.4936 0.9689
4.7458 -5.8086 -2.4933 0.9689
4.8612 -5.7117 -2.4931 0.9689
4.9747 -5.6125 -2.4930 0.9689
5.4079 -5.1936 -2.4924 0.9689
5.5109 -5.0836 -2.4922 0.9689
5.8062 -4.7416 -2.4918 0.9689
5.9001 -4.6237 -2.4917 0.9689
6.2511 -4.1343 -2.4912 0.9689
6.3327 -4.0076 -2.4911 0.9689
6.4117 -3.8794 -2.4910 0.9689
6.5619 -3.6184 -2.4908 0.9689
6.6330 -3.4857 -2.4908 0.9689
6.7015 -3.3516 -2.4907 0.9689
6.7673 -3.2161 -2.4906 0.9689
6.8303 -3.0794 -2.4905 0.9689
7.0029 -2.6621 -2.4903 0.9689
7.1040 -2.3785 -2.4902 0.9689
7.1502 -2.2352 -2.4902 0.9689
7.3062 -1.6538 -2.4901 0.9689
7.3379 -1.5066 -2.4900 0.9689
7.4519 -0.7630 -2.4900 0.9689
7.4658 -0.6131 -2.4900 0.9689
7.4912 -0.0116 -2.4901 0.9689
7.4786 0.4398 -2.4902 0.9689
7.4390 0.8896 -2.4904 0.9689
7.3444 1.4843 -2.4907 0.9689
7.2793 1.7783 -2.4908 0.9689
7.2424 1.9243 -2.4909 0.9689
7.2025 2.0695 -2.4910 0.9689
7.1598 2.2139 -2.4911 0.9689
7.1141 2.3574 -2.4912 0.9689
7.0656 2.5000 -2.4913 0.9689
6.9601 2.7821 -2.4916 0.9689
6.9032 2.9216 -2.4917 0.9689
6.8434 3.0599 -2.4918 0.9689
6.6477 3.4671 -2.4922 0.9689
6.5771 3.6003 -2.4924 0.9689
6.0100 4.4888 -2.4935 0.9689
5.9190 4.6090 -2.4937 0.9689
5.8256 4.7274 -2.4938 0.9689
5.7298 4.8438 -2.4940 0.9689
5.6317 4.9583 -2.4942 0.9689
5.5314 5.0709 -2.4944 0.9689
5.4288 5.1814 -2.4946 0.9689
5.2170 5.3962 -2.4950 0.9689
5.1079 5.5004 -2.4952 0.9689
4.9968 5.6024 -2.4954 0.9689
4.7684 5.7996 -2.4958 0.9688
4.0383 6.3343 -2.4971 0.9688
3.9106 6.4148 -2.4973 0.9688
3.6503 6.5679 -2.4977 0.9688
3.3841 6.7105 -2.4982 0.9688
3.2489 6.7778 -2.4984 0.9688
2.9745 6.9041 -2.4989 0.9688
2.6952 7.0194 -2.4994 0.9688
2.4114 7.1234 -2.4999 0.9688
1.9783 7.2574 -2.5004 0.9688
1.8318 7.2946 -2.5001 0.9688
1.6846 7.3290 -2.4997 0.9688
0.9406 7.4582 -2.4988 0.9688
0.7905 7.4755 -2.4987 0.9688
0.6402 7.4898 -2.4987 0.9688
0.4895 7.5014 -2.4988 0.9688
0.3387 7.5100 -2.4989 0.9688
0.1877 7.5157 -2.4991 0.9688
-0.2655 7.5157 -2.4998 0.9688
-0.5674 7.5011 -2.5005 0.9688
-0.7182 7.4895 -2.5010 0.9688
-0.8687 7.4750 -2.5015 0.9688
-1.0189 7.4577 -2.5020 0.9688
-1.1689 7.4374 -2.5026 0.9688
-1.4675 7.3883 -2.5039 0.9687
-1.6162 7.3595 -2.5046 0.9687
-1.9118 7.2932 -2.5062 0.9687
-2.0587 7.2558 -2.5071 0.9687
-2.2043 7.2137 -2.5073 0.9687
-2.3490 7.1686 -2.5076 0.9687
-2.4928 7.1206 -2.5078 0.9687
-2.6356 7.0697 -2.5080 0.9687
-2.9181 6.9593 -2.5084 0.9687
-3.1959 6.8376 -2.5089 0.9687
-3.9970 6.4066 -2.5101 0.9687
-4.1252 6.3255 -2.5103 0.9687
-4.2518 6.2417 -2.5104 0.9687
-4.3767 6.1555 -2.5106 0.9687
-4.4998 6.0667 -2.5108 0.9687
-4.6212 5.9755 -2.5110 0.9687
-4.8582 5.7858 -2.5113 0.9687
-5.3085 5.3784 -2.5120 0.9686
-5.6238 5.0497 -2.5124 0.9686
-5.7245 4.9359 -2.5125 0.9686
-5.8228 4.8201 -2.5127 0.9686
-6.0124 4.5827 -2.5129 0.9686
-6.1036 4.4612 -2.5130 0.9686
-6.1923 4.3379 -2.5132 0.9686
-6.2785 4.2128 -2.5133 0.9686
-6.3621 4.0859 -2.5134 0.9686
-6.4432 3.9574 -2.5135 0.9686
-6.5217 3.8273 -2.5136 0.9686
-6.5975 3.6956 -2.5137 0.9686
-6.6707 3.5624 -2.5138 0.9686
-6.7412 3.4278 -2.5139 0.9686
-6.8089 3.2917 -2.5139 0.9686
-6.8739 3.1543 -2.5140 0.9686
-6.9361 3.0157 -2.5141 0.9686
-7.0520 2.7347 -2.5142 0.9686
-7.2914 2.0137 -2.5144 0.9686
-7.3305 1.8668 -2.5145 0.9686
-7.3666 1.7191 -2.5145 0.9686
-7.4299 1.4218 -2.5145 0.9686
-7.4570 1.2722 -2.5145 0.9686
-7.4810 1.1221 -2.5146 0.9686
-7.5615 0.2141 -2.5145 0.9686
-2.2012 -6.6482 -2.5044 0.9707
-2.0670 -6.6904 -2.5041 0.9707
-1.6597 -6.8010 -2.5034 0.9707
-1.5226 -6.8323 -2.5032 0.9707
-1.3848 -6.8609 -2.5030 0.9707
-1.1079 -6.9098 -2.5025 0.9707
-0.9687 -6.9300 -2.5023 0.9707
-0.6893 -6.9620 -2.5018 0.9707
-0.4090 -6.9828 -2.5014 0.9707
-0.2686 -6.9890 -2.5012 0.9707
-0.1280 -6.9923 -2.5009 0.9707
0.0125 -6.9929 -2.5007 0.9707
0.2934 -6.9854 -2.5002 0.9707
0.8530 -6.9368 -2.4994 0.9707
1.2691 -6.8710 -2.4987 0.9708
1.4068 -6.8436 -2.4985 0.9708
1.5439 -6.8133 -2.4983 0.9708
1.8161 -6.7446 -2.4978 0.9708
1.9511 -6.7062 -2.4976 0.9708
2.0853 -6.6651 -2.4974 0.9708
2.2186 -6.6213 -2.4972 0.9708
2.3511 -6.5749 -2.4970 0.9708
2.8705 -6.3628 -2.4962 0.9708
3.2479 -6.1769 -2.4956 0.9708
3.3711 -6.1100 -2.4955 0.9708
3.4929 -6.0405 -2.4953 0.9708
3.7323 -5.8945 -2.4949 0.9708
3.8497 -5.8179 -2.4948 0.9708
3.9656 -5.7390 -2.4946 0.9708
4.1924 -5.5742 -2.4943 0.9708
4.6253 -5.2183 -2.4936 0.9708
4.7290 -5.1240 -2.4935 0.9708
4.8307 -5.0276 -2.4933 0.9708
4.9305 -4.9293 -2.4932 0.9708
5.1240 -4.7267 -2.4929 0.9708
5.2176 -4.6225 -2.4928 0.9708
5.3092 -4.5165 -2.4927 0.9708
5.3986 -4.4087 -2.4926 0.9708
5.5709 -4.1879 -2.4923 0.9708
5.8124 -3.8441 -2.4920 0.9708
5.8882 -3.7264 -2.4919 0.9708
5.9617 -3.6072 -2.4918 0.9708
6.0327 -3.4865 -2.4917 0.9708
6.1676 -3.2411 -2.4916 0.9708
6.2312 -3.1164 -2.4915 0.9708
6.2924 -2.9905 -2.4914 0.9708
6.4072 -2.7351 -2.4913 0.9708
6.5116 -2.4753 -2.4912 0.9708
6.5599 -2.3439 -2.4911 0.9708
6.6889 -1.9443 -2.4910 0.9708
6.7265 -1.8095 -2.4910 0.9708
6.7614 -1.6740 -2.4909 0.9708
6.7936 -1.5378 -2.4909 0.9708
6.8499 -1.2635 -2.4909 0.9708
6.9292 -0.7094 -2.4909 0.9708
6.9594 -0.2906 -2.4909 0.9708
6.9656 -0.0108 -2.4910 0.9708
6.9606 0.2691 -2.4910 0.9708
6.9444 0.5486 -2.4911 0.9708
6.9322 0.6880 -2.4912 0.9708
6.8786 1.1045 -2.4913 0.9708
6.8290 1.3801 -2.4915 0.9708
6.7685 1.6535 -2.4916 0.9708
6.7341 1.7892 -2.4917 0.9708
6.6573 2.0585 -2.4919 0.9708
6.5220 2.4562 -2.4922 0.9708
6.4716 2.5868 -2.4923 0.9708
6.4186 2.7165 -2.4924 0.9708
6.3049 2.9725 -2.4927 0.9708
6.1152 3.3475 -2.4931 0.9708
6.0471 3.4699 -2.4932 0.9708
5.9765 3.5909 -2.4933 0.9708
5.9034 3.7105 -2.4935 0.9708
5.5878 4.1735 -2.4941 0.9708
5.4163 4.3952 -2.4944 0.9708
5.2360 4.6100 -2.4948 0.9708
5.1427 4.7146 -2.4949 0.9708
5.0473 4.8173 -2.4951 0.9708
4.9498 4.9181 -2.4953 0.9708
4.8504 5.0169 -2.4955 0.9708
4.7489 5.1138 -2.4957 0.9708
4.4332 5.3918 -2.4962 0.9708
4.3243 5.4803 -2.4964 0.9708
4.2136 5.5665 -2.4966 0.9708
3.8715 5.8117 -2.4972 0.9708
3.5152 6.0359 -2.4978 0.9708
3.2704 6.1733 -2.4983 0.9708
3.0202 6.3008 -2.4987 0.9708
2.8933 6.3608 -2.4989 0.9708
2.6358 6.4730 -2.4994 0.9707
2.3740 6.5749 -2.4998 0.9707
1.8391 6.7467 -2.5007 0.9707
1.7033 6.7829 -2.5009 0.9707
1.5668 6.8164 -2.5012 0.9707
1.2919 6.8751 -2.5016 0.9707
1.1536 6.9003 -2.5018 0.9707
1.0148 6.9227 -2.5021 0.9707
0.5960 6.9732 -2.5028 0.9707
0.3154 6.9928 -2.5032 0.9707
0.1748 6.9983 -2.5034 0.9707
-0.1065 7.0010 -2.5039 0.9707
-0.3878 6.9924 -2.5044 0.9707
-0.6686 6.9724 -2.5048 0.9707
-0.8086 6.9581 -2.5050 0.9707
-0.9484 6.9411 -2.5053 0.9707
-1.0878 6.9212 -2.5055 0.9707
-1.3652 6.8731 -2.5059 0.9707
-1.5032 6.8449 -2.5061 0.9707
-1.7773 6.7801 -2.5066 0.9707
-1.9133 6.7436 -2.5068 0.9707
-2.0486 6.7044 -2.5070 0.9707
-2.1831 6.6624 -2.5072 0.9707
-2.4495 6.5704 -2.5076 0.9707
-2.5812 6.5204 -2.5078 0.9706
-2.8416 6.4124 -2.5082 0.9706
-2.9701 6.3545 -2.5084 0.9706
-3.0974 6.2940 -2.5086 0.9706
-3.2235 6.2310 -2.5088 0.9706
-3.5939 6.0268 -2.5093 0.9706
-3.8337 5.8783 -2.5097 0.9706
-3.9513 5.8005 -2.5099 0.9706
-4.1817 5.6379 -2.5102 0.9706
-4.2944 5.5530 -2.5104 0.9706
-4.4054 5.4660 -2.5105 0.9706
-4.5147 5.3767 -2.5107 0.9706
-4.7276 5.1916 -2.5110 0.9706
-4.9330 4.9980 -2.5113 0.9706
-5.0327 4.8981 -2.5114 0.9706
-5.3195 4.5867 -2.5118 0.9706
-5.5001 4.3697 -2.5121 0.9706
-5.5870 4.2585 -2.5122 0.9706
-5.6717 4.1456 -2.5123 0.9706
-5.7541 4.0309 -2.5124 0.9706
-5.8342 3.9147 -2.5125 0.9706
-6.0602 3.5564 -2.5128 0.9706
-6.2641 3.1852 -2.5130 0.9706
-6.4451 2.8022 -2.5132 0.9706
