ply
format ascii 1.0
element vertex 1526
property float32 x
property float32 y
property float32 z
property float32 I
end_header
27.5703 -40.0140 4.1135 0.8228
30.0351 -40.0476 4.2376 0.8180
32.6793 -40.1098 4.3797 0.8125
33.5597 -39.5411 4.3903 0.8121
34.5873 -39.1308 4.4210 0.8109
37.2465 -40.4711 4.6561 0.8019
38.2404 -39.9116 4.6791 0.8010
38.8882 -38.9889 4.6616 0.8017
42.1432 -40.5881 4.9530 0.7907
49.9498 -39.2621 5.3783 0.7749
53.2214 -40.1308 5.6426 0.7652
54.4108 -39.3385 5.6838 0.7637
57.4421 -20.6278 5.1667 0.7827
38.9460 -13.1088 3.4786 0.8479
45.9248 59.8784 4.6794 0.7390
40.5265 60.0055 4.4901 0.7481
6.5894 10.1922 0.7526 0.9525
6.4344 10.4051 0.7586 0.9522
6.9165 12.2595 0.8729 0.9451
27.8981 60.3029 4.1202 0.7662
25.0370 60.3703 4.0527 0.7696
22.2636 60.4357 3.9938 0.7725
3.5985 10.4081 0.6829 0.9568
3.3915 10.4870 0.6835 0.9568
3.1619 10.4924 0.6795 0.9570
2.9568 10.5764 0.6810 0.9569
13.0764 60.6520 3.8475 0.7798
-0.7516 26.1758 1.6239 0.9004
-0.9231 18.9041 1.1736 0.9270
-1.4674 16.4496 1.0241 0.9360
-2.1383 16.4654 1.0296 0.9356
-2.8176 16.4814 1.0368 0.9352
-3.1611 16.4895 1.0411 0.9349
-3.5076 16.4977 1.0459 0.9346
-4.2110 16.5142 1.0568 0.9340
-4.5685 16.5227 1.0630 0.9336
-5.2969 16.5398 1.0770 0.9328
-5.6686 16.5486 1.0847 0.9323
-6.0459 16.5575 1.0930 0.9318
-6.4292 16.5665 1.1019 0.9313
-7.6198 16.5945 1.1323 0.9294
-8.0319 16.6042 1.1438 0.9287
-8.4526 16.6141 1.1559 0.9280
-10.7084 16.6673 1.2285 0.9237
-11.6963 16.6905 1.2638 0.9216
-12.7056 16.6643 1.2995 0.9194
-13.2535 16.6772 1.3210 0.9182
-14.4068 16.7043 1.3679 0.9154
-16.9891 16.7651 1.4801 0.9088
-17.7037 16.7820 1.5127 0.9069
-18.5073 16.8509 1.5521 0.9046
-19.2922 16.8694 1.5892 0.9024
-20.9819 16.9092 1.6710 0.8976
-22.8583 16.9534 1.7648 0.8922
-30.0719 17.1233 2.1459 0.8705
-42.1973 22.9176 2.9777 0.8249
-48.9191 24.0763 3.3810 0.8037
-32.2680 13.5325 2.1698 0.8692
-32.3205 12.7973 2.1556 0.8700
-32.3379 12.0586 2.1402 0.8708
-32.3551 11.3301 2.1258 0.8716
-33.6095 11.0167 2.1932 0.8678
-53.7522 -11.2060 3.4048 0.8025
-93.5012 -27.4829 6.0433 0.6767
-93.5499 -29.5512 6.0836 0.6749
-93.5668 -31.6372 6.1248 0.6731
-93.6138 -33.7631 6.1710 0.6711
-38.2328 -14.6635 2.5393 0.8487
-34.2155 -14.7252 2.3099 0.8613
-32.7390 -14.8761 2.2299 0.8658
-32.6648 -15.6414 2.2458 0.8649
-32.7029 -17.3078 2.2950 0.8622
-64.4571 -35.7880 4.5718 0.7442
-59.6908 -38.0167 4.3884 0.7531
-31.5706 -21.0103 2.3516 0.8590
-30.7285 -21.3526 2.3204 0.8607
-27.8685 -21.0741 2.1666 0.8693
-24.9459 -21.3430 2.0358 0.8767
-23.9801 -21.3657 1.9916 0.8792
-21.9652 -21.2131 1.8936 0.8848
-20.3062 -21.2522 1.8227 0.8889
-19.5218 -21.2707 1.7903 0.8907
-18.7645 -21.2885 1.7597 0.8925
-18.0323 -21.3057 1.7308 0.8942
-16.6364 -21.3386 1.6779 0.8972
-15.3214 -21.3696 1.6305 0.9000
-14.0766 -21.3989 1.5883 0.9024
-13.4775 -21.4130 1.5689 0.9036
-12.3211 -21.4402 1.5334 0.9056
-9.1236 -21.5155 1.4492 0.9106
-8.1104 -21.4894 1.4243 0.9121
-7.6426 -21.5504 1.4179 0.9124
-7.1624 -21.5617 1.4089 0.9130
-6.6880 -21.5729 1.4006 0.9135
-6.2191 -21.5839 1.3929 0.9139
-5.2834 -21.5560 1.3763 0.9149
-3.4858 -21.5983 1.3566 0.9161
-3.0434 -21.6087 1.3532 0.9163
-2.6092 -21.6690 1.3534 0.9162
-1.2943 -21.6999 1.3480 0.9166
-0.8557 -21.6603 1.3442 0.9168
0.0149 -21.6808 1.3444 0.9168
1.3250 -21.7116 1.3488 0.9165
1.7642 -21.7219 1.3514 0.9164
1.8060 -17.7976 1.1093 0.9308
2.0179 -16.5658 1.0348 0.9353
2.9187 -17.9271 1.1263 0.9298
9.7723 -39.6343 2.5313 0.8491
5.8215 -17.4447 1.1404 0.9289
5.5247 -15.5104 1.0210 0.9361
14.6077 -38.5436 2.5560 0.8477
16.0050 -39.7991 2.6600 0.8420
16.9366 -39.7878 2.6815 0.8409
21.9471 -39.9003 2.8238 0.8332
22.9734 -39.8492 2.8523 0.8317
24.3948 -38.6400 2.8336 0.8327
28.7754 -40.0180 3.0565 0.8207
31.3355 -40.0783 3.1547 0.8156
32.6792 -40.1098 3.2082 0.8127
38.8374 -38.9380 3.4103 0.8022
43.8958 -40.6085 3.7081 0.7869
49.9987 -39.3006 3.9436 0.7750
54.7527 -39.5857 4.1897 0.7628
38.9428 -13.1077 2.5480 0.8482
8.3792 10.9251 0.5429 0.9464
7.6816 10.8953 0.5257 0.9480
6.9917 10.3522 0.4926 0.9512
7.3006 12.3537 0.5658 0.9442
6.8944 12.8152 0.5738 0.9434
29.3658 60.2684 2.6435 0.7646
25.0370 60.3704 2.5771 0.7698
3.8592 10.4760 0.4402 0.9563
3.5964 10.4022 0.4340 0.9569
3.3061 10.9708 0.4518 0.9552
3.3290 12.9017 0.5254 0.9481
14.3500 60.6221 2.4564 0.7793
13.0764 60.6521 2.4465 0.7801
11.8125 60.6818 2.4377 0.7808
11.6706 87.9028 3.4965 0.7012
-1.1343 16.4418 0.6499 0.9362
-1.8019 16.4575 0.6528 0.9359
-2.5069 16.6742 0.6649 0.9347
-2.8519 16.6823 0.6673 0.9345
-4.2623 16.7155 0.6802 0.9333
-4.9767 16.6868 0.6866 0.9327
-5.6795 16.5801 0.6911 0.9322
-6.8190 16.5757 0.7067 0.9308
-7.3036 16.7871 0.7219 0.9293
-8.1298 16.8066 0.7362 0.9280
-8.5557 16.8166 0.7440 0.9273
-9.8919 16.8481 0.7704 0.9248
-11.6963 16.6905 0.8036 0.9217
-12.7445 16.7152 0.8288 0.9193
-13.2941 16.7282 0.8425 0.9180
-13.8624 16.7416 0.8571 0.9167
-15.6949 16.7847 0.9061 0.9121
-16.3542 16.8002 0.9245 0.9104
-17.0411 16.8164 0.9440 0.9086
-17.7579 16.8333 0.9648 0.9067
-19.2922 16.8694 1.0105 0.9025
-20.1159 16.8888 1.0357 0.9002
-20.9820 16.9092 1.0626 0.8977
-23.8786 16.9774 1.1553 0.8893
-24.9614 17.0029 1.1909 0.8861
-26.1136 17.0301 1.2293 0.8827
-27.3431 17.0590 1.2708 0.8790
-30.0719 17.1233 1.3645 0.8706
-42.1974 22.9177 1.8934 0.8251
-44.3965 22.9695 1.9710 0.8186
-48.9193 24.0764 2.1499 0.8039
-50.7979 23.7457 2.2110 0.7989
-36.0573 11.0220 1.4867 0.8599
-39.1507 11.1128 1.6047 0.8497
-53.7479 -11.2051 2.1649 0.8027
-34.2100 -14.7228 1.4686 0.8615
-33.9629 -17.1099 1.4995 0.8588
-39.0869 -20.6859 1.7438 0.8378
-37.3314 -20.7272 1.6837 0.8429
-35.6922 -20.7658 1.6282 0.8476
-34.8742 -22.2112 1.6303 0.8475
-31.5367 -20.9877 1.4937 0.8593
-28.9595 -20.9984 1.4105 0.8666
-27.8685 -21.0741 1.3777 0.8695
-26.7677 -21.1000 1.3440 0.8725
-24.6614 -21.0996 1.2798 0.8782
-22.8447 -21.1924 1.2287 0.8827
-21.9651 -21.2131 1.2041 0.8849
-19.5217 -21.2706 1.1384 0.8909
-18.7644 -21.2885 1.1190 0.8926
-17.3234 -21.3224 1.0833 0.8959
-15.9695 -21.3543 1.0514 0.8988
-15.3214 -21.3696 1.0368 0.9001
-13.4775 -21.4130 0.9977 0.9037
-12.8927 -21.4267 0.9860 0.9047
-11.7619 -21.4534 0.9647 0.9067
-10.1502 -21.4913 0.9372 0.9092
-9.6325 -21.5035 0.9291 0.9100
-9.1236 -21.5155 0.9215 0.9107
-8.6226 -21.5273 0.9144 0.9113
-7.6425 -21.5504 0.9016 0.9125
-7.1623 -21.5617 0.8959 0.9131
-6.6880 -21.5729 0.8906 0.9136
-5.7551 -21.5948 0.8812 0.9144
-4.8401 -21.6164 0.8735 0.9151
-4.3882 -21.6270 0.8702 0.9154
-3.9396 -21.6376 0.8672 0.9157
-3.4938 -21.6481 0.8647 0.9160
-3.0505 -21.6585 0.8624 0.9162
-2.1697 -21.6793 0.8591 0.9165
-1.7315 -21.6896 0.8580 0.9166
-1.2943 -21.6999 0.8572 0.9167
-0.8577 -21.7102 0.8567 0.9167
-0.4214 -21.7205 0.8566 0.9167
0.0150 -21.7307 0.8569 0.9167
0.4518 -21.7410 0.8575 0.9166
1.7683 -21.7720 0.8613 0.9163
2.2104 -21.7824 0.8633 0.9161
2.6546 -21.7929 0.8657 0.9159
2.3938 -16.8283 0.6702 0.9342
10.6266 -39.6543 1.6188 0.8485
11.4910 -39.6747 1.6287 0.8476
12.3664 -39.6953 1.6394 0.8467
6.2897 -15.6403 0.6647 0.9347
6.9992 -16.4426 0.7046 0.9310
7.4062 -16.4726 0.7122 0.9303
7.8226 -16.5040 0.7202 0.9295
19.8789 -39.8517 1.7560 0.8367
23.0063 -39.9063 1.8163 0.8316
24.0717 -39.8809 1.8368 0.8299
26.3827 -39.9862 1.8890 0.8255
27.5705 -40.0142 1.9161 0.8232
28.7755 -40.0181 1.9435 0.8209
34.1406 -40.2256 2.0804 0.8096
38.5944 -40.2810 2.1997 0.7999
45.4955 -40.4230 2.3997 0.7838
47.4324 -40.4686 2.4585 0.7791
48.5115 -39.7336 2.4726 0.7780
54.3661 -39.3062 2.6453 0.7645
7.6142 10.3518 0.2171 0.9499
7.3747 11.4068 0.2294 0.9471
5.3501 10.4423 0.1983 0.9541
3.8592 10.4760 0.1886 0.9563
3.9452 12.1991 0.2166 0.9500
3.8840 12.8887 0.2274 0.9476
16.9310 60.5614 1.0622 0.7776
15.6345 60.5919 1.0570 0.7785
14.3500 60.6222 1.0523 0.7794
13.0764 60.6522 1.0481 0.7802
10.9584 63.0186 1.0805 0.7742
11.1946 73.0400 1.2482 0.7441
-0.8029 93.1713 1.5739 0.6888
-0.7520 26.1893 0.4426 0.9005
-0.5823 8.4403 0.1429 0.9667
-2.1865 16.8367 0.2868 0.9343
-3.2324 16.8613 0.2900 0.9336
-3.9445 16.8781 0.2928 0.9330
-4.6715 16.8952 0.2961 0.9323
-5.3292 16.6406 0.2952 0.9325
-6.4684 16.6675 0.3020 0.9310
-7.3036 16.7872 0.3092 0.9294
-9.8919 16.8481 0.3300 0.9248
-11.1954 16.6788 0.3393 0.9228
-12.8139 16.8063 0.3570 0.9189
-13.3665 16.8193 0.3629 0.9176
-14.5296 16.8467 0.3758 0.9148
-15.6950 16.7847 0.3882 0.9122
-16.3543 16.8003 0.3960 0.9105
-17.8547 16.9250 0.4156 0.9063
-18.6081 16.9428 0.4251 0.9042
-19.3973 16.9613 0.4353 0.9021
-20.2255 16.9808 0.4461 0.8997
-20.9820 16.9092 0.4552 0.8978
-22.8584 16.9534 0.4807 0.8924
-23.8787 16.9775 0.4949 0.8894
-24.9615 17.0030 0.5102 0.8862
-26.1137 17.0301 0.5266 0.8827
-27.9596 17.4437 0.5567 0.8765
-29.3052 17.4754 0.5764 0.8724
-45.7813 23.6859 0.8707 0.8137
-48.9194 24.0764 0.9210 0.8040
-53.4356 23.6827 0.9873 0.7915
-56.2119 23.5740 1.0296 0.7836
-56.2730 20.9838 1.0145 0.7864
-36.9343 12.9337 0.6610 0.8551
-36.9536 12.1128 0.6569 0.8559
-40.6915 11.5502 0.7145 0.8443
-56.9657 12.5181 0.9852 0.7919
-98.6862 13.5007 1.6825 0.6713
-90.4615 10.5292 1.5383 0.6947
-95.0381 -30.0214 1.6836 0.6712
-41.2099 -14.8629 0.7400 0.8392
-41.7720 -16.0209 0.7557 0.8361
-37.5989 -15.2936 0.6856 0.8501
-37.6200 -16.1903 0.6918 0.8489
-37.4670 -17.0244 0.6952 0.8482
-40.9729 -20.6414 0.7750 0.8323
-39.0868 -20.6858 0.7470 0.8378
-35.6922 -20.7658 0.6975 0.8477
-31.5717 -21.0110 0.6406 0.8592
-30.5254 -21.2115 0.6279 0.8618
-29.2935 -21.2405 0.6112 0.8652
-25.8759 -21.2535 0.5656 0.8746
-24.9458 -21.3429 0.5546 0.8769
-21.9651 -21.2131 0.5158 0.8850
-21.1198 -21.2330 0.5059 0.8871
-19.5217 -21.2706 0.4877 0.8909
-18.7644 -21.2884 0.4794 0.8927
-17.3234 -21.3224 0.4641 0.8959
-15.9695 -21.3543 0.4504 0.8988
-15.3213 -21.3695 0.4442 0.9002
-13.4775 -21.4130 0.4274 0.9037
-11.2141 -21.4663 0.4091 0.9077
-10.1502 -21.4913 0.4015 0.9093
-8.6226 -21.5273 0.3917 0.9114
-7.1623 -21.5617 0.3838 0.9131
-5.8081 -21.7936 0.3810 0.9137
-5.3443 -21.8046 0.3792 0.9141
-4.4286 -21.8261 0.3762 0.9148
-3.5260 -21.8474 0.3738 0.9153
-2.6092 -21.6689 0.3687 0.9164
-2.1697 -21.6793 0.3680 0.9165
-1.7315 -21.6896 0.3675 0.9166
-0.4311 -22.2204 0.3754 0.9149
0.0153 -22.2309 0.3755 0.9149
0.4622 -22.2414 0.3758 0.9148
1.3586 -22.2625 0.3768 0.9146
2.2103 -21.7824 0.3698 0.9161
3.1016 -21.8034 0.3720 0.9157
2.9162 -17.9122 0.3065 0.9300
2.9648 -16.1574 0.2775 0.9364
3.1683 -15.5049 0.2673 0.9387
3.4959 -15.5126 0.2686 0.9384
12.3664 -39.6953 0.7023 0.8468
6.8263 -18.0116 0.3254 0.9258
7.2442 -18.0139 0.3280 0.9253
6.6133 -15.5360 0.2852 0.9347
6.9467 -15.4505 0.2862 0.9345
21.0129 -40.0884 0.7646 0.8344
21.9471 -39.9004 0.7692 0.8335
23.0063 -39.9063 0.7781 0.8317
24.2236 -40.1326 0.7918 0.8290
31.4614 -40.2393 0.8628 0.8152
32.6795 -40.1100 0.8739 0.8130
34.3085 -40.4234 0.8956 0.8089
35.5858 -40.2604 0.9077 0.8066
38.7840 -40.4789 0.9470 0.7991
42.4122 -40.8472 0.9947 0.7901
49.5559 -40.5890 1.0820 0.7739
52.3968 -41.1855 1.1258 0.7660
57.1455 -41.3157 1.1912 0.7542
7.5725 10.2950 -0.0720 0.9502
42.2771 59.9645 -0.4131 0.7457
40.5266 60.0057 -0.4077 0.7485
32.3853 60.1974 -0.3849 0.7608
4.8359 10.4530 -0.0649 0.9550
4.2415 11.5137 -0.0691 0.9521
4.1660 12.8820 -0.0762 0.9473
16.9311 60.5614 -0.3540 0.7776
15.6345 60.5920 -0.3523 0.7786
14.3500 60.6222 -0.3507 0.7794
13.0764 60.6522 -0.3493 0.7802
11.8125 60.6820 -0.3481 0.7809
11.1933 73.0318 -0.4160 0.7441
11.6706 87.9030 -0.4992 0.7014
-0.7522 26.1963 -0.1475 0.9005
-0.5821 8.4369 -0.0476 0.9667
-1.4763 16.5499 -0.0936 0.9357
-1.8019 16.4575 -0.0932 0.9359
-2.8949 16.9334 -0.0967 0.9336
-3.6038 16.9501 -0.0976 0.9330
-3.9633 16.9586 -0.0981 0.9327
-4.3264 16.9671 -0.0986 0.9324
-5.3292 16.6407 -0.0984 0.9325
-5.6799 16.5814 -0.0986 0.9323
-6.4684 16.6675 -0.1006 0.9310
-8.6844 17.0698 -0.1078 0.9263
-9.1262 17.0802 -0.1090 0.9255
-10.7084 16.6673 -0.1115 0.9238
-11.7600 16.7815 -0.1154 0.9213
-13.7735 18.0648 -0.1279 0.9131
-15.3298 18.5137 -0.1353 0.9083
-15.6950 16.7847 -0.1294 0.9122
-16.3543 16.8003 -0.1320 0.9105
-19.5509 17.0956 -0.1462 0.9013
-20.2255 16.9809 -0.1487 0.8998
-20.9820 16.9093 -0.1517 0.8978
-22.2282 17.1887 -0.1582 0.8937
-24.5644 17.4650 -0.1697 0.8864
-26.1137 17.0301 -0.1755 0.8828
-28.0929 17.5268 -0.1864 0.8759
-29.4449 17.5587 -0.1930 0.8719
-48.9195 24.0765 -0.3070 0.8040
-56.1794 23.5603 -0.3430 0.7837
-56.1834 22.2458 -0.3402 0.7853
-56.1614 20.9423 -0.3375 0.7868
-38.1950 12.5197 -0.2263 0.8515
-38.2147 11.6815 -0.2250 0.8523
-39.3931 11.1816 -0.2305 0.8489
-56.9660 12.5182 -0.3284 0.7919
-63.2203 12.5670 -0.3629 0.7727
-98.6872 13.5008 -0.5608 0.6714
-90.4537 10.5282 -0.5126 0.6947
-94.5124 -15.7721 -0.5395 0.6816
-92.1227 -17.2821 -0.5277 0.6873
-53.7380 -11.2030 -0.3091 0.8029
-90.0719 -22.5875 -0.5228 0.6897
-89.8318 -24.4553 -0.5242 0.6891
-89.9243 -26.4316 -0.5277 0.6873
-38.8619 -15.8074 -0.2362 0.8455
-45.2078 -20.5417 -0.2796 0.8199
-43.0066 -20.5935 -0.2685 0.8264
-39.0868 -20.6858 -0.2490 0.8379
-37.3313 -20.7272 -0.2404 0.8430
-34.8753 -22.2119 -0.2328 0.8476
-31.5723 -21.0113 -0.2135 0.8592
-30.7301 -21.3537 -0.2107 0.8610
-29.6275 -21.4827 -0.2060 0.8638
-26.7676 -21.0999 -0.1919 0.8725
-25.8764 -21.2539 -0.1885 0.8746
-25.2302 -21.5863 -0.1869 0.8756
-24.2535 -21.6093 -0.1829 0.8782
-22.8446 -21.1923 -0.1754 0.8828
-21.9651 -21.2130 -0.1719 0.8850
-20.5398 -21.4967 -0.1674 0.8879
-21.3141 -23.2236 -0.1775 0.8815
-21.3373 -24.2074 -0.1817 0.8789
-18.2397 -21.5508 -0.1590 0.8932
-16.6363 -21.3385 -0.1523 0.8974
-16.0351 -21.4421 -0.1507 0.8984
-16.3254 -23.7639 -0.1623 0.8911
-16.3512 -24.8567 -0.1675 0.8878
-13.0410 -21.6733 -0.1424 0.9038
-12.3210 -21.4402 -0.1392 0.9058
-10.8000 -21.7261 -0.1366 0.9075
-11.3617 -25.3637 -0.1565 0.8948
-10.7701 -25.3985 -0.1553 0.8955
-10.1786 -25.4120 -0.1541 0.8963
-8.2227 -21.7868 -0.1311 0.9111
-7.6740 -21.6390 -0.1293 0.9123
-7.1623 -21.5617 -0.1279 0.9131
-6.6880 -21.5728 -0.1272 0.9136
-4.4791 -22.0750 -0.1268 0.9138
-4.0212 -22.0858 -0.1264 0.9141
-3.5662 -22.0965 -0.1260 0.9144
-3.1136 -22.1071 -0.1257 0.9146
-2.6092 -21.6689 -0.1229 0.9164
-1.7315 -21.6896 -0.1225 0.9166
-1.3002 -21.7998 -0.1230 0.9164
-0.8656 -21.9100 -0.1235 0.9160
-0.4301 -22.1704 -0.1248 0.9151
0.9078 -22.2019 -0.1251 0.9150
1.3556 -22.2124 -0.1253 0.9148
2.2103 -21.7824 -0.1233 0.9161
2.6669 -21.8932 -0.1242 0.9156
3.1015 -21.8034 -0.1240 0.9157
6.3267 -38.8601 -0.2217 0.8543
3.4920 -15.4977 -0.0891 0.9384
11.4910 -39.6746 -0.2326 0.8477
4.8449 -15.5517 -0.0917 0.9369
13.2766 -39.7846 -0.2361 0.8455
14.1784 -39.8058 -0.2379 0.8445
6.7950 -17.9291 -0.1079 0.9262
17.2294 -40.4756 -0.2477 0.8386
18.8777 -39.8280 -0.2482 0.8384
19.8788 -39.8516 -0.2507 0.8368
20.9014 -39.8757 -0.2535 0.8352
23.0063 -39.9063 -0.2593 0.8317
25.2273 -39.9585 -0.2661 0.8278
26.0322 -39.4550 -0.2661 0.8277
28.7754 -40.0180 -0.2775 0.8211
30.0352 -40.0477 -0.2818 0.8185
28.7595 -36.7836 -0.2629 0.8296
30.0675 -36.9041 -0.2680 0.8266
31.3507 -36.9384 -0.2728 0.8238
32.6810 -36.9740 -0.2778 0.8209
34.0620 -37.0109 -0.2832 0.8177
35.4980 -37.0493 -0.2889 0.8144
36.9934 -37.0892 -0.2949 0.8110
38.5535 -37.1309 -0.3014 0.8073
40.0886 -37.0864 -0.3075 0.8038
41.8907 -37.2201 -0.3155 0.7992
45.5626 -37.3183 -0.3316 0.7901
49.6359 -37.4271 -0.3500 0.7798
51.7260 -37.3974 -0.3593 0.7747
54.1960 -37.5490 -0.3712 0.7682
56.6918 -37.6157 -0.3830 0.7617
26.2610 -13.1844 -0.1654 0.8891
29.5875 -13.3948 -0.1829 0.8782
38.9290 -13.1030 -0.2313 0.8485
42.2772 59.9645 -2.0659 0.7456
40.5266 60.0058 -2.0389 0.7484
38.8207 60.0459 -2.0134 0.7512
37.1563 60.0851 -1.9892 0.7537
7.5548 12.7839 -0.4181 0.9423
32.3853 60.1975 -1.9248 0.7607
30.8610 60.2334 -1.9057 0.7628
5.0956 10.4576 -0.3277 0.9545
4.8359 10.4530 -0.3243 0.9550
4.5406 10.9484 -0.3337 0.9537
4.5569 11.6435 -0.3521 0.9512
4.5752 12.4196 -0.3727 0.9484
20.9059 60.4679 -1.8015 0.7741
18.2410 60.5306 -1.7801 0.7765
16.9311 60.5615 -1.7707 0.7775
15.6345 60.5920 -1.7620 0.7785
10.9563 63.0064 -1.8008 0.7742
8.1466 88.4743 -2.5018 0.7008
2.7996 88.6853 -2.4984 0.7011
1.0172 88.6835 -2.4973 0.7012
-0.9981 20.4398 -0.5762 0.9214
-1.4763 16.5499 -0.4679 0.9357
-2.1969 16.9170 -0.4803 0.9340
-2.5447 16.9252 -0.4819 0.9338
-2.8949 16.9334 -0.4837 0.9336
-3.2478 16.9417 -0.4857 0.9333
-3.6038 16.9501 -0.4879 0.9330
-3.9633 16.9586 -0.4904 0.9327
-5.3292 16.6407 -0.4920 0.9325
-5.6801 16.5821 -0.4936 0.9323
-6.4684 16.6675 -0.5034 0.9310
-6.8190 16.5757 -0.5047 0.9308
-7.4135 17.0399 -0.5232 0.9283
-8.2522 17.0596 -0.5336 0.9270
-9.5781 17.0908 -0.5517 0.9246
-10.7084 16.6673 -0.5578 0.9238
-11.1954 16.6788 -0.5656 0.9228
-13.7738 18.0652 -0.6397 0.9131
-15.3301 18.5141 -0.6768 0.9083
-15.1432 16.8612 -0.6381 0.9133
-15.6950 16.7848 -0.6471 0.9121
-20.3316 18.5120 -0.7742 0.8958
-19.5509 17.0956 -0.7313 0.9013
-20.2255 16.9809 -0.7436 0.8997
-20.9820 16.9093 -0.7588 0.8978
-25.1208 17.1115 -0.8559 0.8855
-26.1137 17.0301 -0.8779 0.8827
-29.4450 17.5587 -0.9653 0.8718
-30.0721 17.1234 -0.9744 0.8707
-43.1603 23.4407 -1.3830 0.8216
-46.3402 21.6619 -1.4404 0.8149
-55.7357 20.7835 -1.6750 0.7882
-56.3045 19.7167 -1.6798 0.7876
-39.3607 11.1725 -1.1521 0.8490
-56.0996 13.5145 -1.6248 0.7938
-56.9662 12.5183 -1.6423 0.7918
-74.1827 13.2030 -2.1217 0.7397
-80.6195 12.6835 -2.2980 0.7214
-80.8557 11.0614 -2.2979 0.7214
-86.5031 8.3111 -2.4470 0.7063
-86.7678 4.8300 -2.4470 0.7063
-86.8863 -2.1501 -2.4473 0.7062
-86.8307 -3.8952 -2.4474 0.7062
-86.6153 -7.3804 -2.4477 0.7062
-86.2632 -10.8552 -2.4481 0.7062
-86.0364 -12.5869 -2.4484 0.7061
-46.1133 -8.6508 -1.3211 0.8288
-39.5546 -9.9192 -1.1483 0.8494
-83.0032 -26.2196 -2.4510 0.7059
-55.8301 -18.8775 -1.6595 0.7899
-40.1029 -15.3808 -1.2094 0.8421
-45.2077 -20.5416 -1.3982 0.8198
-43.0065 -20.5935 -1.3426 0.8263
-40.9728 -20.6413 -1.2918 0.8323
-39.0867 -20.6858 -1.2452 0.8378
-35.6921 -20.7657 -1.1627 0.8477
-34.8527 -21.2257 -1.1490 0.8493
-30.7306 -21.3541 -1.0537 0.8609
-29.6275 -21.4827 -1.0305 0.8638
-27.8683 -21.0740 -0.9838 0.8695
-26.7675 -21.0999 -0.9597 0.8725
-25.8769 -21.2543 -0.9429 0.8746
-22.8446 -21.1923 -0.8774 0.8828
-21.9650 -21.2130 -0.8598 0.8850
-21.1763 -21.2898 -0.8455 0.8868
-20.5398 -21.4967 -0.8372 0.8878
-21.3378 -24.2079 -0.9086 0.8789
-15.4765 -21.5859 -0.7479 0.8992
-16.3259 -23.7645 -0.8118 0.8910
-16.3516 -24.8574 -0.8378 0.8878
-15.9590 -25.3556 -0.8436 0.8870
-11.7618 -21.4533 -0.6889 0.9067
-11.2141 -21.4662 -0.6819 0.9076
-10.8034 -25.4770 -0.7792 0.8952
-7.6740 -21.6390 -0.6465 0.9122
-6.6880 -21.5728 -0.6360 0.9136
-6.2477 -21.6832 -0.6354 0.9137
-5.8080 -21.7936 -0.6351 0.9137
-5.4052 -22.0531 -0.6393 0.9131
-4.9403 -22.0641 -0.6367 0.9135
-4.4791 -22.0750 -0.6342 0.9138
-4.0212 -22.0857 -0.6321 0.9141
-2.1697 -21.6792 -0.6135 0.9165
-1.7315 -21.6896 -0.6127 0.9166
-1.3002 -21.7997 -0.6149 0.9163
-0.8656 -21.9100 -0.6174 0.9160
-0.4301 -22.1703 -0.6244 0.9151
0.0153 -22.1808 -0.6246 0.9151
0.4611 -22.1913 -0.6250 0.9150
0.9078 -22.2018 -0.6257 0.9149
1.3556 -22.2124 -0.6266 0.9148
3.1015 -21.8034 -0.6201 0.9156
6.1468 -37.7549 -1.0771 0.8581
7.1505 -38.9680 -1.1156 0.8534
7.7172 -37.7663 -1.0854 0.8571
4.0465 -17.9558 -0.5183 0.9290
4.1946 -17.0121 -0.4934 0.9323
4.4998 -15.5362 -0.4555 0.9373
4.8426 -15.5443 -0.4584 0.9369
13.2767 -39.7849 -1.1810 0.8455
14.1785 -39.8061 -1.1898 0.8444
16.0252 -39.8494 -1.2094 0.8421
16.1439 -37.9256 -1.1606 0.8479
19.8788 -39.8516 -1.2540 0.8368
22.0535 -40.0938 -1.2885 0.8327
23.0065 -39.9066 -1.2970 0.8317
26.1086 -37.8925 -1.2957 0.8318
27.5101 -38.2584 -1.3269 0.8281
30.0352 -40.0477 -1.4096 0.8185
32.6809 -36.9739 -1.3895 0.8208
34.0619 -37.0109 -1.4163 0.8177
40.0886 -37.0863 -1.5378 0.8037
41.8907 -37.2201 -1.5779 0.7991
45.5625 -37.3182 -1.6583 0.7900
47.5441 -37.3712 -1.7028 0.7851
49.6358 -37.4271 -1.7504 0.7798
51.7259 -37.3974 -1.7973 0.7746
54.1959 -37.5489 -1.8565 0.7681
56.6917 -37.6156 -1.9157 0.7617
77.4884 -47.0450 -2.5525 0.6958
78.4333 -45.4880 -2.5531 0.6957
79.3463 -43.9118 -2.5535 0.6957
79.5915 -28.5818 -2.3812 0.7129
38.9231 -13.1010 -1.1564 0.8485
76.5571 -24.0674 -2.2597 0.7253
74.5775 -20.1921 -2.1756 0.7341
27.9961 39.7088 -2.4640 0.8232
6.4452 10.4225 -0.6215 0.9521
23.9428 42.4388 -2.4711 0.8227
4.8359 10.4530 -0.5841 0.9549
5.0340 12.8626 -0.7004 0.9462
16.8952 45.8629 -2.4787 0.8222
15.9743 46.2037 -2.4793 0.8222
14.1110 46.8258 -2.4802 0.8221
12.2218 47.3661 -2.4808 0.8221
10.3108 47.8245 -2.4811 0.8221
9.3483 48.0230 -2.4812 0.8221
7.4113 48.3556 -2.4810 0.8221
3.5043 48.7683 -2.4796 0.8222
2.5234 48.8182 -2.4791 0.8222
1.5420 48.8477 -2.4785 0.8222
-0.9981 20.4398 -1.0378 0.9213
-1.4763 16.5499 -0.8426 0.9356
-2.8949 16.9334 -0.8712 0.9335
-3.2478 16.9418 -0.8748 0.9332
-3.6038 16.9501 -0.8788 0.9329
-3.9633 16.9586 -0.8832 0.9326
-4.3265 16.9672 -0.8880 0.9323
-4.6938 16.9758 -0.8932 0.9319
-6.8190 16.5757 -0.9090 0.9307
-7.4135 17.0399 -0.9424 0.9283
-9.1262 17.0802 -0.9821 0.9254
-9.5781 17.0908 -0.9936 0.9245
-10.2345 16.6562 -0.9914 0.9247
-10.7084 16.6674 -1.0047 0.9237
-11.7601 16.7815 -1.0392 0.9212
-12.3761 16.9267 -1.0634 0.9194
-13.7741 18.0656 -1.1521 0.9130
-13.8282 17.4003 -1.1272 0.9148
-14.6711 17.0108 -1.1392 0.9140
-15.6950 16.7848 -1.1654 0.9121
-17.3008 17.0727 -1.2327 0.9072
-18.7818 17.8039 -1.3124 0.9015
-18.8197 17.1354 -1.2908 0.9031
-19.5509 17.0957 -1.3171 0.9012
-20.9821 16.9093 -1.3666 0.8977
-23.9518 17.7644 -1.5123 0.8874
-23.8095 16.9283 -1.4816 0.8896
-10.9629 7.1495 -0.6638 0.9489
-10.9481 6.8304 -0.6544 0.9496
-10.9724 6.5431 -0.6479 0.9501
-11.1136 6.0358 -0.6414 0.9506
-13.4789 5.9739 -0.7477 0.9427
-44.2652 11.6091 -2.3208 0.8325
-44.4877 10.7172 -2.3207 0.8325
-44.8794 8.9211 -2.3206 0.8325
-47.2543 8.4103 -2.4341 0.8251
-48.1318 7.5724 -2.4710 0.8227
-48.5831 3.6846 -2.4709 0.8227
-48.6474 2.7080 -2.4709 0.8227
-48.6925 1.7304 -2.4710 0.8227
-48.7113 -1.2054 -2.4711 0.8227
-48.6786 -2.1837 -2.4712 0.8227
-48.5554 -4.1374 -2.4714 0.8227
-48.3545 -6.0848 -2.4716 0.8227
-39.1586 -9.8199 -2.0474 0.8507
-28.4126 -10.2474 -1.5318 0.8861
-41.6755 -15.9839 -2.2637 0.8363
-41.6986 -16.9612 -2.2830 0.8350
-40.7340 -18.5088 -2.2690 0.8359
-41.3373 -19.7941 -2.3243 0.8323
-40.7738 -20.5411 -2.3154 0.8329
-38.8969 -20.5853 -2.2318 0.8384
-34.7469 -21.1612 -2.0632 0.8496
-30.2468 -21.0179 -1.8679 0.8628
-27.8683 -21.0739 -1.7719 0.8694
-25.7189 -21.1246 -1.6879 0.8752
-24.7182 -21.1481 -1.6498 0.8778
-23.7612 -21.1707 -1.6139 0.8803
-21.9650 -21.2130 -1.5486 0.8849
-20.5398 -21.4966 -1.5078 0.8877
-21.3150 -23.2246 -1.5987 0.8814
-18.2397 -21.5508 -1.4318 0.8931
-16.6363 -21.3385 -1.3722 0.8973
-16.0351 -21.4421 -1.3579 0.8983
-15.4765 -21.5859 -1.3470 0.8991
-14.0456 -21.3519 -1.2961 0.9027
-12.3210 -21.4401 -1.2541 0.9057
-11.7618 -21.4533 -1.2408 0.9067
-10.8000 -21.7260 -1.2304 0.9074
-11.3626 -25.3656 -1.4096 0.8947
-10.8034 -25.4770 -1.4034 0.8951
-8.7207 -21.7722 -1.1894 0.9103
-8.2226 -21.7867 -1.1810 0.9110
-7.6740 -21.6390 -1.1644 0.9121
-7.1623 -21.5616 -1.1522 0.9130
-6.6880 -21.5728 -1.1454 0.9135
-6.2477 -21.6832 -1.1444 0.9136
-5.8080 -21.7936 -1.1438 0.9136
-5.4052 -22.0531 -1.1515 0.9131
-4.4791 -22.0749 -1.1423 0.9137
-4.0212 -22.0857 -1.1385 0.9140
-3.5662 -22.0964 -1.1351 0.9143
-3.1136 -22.1071 -1.1322 0.9145
-1.7315 -21.6895 -1.1035 0.9165
-0.8656 -21.9100 -1.1120 0.9159
0.0153 -22.1808 -1.1249 0.9150
0.4611 -22.1913 -1.1257 0.9149
2.2104 -21.7824 -1.1103 0.9160
2.6669 -21.8931 -1.1185 0.9155
3.1015 -21.8034 -1.1169 0.9156
6.1114 -37.5379 -1.9288 0.8587
7.5640 -37.0166 -1.9161 0.8596
8.9273 -39.6142 -2.0594 0.8499
9.7723 -39.6341 -2.0702 0.8492
4.5385 -15.6701 -0.8274 0.9367
4.8426 -15.5443 -0.8257 0.9369
14.2504 -40.0079 -2.1538 0.8436
14.9603 -37.2013 -2.0335 0.8516
16.0400 -37.6815 -2.0769 0.8487
19.8788 -39.8515 -2.2585 0.8366
21.5412 -37.3650 -2.1873 0.8414
24.9148 -39.4637 -2.3668 0.8295
25.7076 -38.9630 -2.3673 0.8295
26.0690 -37.8351 -2.3301 0.8319
26.8745 -37.3745 -2.3346 0.8316
28.0235 -37.3654 -2.3687 0.8294
28.7595 -36.7835 -2.3679 0.8294
29.5125 -36.2230 -2.3695 0.8293
30.2395 -35.6292 -2.3700 0.8293
34.3380 -31.7665 -2.3723 0.8292
35.5969 -30.3707 -2.3730 0.8291
36.2050 -29.6539 -2.3734 0.8291
36.7985 -28.9247 -2.3737 0.8291
37.3771 -28.1836 -2.3740 0.8290
39.0214 -25.8912 -2.3749 0.8290
39.5383 -25.1052 -2.3752 0.8290
40.0390 -24.3099 -2.3755 0.8289
40.9919 -22.6857 -2.3760 0.8289
26.3188 -12.5580 -1.4789 0.8898
29.6070 -13.4037 -1.6482 0.8779
43.4451 -17.6018 -2.3772 0.8288
43.7929 -16.7268 -2.3774 0.8288
44.7292 -14.0616 -2.3779 0.8288
7.5925 10.3223 -0.9395 0.9499
18.9368 26.8594 -2.4096 0.8765
18.4014 27.2460 -2.4107 0.8765
6.4452 10.4225 -0.8985 0.9520
5.8834 10.4284 -0.8779 0.9531
5.6137 10.4347 -0.8688 0.9536
5.3495 10.4410 -0.8602 0.9540
12.0239 30.7224 -2.4190 0.8761
11.4065 30.9634 -2.4195 0.8760
10.1569 31.4066 -2.4202 0.8760
9.5252 31.6083 -2.4205 0.8760
8.8893 31.7966 -2.4208 0.8760
7.6061 32.1321 -2.4211 0.8760
4.3456 32.7312 -2.4210 0.8760
3.6870 32.8092 -2.4208 0.8760
2.3658 32.9238 -2.4203 0.8760
1.7037 32.9603 -2.4199 0.8760
-0.2843 32.9853 -2.4186 0.8761
-0.7528 26.2175 -1.9231 0.9001
-2.1970 16.9170 -1.2508 0.9339
-2.5447 16.9252 -1.2549 0.9337
-3.6038 16.9502 -1.2706 0.9329
-4.3265 16.9672 -1.2839 0.9322
-4.6938 16.9758 -1.2914 0.9318
-5.3292 16.6407 -1.2812 0.9323
-7.3036 16.7872 -1.3423 0.9292
-7.7127 16.7969 -1.3552 0.9286
-8.5557 16.8167 -1.3834 0.9271
-8.9909 16.8270 -1.3989 0.9263
-9.8919 16.8482 -1.4325 0.9246
-10.2345 16.6562 -1.4334 0.9246
-11.1954 16.6788 -1.4729 0.9226
-13.7744 18.0661 -1.6658 0.9129
-14.5995 16.9277 -1.6390 0.9142
-15.6484 16.7350 -1.6799 0.9122
-16.2699 16.7136 -1.7102 0.9107
-20.8543 16.8063 -1.9638 0.8981
-23.8353 17.6780 -2.1759 0.8878
-10.5956 6.6104 -0.9157 0.9511
-10.8341 5.8841 -0.9040 0.9518
-11.8750 5.8445 -0.9704 0.9483
-18.6866 6.9681 -1.4623 0.9231
-20.0927 6.1420 -1.5405 0.9192
-25.8183 6.7711 -1.9571 0.8985
-33.0411 7.2607 -2.4804 0.8731
-33.4167 5.2573 -2.4803 0.8731
-33.7302 2.5581 -2.4803 0.8731
-33.8237 0.5221 -2.4803 0.8731
-33.8280 -0.1574 -2.4804 0.8731
-33.8185 -0.8369 -2.4804 0.8731
-33.7591 -2.1946 -2.4805 0.8731
-33.7092 -2.8723 -2.4806 0.8731
-33.6457 -3.5490 -2.4807 0.8731
-33.5688 -4.2242 -2.4807 0.8731
-33.3746 -5.5695 -2.4809 0.8731
-33.2575 -6.2391 -2.4811 0.8731
-33.1270 -6.9061 -2.4812 0.8731
-32.8264 -8.2319 -2.4814 0.8731
-31.9364 -8.6942 -2.4269 0.8757
-32.4731 -9.5449 -2.4817 0.8731
-32.2769 -10.1959 -2.4819 0.8731
-31.8441 -10.7673 -2.4647 0.8739
-28.9251 -10.4322 -2.2546 0.8840
-29.6851 -11.3852 -2.3312 0.8803
-29.4526 -11.9801 -2.3313 0.8803
-28.9524 -13.1555 -2.3317 0.8803
-28.1149 -14.8792 -2.3323 0.8802
-27.8130 -15.4424 -2.3326 0.8802
-27.4999 -15.9995 -2.3328 0.8802
-27.1757 -16.5503 -2.3330 0.8802
-26.1379 -18.1627 -2.3338 0.8802
-25.3930 -19.2021 -2.3343 0.8801
-25.0051 -19.7106 -2.3345 0.8801
-24.6070 -20.2113 -2.3348 0.8801
-24.1990 -20.7039 -2.3351 0.8801
-22.8446 -21.1922 -2.2848 0.8825
-21.8639 -21.1153 -2.2287 0.8852
-20.3528 -21.3009 -2.1602 0.8886
-18.7232 -21.2417 -2.0761 0.8926
-18.0736 -21.3546 -2.0513 0.8939
-17.2436 -21.2241 -2.0051 0.8961
-16.5597 -21.2402 -1.9748 0.8976
-15.3565 -21.4186 -1.9324 0.8997
-16.3267 -23.7657 -2.1141 0.8908
-14.0456 -21.3518 -1.8739 0.9026
-12.9223 -21.4760 -1.8377 0.9044
-12.2782 -21.3657 -1.8068 0.9059
-11.1961 -21.4318 -1.7729 0.9076
-10.7365 -21.5982 -1.7685 0.9078
-10.3497 -21.9138 -1.7770 0.9074
-9.1927 -21.6786 -1.7265 0.9099
-8.2039 -21.7371 -1.7035 0.9110
-7.6740 -21.6390 -1.6834 0.9120
-7.1623 -21.5616 -1.6659 0.9129
-6.6880 -21.5728 -1.6560 0.9134
-6.2191 -21.5838 -1.6470 0.9138
-5.2955 -21.6056 -1.6311 0.9146
-4.8400 -21.6163 -1.6242 0.9150
-3.0720 -21.8115 -1.6150 0.9154
-2.6092 -21.6688 -1.6003 0.9162
-2.1697 -21.6792 -1.5975 0.9163
-1.7315 -21.6895 -1.5954 0.9164
0.4559 -21.9411 -1.6091 0.9157
0.8975 -21.9515 -1.6109 0.9157
1.7846 -21.9724 -1.6164 0.9154
2.6668 -21.8931 -1.6171 0.9153
3.1015 -21.8033 -1.6148 0.9155
5.1591 -31.6886 -2.3541 0.8792
6.4298 -31.4663 -2.3549 0.8791
8.9405 -30.8688 -2.3564 0.8791
5.1436 -16.5108 -1.2680 0.9330
5.1900 -15.5525 -1.2022 0.9364
5.9006 -15.5692 -1.2208 0.9354
12.5990 -29.5978 -2.3586 0.8790
13.7818 -29.0767 -2.3593 0.8789
15.5147 -28.2062 -2.3604 0.8789
16.0805 -27.8929 -2.3607 0.8789
17.1926 -27.2321 -2.3614 0.8788
17.7385 -26.8849 -2.3617 0.8788
19.8496 -25.3878 -2.3629 0.8788
20.3581 -24.9871 -2.3632 0.8787
20.8585 -24.5762 -2.3635 0.8787
21.3504 -24.1551 -2.3638 0.8787
22.7743 -22.8333 -2.3646 0.8787
23.6782 -21.9050 -2.3651 0.8786
24.5440 -20.9405 -2.3656 0.8786
24.9622 -20.4454 -2.3658 0.8786
26.5324 -18.3826 -2.3667 0.8786
26.8985 -17.8475 -2.3669 0.8786
27.2538 -17.3050 -2.3671 0.8786
27.5980 -16.7554 -2.3673 0.8785
28.5632 -15.0661 -2.3678 0.8785
28.4514 -13.5756 -2.3114 0.8812
30.8058 -11.7664 -2.4179 0.8761
32.3161 -11.6049 -2.5176 0.8713
32.6056 -10.9747 -2.5225 0.8711
32.8208 -10.3179 -2.5226 0.8711
33.0226 -9.6569 -2.5227 0.8711
15.0885 19.6729 -2.3802 0.9052
7.5925 10.3223 -1.2302 0.9498
7.3335 10.4016 -1.2218 0.9501
13.8908 20.5674 -2.3827 0.9051
13.4791 20.8489 -2.3835 0.9051
6.4408 10.4153 -1.1757 0.9520
5.8834 10.4284 -1.1495 0.9530
5.7991 11.3184 -1.2209 0.9502
5.8135 11.9312 -1.2742 0.9481
10.4427 22.5723 -2.3877 0.9049
9.9891 22.7818 -2.3882 0.9049
9.0691 23.1726 -2.3890 0.9048
8.1333 23.5246 -2.3896 0.9048
7.6600 23.6858 -2.3899 0.9048
7.1833 23.8369 -2.3901 0.9048
6.7035 23.9781 -2.3903 0.9048
5.2480 24.3417 -2.3906 0.9048
3.7723 24.6130 -2.3906 0.9048
2.7805 24.7424 -2.3903 0.9048
2.2828 24.7915 -2.3902 0.9048
1.7842 24.8303 -2.3900 0.9048
1.2850 24.8586 -2.3897 0.9048
0.7853 24.8766 -2.3895 0.9048
0.2854 24.8840 -2.3891 0.9048
-0.2144 24.8810 -2.3888 0.9049
-0.7140 24.8674 -2.3884 0.9049
-0.9244 18.9299 -1.8195 0.9267
-0.5811 8.4234 -0.8106 0.9666
-1.4674 16.4497 -1.5855 0.9358
-2.4768 16.4735 -1.5993 0.9353
-2.8176 16.4815 -1.6053 0.9350
-3.1611 16.4896 -1.6119 0.9348
-4.2110 16.5143 -1.6362 0.9338
-4.5685 16.5228 -1.6458 0.9334
-4.9304 16.5313 -1.6562 0.9330
-5.2969 16.5399 -1.6674 0.9326
-6.4293 16.5666 -1.7060 0.9311
-6.8190 16.5758 -1.7208 0.9305
-7.2157 16.5851 -1.7364 0.9299
-8.0320 16.6043 -1.7708 0.9286
-8.8826 16.6244 -1.8096 0.9271
-9.3224 16.6347 -1.8307 0.9262
-10.7085 16.6674 -1.9019 0.9235
-11.1272 16.5772 -1.9168 0.9229
-12.2496 16.7537 -1.9925 0.9200
-13.7747 18.0665 -2.1811 0.9128
-13.1929 16.6008 -2.0357 0.9183
-16.8302 16.6083 -2.2701 0.9094
-18.3782 16.0702 -2.3438 0.9066
-18.6845 15.6871 -2.3422 0.9066
-18.9827 15.2980 -2.3406 0.9067
-9.7233 6.6232 -1.1295 0.9538
-9.9419 6.2026 -1.1250 0.9540
-10.1344 6.0433 -1.1328 0.9537
-10.3280 5.8809 -1.1410 0.9534
-10.6424 5.7800 -1.1627 0.9525
-12.2648 5.7332 -1.2998 0.9470
-12.9633 5.7453 -1.3613 0.9446
-13.7960 5.7857 -1.4362 0.9417
-19.9550 6.0999 -2.0033 0.9196
-25.0423 6.5676 -2.4855 0.9012
-25.1686 6.0632 -2.4854 0.9012
-25.3910 5.0472 -2.4854 0.9012
-25.8707 0.9193 -2.4853 0.9012
-25.8841 0.3995 -2.4853 0.9012
-25.8872 -0.1205 -2.4853 0.9012
-25.8799 -0.6404 -2.4854 0.9012
-25.8622 -1.1602 -2.4854 0.9012
-25.7470 -2.7158 -2.4856 0.9012
-25.6880 -3.2325 -2.4856 0.9012
-25.6186 -3.7479 -2.4857 0.9012
-25.5390 -4.2619 -2.4858 0.9012
-25.4490 -4.7742 -2.4859 0.9012
-25.3489 -5.2846 -2.4859 0.9012
-25.2387 -5.7929 -2.4860 0.9012
-24.6967 -7.8014 -2.4865 0.9012
-24.1859 -9.2761 -2.4869 0.9011
-23.9961 -9.7606 -2.4870 0.9011
-22.7624 -10.8997 -2.4229 0.9036
-21.5086 -11.3830 -2.3363 0.9068
-21.0371 -12.2395 -2.3366 0.9068
-19.9932 -13.8929 -2.3374 0.9068
-19.1252 -15.0757 -2.3380 0.9068
-18.5077 -15.8346 -2.3384 0.9068
-18.1876 -16.2047 -2.3386 0.9068
-17.5254 -16.9254 -2.3391 0.9067
-17.1836 -17.2757 -2.3393 0.9067
-16.8349 -17.6192 -2.3395 0.9067
-14.9913 -19.2286 -2.3408 0.9067
-14.6037 -19.5280 -2.3410 0.9067
-14.2101 -19.8196 -2.3413 0.9067
-13.4056 -20.3790 -2.3418 0.9066
-12.9951 -20.6466 -2.3421 0.9066
-12.5792 -20.9059 -2.3424 0.9066
-12.1582 -21.1568 -2.3427 0.9066
-11.1625 -21.3673 -2.3144 0.9077
-9.5332 -22.4816 -2.3444 0.9065
-8.1478 -21.5884 -2.2153 0.9114
-7.1293 -21.4623 -2.1712 0.9131
-6.2191 -21.5838 -2.1565 0.9137
-4.3781 -21.5771 -2.1137 0.9153
-3.4857 -21.5982 -2.1004 0.9158
-0.4204 -21.6704 -2.0809 0.9166
0.0150 -21.6806 -2.0814 0.9166
0.8873 -21.7011 -2.0852 0.9164
3.9382 -24.1896 -2.3529 0.9062
4.4239 -24.1087 -2.3532 0.9062
6.3478 -23.6877 -2.3544 0.9062
7.2959 -23.4194 -2.3550 0.9061
5.7396 -17.1993 -1.7407 0.9297
5.9006 -15.5692 -1.5985 0.9353
7.7178 -14.7241 -1.5960 0.9354
12.2669 -21.2780 -2.3579 0.9060
13.1144 -20.7725 -2.3584 0.9060
13.5304 -20.5070 -2.3587 0.9060
14.3461 -19.9511 -2.3592 0.9060
15.9073 -18.7425 -2.3601 0.9059
16.6503 -18.0918 -2.3605 0.9059
17.0118 -17.7552 -2.3607 0.9059
17.3665 -17.4114 -2.3609 0.9059
17.7142 -17.0605 -2.3611 0.9059
18.0548 -16.7026 -2.3613 0.9059
18.3881 -16.3379 -2.3615 0.9059
18.7140 -15.9665 -2.3617 0.9059
19.0324 -15.5886 -2.3619 0.9059
19.6460 -14.8137 -2.3622 0.9059
19.9409 -14.4171 -2.3624 0.9059
20.2278 -14.0146 -2.3625 0.9058
21.0391 -12.7733 -2.3630 0.9058
21.2926 -12.3488 -2.3631 0.9058
25.0165 -7.8645 -2.5176 0.9000
25.3135 -6.8537 -2.5177 0.9000
7.3335 10.4016 -1.5118 0.9500
6.0996 10.8115 -1.4745 0.9512
6.4541 12.5968 -1.6813 0.9446
8.3764 18.1060 -2.3698 0.9228
8.0123 18.2735 -2.3701 0.9228
7.6447 18.4333 -2.3705 0.9228
5.7608 19.1167 -2.3717 0.9227
5.3760 19.2297 -2.3718 0.9227
4.9890 19.3348 -2.3719 0.9227
4.5998 19.4319 -2.3720 0.9227
4.2086 19.5207 -2.3721 0.9227
3.8157 19.6014 -2.3721 0.9227
2.6281 19.7947 -2.3720 0.9227
1.8307 19.8824 -2.3717 0.9227
0.6298 19.9517 -2.3712 0.9227
0.2289 19.9582 -2.3709 0.9227
-0.8908 18.2420 -2.1695 0.9291
-2.1347 16.4376 -1.9689 0.9354
-2.8090 16.4313 -1.9801 0.9351
-3.1515 16.4394 -1.9883 0.9348
-3.4970 16.4475 -1.9974 0.9345
-3.8457 16.4558 -2.0074 0.9342
-4.1982 16.4641 -2.0183 0.9338
-4.5546 16.4724 -2.0301 0.9335
-5.2970 16.5399 -2.0630 0.9324
-5.6687 16.5487 -2.0779 0.9320
-6.0460 16.5576 -2.0938 0.9315
-6.4293 16.5666 -2.1109 0.9309
-7.1937 16.5346 -2.1419 0.9299
-9.3224 16.6348 -2.2651 0.9261
-9.7728 16.6454 -2.2928 0.9252
-10.2346 16.6562 -2.3222 0.9243
-11.0260 16.4264 -2.3500 0.9234
-13.7394 14.1141 -2.3397 0.9237
-14.2932 13.5491 -2.3394 0.9237
-9.1933 7.4088 -1.4025 0.9536
-9.2452 6.0293 -1.3111 0.9565
-9.9644 5.6738 -1.3621 0.9549
-10.4596 5.6807 -1.4139 0.9532
-11.6136 5.7158 -1.5376 0.9492
-12.2539 5.7281 -1.6068 0.9470
-12.9999 5.7615 -1.6891 0.9443
-13.7325 5.7591 -1.7689 0.9418
-16.9260 6.7018 -2.1624 0.9293
-16.9380 6.3161 -2.1473 0.9298
-20.0355 6.1245 -2.4886 0.9191
-20.3668 4.9064 -2.4885 0.9191
-20.4610 4.4963 -2.4885 0.9191
-20.6246 3.6707 -2.4884 0.9191
-20.8078 2.4219 -2.4884 0.9191
-20.9159 1.1643 -2.4884 0.9191
-20.9352 0.7439 -2.4884 0.9191
-20.9460 0.3233 -2.4884 0.9191
-20.9485 -0.0975 -2.4884 0.9191
-20.9425 -0.5183 -2.4884 0.9191
-20.8743 -1.7787 -2.4886 0.9191
-20.8347 -2.1977 -2.4886 0.9191
-20.7306 -3.0329 -2.4887 0.9191
-20.6660 -3.4487 -2.4888 0.9191
-20.3250 -5.0969 -2.4891 0.9191
-20.2192 -5.5044 -2.4892 0.9191
-20.1053 -5.9096 -2.4893 0.9191
-19.2541 -8.2863 -2.4899 0.9190
-19.0847 -8.6718 -2.4900 0.9190
-18.9077 -9.0539 -2.4902 0.9190
-18.7230 -9.4323 -2.4903 0.9190
-18.5308 -9.8071 -2.4905 0.9190
-18.1145 -10.5391 -2.4894 0.9190
-17.1615 -10.9301 -2.4169 0.9213
-16.4531 -10.9495 -2.3476 0.9235
-15.9465 -11.5627 -2.3398 0.9237
-14.7121 -13.1082 -2.3406 0.9237
-13.3290 -14.5231 -2.3416 0.9237
-12.4333 -15.3034 -2.3422 0.9236
-11.8107 -15.7933 -2.3426 0.9236
-11.4922 -16.0287 -2.3428 0.9236
-11.1689 -16.2579 -2.3430 0.9236
-10.8411 -16.4804 -2.3432 0.9236
-10.5089 -16.6964 -2.3435 0.9236
-9.4869 -17.3040 -2.3441 0.9236
-9.1383 -17.4928 -2.3444 0.9236
-8.7860 -17.6745 -2.3446 0.9236
-8.4301 -17.8492 -2.3448 0.9236
-7.7079 -18.1771 -2.3453 0.9235
-7.3420 -18.3301 -2.3455 0.9235
-6.6012 -18.6140 -2.3460 0.9235
-5.4699 -18.9836 -2.3467 0.9235
-5.0880 -19.0916 -2.3470 0.9235
-4.7040 -19.1920 -2.3472 0.9235
-4.3180 -19.2846 -2.3475 0.9235
-3.9302 -19.3695 -2.3477 0.9235
-3.1497 -19.5159 -2.3482 0.9235
-2.7573 -19.5773 -2.3485 0.9235
0.0136 -19.7852 -2.3502 0.9234
1.6023 -19.7286 -2.3512 0.9234
1.9985 -19.6944 -2.3514 0.9234
2.3939 -19.6524 -2.3517 0.9233
3.5743 -19.4786 -2.3524 0.9233
5.5121 -19.0316 -2.3536 0.9233
5.8939 -18.9189 -2.3538 0.9233
6.3855 -16.8486 -2.1403 0.9300
6.6347 -15.5865 -2.0122 0.9340
6.9599 -15.4799 -2.0161 0.9339
7.4252 -14.8854 -1.9760 0.9352
9.2073 -17.5657 -2.3558 0.9232
9.5592 -17.3788 -2.3560 0.9232
10.9270 -16.5612 -2.3569 0.9232
11.2584 -16.3397 -2.3570 0.9232
11.5852 -16.1116 -2.3572 0.9232
11.9075 -15.8769 -2.3574 0.9232
12.2249 -15.6358 -2.3576 0.9232
13.1474 -14.8745 -2.3581 0.9231
13.4445 -14.6085 -2.3583 0.9231
14.8465 -13.1912 -2.3591 0.9231
15.3663 -12.5859 -2.3594 0.9231
15.6169 -12.2754 -2.3596 0.9231
15.8613 -11.9599 -2.3597 0.9231
16.1001 -11.6403 -2.3600 0.9231
17.3514 -11.5129 -2.4735 0.9195
18.5150 -10.2466 -2.5137 0.9183
18.7178 -9.8730 -2.5138 0.9183
19.1008 -9.1140 -2.5140 0.9183
19.4528 -8.3400 -2.5141 0.9183
19.7733 -7.5525 -2.5143 0.9183
20.0618 -6.7526 -2.5144 0.9183
20.3178 -5.9416 -2.5145 0.9183
20.4334 -5.5324 -2.5146 0.9183
7.3195 9.5434 -1.7041 0.9526
7.2212 9.8175 -1.7268 0.9520
7.3285 10.3944 -1.8020 0.9499
7.0250 10.4015 -1.7784 0.9506
6.7384 11.9439 -1.9431 0.9461
7.2875 14.9564 -2.3573 0.9350
6.6827 15.2411 -2.3580 0.9350
6.3760 15.3741 -2.3582 0.9350
5.4401 15.7347 -2.3589 0.9350
5.1233 15.8420 -2.3591 0.9349
4.4834 16.0369 -2.3594 0.9349
4.1606 16.1244 -2.3595 0.9349
3.8360 16.2052 -2.3595 0.9349
3.5098 16.2793 -2.3596 0.9349
1.8596 16.5481 -2.3594 0.9349
1.5268 16.5814 -2.3593 0.9349
-0.5807 8.4166 -1.1954 0.9665
-1.8019 16.4576 -2.3458 0.9353
-2.1418 16.4927 -2.3565 0.9350
-2.4723 16.4435 -2.3560 0.9350
-3.1295 16.3247 -2.3552 0.9351
-3.4561 16.2552 -2.3547 0.9351
-3.7811 16.1791 -2.3542 0.9351
-5.3777 15.6991 -2.3513 0.9352
-5.6904 15.5837 -2.3506 0.9352
-6.0006 15.4619 -2.3500 0.9352
-6.6128 15.1994 -2.3486 0.9352
-7.2134 14.9122 -2.3471 0.9353
-7.8014 14.6007 -2.3456 0.9353
-8.3757 14.2657 -2.3439 0.9354
-8.6574 14.0895 -2.3431 0.9354
-9.2144 13.7276 -2.3426 0.9354
-9.7570 13.3446 -2.3423 0.9354
-10.5409 12.7302 -2.3418 0.9354
-11.0424 12.2951 -2.3415 0.9354
-11.9908 11.3665 -2.3410 0.9354
-12.4363 10.8745 -2.3407 0.9354
-12.6516 10.6220 -2.3406 0.9354
-9.1143 6.7598 -1.6078 0.9552
-9.1265 6.4888 -1.5866 0.9558
-9.0861 6.1891 -1.5577 0.9566
-9.1704 5.9805 -1.5512 0.9567
-9.9615 5.6722 -1.6242 0.9547
-10.4332 5.6664 -1.6822 0.9532
-12.2384 5.7209 -1.9141 0.9469
-16.2127 6.7992 -2.4910 0.9314
-16.5916 5.8100 -2.4908 0.9314
-16.7046 5.4755 -2.4908 0.9314
-16.8109 5.1388 -2.4907 0.9314
-16.9104 4.7999 -2.4907 0.9314
-17.0031 4.4593 -2.4906 0.9314
-17.0890 4.1168 -2.4906 0.9314
-17.1681 3.7726 -2.4906 0.9314
-17.5267 1.3292 -2.4905 0.9315
-17.5660 0.6242 -2.4905 0.9315
-17.5772 -0.0818 -2.4905 0.9315
-17.5600 -0.7877 -2.4906 0.9314
-17.5147 -1.4924 -2.4906 0.9314
-17.4815 -1.8439 -2.4907 0.9314
-17.4412 -2.1948 -2.4907 0.9314
-17.2103 -3.5879 -2.4909 0.9314
-16.8688 -4.9583 -2.4912 0.9314
-16.5412 -5.9658 -2.4915 0.9314
-16.4187 -6.2971 -2.4916 0.9314
-16.0116 -7.2754 -2.4919 0.9314
-15.3789 -8.5387 -2.4924 0.9314
-15.2050 -8.8463 -2.4925 0.9314
-14.4491 -10.0404 -2.4930 0.9314
-14.2453 -10.3292 -2.4932 0.9314
-14.0256 -10.6062 -2.4915 0.9314
-13.7865 -10.8674 -2.4873 0.9315
-13.3518 -10.9667 -2.4481 0.9326
-12.8389 -10.9846 -2.3941 0.9340
-12.3525 -11.0058 -2.3441 0.9353
-11.8911 -11.4840 -2.3423 0.9354
-11.4219 -11.9540 -2.3426 0.9354
-10.9341 -12.4049 -2.3430 0.9354
-9.9060 -13.2463 -2.3436 0.9354
-9.6387 -13.4437 -2.3438 0.9354
-9.3675 -13.6356 -2.3440 0.9354
-9.0924 -13.8221 -2.3442 0.9353
-7.0695 -14.9684 -2.3455 0.9353
-6.7680 -15.1087 -2.3457 0.9353
-6.4637 -15.2428 -2.3459 0.9353
-2.3253 -11.4602 -1.6569 0.9539
-1.9110 -11.8408 -1.6994 0.9527
-1.6509 -16.4960 -2.3490 0.9352
-0.9369 -11.7362 -1.6682 0.9535
-0.3217 -16.5812 -2.3498 0.9352
0.3446 -16.5837 -2.3502 0.9352
0.6777 -16.5749 -2.3504 0.9352
1.0106 -16.5594 -2.3506 0.9352
1.3431 -16.5372 -2.3509 0.9352
1.6752 -16.5083 -2.3511 0.9352
2.3373 -16.4306 -2.3515 0.9352
2.6671 -16.3817 -2.3517 0.9351
3.3234 -16.2642 -2.3521 0.9351
3.6498 -16.1955 -2.3523 0.9351
3.9747 -16.1203 -2.3525 0.9351
4.6197 -15.9503 -2.3529 0.9351
4.9396 -15.8557 -2.3531 0.9351
5.5733 -15.6470 -2.3535 0.9351
5.8264 -15.3733 -2.3294 0.9357
6.5071 -15.2866 -2.3540 0.9351
7.3929 -14.8207 -2.3467 0.9353
7.7155 -14.7195 -2.3547 0.9351
9.4333 -13.6910 -2.3558 0.9350
10.2429 -13.1007 -2.3562 0.9350
10.5046 -12.8931 -2.3564 0.9350
10.7621 -12.6803 -2.3565 0.9350
11.2641 -12.2393 -2.3568 0.9350
11.5084 -12.0113 -2.3570 0.9350
11.7480 -11.7784 -2.3571 0.9350
12.3649 -11.4389 -2.3867 0.9342
13.4054 -11.4373 -2.4968 0.9313
13.9319 -10.9509 -2.5108 0.9309
14.5682 -10.0934 -2.5112 0.9309
14.7686 -9.7992 -2.5113 0.9309
15.5100 -8.5835 -2.5117 0.9309
15.8433 -7.9542 -2.5119 0.9309
16.0004 -7.6346 -2.5119 0.9309
16.1510 -7.3119 -2.5120 0.9309
16.4326 -6.6577 -2.5122 0.9309
16.5634 -6.3264 -2.5122 0.9309
16.6875 -5.9926 -2.5123 0.9309
17.0192 -4.9770 -2.5124 0.9309
17.1160 -4.6342 -2.5125 0.9309
7.5781 10.3027 -2.1069 0.9495
7.0250 10.4016 -2.0677 0.9504
7.0387 10.8871 -2.1357 0.9488
7.3703 11.9185 -2.3085 0.9448
6.6584 12.3765 -2.3152 0.9446
6.4729 12.6337 -2.3385 0.9441
5.9950 12.9585 -2.3522 0.9438
5.4689 13.1869 -2.3518 0.9438
5.2026 13.2931 -2.3516 0.9438
4.9341 13.3940 -2.3515 0.9438
4.6638 13.4894 -2.3513 0.9438
4.1176 13.6637 -2.3509 0.9438
3.8420 13.7427 -2.3508 0.9438
3.5649 13.8160 -2.3506 0.9438
3.2867 13.8849 -2.3506 0.9438
3.0072 13.9484 -2.3506 0.9438
2.7265 14.0061 -2.3507 0.9438
2.4446 14.0580 -2.3507 0.9438
2.1617 14.1041 -2.3506 0.9438
1.8779 14.1444 -2.3506 0.9438
1.5934 14.1788 -2.3505 0.9438
1.3082 14.2074 -2.3504 0.9438
0.4501 14.2579 -2.3500 0.9438
0.1636 14.2630 -2.3498 0.9438
-0.4093 14.2555 -2.3494 0.9438
-1.2667 14.2002 -2.3486 0.9438
-1.8355 14.1340 -2.3480 0.9439
-2.1187 14.0921 -2.3476 0.9439
-2.6822 13.9911 -2.3469 0.9439
-2.9621 13.9320 -2.3464 0.9439
-3.2412 13.8690 -2.3463 0.9439
-3.5189 13.8001 -2.3462 0.9439
-5.1504 13.2713 -2.3452 0.9439
-5.6785 13.0519 -2.3448 0.9439
-6.4530 12.6837 -2.3444 0.9439
-6.9563 12.4127 -2.3441 0.9439
-7.2038 12.2697 -2.3439 0.9440
-7.6899 11.9690 -2.3436 0.9440
-7.9282 11.8114 -2.3435 0.9440
-8.1634 11.6491 -2.3434 0.9440
-8.6237 11.3105 -2.3431 0.9440
-9.2877 10.7688 -2.3427 0.9440
-9.7117 10.3860 -2.3425 0.9440
-9.9179 10.1883 -2.3424 0.9440
-10.1200 9.9866 -2.3422 0.9440
-8.9615 7.2220 -1.8960 0.9544
-8.9476 6.9190 -1.8633 0.9552
-8.9599 6.3703 -1.8111 0.9564
-9.0037 6.1331 -1.7947 0.9568
-10.0870 5.7437 -1.9122 0.9540
-10.5194 5.7131 -1.9720 0.9526
-11.2142 5.8019 -2.0800 0.9501
-11.6005 5.7093 -2.1300 0.9489
-13.7069 6.4073 -2.4926 0.9405
-12.9488 5.7389 -2.3333 0.9442
-13.9525 5.8513 -2.4925 0.9405
-14.1756 5.2860 -2.4924 0.9405
-14.2787 5.0001 -2.4923 0.9405
-14.4674 4.4224 -2.4922 0.9405
-14.5531 4.1309 -2.4922 0.9405
-14.6330 3.8377 -2.4922 0.9405
-14.7750 3.2468 -2.4921 0.9405
-14.9875 2.0503 -2.4920 0.9405
-15.0577 1.4467 -2.4920 0.9405
-15.1037 0.8408 -2.4920 0.9405
-15.1254 0.2334 -2.4920 0.9405
-15.1123 -0.6779 -2.4921 0.9405
-15.0446 -1.5869 -2.4922 0.9405
-15.0099 -1.8888 -2.4922 0.9405
-14.8698 -2.7896 -2.4924 0.9405
-14.7464 -3.3847 -2.4925 0.9405
-14.2348 -5.1340 -2.4929 0.9405
-14.1293 -5.4191 -2.4930 0.9405
-13.9012 -5.9826 -2.4931 0.9405
-13.6507 -6.5366 -2.4933 0.9405
-13.5172 -6.8097 -2.4934 0.9405
-13.2339 -7.3478 -2.4936 0.9405
-12.4333 -8.6397 -2.4942 0.9405
-12.2578 -8.8881 -2.4943 0.9405
-12.0775 -9.1330 -2.4945 0.9405
-11.7021 -9.6117 -2.4947 0.9405
-11.5073 -9.8453 -2.4949 0.9405
-11.3079 -10.0750 -2.4950 0.9404
-11.1038 -10.3007 -2.4951 0.9404
-10.8953 -10.5223 -2.4953 0.9404
-10.4391 -10.9254 -2.4894 0.9406
-10.1124 -11.0184 -2.4638 0.9412
-9.7249 -11.0330 -2.4228 0.9421
-9.3497 -11.0469 -2.3842 0.9430
-8.9882 -11.0630 -2.3482 0.9439
-8.2927 -11.5663 -2.3446 0.9439
-8.0592 -11.7313 -2.3447 0.9439
-7.5826 -12.0471 -2.3450 0.9439
-7.3396 -12.1979 -2.3452 0.9439
-7.0936 -12.3437 -2.3453 0.9439
-6.5930 -12.6204 -2.3457 0.9439
-6.3386 -12.7512 -2.3458 0.9439
-5.2962 -13.2226 -2.3465 0.9439
-4.7616 -13.4267 -2.3469 0.9439
-4.2191 -13.6091 -2.3472 0.9439
-3.9452 -13.6921 -2.3474 0.9439
-3.3926 -13.8416 -2.3477 0.9439
-2.5718 -11.4859 -1.9390 0.9534
-2.3365 -11.5152 -1.9357 0.9535
-2.1448 -11.7798 -1.9725 0.9526
-1.9053 -11.8055 -1.9700 0.9527
-1.6710 -11.8645 -1.9738 0.9526
-1.4691 -12.2009 -2.0245 0.9514
-1.2370 -12.3597 -2.0463 0.9509
-0.5630 -14.2510 -2.3495 0.9438
0.0098 -14.2643 -2.3499 0.9438
0.2964 -14.2624 -2.3501 0.9438
0.5828 -14.2546 -2.3503 0.9438
1.7256 -14.1661 -2.3510 0.9438
2.0100 -14.1297 -2.3511 0.9438
2.8579 -13.9861 -2.3517 0.9438
3.1385 -13.9269 -2.3518 0.9438
3.4179 -13.8620 -2.3520 0.9438
3.6959 -13.7916 -2.3522 0.9438
3.9724 -13.7155 -2.3523 0.9438
4.2474 -13.6340 -2.3525 0.9438
4.5207 -13.5468 -2.3527 0.9437
4.7923 -13.4543 -2.3528 0.9437
5.0619 -13.3562 -2.3530 0.9437
5.3295 -13.2527 -2.3532 0.9437
5.5950 -13.1439 -2.3533 0.9437
5.8583 -13.0297 -2.3535 0.9437
6.3777 -12.7856 -2.3538 0.9437
6.6337 -12.6558 -2.3540 0.9437
7.3853 -12.2356 -2.3544 0.9437
7.6300 -12.0855 -2.3545 0.9437
7.8717 -11.9306 -2.3547 0.9437
9.2695 -11.3772 -2.4176 0.9422
10.7547 -10.7825 -2.5088 0.9401
10.9696 -10.5649 -2.5090 0.9401
11.5876 -9.8864 -2.5093 0.9401
11.7844 -9.6521 -2.5094 0.9401
12.5231 -8.6765 -2.5098 0.9401
12.8624 -8.1671 -2.5100 0.9401
13.0243 -7.9074 -2.5101 0.9401
13.3323 -7.3783 -2.5103 0.9401
13.4782 -7.1093 -2.5103 0.9401
13.6187 -6.8373 -2.5104 0.9401
13.8830 -6.2851 -2.5105 0.9401
14.0068 -6.0052 -2.5106 0.9401
14.1250 -5.7227 -2.5107 0.9401
14.3440 -5.1510 -2.5108 0.9401
14.4448 -4.8620 -2.5108 0.9401
14.5399 -4.5709 -2.5109 0.9401
7.6197 9.9348 -2.3533 0.9503
7.4182 10.0852 -2.3532 0.9503
7.1940 10.2037 -2.3467 0.9505
6.9164 10.2408 -2.3227 0.9509
6.6880 10.3446 -2.3154 0.9511
6.4785 10.4763 -2.3152 0.9511
5.9290 11.0208 -2.3522 0.9503
4.5592 11.6493 -2.3513 0.9504
4.3240 11.7377 -2.3512 0.9504
3.8486 11.9004 -2.3509 0.9504
3.6085 11.9745 -2.3507 0.9504
3.3671 12.0438 -2.3506 0.9504
3.1243 12.1082 -2.3504 0.9504
2.8802 12.1677 -2.3503 0.9504
2.6351 12.2223 -2.3501 0.9504
2.1418 12.3166 -2.3498 0.9504
1.6451 12.3910 -2.3495 0.9504
1.1460 12.4454 -2.3492 0.9504
0.3943 12.4893 -2.3487 0.9504
0.1433 12.4939 -2.3485 0.9504
-0.6093 12.4774 -2.3481 0.9504
-0.5802 8.4097 -1.5844 0.9663
-1.6084 12.3849 -2.3474 0.9504
-2.1043 12.3087 -2.3471 0.9504
-2.5966 12.2127 -2.3468 0.9505
-2.8412 12.1573 -2.3467 0.9505
-3.3268 12.0319 -2.3464 0.9505
-3.5676 11.9619 -2.3462 0.9505
-4.0446 11.8075 -2.3459 0.9505
-4.2807 11.7231 -2.3458 0.9505
-4.7475 11.5404 -2.3455 0.9505
-5.6572 11.1195 -2.3450 0.9505
-6.0985 10.8821 -2.3447 0.9505
-6.5300 10.6272 -2.3444 0.9505
-7.3603 10.0667 -2.3440 0.9505
-7.9521 9.6037 -2.3436 0.9505
-9.3830 8.2047 -2.3428 0.9505
-9.5456 8.0142 -2.3427 0.9505
-9.5681 7.7108 -2.3097 0.9512
-8.9462 6.6351 -2.0935 0.9557
-8.9497 6.3631 -2.0640 0.9563
-8.9734 6.1124 -2.0408 0.9568
-9.5367 5.6870 -2.0871 0.9558
-11.6594 6.3323 -2.4939 0.9474
-11.7840 6.0967 -2.4938 0.9474
-12.1289 5.3755 -2.4936 0.9474
-12.2342 5.1307 -2.4936 0.9474
-12.4299 4.6350 -2.4935 0.9474
-12.6056 4.1319 -2.4934 0.9474
-12.7611 3.6222 -2.4933 0.9474
-12.8311 3.3651 -2.4933 0.9474
-12.9556 2.8470 -2.4933 0.9474
-13.0101 2.5861 -2.4932 0.9474
-13.0593 2.3243 -2.4932 0.9474
-13.1033 2.0615 -2.4932 0.9474
-13.2264 1.0031 -2.4932 0.9474
-13.2439 0.7372 -2.4932 0.9474
-13.2514 -0.5945 -2.4933 0.9474
-13.2370 -0.8605 -2.4933 0.9474
-13.2171 -1.1262 -2.4933 0.9474
-13.1616 -1.6562 -2.4934 0.9474
-13.1259 -1.9203 -2.4934 0.9474
-13.0386 -2.4460 -2.4935 0.9474
-12.9870 -2.7075 -2.4935 0.9474
-12.7289 -3.7414 -2.4938 0.9474
-12.5690 -4.2499 -2.4939 0.9474
-12.4815 -4.5016 -2.4940 0.9474
-12.1888 -5.2456 -2.4942 0.9474
-12.0814 -5.4896 -2.4943 0.9474
-11.9691 -5.7313 -2.4943 0.9474
-11.7300 -6.2079 -2.4945 0.9474
-11.6034 -6.4425 -2.4946 0.9474
-11.4721 -6.6745 -2.4947 0.9474
-11.1957 -7.1305 -2.4949 0.9474
-11.0506 -7.3542 -2.4950 0.9474
-10.7473 -7.7928 -2.4952 0.9474
-10.4265 -8.2189 -2.4954 0.9474
-10.2598 -8.4270 -2.4956 0.9474
-9.9140 -8.8332 -2.4958 0.9474
-9.7351 -9.0310 -2.4959 0.9474
