ply
format ascii 1.0
element vertex 1543
property float32 x
property float32 y
property float32 z
property float32 I
end_header
1.7366 8.3839 -0.0482 0.9663
3.2862 19.8508 -0.1133 0.9227
2.7855 19.2148 -0.1093 0.9253
2.4043 19.3107 -0.1096 0.9251
1.6359 19.5043 -0.1102 0.9247
0.4657 19.9027 -0.1121 0.9235
-0.4886 29.0859 -0.1638 0.8902
-0.7659 9.9164 -0.0560 0.9610
-0.9624 9.8724 -0.0558 0.9611
-7.5570 34.1547 -0.1969 0.8694
-8.7640 33.2200 -0.1934 0.8716
-9.3494 32.7561 -0.1918 0.8726
-11.7688 19.6659 -0.1290 0.9124
-11.5304 18.4171 -0.1223 0.9168
-13.0917 16.8738 -0.1202 0.9181
-13.4900 16.6839 -0.1208 0.9178
-13.8922 16.4922 -0.1214 0.9174
-15.7836 15.9418 -0.1263 0.9142
-16.4830 15.9922 -0.1293 0.9122
-29.0196 22.9821 -0.2084 0.8624
-31.0466 21.6773 -0.2132 0.8594
-40.1117 23.4561 -0.2616 0.8304
-19.9502 7.7009 -0.1204 0.9180
-20.2348 7.3471 -0.1212 0.9175
-18.3937 6.2632 -0.1094 0.9252
-77.4873 24.6592 -0.4578 0.7223
-76.6972 22.7210 -0.4504 0.7262
-65.5372 17.9908 -0.3826 0.7620
-73.4891 17.0304 -0.4247 0.7395
-72.7776 15.3314 -0.4187 0.7427
-71.8805 13.6400 -0.4119 0.7463
-27.7766 4.6947 -0.1587 0.8934
-30.8088 3.3139 -0.1744 0.8834
-72.5289 4.8638 -0.4093 0.7477
-78.5688 2.1038 -0.4425 0.7302
-81.0674 0.5411 -0.4564 0.7230
-88.8230 -8.3563 -0.5023 0.6999
-52.1964 -32.4335 -0.3460 0.7821
-35.4154 -26.1690 -0.2479 0.8385
-31.0717 -23.9394 -0.2208 0.8548
-57.9505 -48.4806 -0.4254 0.7392
-35.1606 -31.9019 -0.2673 0.8270
-20.9205 -20.5735 -0.1652 0.8893
-20.6304 -21.1203 -0.1662 0.8886
-20.0388 -22.2357 -0.1685 0.8872
-19.1724 -22.1537 -0.1650 0.8894
-18.8742 -22.7159 -0.1663 0.8886
-16.7993 -22.8960 -0.1599 0.8926
-15.6867 -22.3058 -0.1535 0.8967
-13.7053 -21.2549 -0.1424 0.9038
-12.8180 -20.7842 -0.1375 0.9069
-12.1225 -20.5705 -0.1344 0.9089
-10.4344 -20.4280 -0.1291 0.9123
-9.8107 -20.1989 -0.1264 0.9141
-9.4190 -21.5558 -0.1324 0.9102
-9.1315 -22.0978 -0.1346 0.9088
-8.5176 -23.2136 -0.1392 0.9058
-8.0174 -23.2872 -0.1386 0.9062
-3.4796 -11.6017 -0.0682 0.9527
-4.8622 -17.4806 -0.1022 0.9300
-4.4265 -17.2494 -0.1003 0.9312
-4.0064 -17.0266 -0.0985 0.9324
-3.4704 -17.9570 -0.1030 0.9295
-2.8201 -18.5688 -0.1057 0.9276
-2.4109 -18.3518 -0.1042 0.9286
-2.0133 -18.1409 -0.1028 0.9296
45.0395 32.3605 -1.5616 0.8010
33.0704 28.0481 -1.2210 0.8407
31.9175 29.3549 -1.2210 0.8407
13.3459 15.6334 -0.5788 0.9210
21.0394 29.0848 -1.0108 0.8662
48.0801 69.3591 -2.3764 0.7134
36.5117 54.9992 -1.8589 0.7678
18.6247 33.6372 -1.0827 0.8574
29.2283 68.1413 -2.0878 0.7433
25.2285 66.0202 -1.9901 0.7537
6.5864 19.5588 -0.5811 0.9207
5.7604 19.6886 -0.5776 0.9212
4.5942 20.1338 -0.5815 0.9207
1.7365 8.3833 -0.2411 0.9663
3.9267 21.0816 -0.6038 0.9178
2.8514 19.6690 -0.5596 0.9236
2.4577 19.7394 -0.5601 0.9235
1.6634 19.8323 -0.5604 0.9234
0.1745 52.8993 -1.4896 0.8092
-1.0431 28.2622 -0.7963 0.8930
-0.5818 10.1973 -0.2876 0.9600
-1.4132 10.2229 -0.2906 0.9595
-9.5228 47.5507 -1.3655 0.8236
-7.5573 34.1561 -0.9850 0.8694
-11.1399 19.4935 -0.6322 0.9141
-11.6746 18.6475 -0.6195 0.9157
-11.8458 17.3314 -0.5911 0.9194
-12.2934 17.2325 -0.5960 0.9188
-13.4172 17.2934 -0.6163 0.9161
-15.3325 17.4770 -0.6547 0.9112
-15.8782 16.6954 -0.6488 0.9119
-16.7051 15.5684 -0.6430 0.9127
-36.8802 33.0113 -1.3937 0.8203
-37.8610 32.5429 -1.4058 0.8189
-38.8210 32.0344 -1.4172 0.8176
-29.0317 22.9916 -1.0428 0.8623
-41.7620 30.4252 -1.4548 0.8132
-42.8350 29.9081 -1.4710 0.8114
-43.9762 29.4085 -1.4896 0.8092
-44.9655 28.7795 -1.5033 0.8076
-19.9536 7.7022 -0.6023 0.9180
-52.9693 16.8567 -1.5652 0.8006
-58.2231 14.7315 -1.6911 0.7864
-72.4587 15.2642 -2.0851 0.7436
-71.5655 13.5803 -2.0511 0.7472
-27.7766 4.6947 -0.7932 0.8934
-27.5685 4.0916 -0.7848 0.8945
-75.0105 3.5179 -2.1145 0.7405
-77.7198 2.0810 -2.1892 0.7326
-80.8184 0.5394 -2.2757 0.7237
-84.8319 -2.8443 -2.3900 0.7120
-84.1469 -6.2135 -2.3759 0.7135
-83.3254 -9.5317 -2.3616 0.7149
-80.7053 -17.5709 -2.3257 0.7186
-78.5993 -22.1475 -2.2994 0.7212
-83.6276 -29.1071 -2.4933 0.7016
-82.5935 -32.5235 -2.4995 0.7010
-82.0242 -34.2187 -2.5025 0.7007
-81.4200 -35.9041 -2.5056 0.7004
-80.1091 -39.2432 -2.5118 0.6998
-79.4026 -40.8956 -2.5149 0.6995
-78.6616 -42.5351 -2.5180 0.6992
-52.1962 -32.4334 -1.7304 0.7820
-55.1115 -35.7996 -1.8505 0.7688
-39.0586 -27.6652 -1.3477 0.8257
-33.8950 -25.0455 -1.1867 0.8448
-26.0955 -20.9544 -0.9424 0.8747
-22.9650 -19.2122 -0.8431 0.8871
-19.2488 -17.4648 -0.7319 0.9012
-20.9204 -20.5733 -0.8262 0.8892
-20.6304 -21.1202 -0.8313 0.8886
-20.3366 -21.6741 -0.8369 0.8879
-19.1723 -22.1536 -0.8250 0.8894
-11.8294 -14.8338 -0.5342 0.9269
-11.0441 -15.0522 -0.5257 0.9280
-10.4529 -14.8636 -0.5117 0.9299
-9.5298 -14.7794 -0.4952 0.9320
-8.5064 -14.4345 -0.4718 0.9352
-8.1398 -14.4693 -0.4675 0.9357
-7.8112 -14.5626 -0.4653 0.9360
-7.2721 -14.2371 -0.4502 0.9380
-8.5171 -23.2122 -0.6962 0.9058
-4.9573 -14.3990 -0.4288 0.9409
-4.5678 -14.1876 -0.4197 0.9421
-3.4791 -11.6001 -0.3410 0.9527
-3.9841 -14.3236 -0.4186 0.9422
-3.0639 -14.3045 -0.4119 0.9431
-3.4704 -17.9569 -0.5150 0.9294
-2.4108 -18.3509 -0.5212 0.9286
24.4188 17.5447 -1.5249 0.8865
19.4445 14.5719 -1.2323 0.9073
18.9950 15.4649 -1.2422 0.9066
18.7698 15.9193 -1.2482 0.9061
23.8825 22.8677 -1.6769 0.8760
14.3096 14.8487 -1.0458 0.9207
13.5617 15.2544 -1.0351 0.9215
16.3638 19.9675 -1.3092 0.9018
15.8065 20.9512 -1.3310 0.9002
15.2937 22.0623 -1.3614 0.8981
15.0431 22.6601 -1.3794 0.8968
14.7702 23.2497 -1.3969 0.8955
13.7170 24.7736 -1.4361 0.8928
13.0004 25.8819 -1.4689 0.8905
10.8032 30.0695 -1.6204 0.8799
6.2819 19.9729 -1.0618 0.9196
5.0274 20.1558 -1.0535 0.9202
4.6454 20.3578 -1.0590 0.9198
3.4036 20.5601 -1.0569 0.9199
2.0860 20.0287 -1.0212 0.9225
0.8752 20.1111 -1.0209 0.9225
0.4939 21.1063 -1.0707 0.9189
0.1203 36.4826 -1.8502 0.8641
-0.6049 36.0063 -1.8263 0.8657
-0.5806 10.1777 -0.5170 0.9600
-0.7631 9.8796 -0.5025 0.9611
-1.1631 9.8728 -0.5042 0.9610
-1.4148 10.2341 -0.5240 0.9595
-5.3410 33.6379 -1.7273 0.8725
-5.9532 33.1751 -1.7093 0.8737
-6.5789 32.8507 -1.6991 0.8744
-7.2008 32.5450 -1.6904 0.8750
-9.6139 31.2865 -1.6599 0.8771
-10.2221 31.0306 -1.6569 0.8773
-11.3435 30.2820 -1.6399 0.8785
-13.1115 29.4631 -1.6355 0.8788
-11.5364 20.1874 -1.1792 0.9111
-11.3090 18.0636 -1.0808 0.9182
-11.5533 17.6548 -1.0700 0.9190
-11.8569 17.3477 -1.0656 0.9193
-12.5231 17.5545 -1.0936 0.9173
-12.7530 17.1376 -1.0834 0.9180
-14.1104 17.4512 -1.1381 0.9140
-14.4902 17.2022 -1.1407 0.9139
-15.5871 15.7433 -1.1235 0.9151
-24.9074 23.2127 -1.7267 0.8725
-25.4617 22.7907 -1.7330 0.8721
-26.1921 22.5130 -1.7516 0.8708
-26.8296 22.1393 -1.7641 0.8700
-27.5388 21.8093 -1.7815 0.8688
-28.8424 21.0128 -1.8097 0.8668
-19.7318 12.0771 -1.1732 0.9115
-20.5585 12.0220 -1.2078 0.9090
-21.4940 11.4358 -1.2347 0.9071
-21.8879 11.0870 -1.2443 0.9064
-24.7167 10.1161 -1.3544 0.8986
-20.1823 7.3280 -1.0889 0.9176
-44.6331 13.2222 -2.3608 0.8299
-44.8311 12.3066 -2.3577 0.8301
-45.1673 10.4671 -2.3513 0.8305
-45.3056 9.5441 -2.3481 0.8307
-45.4247 8.6198 -2.3448 0.8310
-27.7766 4.6947 -1.4287 0.8933
-30.8104 3.3141 -1.5716 0.8833
-45.7265 3.0665 -2.3242 0.8323
-45.7087 2.1437 -2.3206 0.8325
-45.6764 1.2230 -2.3173 0.8328
-39.7981 -1.3344 -2.0195 0.8526
-45.6653 -4.2961 -2.3261 0.8322
-45.5994 -5.2162 -2.3276 0.8321
-46.6456 -6.2878 -2.3870 0.8282
-48.2965 -7.5013 -2.4787 0.8222
-48.2300 -8.4868 -2.4835 0.8219
-48.0816 -9.4604 -2.4852 0.8218
-47.7265 -11.4000 -2.4885 0.8216
-47.2938 -13.3263 -2.4919 0.8214
-46.4998 -16.1845 -2.4970 0.8210
-45.8744 -18.0644 -2.5004 0.8208
-45.1734 -19.9203 -2.5038 0.8206
-44.7947 -20.8382 -2.5055 0.8205
-44.3972 -21.7490 -2.5072 0.8204
-43.0946 -24.4344 -2.5124 0.8200
-39.5682 -24.5867 -2.3625 0.8298
-38.6005 -26.1921 -2.3657 0.8296
-37.1902 -26.3417 -2.3113 0.8332
-31.8021 -23.4991 -2.0053 0.8535
-28.6034 -22.0376 -1.8312 0.8654
-22.8904 -19.1497 -1.5135 0.8873
-20.6065 -17.9551 -1.3861 0.8963
-18.9016 -17.8552 -1.3186 0.9011
-20.6303 -21.1201 -1.4973 0.8885
-20.3365 -21.6740 -1.5073 0.8878
-20.0386 -22.2355 -1.5180 0.8870
-18.8740 -22.7158 -1.4978 0.8884
-11.2042 -14.6441 -0.9351 0.9288
-8.7602 -14.2046 -0.8464 0.9353
-5.4861 -14.0706 -0.7659 0.9413
-5.1297 -13.9804 -0.7552 0.9421
-4.7914 -13.9170 -0.7464 0.9428
-3.4786 -11.5985 -0.6141 0.9527
-3.9058 -14.0422 -0.7392 0.9433
-3.2725 -13.9078 -0.7246 0.9444
-2.7358 -14.1562 -0.7312 0.9439
-2.4347 -14.1146 -0.7264 0.9442
-2.1477 -14.1417 -0.7254 0.9443
-1.8584 -14.1464 -0.7236 0.9445
16.4150 11.7940 -1.4820 0.9221
14.2229 12.0629 -1.3674 0.9279
13.6119 12.5189 -1.3560 0.9285
12.6974 12.6567 -1.3145 0.9306
12.1616 12.6198 -1.2850 0.9321
13.4131 14.4902 -1.4478 0.9239
11.4364 12.8640 -1.2621 0.9333
10.6618 13.0097 -1.2333 0.9348
10.2122 12.9848 -1.2113 0.9359
15.7570 20.8855 -1.9183 0.9004
14.8646 22.3912 -1.9706 0.8978
13.6232 24.6042 -2.0621 0.8933
13.3664 25.3284 -2.0999 0.8915
13.0405 25.9617 -2.1302 0.8900
11.6420 28.7212 -2.2723 0.8831
11.3780 29.7750 -2.3371 0.8800
10.9365 30.4405 -2.3716 0.8783
10.3317 30.6808 -2.3737 0.8782
6.4172 20.4031 -1.5683 0.9178
5.3847 19.8782 -1.5100 0.9207
5.0595 20.2845 -1.5329 0.9196
4.6787 20.5040 -1.5420 0.9191
3.4024 20.5526 -1.5275 0.9198
2.8551 19.6948 -1.4592 0.9233
2.5225 20.2602 -1.4970 0.9214
2.0795 19.9669 -1.4719 0.9226
1.3009 20.4308 -1.5011 0.9212
0.8770 20.1532 -1.4791 0.9223
0.5157 22.0378 -1.6163 0.9154
-0.7617 9.8613 -0.7252 0.9611
-0.9618 9.8660 -0.7268 0.9610
-1.1629 9.8707 -0.7287 0.9609
-5.7196 31.8733 -2.3743 0.8782
-6.3606 31.7606 -2.3750 0.8782
-8.2586 31.3046 -2.3739 0.8782
-8.8830 31.1217 -2.3731 0.8783
-10.7459 30.5415 -2.3739 0.8782
-11.3594 30.3245 -2.3743 0.8782
-11.9629 30.0814 -2.3737 0.8782
-12.5599 29.8228 -2.3727 0.8783
-13.1541 29.5588 -2.3722 0.8783
-14.3338 29.0118 -2.3727 0.8783
-8.7184 13.9256 -1.2047 0.9362
-9.3661 13.7035 -1.2170 0.9356
-9.7643 13.6874 -1.2328 0.9348
-10.3857 13.3863 -1.2423 0.9343
-10.8598 13.4311 -1.2664 0.9331
-11.6520 13.2818 -1.2955 0.9316
-12.0930 13.2382 -1.3147 0.9306
-12.5324 13.1774 -1.3334 0.9297
-13.8994 12.9537 -1.3931 0.9266
-14.5280 13.0039 -1.4296 0.9248
-15.4620 12.7589 -1.4699 0.9227
-18.7045 11.9715 -1.6283 0.9148
-19.8660 11.6171 -1.6874 0.9118
-20.4923 11.4371 -1.7207 0.9102
-22.2131 10.6964 -1.8077 0.9058
-23.0994 10.5567 -1.8622 0.9032
-23.7678 10.2900 -1.8990 0.9013
-19.9603 7.7048 -1.5688 0.9178
-20.1560 7.3185 -1.5723 0.9176
-30.2992 8.9759 -2.3170 0.8810
-31.0778 5.8973 -2.3194 0.8808
-27.2881 3.4911 -2.0173 0.8955
-31.5016 3.3884 -2.3231 0.8807
-31.6386 2.1217 -2.3250 0.8806
-33.8206 -1.1340 -2.4812 0.8731
-33.7777 -2.4942 -2.4834 0.8730
-33.6115 -4.5308 -2.4868 0.8728
-33.5290 -5.2076 -2.4879 0.8728
-33.4329 -5.8830 -2.4890 0.8727
-33.2002 -7.2282 -2.4913 0.8726
-32.7502 -9.2283 -2.4948 0.8724
-32.5735 -9.8891 -2.4960 0.8724
-32.3834 -10.5466 -2.4972 0.8723
-32.1801 -11.2005 -2.4984 0.8723
-31.9637 -11.8504 -2.4995 0.8722
-31.4915 -13.1376 -2.5019 0.8721
-31.2359 -13.7743 -2.5031 0.8720
-30.9675 -14.4059 -2.5043 0.8720
-30.6863 -15.0324 -2.5055 0.8719
-30.3924 -15.6533 -2.5066 0.8719
-29.0382 -18.0436 -2.5067 0.8719
-26.6404 -18.0766 -2.3606 0.8789
-24.3983 -19.5915 -2.2943 0.8821
-21.7459 -18.1923 -2.0788 0.8925
-18.8558 -17.8120 -1.9019 0.9012
-20.5893 -21.0782 -2.1605 0.8885
-20.0305 -22.2266 -2.1938 0.8869
-11.7559 -14.7417 -1.3825 0.9272
-11.2312 -14.6794 -1.3552 0.9286
-10.9847 -14.9712 -1.3615 0.9282
-9.3551 -14.5084 -1.2658 0.9331
-8.7882 -14.2501 -1.2276 0.9351
-7.6208 -14.2076 -1.1821 0.9374
-6.4774 -14.0476 -1.1342 0.9398
-5.4522 -13.9839 -1.1005 0.9416
-4.8853 -14.1898 -1.1004 0.9416
-3.8982 -14.0151 -1.0666 0.9433
-3.5845 -13.9684 -1.0574 0.9438
-3.2664 -13.8819 -1.0456 0.9444
-2.6888 -13.9129 -1.0390 0.9448
-2.1194 -13.9552 -1.0350 0.9450
-1.5806 -14.2425 -1.0507 0.9441
16.3729 11.7638 -1.9355 0.9222
15.7791 11.8250 -1.8931 0.9238
14.8923 12.1246 -1.8437 0.9257
14.2168 12.0577 -1.7897 0.9278
13.3710 12.2974 -1.7440 0.9296
12.8555 12.3093 -1.7087 0.9310
12.4027 12.3629 -1.6812 0.9320
12.0139 12.4666 -1.6622 0.9328
11.6337 12.5680 -1.6442 0.9335
11.2011 12.5993 -1.6185 0.9345
10.5082 12.8223 -1.5916 0.9356
6.4079 13.4232 -1.4280 0.9420
6.1380 13.5515 -1.4282 0.9420
5.7568 13.4213 -1.4020 0.9430
4.5935 13.6407 -1.3818 0.9438
3.7192 13.7298 -1.3656 0.9444
3.3790 13.5470 -1.3404 0.9454
3.1175 13.6621 -1.3454 0.9452
1.7361 8.3813 -0.8217 0.9662
1.4621 14.0389 -1.3551 0.9449
1.1612 13.8450 -1.3339 0.9457
0.5996 13.7781 -1.3240 0.9461
0.0467 14.1487 -1.3584 0.9447
-0.2366 14.0864 -1.3526 0.9450
-0.5189 14.0592 -1.3507 0.9450
-0.7615 9.8592 -0.9494 0.9610
-1.1626 9.8685 -0.9540 0.9609
-1.4179 10.2567 -0.9941 0.9592
-2.5634 14.2851 -1.3933 0.9433
-3.3507 13.8212 -1.3653 0.9445
-3.6936 14.0007 -1.3901 0.9435
-3.9676 13.9005 -1.3878 0.9436
-4.3191 14.0556 -1.4117 0.9426
-4.8765 13.8597 -1.4106 0.9427
-5.2853 14.1094 -1.4465 0.9413
-5.8799 13.9615 -1.4544 0.9409
-6.1398 13.7969 -1.4498 0.9411
-6.5774 14.0151 -1.4863 0.9397
-6.8463 13.8571 -1.4839 0.9398
-7.1592 13.7856 -1.4913 0.9395
-7.4510 13.6689 -1.4946 0.9394
-7.8365 13.7129 -1.5163 0.9385
-8.1650 13.6437 -1.5265 0.9381
-8.5446 13.6481 -1.5459 0.9373
-8.8095 13.4620 -1.5446 0.9374
-9.2725 13.5665 -1.5776 0.9361
-9.5323 13.3621 -1.5758 0.9362
-9.9850 13.4180 -1.6057 0.9350
-11.1552 13.2430 -1.6623 0.9328
-11.5252 13.1372 -1.6778 0.9322
-11.9278 13.0573 -1.6979 0.9314
-12.4323 13.0721 -1.7319 0.9301
-14.4046 12.8935 -1.8560 0.9253
-14.8948 12.8026 -1.8856 0.9241
-15.4169 12.7217 -1.9190 0.9228
-16.0222 12.6887 -1.9622 0.9212
-17.0231 12.4020 -2.0220 0.9188
-17.5383 12.2455 -2.0536 0.9176
-18.7413 11.9950 -2.1362 0.9145
-19.2740 11.7969 -2.1695 0.9132
-19.8659 11.6170 -2.2094 0.9117
-21.1562 11.2561 -2.3007 0.9082
-21.9665 10.0390 -2.3187 0.9075
-19.3858 7.9343 -2.0110 0.9193
-19.2808 7.4425 -1.9842 0.9203
-23.3395 6.4069 -2.3236 0.9073
-23.7037 4.9935 -2.3256 0.9072
-24.3690 4.1188 -2.3727 0.9055
-25.3972 3.7693 -2.4650 0.9020
-25.6095 3.2764 -2.4787 0.9015
-25.6868 2.7629 -2.4803 0.9014
-25.7453 2.2469 -2.4811 0.9014
-25.7935 1.7297 -2.4819 0.9013
-25.8590 0.6924 -2.4835 0.9013
-25.8762 0.1727 -2.4843 0.9012
-25.8796 -0.8677 -2.4860 0.9012
-25.8657 -1.3880 -2.4868 0.9011
-25.8066 -2.4279 -2.4885 0.9011
-25.6402 -3.9824 -2.4911 0.9010
-25.5639 -4.4984 -2.4920 0.9010
-25.3805 -5.5257 -2.4937 0.9009
-25.2733 -6.0368 -2.4946 0.9009
-25.1559 -6.5457 -2.4955 0.9008
-25.0282 -7.0524 -2.4964 0.9008
-24.7424 -8.0581 -2.4982 0.9007
-24.5843 -8.5567 -2.4991 0.9007
-24.0502 -10.0332 -2.5018 0.9006
-23.8523 -10.5183 -2.5027 0.9005
-23.6447 -10.9994 -2.5036 0.9005
-23.2004 -11.9492 -2.5054 0.9004
-22.9639 -12.4174 -2.5063 0.9004
-22.1979 -13.7932 -2.5090 0.9003
-21.6111 -14.6640 -2.5073 0.9004
-20.5626 -14.5644 -2.4191 0.9037
-19.7662 -14.6056 -2.3595 0.9060
-19.1768 -15.3987 -2.3612 0.9059
-18.8701 -15.7865 -2.3620 0.9059
-18.5555 -16.1680 -2.3628 0.9058
-18.2332 -16.5433 -2.3636 0.9058
-17.9031 -16.9121 -2.3644 0.9058
-17.2207 -17.6296 -2.3660 0.9057
-16.8686 -17.9781 -2.3668 0.9057
-16.5094 -18.3194 -2.3676 0.9057
-12.2802 -14.7798 -1.8448 0.9257
-11.8238 -14.8268 -1.8206 0.9266
-11.4551 -14.9720 -1.8098 0.9270
-10.8944 -14.8481 -1.7680 0.9287
-10.2632 -14.5939 -1.7129 0.9308
-9.7521 -14.4769 -1.6758 0.9323
-8.8992 -14.4300 -1.6276 0.9341
-7.5947 -14.1588 -1.5425 0.9375
-7.1574 -14.0125 -1.5106 0.9387
-5.7859 -14.0017 -1.4545 0.9409
-5.4698 -14.0289 -1.4456 0.9413
-5.1397 -14.0076 -1.4325 0.9418
-3.4777 -11.5953 -1.1622 0.9525
-3.5767 -13.9379 -1.3815 0.9438
-3.2977 -14.0149 -1.3822 0.9438
-2.9875 -13.9477 -1.3694 0.9443
-2.7014 -13.9782 -1.3668 0.9444
-2.1156 -13.9305 -1.3527 0.9450
-1.8487 -14.0728 -1.3627 0.9446
-1.5697 -14.1438 -1.3662 0.9444
16.0062 11.5003 -2.3412 0.9237
15.7674 11.8163 -2.3405 0.9237
15.4477 12.0689 -2.3286 0.9241
14.9140 12.1423 -2.2845 0.9255
14.0748 12.4320 -2.2307 0.9271
12.4233 12.3835 -2.0836 0.9318
12.0016 12.4538 -2.0545 0.9327
11.5504 12.4780 -2.0197 0.9338
11.1762 12.5713 -1.9981 0.9345
10.3802 12.6662 -1.9453 0.9362
9.7067 12.8660 -1.9145 0.9371
8.6515 13.0322 -1.8581 0.9389
7.3642 13.3001 -1.8059 0.9406
7.1066 13.4665 -1.8087 0.9405
6.7120 13.3625 -1.7763 0.9415
6.0686 13.3984 -1.7472 0.9425
5.7912 13.5015 -1.7451 0.9425
4.9218 13.6991 -1.7291 0.9431
4.2309 13.4517 -1.6750 0.9448
3.9312 13.4366 -1.6630 0.9452
3.3597 13.4696 -1.6490 0.9456
3.0880 13.5330 -1.6488 0.9456
1.7359 8.3807 -1.0166 0.9661
2.5237 13.5491 -1.6371 0.9460
2.2501 13.5918 -1.6365 0.9460
1.7103 13.7365 -1.6443 0.9458
1.4474 13.8980 -1.6598 0.9453
1.1582 13.8083 -1.6460 0.9457
-0.2327 13.8523 -1.6457 0.9457
-0.5083 13.7724 -1.6371 0.9460
-0.5773 10.1193 -1.2040 0.9600
-0.7613 9.8571 -1.1744 0.9610
-1.1624 9.8664 -1.1801 0.9608
-2.2245 14.0098 -1.6850 0.9445
-3.0792 13.9169 -1.6931 0.9442
-3.6637 13.8875 -1.7061 0.9438
-4.5418 13.7872 -1.7243 0.9432
-5.1839 13.8386 -1.7554 0.9422
-5.5640 13.9908 -1.7885 0.9412
-5.8035 13.7801 -1.7761 0.9415
-6.1327 13.7810 -1.7918 0.9410
-7.5306 13.8148 -1.8690 0.9386
-8.1652 13.6441 -1.8888 0.9380
-8.9227 13.6350 -1.9356 0.9365
-9.2677 13.5595 -1.9510 0.9360
-9.9141 13.3228 -1.9727 0.9353
-10.7117 13.2480 -2.0237 0.9337
-11.1373 13.2218 -2.0535 0.9327
-11.5247 13.1367 -2.0758 0.9320
-11.9031 13.0303 -2.0964 0.9314
-12.8333 12.9620 -2.1667 0.9292
-14.3597 12.8533 -2.2892 0.9253
-15.3091 12.1241 -2.3197 0.9244
-15.5519 11.8157 -2.3200 0.9243
-15.7885 11.5025 -2.3204 0.9243
-16.4607 10.5354 -2.3215 0.9243
-17.9613 7.7762 -2.3249 0.9242
-18.1177 7.4152 -2.3254 0.9242
-18.2833 6.2257 -2.2943 0.9251
-18.6705 5.9416 -2.3274 0.9241
-18.9741 5.6209 -2.3507 0.9234
-20.2029 5.1117 -2.4754 0.9195
-20.4398 4.3059 -2.4813 0.9193
-20.5271 3.8952 -2.4818 0.9193
-20.6773 3.0688 -2.4831 0.9192
-20.7399 2.6534 -2.4837 0.9192
-20.7943 2.2367 -2.4843 0.9192
-20.8405 1.8189 -2.4850 0.9192
-20.8782 1.4001 -2.4856 0.9192
-20.9076 0.9805 -2.4863 0.9191
-20.9286 0.5604 -2.4869 0.9191
-20.9412 0.1398 -2.4876 0.9191
-20.9455 -0.2811 -2.4882 0.9191
-20.9412 -0.7021 -2.4889 0.9191
-20.9286 -1.1231 -2.4896 0.9190
-20.9076 -1.5438 -2.4903 0.9190
-20.8403 -2.3840 -2.4917 0.9190
-20.7940 -2.8030 -2.4924 0.9190
-20.7394 -3.2212 -2.4931 0.9189
-20.6763 -3.6383 -2.4938 0.9189
-20.5251 -4.4687 -2.4952 0.9189
-20.3408 -5.2928 -2.4967 0.9188
-20.2361 -5.7021 -2.4974 0.9188
-19.8732 -6.9169 -2.4996 0.9187
-19.7359 -7.3170 -2.5003 0.9187
-19.5906 -7.7144 -2.5010 0.9187
-19.2761 -8.5003 -2.5025 0.9186
-18.7453 -9.6546 -2.5047 0.9186
-18.3530 -10.4061 -2.5061 0.9185
-17.9304 -11.1415 -2.5076 0.9185
-17.7080 -11.5029 -2.5083 0.9185
-17.4783 -11.8598 -2.5090 0.9184
-16.7441 -12.9006 -2.5108 0.9184
-14.9801 -13.0527 -2.3602 0.9231
-14.7189 -13.3547 -2.3608 0.9231
-14.4515 -13.6516 -2.3615 0.9230
-14.1782 -13.9430 -2.3621 0.9230
-13.6138 -14.5092 -2.3634 0.9230
-13.3231 -14.7838 -2.3640 0.9230
-13.0268 -15.0525 -2.3646 0.9229
-12.2795 -14.7790 -2.2824 0.9255
-10.6961 -14.5779 -2.1478 0.9298
-9.7382 -14.4562 -2.0705 0.9322
-8.8454 -14.3428 -2.0017 0.9344
-8.0087 -14.2365 -1.9403 0.9363
-7.6091 -14.1857 -1.9122 0.9372
-7.2206 -14.1363 -1.8856 0.9381
-6.4746 -14.0415 -1.8367 0.9396
-5.8361 -14.1232 -1.8152 0.9403
-5.5460 -14.2245 -1.8136 0.9404
-4.8189 -13.9968 -1.7584 0.9421
-3.4772 -11.5937 -1.4378 0.9524
-3.6213 -14.1117 -1.7306 0.9430
-3.3196 -14.1079 -1.7216 0.9433
-2.9981 -13.9974 -1.7004 0.9440
-2.1342 -14.0531 -1.6885 0.9444
-1.5595 -14.0524 -1.6795 0.9446
13.4262 9.6466 -2.3425 0.9354
13.2265 9.9121 -2.3419 0.9354
13.0216 10.1734 -2.3414 0.9354
12.8115 10.4306 -2.3408 0.9354
12.5964 10.6835 -2.3403 0.9355
12.1514 11.1758 -2.3392 0.9355
11.6873 11.6497 -2.3381 0.9355
11.4482 11.8795 -2.3376 0.9355
11.2048 12.1045 -2.3371 0.9355
10.1401 12.8932 -2.3241 0.9359
9.7839 12.9683 -2.3017 0.9365
8.7702 13.2109 -2.2468 0.9379
8.3892 13.2054 -2.2167 0.9388
7.3855 13.3385 -2.1603 0.9403
7.0328 13.3266 -2.1350 0.9409
6.3455 13.2925 -2.0870 0.9422
6.0706 13.4029 -2.0848 0.9423
5.4640 13.4801 -2.0609 0.9429
5.2128 13.6414 -2.0691 0.9427
4.8393 13.4695 -2.0279 0.9438
4.2308 13.4515 -1.9980 0.9446
3.6592 13.5082 -1.9830 0.9450
3.0554 13.3900 -1.9460 0.9460
1.7358 8.3800 -1.2126 0.9660
2.2477 13.5774 -1.9499 0.9459
1.9820 13.6724 -1.9575 0.9457
1.7094 13.7290 -1.9603 0.9456
1.4448 13.8724 -1.9762 0.9452
0.0453 13.7464 -1.9477 0.9460
-0.2328 13.8608 -1.9642 0.9455
-0.5762 10.0998 -1.4334 0.9600
-0.9612 9.8596 -1.4036 0.9608
-1.1621 9.8642 -1.4073 0.9607
-2.2034 13.8775 -1.9909 0.9448
-2.5028 13.9473 -2.0078 0.9444
-2.8087 14.0248 -2.0266 0.9439
-3.0704 13.8774 -2.0138 0.9442
-3.3729 13.9126 -2.0284 0.9438
-4.2837 13.9403 -2.0663 0.9428
-5.2172 13.9275 -2.1073 0.9417
-6.4243 13.6889 -2.1425 0.9407
-6.8336 13.8314 -2.1859 0.9396
-7.8531 13.7419 -2.2426 0.9381
-8.2211 13.7375 -2.2684 0.9374
-8.5354 13.6334 -2.2791 0.9371
-9.2449 13.5261 -2.3214 0.9360
-9.5155 13.3386 -2.3216 0.9359
-9.7822 13.1455 -2.3217 0.9359
-10.5586 12.5348 -2.3222 0.9359
-10.8091 12.3210 -2.3223 0.9359
-11.0554 12.1023 -2.3225 0.9359
-11.2973 11.8787 -2.3227 0.9359
-11.5348 11.6504 -2.3229 0.9359
-11.9959 11.1797 -2.3234 0.9359
-12.4380 10.6909 -2.3239 0.9359
-13.2626 9.6623 -2.3250 0.9359
-13.4558 9.3951 -2.3253 0.9358
-13.6437 9.1240 -2.3256 0.9358
-14.0032 8.5708 -2.3262 0.9358
-14.1746 8.2889 -2.3266 0.9358
-14.5006 7.7150 -2.3273 0.9358
-14.6550 7.4233 -2.3277 0.9358
-14.8036 7.1284 -2.3280 0.9358
-14.9463 6.8307 -2.3284 0.9358
-16.1372 6.2291 -2.4509 0.9325
-16.5798 5.6456 -2.4816 0.9317
-16.7995 4.9767 -2.4826 0.9317
-16.8993 4.6390 -2.4830 0.9316
-17.0787 3.9578 -2.4840 0.9316
-17.1582 3.6146 -2.4845 0.9316
-17.3556 2.5758 -2.4860 0.9316
-17.4524 1.8772 -2.4871 0.9315
-17.4904 1.5265 -2.4876 0.9315
-17.5213 1.1750 -2.4882 0.9315
-17.5453 0.8229 -2.4887 0.9315
-17.5622 0.4703 -2.4893 0.9315
-17.5720 0.1173 -2.4898 0.9315
-17.5748 -0.2359 -2.4904 0.9315
-17.5705 -0.5891 -2.4909 0.9314
-17.5152 -1.6478 -2.4927 0.9314
-17.4827 -1.9999 -2.4933 0.9314
-17.4431 -2.3513 -2.4938 0.9314
-17.3964 -2.7020 -2.4944 0.9313
-17.3427 -3.0517 -2.4950 0.9313
-17.2821 -3.4004 -2.4956 0.9313
-17.0581 -4.4386 -2.4974 0.9313
-16.9696 -4.7817 -2.4980 0.9313
-16.8742 -5.1229 -2.4986 0.9312
-16.7719 -5.4623 -2.4993 0.9312
-16.6629 -5.7996 -2.4999 0.9312
-16.5470 -6.1348 -2.5005 0.9312
-16.4244 -6.4676 -2.5011 0.9312
-16.2951 -6.7980 -2.5017 0.9312
-16.1592 -7.1258 -2.5023 0.9311
-16.0167 -7.4509 -2.5029 0.9311
-15.7121 -8.0924 -2.5042 0.9311
-15.5501 -8.4085 -2.5048 0.9311
-15.3817 -8.7214 -2.5054 0.9311
-15.2070 -9.0309 -2.5060 0.9310
-15.0262 -9.3369 -2.5066 0.9310
-14.4467 -10.2326 -2.5084 0.9310
-14.2416 -10.5233 -2.5090 0.9310
-13.8138 -11.0923 -2.5102 0.9309
-13.5913 -11.3703 -2.5108 0.9309
-13.1296 -11.9128 -2.5119 0.9309
-12.8719 -12.1593 -2.5089 0.9310
-12.5410 -12.3329 -2.4922 0.9314
-11.9430 -12.2266 -2.4217 0.9333
-10.9094 -12.6059 -2.3621 0.9349
-10.6562 -12.8253 -2.3626 0.9349
-10.1367 -13.2488 -2.3636 0.9348
-9.8705 -13.4527 -2.3641 0.9348
-9.6002 -13.6511 -2.3646 0.9348
-8.7656 -14.2134 -2.3661 0.9348
-8.4202 -14.2881 -2.3499 0.9352
-7.2203 -14.1357 -2.2490 0.9379
-6.8424 -14.0877 -2.2191 0.9387
-6.4743 -14.0409 -2.1908 0.9394
-4.7590 -13.8230 -2.0714 0.9426
-4.4373 -13.7821 -2.0515 0.9432
-3.8113 -13.7025 -2.0152 0.9442
-3.5063 -13.6638 -1.9987 0.9446
-2.9104 -13.5880 -1.9689 0.9454
-2.3446 -13.5927 -1.9544 0.9458
-1.7897 -13.6237 -1.9469 0.9460
-1.5136 -13.6391 -1.9444 0.9461
11.5522 8.3001 -2.3434 0.9440
11.3808 8.5289 -2.3429 0.9440
11.2048 8.7541 -2.3424 0.9440
10.2600 9.8240 -2.3401 0.9440
9.6439 10.4183 -2.3388 0.9441
8.5423 11.3226 -2.3366 0.9441
8.3116 11.4899 -2.3362 0.9441
8.0776 11.6526 -2.3358 0.9441
7.6003 11.9636 -2.3349 0.9442
7.3571 12.1118 -2.3346 0.9442
7.1110 12.2552 -2.3342 0.9442
6.8622 12.3935 -2.3338 0.9442
6.6107 12.5269 -2.3334 0.9442
6.1002 12.7784 -2.3327 0.9442
5.5801 13.0092 -2.3320 0.9442
5.3168 13.1168 -2.3316 0.9442
4.7841 13.3160 -2.3309 0.9443
4.5149 13.4076 -2.3306 0.9443
3.9679 13.5619 -2.3278 0.9443
3.4090 13.6673 -2.3205 0.9445
3.1073 13.6175 -2.3010 0.9449
2.5694 13.7947 -2.3116 0.9447
2.2644 13.6785 -2.2841 0.9453
1.4440 13.8650 -2.2965 0.9451
0.8796 13.8150 -2.2805 0.9454
0.6012 13.8163 -2.2782 0.9455
0.2505 10.7068 -1.7643 0.9575
-0.5137 13.9182 -2.2944 0.9451
-0.5751 10.0803 -1.6633 0.9599
-0.7610 9.8528 -1.6280 0.9607
-0.9610 9.8574 -1.6316 0.9606
-1.1619 9.8621 -1.6359 0.9605
-1.9329 13.9827 -2.3254 0.9444
-1.8134 11.4208 -1.9050 0.9542
-2.4931 13.8929 -2.3253 0.9444
-3.0490 13.7804 -2.3251 0.9444
-3.3252 13.7159 -2.3250 0.9444
-3.8734 13.5705 -2.3249 0.9444
-4.6837 13.3118 -2.3248 0.9444
-5.2147 13.1127 -2.3247 0.9444
-5.4772 13.0053 -2.3247 0.9444
-5.7374 12.8927 -2.3247 0.9444
-6.5040 12.5240 -2.3248 0.9444
-6.7545 12.3911 -2.3249 0.9444
-7.0023 12.2532 -2.3249 0.9444
-7.2473 12.1103 -2.3250 0.9444
-7.9647 11.6530 -2.3253 0.9444
-8.1976 11.4912 -2.3254 0.9444
-8.4272 11.3247 -2.3255 0.9444
-8.8764 10.9781 -2.3257 0.9444
-9.0958 10.7982 -2.3259 0.9444
-9.3116 10.6140 -2.3260 0.9444
-9.5236 10.4255 -2.3262 0.9444
-9.9363 10.0359 -2.3266 0.9444
-10.1368 9.8350 -2.3268 0.9444
-10.5256 9.4215 -2.3272 0.9443
-10.7138 9.2089 -2.3274 0.9443
-10.8978 8.9926 -2.3276 0.9443
-11.2526 8.5493 -2.3281 0.9443
-11.5895 8.0920 -2.3286 0.9443
-12.3923 6.9163 -2.3379 0.9441
-12.8486 6.8361 -2.3976 0.9427
-13.3182 6.7461 -2.4594 0.9413
-13.8310 5.9880 -2.4829 0.9407
-14.0646 5.4291 -2.4836 0.9407
-14.1731 5.1461 -2.4840 0.9407
-14.5498 3.9941 -2.4856 0.9407
-14.6296 3.7016 -2.4860 0.9407
-14.7035 3.4074 -2.4864 0.9406
-14.7716 3.1118 -2.4869 0.9406
-14.9401 2.2173 -2.4882 0.9406
-14.9844 1.9171 -2.4886 0.9406
-15.0549 1.3139 -2.4896 0.9406
-15.0810 1.0113 -2.4900 0.9406
-15.1012 0.7082 -2.4905 0.9406
-15.1232 0.1009 -2.4914 0.9405
-15.1252 -0.2030 -2.4919 0.9405
-15.1107 -0.8109 -2.4929 0.9405
-15.0720 -1.4179 -2.4939 0.9405
-15.0089 -2.0232 -2.4949 0.9405
-14.9683 -2.3248 -2.4954 0.9404
-14.8689 -2.9256 -2.4964 0.9404
-14.5981 -4.1134 -2.4985 0.9404
-14.5155 -4.4068 -2.4990 0.9404
-14.4271 -4.6986 -2.4996 0.9403
-14.3327 -4.9886 -2.5001 0.9403
-13.7746 -6.4079 -2.5027 0.9403
-13.6459 -6.6848 -2.5033 0.9403
-13.3719 -7.2307 -2.5043 0.9402
-13.2267 -7.4995 -2.5048 0.9402
-13.0760 -7.7654 -2.5054 0.9402
-12.4206 -8.7975 -2.5074 0.9402
-12.2438 -9.0472 -2.5079 0.9402
-11.4872 -10.0092 -2.5100 0.9401
-11.0801 -10.4668 -2.5110 0.9401
-10.8697 -10.6894 -2.5115 0.9401
-10.4355 -11.1218 -2.5124 0.9400
-9.9757 -11.5269 -2.5113 0.9401
-9.7295 -11.7099 -2.5081 0.9401
-9.3883 -11.7728 -2.4806 0.9408
-8.5624 -11.6699 -2.3845 0.9430
-8.2494 -11.7303 -2.3624 0.9435
-8.0134 -11.8958 -2.3629 0.9435
-7.7741 -12.0565 -2.3633 0.9435
-7.5316 -12.2124 -2.3637 0.9435
-7.2859 -12.3634 -2.3641 0.9435
-7.0372 -12.5094 -2.3645 0.9435
-6.7855 -12.6503 -2.3649 0.9435
-6.2738 -12.9169 -2.3656 0.9434
-5.7515 -13.1626 -2.3664 0.9434
-5.4867 -13.2775 -2.3667 0.9434
-5.2195 -13.3871 -2.3671 0.9434
-4.9502 -13.4912 -2.3674 0.9434
-4.6788 -13.5899 -2.3678 0.9434
-4.4054 -13.6830 -2.3681 0.9434
-3.8111 -13.7020 -2.3429 0.9440
-3.5062 -13.6632 -2.3238 0.9444
-3.2060 -13.6251 -2.3059 0.9448
-2.9103 -13.5875 -2.2892 0.9452
-2.6238 -13.5766 -2.2780 0.9455
-2.3445 -13.5922 -2.2722 0.9456
-2.0666 -13.6077 -2.2674 0.9457
-1.7897 -13.6232 -2.2635 0.9458
-1.5136 -13.6386 -2.2606 0.9459
9.8240 7.6752 -2.3433 0.9505
9.6660 7.8697 -2.3428 0.9505
9.5043 8.0609 -2.3424 0.9505
9.3388 8.2488 -2.3420 0.9506
9.1696 8.4333 -2.3416 0.9506
8.9967 8.6144 -2.3412 0.9506
8.8203 8.7919 -2.3408 0.9506
8.6404 8.9659 -2.3404 0.9506
8.4571 9.1362 -2.3400 0.9506
7.8874 9.6243 -2.3389 0.9506
7.6912 9.7793 -2.3385 0.9506
7.4919 9.9303 -2.3381 0.9506
6.8768 10.3588 -2.3370 0.9507
6.6663 10.4933 -2.3367 0.9507
6.4531 10.6236 -2.3363 0.9507
6.2374 10.7495 -2.3360 0.9507
6.0193 10.8711 -2.3357 0.9507
5.7988 10.9883 -2.3353 0.9507
5.5761 11.1011 -2.3350 0.9507
5.3511 11.2094 -2.3347 0.9507
5.1241 11.3131 -2.3344 0.9507
4.8951 11.4122 -2.3341 0.9507
4.6642 11.5068 -2.3338 0.9507
4.1971 11.6820 -2.3332 0.9507
3.4844 11.9094 -2.3323 0.9508
3.2440 11.9757 -2.3321 0.9508
3.0024 12.0371 -2.3318 0.9508
2.0253 12.2343 -2.3309 0.9508
1.5319 12.3035 -2.3304 0.9508
1.0361 12.3530 -2.3300 0.9508
0.5388 12.3827 -2.3297 0.9508
0.0409 12.3925 -2.3293 0.9508
-0.4570 12.3825 -2.3290 0.9508
-0.5740 10.0607 -1.8941 0.9598
-0.9607 9.8552 -1.8612 0.9605
-1.1616 9.8598 -1.8661 0.9604
-2.0281 9.1664 -1.7646 0.9625
-2.9181 12.0366 -2.3280 0.9508
-3.1592 11.9753 -2.3279 0.9508
-4.1103 11.6822 -2.3277 0.9508
-4.5763 11.5075 -2.3277 0.9508
-4.8067 11.4132 -2.3277 0.9508
-5.2614 11.2110 -2.3277 0.9508
-5.7078 10.9908 -2.3278 0.9508
-6.5724 10.4980 -2.3280 0.9508
-7.3953 9.9379 -2.3284 0.9508
-7.7894 9.6337 -2.3286 0.9508
-7.9818 9.4757 -2.3287 0.9508
-8.1711 9.3140 -2.3289 0.9508
-8.3571 9.1485 -2.3290 0.9508
-8.7191 8.8065 -2.3293 0.9508
-9.0672 8.4503 -2.3297 0.9508
-9.4009 8.0804 -2.3300 0.9508
-9.5622 7.8906 -2.3302 0.9508
-10.0230 7.3021 -2.3309 0.9508
-10.3182 7.2043 -2.3654 0.9501
-10.6861 7.1462 -2.4163 0.9490
-11.2468 6.8838 -2.4785 0.9477
-11.3992 6.6659 -2.4821 0.9477
-12.0239 5.4951 -2.4849 0.9476
-12.1334 5.2530 -2.4852 0.9476
-12.3379 4.7625 -2.4858 0.9476
-12.4328 4.5143 -2.4862 0.9476
-12.8966 2.9887 -2.4883 0.9475
-12.9560 2.7293 -2.4887 0.9475
-13.0102 2.4688 -2.4890 0.9475
-13.2027 1.1523 -2.4910 0.9475
-13.2427 0.6211 -2.4918 0.9475
-13.2628 -0.1780 -2.4931 0.9474
-13.2588 -0.4446 -2.4935 0.9474
-13.2495 -0.7110 -2.4940 0.9474
-13.2148 -1.2432 -2.4948 0.9474
-13.1895 -1.5088 -2.4953 0.9474
-13.1589 -1.7738 -2.4957 0.9474
-13.0351 -2.5648 -2.4971 0.9474
-12.9833 -2.8267 -2.4975 0.9474
-12.9263 -3.0876 -2.4980 0.9473
-12.7964 -3.6058 -2.4989 0.9473
-12.6459 -4.1185 -2.4998 0.9473
-12.2834 -5.1244 -2.5017 0.9473
-11.9590 -5.8584 -2.5030 0.9472
-11.7182 -6.3365 -2.5040 0.9472
-11.5907 -6.5719 -2.5044 0.9472
-11.4584 -6.8047 -2.5049 0.9472
-11.3214 -7.0349 -2.5053 0.9472
-11.1798 -7.2622 -2.5058 0.9472
-11.0336 -7.4868 -2.5062 0.9472
-10.8829 -7.7083 -2.5067 0.9472
-10.7277 -7.9269 -2.5071 0.9472
-10.5682 -8.1423 -2.5076 0.9471
-10.4043 -8.3545 -2.5080 0.9471
-10.2361 -8.5634 -2.5085 0.9471
-9.5221 -9.3642 -2.5102 0.9471
-9.3336 -9.5553 -2.5107 0.9471
-9.1413 -9.7425 -2.5111 0.9471
-8.9452 -9.9259 -2.5115 0.9471
-8.5420 -10.2807 -2.5123 0.9471
-8.3350 -10.4520 -2.5127 0.9470
-7.4716 -11.0916 -2.5137 0.9470
-7.2404 -11.2288 -2.5113 0.9471
-6.7325 -11.4243 -2.4925 0.9475
-6.4105 -11.3953 -2.4575 0.9482
-5.7970 -11.3493 -2.3954 0.9495
-5.2662 -11.4209 -2.3639 0.9501
-5.0363 -11.5260 -2.3642 0.9501
-4.8044 -11.6264 -2.3645 0.9501
-4.3344 -11.8131 -2.3651 0.9501
-4.0967 -11.8992 -2.3654 0.9501
-3.8572 -11.9806 -2.3657 0.9501
-3.3736 -12.1287 -2.3663 0.9501
-2.8842 -12.2572 -2.3668 0.9500
-2.6376 -12.3140 -2.3670 0.9500
-2.3898 -12.3658 -2.3673 0.9500
-1.8914 -12.4543 -2.3678 0.9500
9.5871 6.8882 -2.4954 0.9529
9.4349 7.0706 -2.4922 0.9529
9.2794 7.2498 -2.4891 0.9530
8.4001 7.4197 -2.3691 0.9552
8.1565 7.5016 -2.3424 0.9557
7.8461 7.8209 -2.3417 0.9557
7.6862 7.9758 -2.3414 0.9557
7.3574 8.2757 -2.3407 0.9557
7.1886 8.4207 -2.3403 0.9557
7.0169 8.5622 -2.3400 0.9557
6.4855 8.9656 -2.3390 0.9558
6.3032 9.0928 -2.3387 0.9558
5.7416 9.4523 -2.3377 0.9558
5.1597 9.7773 -2.3368 0.9558
4.7615 9.9742 -2.3363 0.9558
4.3559 10.1551 -2.3357 0.9558
4.1505 10.2394 -2.3354 0.9558
3.9434 10.3195 -2.3352 0.9558
3.3135 10.5350 -2.3344 0.9559
2.6719 10.7122 -2.3337 0.9559
2.0211 10.8507 -2.3331 0.9559
1.8025 10.8882 -2.3329 0.9559
1.5832 10.9213 -2.3327 0.9559
1.1429 10.9744 -2.3323 0.9559
0.4796 11.0209 -2.3318 0.9559
0.2128 9.0965 -1.9233 0.9635
0.0301 9.1279 -1.9295 0.9634
-0.1534 9.1322 -1.9306 0.9633
-0.3372 9.1365 -1.9326 0.9633
-0.8920 9.1495 -1.9432 0.9631
-1.0785 9.1538 -1.9483 0.9630
-1.4548 9.1627 -1.9611 0.9628
-1.6450 9.1671 -1.9687 0.9626
-2.0303 9.1762 -1.9866 0.9623
-3.0256 10.6003 -2.3302 0.9559
-3.4490 10.4699 -2.3301 0.9559
-3.6586 10.3984 -2.3301 0.9559
-3.8668 10.3227 -2.3301 0.9559
-4.4817 10.0710 -2.3301 0.9559
-4.6832 9.9789 -2.3301 0.9559
-5.2761 9.6790 -2.3302 0.9559
-5.4697 9.5712 -2.3302 0.9559
-5.8501 9.3442 -2.3303 0.9559
-6.0369 9.2250 -2.3304 0.9559
-6.2212 9.1022 -2.3305 0.9559
-6.4031 8.9756 -2.3306 0.9559
-6.5824 8.8455 -2.3307 0.9559
-6.9331 8.5746 -2.3309 0.9559
-7.1043 8.4340 -2.3310 0.9559
-7.2727 8.2900 -2.3311 0.9559
-7.4382 8.1426 -2.3312 0.9559
-7.6008 7.9920 -2.3314 0.9559
-7.7603 7.8381 -2.3315 0.9559
-8.0700 7.5209 -2.3318 0.9559
-8.3108 7.4390 -2.3577 0.9554
-8.6086 7.3994 -2.3995 0.9547
-8.9150 7.3566 -2.4432 0.9538
-9.3415 7.0973 -2.4799 0.9532
-9.6369 6.7286 -2.4844 0.9531
-9.9012 6.3371 -2.4849 0.9531
-10.0275 6.1375 -2.4851 0.9531
-10.1498 5.9353 -2.4854 0.9531
-10.2681 5.7308 -2.4856 0.9531
-10.4922 5.3147 -2.4861 0.9531
-10.5980 5.1033 -2.4864 0.9530
-10.7970 4.6744 -2.4870 0.9530
-10.8900 4.4570 -2.4873 0.9530
-10.9786 4.2378 -2.4875 0.9530
-11.0629 4.0168 -2.4878 0.9530
-11.1427 3.7942 -2.4881 0.9530
-11.2181 3.5700 -2.4885 0.9530
-11.2890 3.3443 -2.4888 0.9530
-11.4744 2.6591 -2.4897 0.9530
-11.5271 2.4283 -2.4901 0.9530
-11.6186 1.9637 -2.4908 0.9530
-11.6914 1.4957 -2.4915 0.9530
-11.7207 1.2607 -2.4918 0.9529
-11.7454 1.0251 -2.4922 0.9529
-11.7806 0.5525 -2.4929 0.9529
-11.7968 0.0787 -2.4937 0.9529
-11.7978 -0.1584 -2.4940 0.9529
-11.7940 -0.3954 -2.4944 0.9529
-11.7855 -0.6325 -2.4948 0.9529
-11.7722 -0.8693 -2.4952 0.9529
-11.7040 -1.5777 -2.4964 0.9529
-11.5932 -2.2811 -2.4976 0.9528
-11.3800 -3.2066 -2.4992 0.9528
-11.3151 -3.4352 -2.4996 0.9528
-11.2456 -3.6625 -2.5000 0.9528
-11.1716 -3.8884 -2.5004 0.9528
-11.0100 -4.3355 -2.5012 0.9528
-10.9224 -4.5566 -2.5016 0.9528
-10.7340 -4.9935 -2.5025 0.9528
-10.6333 -5.2090 -2.5029 0.9527
-10.5282 -5.4225 -2.5033 0.9527
-10.3052 -5.8430 -2.5041 0.9527
-10.1874 -6.0499 -2.5045 0.9527
-9.6749 -6.8528 -2.5061 0.9527
-9.2489 -7.4267 -2.5073 0.9527
-9.0992 -7.6123 -2.5077 0.9527
-8.9458 -7.7948 -2.5081 0.9526
-8.7888 -7.9742 -2.5085 0.9526
-8.6281 -8.1504 -2.5089 0.9526
-8.4639 -8.3235 -2.5093 0.9526
-8.2962 -8.4932 -2.5096 0.9526
-8.1251 -8.6594 -2.5100 0.9526
-7.9506 -8.8223 -2.5104 0.9526
-7.5919 -9.1373 -2.5111 0.9526
-7.4079 -9.2893 -2.5115 0.9526
-6.6418 -9.8597 -2.5129 0.9526
-6.0381 -10.2461 -2.5139 0.9525
-5.6230 -10.4831 -2.5146 0.9525
-5.4119 -10.5953 -2.5149 0.9525
-4.5394 -10.9852 -2.5125 0.9526
-4.3153 -11.0680 -2.5111 0.9526
-4.0899 -11.1466 -2.5098 0.9526
-3.8487 -11.1790 -2.4991 0.9528
-3.5958 -11.1683 -2.4801 0.9532
-3.3464 -11.1577 -2.4623 0.9535
-3.1005 -11.1469 -2.4457 0.9538
-2.3829 -11.1250 -2.4049 0.9546
-2.1488 -11.1184 -2.3937 0.9548
-1.6868 -11.1066 -2.3746 0.9551
-1.4593 -11.1080 -2.3682 0.9552
-1.2347 -11.1251 -2.3661 0.9553
8.6291 6.1999 -2.4972 0.9573
8.5016 6.3712 -2.4969 0.9573
8.3706 6.5398 -2.4965 0.9573
8.0988 6.8689 -2.4958 0.9573
7.9560 7.0274 -2.4948 0.9573
7.6512 7.3261 -2.4896 0.9574
6.7337 7.5743 -2.3819 0.9592
6.1566 7.8281 -2.3406 0.9599
5.9973 7.9492 -2.3403 0.9599
5.8356 8.0671 -2.3400 0.9599
5.6716 8.1818 -2.3397 0.9599
5.5054 8.2930 -2.3394 0.9599
4.9940 8.6066 -2.3386 0.9599
4.8195 8.7042 -2.3383 0.9599
4.4648 8.8888 -2.3378 0.9600
3.9199 9.1387 -2.3371 0.9600
3.7351 9.2147 -2.3368 0.9600
3.5489 9.2869 -2.3366 0.9600
3.3612 9.3554 -2.3363 0.9600
2.9820 9.4811 -2.3359 0.9600
2.7906 9.5382 -2.3357 0.9600
2.5982 9.5915 -2.3355 0.9600
2.2103 9.6865 -2.3351 0.9600
1.7196 8.3017 -1.9925 0.9658
1.5920 8.5469 -2.0433 0.9649
1.4250 9.8296 -2.3343 0.9600
1.2271 9.8555 -2.3342 0.9600
1.0287 9.8774 -2.3340 0.9600
0.6309 9.9095 -2.3337 0.9600
0.4316 9.9196 -2.3335 0.9600
0.0301 9.1283 -2.1454 0.9632
-0.5215 9.1412 -2.1519 0.9631
-0.7064 9.1455 -2.1558 0.9630
-0.8920 9.1498 -2.1606 0.9629
-1.2661 9.1586 -2.1730 0.9627
-1.4549 9.1630 -2.1805 0.9626
-1.8228 9.1019 -2.1816 0.9626
-2.0091 9.0803 -2.1857 0.9625
-2.5312 9.5946 -2.3321 0.9600
-2.9146 9.4849 -2.3320 0.9600
-3.2933 9.3599 -2.3320 0.9600
-3.8512 9.1444 -2.3320 0.9600
-4.0342 9.0652 -2.3320 0.9600
-4.2155 8.9824 -2.3320 0.9600
-4.5731 8.8059 -2.3320 0.9600
-4.7492 8.7124 -2.3321 0.9600
-4.9234 8.6153 -2.3321 0.9600
-5.0956 8.5149 -2.3322 0.9600
-5.2658 8.4109 -2.3322 0.9600
-5.5998 8.1930 -2.3323 0.9600
-5.7635 8.0791 -2.3324 0.9600
-5.9249 7.9619 -2.3325 0.9600
-6.2405 7.7180 -2.3327 0.9600
-7.1629 7.5316 -2.4428 0.9582
-7.4160 7.4903 -2.4772 0.9576
-7.5720 7.3466 -2.4795 0.9576
-7.8763 7.0500 -2.4843 0.9575
-8.1567 6.7307 -2.4854 0.9575
-8.2908 6.5659 -2.4856 0.9575
-8.6734 6.0559 -2.4861 0.9575
-8.7940 5.8809 -2.4863 0.9575
-9.1347 5.3417 -2.4870 0.9575
-9.2410 5.1575 -2.4872 0.9574
-9.8797 3.8136 -2.4889 0.9574
-9.9554 3.6148 -2.4892 0.9574
-10.2181 2.8050 -2.4903 0.9574
-10.2736 2.5994 -2.4906 0.9574
-10.3723 2.1850 -2.4912 0.9574
-10.4154 1.9764 -2.4915 0.9574
-10.4543 1.7670 -2.4918 0.9574
-10.4890 1.5567 -2.4922 0.9574
-10.5195 1.3458 -2.4925 0.9574
-10.5457 1.1343 -2.4928 0.9574
-10.5856 0.7099 -2.4934 0.9573
-10.5991 0.4971 -2.4938 0.9573
-10.6106 -0.3558 -2.4951 0.9573
-10.6027 -0.5690 -2.4955 0.9573
-10.5743 -0.9948 -2.4962 0.9573
-10.5536 -1.2072 -2.4965 0.9573
-10.3408 -2.4700 -2.4987 0.9573
-10.2905 -2.6777 -2.4990 0.9572
-10.1776 -3.0899 -2.4998 0.9572
-10.1150 -3.2943 -2.5001 0.9572
-10.0482 -3.4973 -2.5005 0.9572
-9.9774 -3.6991 -2.5009 0.9572
-9.6538 -4.4909 -2.5024 0.9572
-9.4684 -4.8766 -2.5031 0.9572
-9.3699 -5.0666 -2.5035 0.9572
-9.2675 -5.2547 -2.5038 0.9572
-9.1614 -5.4406 -2.5042 0.9572
-9.0516 -5.6244 -2.5046 0.9572
-8.9380 -5.8060 -2.5049 0.9572
-8.8208 -5.9853 -2.5053 0.9571
-8.7000 -6.1622 -2.5057 0.9571
-8.1818 -6.8448 -2.5071 0.9571
-8.0438 -7.0088 -2.5074 0.9571
-7.9024 -7.1700 -2.5078 0.9571
-7.7578 -7.3284 -2.5081 0.9571
-7.6100 -7.4838 -2.5085 0.9571
-7.3052 -7.7856 -2.5092 0.9571
-7.1482 -7.9319 -2.5095 0.9571
-6.6600 -8.3515 -2.5105 0.9571
-6.4917 -8.4847 -2.5108 0.9571
-5.7923 -8.9830 -2.5121 0.9570
-5.6113 -9.0987 -2.5124 0.9570
-5.4280 -9.2107 -2.5127 0.9570
-5.0547 -9.4236 -2.5132 0.9570
-4.4793 -9.7142 -2.5141 0.9570
-4.2836 -9.8033 -2.5144 0.9570
-4.0862 -9.8885 -2.5146 0.9570
-3.8871 -9.9696 -2.5149 0.9570
-3.6864 -10.0467 -2.5151 0.9570
-3.4841 -10.1198 -2.5154 0.9570
-3.2804 -10.1887 -2.5156 0.9570
-3.0752 -10.2535 -2.5159 0.9570
-2.6613 -10.3707 -2.5163 0.9570
-2.4525 -10.4230 -2.5165 0.9570
-2.2428 -10.4711 -2.5168 0.9570
-1.8206 -10.5544 -2.5172 0.9569
-1.3953 -10.6207 -2.5176 0.9569
-1.1815 -10.6457 -2.5173 0.9569
7.5995 5.9373 -2.4970 0.9609
7.3530 6.2363 -2.4963 0.9609
6.8251 6.8031 -2.4951 0.9610
6.6862 6.9380 -2.4948 0.9610
6.2463 7.3169 -2.4909 0.9610
5.9375 7.5495 -2.4868 0.9611
5.1063 7.6919 -2.3905 0.9626
4.6949 7.7291 -2.3415 0.9633
4.2164 7.9898 -2.3391 0.9634
3.8912 8.1511 -2.3386 0.9634
3.7263 8.2268 -2.3384 0.9634
3.3921 8.3683 -2.3379 0.9634
3.0525 8.4963 -2.3375 0.9634
1.8944 8.3020 -2.2048 0.9654
1.5853 8.5110 -2.2415 0.9649
1.2942 8.9276 -2.3357 0.9634
0.7538 8.9876 -2.3352 0.9634
0.5730 9.0004 -2.3351 0.9634
0.3921 9.0096 -2.3350 0.9634
0.2109 9.0152 -2.3348 0.9634
0.0297 9.0171 -2.3347 0.9634
-0.1515 9.0154 -2.3346 0.9634
-0.5135 9.0013 -2.3344 0.9634
-0.6942 8.9887 -2.3343 0.9634
-1.9472 8.8007 -2.3338 0.9634
-2.1236 8.7596 -2.3337 0.9634
-2.2991 8.7150 -2.3337 0.9634
-2.8199 8.5603 -2.3336 0.9634
-3.1615 8.4399 -2.3335 0.9634
-3.6643 8.2342 -2.3335 0.9634
-3.8290 8.1589 -2.3336 0.9634
-4.3138 7.9136 -2.3336 0.9634
-4.6310 7.7386 -2.3350 0.9634
-5.8691 7.5647 -2.4790 0.9612
-6.0243 7.4507 -2.4808 0.9612
-6.1775 7.3337 -2.4827 0.9612
-6.3285 7.2137 -2.4846 0.9611
-6.4756 7.0888 -2.4859 0.9611
-6.6170 6.9575 -2.4861 0.9611
-6.7558 6.8235 -2.4862 0.9611
-6.8919 6.6868 -2.4863 0.9611
-7.2835 6.2604 -2.4867 0.9611
-7.4083 6.1132 -2.4869 0.9611
-7.6490 5.8114 -2.4872 0.9611
-7.7647 5.6569 -2.4874 0.9611
-7.8774 5.5001 -2.4876 0.9611
-7.9869 5.3411 -2.4877 0.9611
-8.1963 5.0166 -2.4881 0.9611
-8.6618 4.1710 -2.4892 0.9611
-8.8240 3.8203 -2.4896 0.9610
-8.9721 3.4633 -2.4901 0.9610
-9.0408 3.2826 -2.4903 0.9610
-9.1672 2.9173 -2.4908 0.9610
-9.2249 2.7328 -2.4911 0.9610
-9.3292 2.3604 -2.4916 0.9610
-9.4186 1.9841 -2.4922 0.9610
-9.4576 1.7947 -2.4924 0.9610
-9.4928 1.6044 -2.4927 0.9610
-9.5518 1.2220 -2.4933 0.9610
-9.5756 1.0300 -2.4936 0.9610
-9.5955 0.8375 -2.4939 0.9610
-9.6115 0.6445 -2.4942 0.9610
-9.6237 0.4513 -2.4945 0.9610
-9.6320 0.2579 -2.4948 0.9610
-9.6369 -0.1294 -2.4954 0.9610
-9.6336 -0.3230 -2.4957 0.9610
-9.6153 -0.7100 -2.4963 0.9609
-9.6003 -0.9032 -2.4967 0.9609
-9.5587 -1.2885 -2.4973 0.9609
-9.5321 -1.4805 -2.4976 0.9609
-9.5017 -1.6720 -2.4980 0.9609
-9.4674 -1.8628 -2.4983 0.9609
-9.3874 -2.2423 -2.4989 0.9609
-9.3417 -2.4308 -2.4993 0.9609
-9.2922 -2.6183 -2.4996 0.9609
-9.1819 -2.9904 -2.5003 0.9609
-9.0568 -3.3578 -2.5009 0.9609
-8.8416 -3.8989 -2.5019 0.9609
-8.7626 -4.0763 -2.5023 0.9609
-8.6801 -4.2521 -2.5026 0.9608
-8.5045 -4.5987 -2.5033 0.9608
-8.4115 -4.7693 -2.5036 0.9608
-8.1121 -5.2695 -2.5046 0.9608
-7.8959 -5.5927 -2.5053 0.9608
-7.6668 -5.9070 -2.5059 0.9608
-7.5476 -6.0606 -2.5062 0.9608
-7.2998 -6.3606 -2.5069 0.9608
-7.1714 -6.5068 -2.5072 0.9608
-7.0401 -6.6504 -2.5075 0.9608
-6.7689 -6.9297 -2.5081 0.9608
-6.1937 -7.4544 -2.5094 0.9607
-6.0433 -7.5782 -2.5097 0.9607
-5.8905 -7.6990 -2.5099 0.9607
-5.7353 -7.8167 -2.5102 0.9607
-5.2557 -8.1508 -2.5111 0.9607
-5.0914 -8.2557 -2.5114 0.9607
-4.9250 -8.3572 -2.5116 0.9607
-4.7566 -8.4554 -2.5119 0.9607
-4.5862 -8.5502 -2.5122 0.9607
-4.4140 -8.6415 -2.5124 0.9607
-4.2399 -8.7293 -2.5127 0.9607
-4.0640 -8.8136 -2.5129 0.9607
-3.7073 -8.9715 -2.5134 0.9607
-3.1609 -9.1811 -2.5141 0.9607
-2.6027 -9.3573 -2.5147 0.9607
-2.4144 -9.4085 -2.5150 0.9607
-2.2250 -9.4558 -2.5152 0.9607
-2.0347 -9.4994 -2.5153 0.9607
-1.8435 -9.5390 -2.5155 0.9607
-1.4590 -9.6068 -2.5159 0.9606
-1.2657 -9.6348 -2.5161 0.9606
-1.0720 -9.6590 -2.5162 0.9606
7.1659 5.1487 -2.4980 0.9640
7.0602 5.2910 -2.4977 0.9640
6.9516 5.4312 -2.4974 0.9640
6.8403 5.5691 -2.4971 0.9640
6.7262 5.7047 -2.4968 0.9640
6.6095 5.8381 -2.4965 0.9640
6.4901 5.9690 -2.4962 0.9640
6.3681 6.0975 -2.4959 0.9640
6.1166 6.3470 -2.4954 0.9640
5.9871 6.4679 -2.4951 0.9640
5.8553 6.5862 -2.4948 0.9640
5.4461 6.9247 -2.4940 0.9640
5.1624 7.1365 -2.4935 0.9640
5.0172 7.2376 -2.4931 0.9641
4.8674 7.3320 -2.4914 0.9641
4.7160 7.4234 -2.4897 0.9641
4.5629 7.5119 -2.4881 0.9641
4.2523 7.6798 -2.4851 0.9642
4.0816 7.7343 -2.4757 0.9643
3.7053 7.7617 -2.4348 0.9649
3.5203 7.7722 -2.4154 0.9652
3.3382 7.7824 -2.3973 0.9654
2.6360 7.8279 -2.3383 0.9662
2.1591 7.9707 -2.3378 0.9663
1.9984 8.0119 -2.3376 0.9663
1.8369 8.0499 -2.3374 0.9663
1.5117 8.1160 -2.3371 0.9663
1.3483 8.1443 -2.3370 0.9663
1.0198 8.1908 -2.3367 0.9663
0.3588 8.2445 -2.3362 0.9663
0.1930 8.2496 -2.3360 0.9663
0.0272 8.2514 -2.3359 0.9663
-0.1386 8.2499 -2.3358 0.9663
-0.6353 8.2256 -2.3355 0.9663
-1.1296 8.1715 -2.3353 0.9663
-1.4569 8.1191 -2.3352 0.9663
-1.6198 8.0880 -2.3351 0.9663
-1.9433 8.0160 -2.3350 0.9663
-3.1013 7.7983 -2.3758 0.9657
-3.4615 7.7784 -2.4102 0.9652
-3.6456 7.7680 -2.4292 0.9650
-4.0211 7.7431 -2.4700 0.9644
-4.1921 7.6904 -2.4795 0.9642
-4.3480 7.6085 -2.4808 0.9642
-4.6553 7.4358 -2.4835 0.9642
-4.9561 7.2512 -2.4865 0.9641
-5.1014 7.1510 -2.4867 0.9641
-5.5235 6.8313 -2.4870 0.9641
-5.6599 6.7192 -2.4871 0.9641
-6.0552 6.3668 -2.4874 0.9641
-6.1821 6.2441 -2.4875 0.9641
-6.3067 6.1189 -2.4876 0.9641
-6.4286 5.9912 -2.4877 0.9641
-6.5481 5.8612 -2.4878 0.9641
-6.6649 5.7287 -2.4880 0.9641
-6.7790 5.5939 -2.4881 0.9641
-6.8905 5.4569 -2.4883 0.9641
-6.9992 5.3177 -2.4884 0.9641
-7.1051 5.1763 -2.4886 0.9641
-7.5911 4.4390 -2.4894 0.9641
-7.6793 4.2859 -2.4896 0.9641
-7.8465 3.9746 -2.4900 0.9641
-8.0012 3.6567 -2.4904 0.9641
-8.1431 3.3328 -2.4908 0.9641
-8.3313 2.8369 -2.4915 0.9641
-8.4895 2.3304 -2.4922 0.9641
-8.5779 1.9879 -2.4927 0.9641
-8.8127 -0.2955 -2.4962 0.9640
-8.8060 -0.4726 -2.4965 0.9640
-8.7957 -0.6495 -2.4968 0.9640
-8.7819 -0.8262 -2.4971 0.9640
-8.6913 -1.5294 -2.4983 0.9640
-8.6599 -1.7039 -2.4986 0.9640
-8.5446 -2.2234 -2.4995 0.9640
-8.2212 -3.2373 -2.5013 0.9639
-8.1555 -3.4023 -2.5016 0.9639
-8.0141 -3.7281 -2.5022 0.9639
-7.9386 -3.8889 -2.5025 0.9639
-7.6044 -4.5160 -2.5037 0.9639
-7.4186 -4.8190 -2.5043 0.9639
-7.2207 -5.1144 -2.5049 0.9639
-7.1173 -5.2591 -2.5052 0.9639
-6.5577 -5.9500 -2.5067 0.9639
-6.3148 -6.2101 -2.5073 0.9639
-6.0616 -6.4603 -2.5079 0.9638
-5.7984 -6.7001 -2.5084 0.9638
-5.3859 -7.0395 -2.5092 0.9638
-4.9536 -7.3535 -2.5100 0.9638
-4.8053 -7.4524 -2.5103 0.9638
-3.8763 -7.9808 -2.5117 0.9638
-3.7155 -8.0578 -2.5119 0.9638
-3.5532 -8.1316 -2.5122 0.9638
-3.3894 -8.2021 -2.5124 0.9638
-2.8897 -8.3935 -2.5130 0.9638
-2.5506 -8.5042 -2.5134 0.9638
-2.3794 -8.5543 -2.5136 0.9638
-2.2072 -8.6011 -2.5138 0.9638
-2.0340 -8.6443 -2.5140 0.9638
-1.6853 -8.7203 -2.5143 0.9638
-1.5098 -8.7529 -2.5145 0.9637
-1.3337 -8.7821 -2.5147 0.9637
-1.1571 -8.8077 -2.5148 0.9637
-0.9799 -8.8297 -2.5150 0.9637
6.4989 4.8704 -2.4980 0.9666
6.3991 4.9994 -2.4977 0.9666
6.2966 5.1265 -2.4974 0.9666
6.0843 5.3742 -2.4969 0.9666
5.9744 5.4947 -2.4966 0.9666
5.8622 5.6131 -2.4964 0.9666
5.3903 6.0632 -2.4953 0.9666
5.2669 6.1696 -2.4951 0.9666
5.0138 6.3750 -2.4946 0.9666
4.8842 6.4738 -2.4943 0.9666
4.7526 6.5700 -2.4941 0.9666
4.3470 6.8425 -2.4934 0.9666
4.0678 7.0104 -2.4930 0.9666
3.9257 7.0901 -2.4927 0.9667
3.6371 7.2408 -2.4923 0.9667
3.0394 7.4984 -2.4886 0.9667
2.8869 7.5548 -2.4876 0.9667
2.7334 7.6082 -2.4866 0.9667
2.5790 7.6587 -2.4856 0.9667
2.4238 7.7063 -2.4848 0.9668
2.2677 7.7508 -2.4839 0.9668
1.9491 7.8144 -2.4772 0.9669
1.7843 7.8194 -2.4669 0.9670
1.6207 7.8242 -2.4577 0.9671
0.9763 7.8414 -2.4305 0.9675
0.8171 7.8452 -2.4261 0.9675
0.6582 7.8476 -2.4222 0.9676
0.1836 7.8490 -2.4148 0.9677
-0.1319 7.8491 -2.4145 0.9677
-0.4477 7.8485 -2.4179 0.9676
-0.6061 7.8479 -2.4210 0.9676
-0.9241 7.8440 -2.4293 0.9675
-1.0838 7.8400 -2.4344 0.9674
-1.2442 7.8359 -2.4404 0.9673
-1.4054 7.8317 -2.4473 0.9672
-1.5675 7.8272 -2.4553 0.9671
-2.3699 7.7123 -2.4816 0.9668
-2.5251 7.6652 -2.4823 0.9668
-2.6794 7.6151 -2.4830 0.9668
-2.9851 7.5062 -2.4846 0.9668
-3.2868 7.3857 -2.4865 0.9667
-3.4359 7.3211 -2.4875 0.9667
-3.5824 7.2509 -2.4876 0.9667
-3.8709 7.1012 -2.4876 0.9667
-4.1533 6.9402 -2.4877 0.9667
-4.2920 6.8554 -2.4877 0.9667
-4.6975 6.5848 -2.4879 0.9667
-5.0862 6.2904 -2.4881 0.9667
-5.2117 6.1871 -2.4882 0.9667
-5.4565 5.9732 -2.4884 0.9667
-5.5756 5.8626 -2.4885 0.9667
-5.6925 5.7496 -2.4886 0.9667
-5.8072 5.6343 -2.4887 0.9667
-6.1370 5.2749 -2.4891 0.9667
-6.3446 5.0246 -2.4893 0.9667
-6.4447 4.8964 -2.4895 0.9667
-6.6370 4.6340 -2.4898 0.9667
-6.9055 4.2266 -2.4902 0.9667
-6.9894 4.0872 -2.4904 0.9667
-7.0707 3.9462 -2.4906 0.9667
-7.3668 3.3668 -2.4913 0.9667
-7.4973 3.0685 -2.4917 0.9667
-7.5581 2.9175 -2.4919 0.9667
-7.6158 2.7653 -2.4921 0.9667
-7.6705 2.6119 -2.4923 0.9667
-7.8160 2.1456 -2.4930 0.9666
-7.8973 1.8301 -2.4934 0.9666
-7.9955 1.3514 -2.4941 0.9666
-8.0813 0.7053 -2.4951 0.9666
-8.1048 0.3801 -2.4956 0.9666
-8.1116 0.2172 -2.4958 0.9666
-8.1152 0.0542 -2.4961 0.9666
-8.1062 -0.4350 -2.4969 0.9666
-8.0967 -0.5979 -2.4972 0.9666
-8.0486 -1.0849 -2.4980 0.9666
-8.0260 -1.2466 -2.4982 0.9666
-8.0003 -1.4078 -2.4985 0.9666
-7.9390 -1.7284 -2.4991 0.9666
-7.9035 -1.8879 -2.4993 0.9666
-7.8649 -2.0465 -2.4996 0.9666
-7.7299 -2.5175 -2.5005 0.9666
-7.6786 -2.6726 -2.5007 0.9665
-7.6242 -2.8266 -2.5010 0.9665
-7.5668 -2.9796 -2.5013 0.9665
-7.5062 -3.1314 -2.5016 0.9665
-7.4426 -3.2820 -2.5019 0.9665
-7.1583 -3.8707 -2.5030 0.9665
-7.0798 -4.0142 -2.5033 0.9665
-6.9985 -4.1561 -2.5036 0.9665
-6.8274 -4.4350 -2.5041 0.9665
-6.7377 -4.5718 -2.5044 0.9665
-6.6452 -4.7068 -2.5047 0.9665
-6.5500 -4.8399 -2.5049 0.9665
-6.3516 -5.1003 -2.5055 0.9665
-6.2485 -5.2274 -2.5058 0.9665
-6.0347 -5.4754 -2.5063 0.9665
-5.9241 -5.5962 -2.5066 0.9665
-5.8110 -5.7146 -2.5068 0.9665
-5.2112 -6.2719 -2.5081 0.9665
-5.0846 -6.3760 -2.5084 0.9664
-4.9560 -6.4775 -2.5086 0.9664
-4.6926 -6.6727 -2.5091 0.9664
-4.5580 -6.7663 -2.5093 0.9664
-4.4215 -6.8571 -2.5096 0.9664
-4.2833 -6.9453 -2.5098 0.9664
-4.0015 -7.1130 -2.5102 0.9664
-3.8581 -7.1926 -2.5105 0.9664
-3.7131 -7.2693 -2.5107 0.9664
-3.5666 -7.3431 -2.5109 0.9664
-3.4186 -7.4139 -2.5111 0.9664
-3.1185 -7.5465 -2.5115 0.9664
-2.1891 -7.8703 -2.5126 0.9664
-1.7113 -7.9895 -2.5131 0.9664
