ply
format ascii 1.0
element vertex 1539
property float32 x
property float32 y
property float32 z
property float32 I
end_header
31.8736 8.1026 4.2826 0.8758
33.6606 11.5041 4.6322 0.8663
33.3218 12.9058 4.6533 0.8658
48.9284 21.2489 6.9464 0.8064
53.0741 25.6314 7.6751 0.7884
35.3444 20.7226 5.3353 0.8477
35.0906 22.5159 5.4293 0.8452
34.3700 24.0565 5.4631 0.8443
34.5326 25.2192 5.5684 0.8416
52.7095 41.8424 8.7636 0.7623
49.0486 42.2579 8.4307 0.7702
49.9882 44.8487 8.7454 0.7627
48.8769 45.6574 8.7098 0.7635
49.8648 52.5535 9.4339 0.7466
23.6133 25.9100 4.5650 0.8681
21.7228 26.9306 4.5056 0.8697
21.1032 27.2660 4.4898 0.8702
20.4867 27.5979 4.4758 0.8705
18.6349 28.5498 4.4397 0.8715
16.8051 29.4880 4.4198 0.8721
16.1980 29.7993 4.4167 0.8721
14.3783 30.7323 4.4183 0.8721
13.1214 31.2605 4.4148 0.8722
12.5896 31.7677 4.4498 0.8712
10.0765 32.9326 4.4848 0.8703
9.4443 33.2396 4.4998 0.8699
8.8073 33.5482 4.5167 0.8694
8.1649 33.8576 4.5354 0.8689
7.5166 34.1680 4.5558 0.8684
6.8651 34.4963 4.5802 0.8677
6.2073 34.8336 4.6075 0.8670
4.1731 35.7959 4.6929 0.8647
0.3024 8.4747 1.1043 0.9664
0.6875 44.1377 5.7483 0.8369
-0.1718 37.9906 4.9472 0.8579
-1.7361 38.7990 5.0575 0.8550
-2.5454 39.2172 5.1176 0.8534
-3.3744 39.6456 5.1814 0.8517
-5.9954 41.0000 5.3958 0.8461
-6.9192 41.4774 5.4759 0.8440
-8.7372 41.9189 5.5760 0.8414
-10.3132 41.1296 5.5217 0.8428
-11.4534 42.0739 5.6783 0.8387
-16.4977 45.7393 6.3318 0.8219
-56.5374 56.2109 10.3819 0.7250
-57.2999 54.7237 10.3179 0.7264
-58.0534 53.2543 10.2587 0.7278
-77.9176 -42.2234 9.5165 0.7001
-76.0226 -43.1951 9.3892 0.7034
-71.9608 -48.9238 9.3440 0.7046
-73.6887 -52.2943 9.7029 0.6952
-69.9894 -54.0255 9.4942 0.7007
-67.5979 -54.3819 9.3162 0.7054
-65.3210 -54.7483 9.1522 0.7097
-64.0019 -55.8703 9.1229 0.7105
-58.7960 -57.9274 8.8631 0.7175
-57.2516 -58.7193 8.8064 0.7190
-54.2183 -60.2746 8.7056 0.7217
-51.2488 -61.7972 8.6209 0.7240
-46.9709 -64.1429 8.5371 0.7263
-45.5355 -64.8788 8.5115 0.7270
-44.1082 -65.6107 8.4895 0.7276
-42.6939 -66.3487 8.4722 0.7280
-32.1727 -60.1163 7.3217 0.7601
-30.9534 -60.7414 7.3206 0.7601
-29.5596 -61.0066 7.2795 0.7613
-28.3880 -61.7196 7.2950 0.7609
-27.1708 -62.3437 7.3027 0.7606
-25.9505 -62.9694 7.3135 0.7603
-12.9182 -55.1396 6.0813 0.7963
-8.8903 -46.2421 5.0565 0.8274
-7.9535 -46.3778 5.0528 0.8275
-6.8984 -45.7228 4.9654 0.8303
-2.3625 -34.0081 3.6607 0.8718
-1.6195 -32.8481 3.5316 0.8761
-0.9571 -32.8080 3.5245 0.8763
-0.2923 -32.2318 3.4612 0.8784
0.3428 -31.0794 3.3376 0.8825
1.8126 -25.3726 2.7315 0.9027
2.2532 -24.5793 2.6504 0.9055
3.6625 -23.9568 2.6024 0.9071
5.1229 -21.6750 2.3916 0.9143
5.4522 -21.1592 2.3463 0.9158
5.7474 -20.5837 2.2949 0.9176
7.4232 -17.9126 2.0821 0.9250
9.1550 -18.8006 2.2455 0.9193
10.4722 -19.4759 2.3745 0.9149
11.1898 -19.8439 2.4463 0.9124
11.9525 -20.2349 2.5236 0.9098
14.5650 -21.5740 2.7952 0.9006
15.5671 -22.0877 2.9017 0.8970
18.2476 -23.7992 3.2204 0.8863
19.5045 -24.4066 3.3549 0.8819
20.4934 -24.6131 3.4392 0.8791
24.4108 -28.1480 4.0009 0.8608
24.8158 -26.3931 3.8902 0.8644
26.2437 -26.8111 4.0287 0.8599
37.4188 -36.7217 5.6298 0.8098
37.4768 -35.3286 5.5305 0.8129
37.1030 -33.5939 5.3746 0.8176
73.2960 -54.0406 9.7786 0.6933
61.8418 -7.0057 6.6831 0.7785
83.1771 -2.6974 8.9364 0.7155
86.3409 2.4071 9.2750 0.7065
81.8019 3.9270 8.7941 0.7193
75.0412 6.6331 8.0895 0.7385
38.3123 4.9448 4.1482 0.8561
32.8917 6.9674 3.6103 0.8735
33.1779 7.7278 3.6581 0.8719
36.2346 11.5760 4.0847 0.8581
34.8310 11.9042 3.9526 0.8624
34.9458 12.7332 3.9939 0.8610
48.6201 19.9635 5.6439 0.8094
48.9274 21.2485 5.7280 0.8069
40.8327 18.7172 4.8234 0.8347
37.3013 18.9478 4.4926 0.8451
36.8106 20.5996 4.5296 0.8439
36.1440 22.1793 4.5537 0.8432
35.2081 22.5913 4.4921 0.8451
37.6175 27.4721 5.0020 0.8291
51.5731 40.9403 7.0708 0.7673
50.9184 43.8688 7.2171 0.7631
50.1317 44.9775 7.2323 0.7627
49.1593 47.8068 7.3634 0.7589
23.0496 26.3355 3.7581 0.8687
21.1787 27.3636 3.7156 0.8701
19.8667 27.9180 3.6795 0.8712
19.2742 28.2712 3.6742 0.8714
18.0230 28.8634 3.6540 0.8721
17.4854 29.2969 3.6637 0.8717
16.1980 29.7991 3.6421 0.8725
15.6561 30.2349 3.6561 0.8720
14.7493 29.9423 3.5842 0.8743
14.3783 30.7321 3.6434 0.8724
13.7884 31.0840 3.6515 0.8721
13.1214 31.2604 3.6405 0.8725
11.9743 32.0830 3.6772 0.8713
8.8278 33.6264 3.7332 0.8695
7.5327 34.2410 3.7648 0.8684
6.9093 34.7185 3.8012 0.8673
6.2215 34.9133 3.8081 0.8670
5.5540 35.2556 3.8325 0.8662
3.5096 36.4617 3.9334 0.8630
2.7876 36.6740 3.9495 0.8625
0.3024 8.4738 0.9105 0.9665
0.2398 15.3939 1.6532 0.9399
-1.7361 38.7987 4.1704 0.8554
-3.3744 39.6454 4.2726 0.8521
-5.0978 40.5360 4.3871 0.8484
-5.9953 40.9998 4.4495 0.8465
-7.8712 41.9692 4.5853 0.8422
-8.7374 41.9197 4.5982 0.8418
-9.9288 39.5964 4.3836 0.8485
-10.7706 39.5658 4.4033 0.8479
-11.7819 40.0844 4.4864 0.8453
-14.0730 41.6187 4.7177 0.8380
-19.5975 45.5303 5.3228 0.8192
-19.1323 37.9698 4.5656 0.8428
-57.3007 54.7245 8.5083 0.7270
-58.0542 53.2550 8.4596 0.7284
-70.2827 -45.7452 7.0989 0.7142
-71.8247 -48.8313 7.3523 0.7056
-66.5207 -51.3480 7.1137 0.7137
-66.8637 -53.7912 7.2645 0.7086
-65.2427 -54.6826 7.2063 0.7105
-63.7061 -55.6121 7.1586 0.7121
-60.4998 -57.2561 7.0514 0.7158
-57.3508 -58.8210 6.9544 0.7191
-55.8228 -59.6045 6.9130 0.7205
-54.2185 -60.2749 6.8630 0.7222
-52.7265 -61.0399 6.8281 0.7234
-51.2491 -61.7975 6.7962 0.7245
-41.2018 -66.9492 6.6547 0.7294
-30.9308 -60.6972 5.7669 0.7607
-29.5597 -61.0069 5.7387 0.7618
-28.3882 -61.7199 5.7509 0.7613
-27.2710 -62.5736 5.7782 0.7603
-26.0462 -63.2017 5.7867 0.7600
-22.8360 -76.4073 6.7508 0.7261
-17.7154 -63.9298 5.6158 0.7662
-12.9569 -55.3046 4.8085 0.7961
-8.8990 -46.2874 3.9901 0.8276
-5.5466 -42.5417 3.6318 0.8418
-4.1118 -37.3830 3.1837 0.8599
-2.3261 -33.4832 2.8413 0.8739
-1.6222 -32.9027 2.7887 0.8761
-0.9589 -32.8696 2.7837 0.8763
-0.2917 -32.1640 2.7229 0.8789
0.9319 -29.9302 2.5349 0.8867
1.4797 -28.8618 2.4464 0.8905
1.9907 -27.8650 2.3649 0.8939
3.7570 -24.5750 2.1045 0.9050
4.1359 -23.8361 2.0479 0.9075
4.4950 -23.1356 1.9951 0.9097
5.1432 -21.7609 1.8929 0.9141
5.4331 -21.0849 1.8432 0.9163
5.7421 -20.5649 1.8075 0.9179
6.3009 -19.5036 1.7351 0.9210
6.6521 -19.2588 1.7248 0.9215
7.1123 -19.3236 1.7431 0.9207
7.4232 -17.9128 1.6414 0.9251
7.9719 -18.1941 1.6815 0.9234
8.5483 -18.4896 1.7244 0.9215
10.4723 -19.4761 1.8719 0.9151
11.9526 -20.2351 1.9895 0.9100
14.5652 -21.5742 2.2036 0.9008
15.5673 -22.0880 2.2875 0.8972
20.3462 -24.4363 2.6918 0.8802
36.1389 -36.9203 4.3735 0.8127
35.6584 -34.9941 4.2293 0.8183
37.5793 -35.4251 4.3718 0.8128
39.0298 -33.9364 4.3783 0.8125
40.2299 -33.5843 4.4363 0.8103
41.1611 -32.9810 4.4650 0.8092
72.3688 -53.3570 7.6113 0.6970
75.1582 -53.1158 7.7908 0.6911
62.0505 -10.8491 5.3324 0.7766
61.7720 -9.5254 5.2910 0.7781
61.2999 -8.1951 5.2354 0.7802
84.0282 -1.0354 7.1138 0.7137
79.4434 5.4158 6.7407 0.7264
72.0281 7.8283 6.1333 0.7476
66.7458 12.7429 5.7523 0.7613
62.2697 13.1905 5.3883 0.7745
34.1478 10.1578 3.0159 0.8667
35.4252 12.1073 3.1691 0.8605
54.5690 19.8833 4.9165 0.7920
48.6337 19.9692 4.4505 0.8097
48.9265 21.2481 4.5155 0.8072
52.9446 24.2692 4.9303 0.7915
38.8025 19.7104 3.6842 0.8397
37.1438 20.7861 3.6032 0.8429
36.6335 23.5059 3.6846 0.8397
39.4834 27.6355 4.0798 0.8241
63.3186 46.2416 6.6373 0.7300
56.5417 43.0610 6.0164 0.7518
56.7511 45.0508 6.1338 0.7476
51.3879 42.5043 5.6454 0.7651
49.4100 44.3299 5.6194 0.7661
48.5784 47.2419 5.7362 0.7618
48.5974 51.2178 5.9769 0.7532
23.6673 25.9692 2.9744 0.8684
23.0495 26.3354 2.9626 0.8689
22.3784 26.6300 2.9446 0.8697
21.0102 27.1459 2.9059 0.8713
19.7756 27.7900 2.8873 0.8720
19.1632 28.1085 2.8798 0.8724
18.5535 28.4250 2.8735 0.8726
17.9458 28.7398 2.8683 0.8728
17.3399 29.0531 2.8642 0.8730
16.7351 29.3651 2.8612 0.8731
16.1311 29.6761 2.8593 0.8732
14.8322 30.1107 2.8414 0.8739
14.3048 30.5751 2.8575 0.8733
13.7133 30.9145 2.8629 0.8731
11.8852 31.8442 2.8773 0.8725
11.2705 32.1555 2.8844 0.8722
10.6524 32.4679 2.8926 0.8718
10.0303 32.7817 2.9021 0.8714
8.7719 33.4134 2.9244 0.8705
7.5326 34.2408 2.9679 0.8687
6.2215 34.9131 3.0021 0.8673
5.5539 35.2554 3.0213 0.8665
4.1916 35.9539 3.0642 0.8648
2.7876 36.6738 3.1135 0.8627
0.3024 8.4729 0.7177 0.9665
0.2394 15.3730 1.3015 0.9401
-0.0679 15.0059 1.2703 0.9415
-0.9453 38.3899 3.2508 0.8571
-2.5453 39.2167 3.3268 0.8541
-3.3744 39.6452 3.3682 0.8524
-8.7376 41.9206 3.6250 0.8421
-9.3475 40.7311 3.5376 0.8456
-10.4843 38.5141 3.3790 0.8519
-14.4286 40.0028 3.5999 0.8431
-15.5680 40.5870 3.6799 0.8399
-19.7454 43.4482 4.0400 0.8257
-21.3831 44.6476 4.1906 0.8198
-19.1329 37.9710 3.5993 0.8431
-57.3014 54.7252 6.7075 0.7275
-73.7212 -43.8701 5.3197 0.7091
-71.9325 -44.7873 5.2545 0.7121
-70.1866 -45.6825 5.1930 0.7149
-72.0508 -51.1319 5.4786 0.7018
-65.2145 -54.6591 5.2765 0.7110
-61.9645 -56.3255 5.1927 0.7149
-58.8717 -58.0019 5.1248 0.7181
-55.7979 -59.5779 5.0617 0.7210
-52.7941 -61.1181 5.0081 0.7235
-51.3147 -61.8767 4.9848 0.7246
-46.9018 -64.0486 4.9227 0.7275
-45.4686 -64.7835 4.9079 0.7282
-38.8477 -57.7857 4.3178 0.7565
-39.8447 -67.7579 4.8743 0.7298
-30.8174 -60.4746 4.2089 0.7618
-29.5598 -61.0071 4.2038 0.7621
-27.2713 -84.9840 5.5346 0.6993
-21.8194 -73.0058 4.7250 0.7368
-17.7297 -63.9813 4.1170 0.7664
-12.9052 -55.0841 3.5083 0.7971
-11.6329 -54.5686 3.4598 0.7996
-8.8986 -46.2855 2.9227 0.8279
-6.7932 -45.0257 2.8237 0.8332
-5.5272 -42.3934 2.6511 0.8425
-2.5636 -36.9026 2.2939 0.8622
-0.9834 -33.7106 2.0913 0.8736
0.3428 -31.0784 1.9273 0.8829
0.9319 -29.9294 1.8568 0.8869
2.4689 -26.9316 1.6770 0.8973
3.4010 -25.6921 1.6071 0.9013
2.9929 -19.5767 1.2281 0.9237
3.2839 -18.9259 1.1911 0.9259
3.5697 -18.3732 1.1606 0.9277
4.6094 -16.5082 1.0628 0.9336
5.3012 -16.4092 1.0693 0.9332
5.7481 -16.6417 1.0918 0.9319
6.1911 -16.8209 1.1115 0.9307
8.3004 -17.9535 1.2265 0.9238
9.8252 -19.1873 1.3367 0.9172
11.9527 -20.2352 1.4573 0.9101
12.9685 -20.9804 1.5295 0.9059
13.6343 -21.0975 1.5577 0.9042
14.5654 -21.5744 1.6142 0.9009
15.5674 -22.0882 1.6757 0.8974
17.8221 -23.2442 1.8163 0.8892
19.0986 -23.8987 1.8971 0.8846
26.2641 -30.2850 2.4858 0.8516
42.1200 -44.7971 3.8129 0.7816
36.9058 -34.7903 3.1451 0.8161
53.1738 -42.6064 4.2252 0.7610
70.3866 -54.1122 5.5055 0.7006
78.7631 -55.6635 5.9807 0.6794
62.2218 -8.3184 3.8927 0.7776
68.0209 -3.5754 4.2238 0.7611
85.3611 2.3799 5.2953 0.7102
80.8487 5.5116 5.0251 0.7227
75.0399 6.6329 4.6714 0.7394
72.0620 7.8320 4.4949 0.7479
67.5579 10.1035 4.2359 0.7605
65.5514 11.1545 4.1233 0.7661
61.1732 15.5508 3.9140 0.7765
56.9090 15.6908 3.6606 0.7893
55.3932 16.4775 3.5837 0.7933
48.6490 19.9754 3.2611 0.8100
53.2344 24.4020 3.6314 0.7908
41.3717 19.9799 2.8490 0.8318
22.1715 11.2624 1.5421 0.9051
22.6749 12.0973 1.5937 0.9021
36.6990 20.5372 2.6078 0.8449
36.4853 21.3916 2.6227 0.8441
36.1050 22.1554 2.6268 0.8439
36.0460 24.1651 2.6910 0.8404
37.1510 26.0030 2.8120 0.8338
54.4387 45.0277 4.3809 0.7534
50.7031 47.3632 4.3025 0.7572
48.9726 49.5786 4.3213 0.7563
23.6672 25.9691 2.1788 0.8687
23.1149 26.4101 2.1764 0.8688
21.1586 27.3376 2.1436 0.8706
18.0228 28.8631 2.1101 0.8725
16.8049 29.4876 2.1046 0.8728
15.5913 30.1098 2.1026 0.8729
15.0470 30.5468 2.1116 0.8724
13.6650 30.8056 2.0898 0.8737
13.0024 30.9769 2.0832 0.8740
12.5894 31.7672 2.1190 0.8720
11.3210 32.2994 2.1224 0.8718
10.0777 32.9368 2.1359 0.8711
9.4494 33.2579 2.1440 0.8706
8.1776 33.9100 2.1631 0.8695
6.9093 34.7181 2.1951 0.8677
4.8838 35.6482 2.2312 0.8657
4.1915 35.9538 2.2446 0.8650
3.5096 36.4613 2.2714 0.8635
2.7876 36.6737 2.2807 0.8629
-0.0679 15.0058 0.9305 0.9416
-0.9453 38.3897 2.3813 0.8574
-3.3743 39.6449 2.4673 0.8526
-5.0977 40.5355 2.5334 0.8490
-5.9953 40.9993 2.5694 0.8470
-7.8710 41.9687 2.6479 0.8427
-9.3477 40.7319 2.5915 0.8458
-9.9292 39.5979 2.5315 0.8491
-11.0160 37.4784 2.4224 0.8551
-11.5254 36.4850 2.3726 0.8578
-12.4546 36.8327 2.4110 0.8557
-11.6932 30.4850 2.0247 0.8773
-15.8353 38.9257 2.6059 0.8450
-19.7849 41.3105 2.8403 0.8323
-19.1335 37.9722 2.6367 0.8433
-24.4778 44.0764 3.1264 0.8170
-57.3021 54.7259 4.9135 0.7279
-77.9187 -42.2240 3.4945 0.7013
-76.0237 -43.1957 3.4478 0.7047
-70.2834 -45.7456 3.3067 0.7148
-63.4648 -43.1477 3.0260 0.7355
-62.5279 -44.3739 3.0233 0.7357
-71.3983 -55.1130 3.5565 0.6969
-66.1309 -57.7288 3.4614 0.7037
-62.7653 -59.4002 3.4075 0.7076
-61.1202 -60.2172 3.3832 0.7093
-59.4977 -61.0230 3.3606 0.7109
-57.8962 -61.8184 3.3397 0.7124
-56.3138 -62.6042 3.3203 0.7138
-53.2004 -64.1506 3.2862 0.7163
-51.6664 -64.9125 3.2714 0.7174
-48.6365 -66.4175 3.2460 0.7193
-42.6918 -69.3704 3.2118 0.7218
-32.1495 -60.0729 2.6866 0.7613
-30.9311 -60.6976 2.6862 0.7613
-27.2713 -62.5741 2.6915 0.7609
-26.0465 -63.2022 2.6955 0.7606
-28.0409 -76.6490 3.2182 0.7213
-25.0703 -78.1250 3.2353 0.7200
-21.7759 -72.8602 2.9985 0.7376
-17.7187 -63.9416 2.6163 0.7667
-16.2581 -63.6114 2.5889 0.7689
-8.1593 -47.5780 1.9034 0.8243
-6.8081 -45.1241 1.7994 0.8330
-2.0292 -29.2098 1.1545 0.8894
-1.3842 -28.0757 1.1084 0.8936
-0.9834 -33.7094 1.3298 0.8737
-0.2962 -32.6563 1.2877 0.8775
0.9429 -30.2824 1.1946 0.8858
1.5916 -22.2796 0.8807 0.9145
2.4688 -26.9310 1.0664 0.8974
2.3327 -20.8316 0.8265 0.9195
3.7569 -24.5740 0.9802 0.9053
4.1357 -23.8352 0.9539 0.9077
4.6571 -23.9697 0.9628 0.9069
5.1430 -21.7601 0.8817 0.9144
4.6095 -16.5085 0.6759 0.9337
4.8427 -16.0883 0.6625 0.9350
5.7481 -16.6418 0.6942 0.9319
6.1910 -16.8207 0.7067 0.9308
7.2121 -17.4033 0.7428 0.9274
7.7474 -17.6817 0.7612 0.9256
8.9029 -18.2828 0.8018 0.9218
11.6406 -19.7069 0.9025 0.9124
12.4375 -20.1215 0.9327 0.9097
13.2257 -20.4653 0.9608 0.9071
14.2052 -21.0409 1.0010 0.9034
15.1906 -21.5535 1.0397 0.8998
16.2557 -22.1076 1.0820 0.8960
17.3687 -22.6529 1.1256 0.8920
20.4947 -24.6147 1.2630 0.8797
42.5201 -43.4394 2.3969 0.7840
44.7468 -38.9073 2.3381 0.7887
42.2256 -35.2504 2.1689 0.8024
74.4854 -54.9175 3.6490 0.6904
63.2456 -9.7526 2.5233 0.7740
61.4224 -8.2115 2.4435 0.7803
62.7591 -7.1097 2.4905 0.7766
64.9831 -4.7268 2.5691 0.7704
92.5509 -3.0014 3.6513 0.6903
84.4764 0.6569 3.3311 0.7131
85.3599 2.3798 3.3671 0.7105
65.5478 11.1538 2.6218 0.7663
66.7448 12.7426 2.6793 0.7618
62.2842 13.1935 2.5104 0.7750
60.4808 14.0872 2.4487 0.7799
49.8705 19.3152 2.1088 0.8073
48.9246 21.2473 2.1032 0.8077
53.2341 24.4019 2.3091 0.7910
52.2585 26.5455 2.3112 0.7909
52.3512 27.9300 2.3397 0.7886
39.3239 23.0559 1.7974 0.8332
37.4596 22.9866 1.7330 0.8387
57.5759 36.9436 2.6974 0.7604
26.9749 20.5435 1.3370 0.8731
65.1665 51.7312 3.2808 0.7167
68.2790 56.4754 3.4942 0.7014
63.8822 62.1246 3.5137 0.7000
23.1147 26.4100 1.3839 0.8689
21.7429 26.9555 1.3656 0.8705
19.3287 28.3512 1.3530 0.8717
18.6345 28.5493 1.3443 0.8724
16.5585 29.0552 1.3187 0.8747
15.5912 30.1097 1.3370 0.8731
15.0470 30.5466 1.3427 0.8726
14.3781 30.7317 1.3379 0.8730
12.9684 30.8959 1.3212 0.8745
12.5894 31.7671 1.3474 0.8722
10.7456 32.7521 1.3592 0.8711
9.4494 33.2577 1.3633 0.8707
7.5326 34.2405 1.3824 0.8691
6.9092 34.7180 1.3958 0.8679
6.2214 34.9128 1.3983 0.8677
5.5539 35.2551 1.4073 0.8669
4.8838 35.6480 1.4188 0.8659
4.1915 35.9536 1.4273 0.8651
2.7875 36.6735 1.4502 0.8631
0.3023 8.4711 0.3342 0.9666
-0.9453 38.3895 1.5142 0.8575
-2.5453 39.2163 1.5496 0.8544
-5.0977 40.5353 1.6109 0.8491
-6.9190 41.4765 1.6581 0.8451
-7.8710 41.9684 1.6837 0.8429
-7.9078 37.9394 1.5281 0.8563
-9.3479 40.7327 1.6479 0.8459
-11.0161 37.4791 1.5404 0.8552
-12.0147 35.5317 1.4790 0.8606
-11.2269 31.1262 1.3047 0.8759
-11.6380 30.3412 1.2814 0.8780
-16.0218 37.2231 1.5979 0.8502
-17.1881 37.8211 1.6381 0.8468
-18.4150 38.4502 1.6810 0.8431
-19.1341 37.9735 1.6767 0.8435
-21.3366 40.3078 1.7983 0.8331
-22.8023 41.0594 1.8519 0.8286
-24.3586 41.8574 1.9096 0.8238
-56.5403 56.2137 3.1438 0.7268
-57.3029 54.7266 3.1244 0.7282
-58.0564 53.2570 3.1065 0.7295
-77.3863 -41.9356 1.4868 0.7032
-75.5043 -42.9005 1.4669 0.7065
-73.7219 -43.8706 1.4491 0.7095
-71.8838 -44.7569 1.4304 0.7127
-62.4615 -44.3267 1.2937 0.7361
-64.1369 -47.4821 1.3480 0.7267
-36.4540 -54.2251 1.1037 0.7700
-38.4855 -59.8088 1.2014 0.7524
-30.7269 -60.2969 1.1431 0.7628
-29.5164 -60.9176 1.1434 0.7628
-28.3049 -61.5388 1.1442 0.7626
-27.0912 -62.1611 1.1454 0.7624
-25.8745 -62.7849 1.1471 0.7621
-16.2730 -63.6698 1.1101 0.7688
-13.7448 -58.6678 1.0178 0.7858
-11.6904 -54.8386 0.9471 0.7991
-8.2797 -48.2798 0.8274 0.8220
-6.9484 -46.0545 0.7868 0.8300
-3.4637 -38.6164 0.6549 0.8563
-1.3842 -28.0761 0.4749 0.8936
-0.2962 -32.6564 0.5516 0.8775
0.9429 -30.2826 0.5118 0.8859
1.4796 -28.8597 0.4881 0.8908
1.5917 -22.2796 0.3773 0.9145
2.4688 -26.9304 0.4568 0.8975
3.7568 -24.5735 0.4199 0.9053
4.1356 -23.8347 0.4086 0.9078
4.6571 -23.9699 0.4125 0.9069
4.6096 -16.5089 0.2896 0.9337
4.8427 -16.0883 0.2838 0.9350
6.1910 -16.8206 0.3028 0.9308
6.7018 -17.1379 0.3108 0.9290
7.2121 -17.4034 0.3182 0.9274
8.3102 -17.9746 0.3345 0.9238
8.9029 -18.2829 0.3435 0.9219
10.1909 -18.9529 0.3635 0.9175
11.6407 -19.7071 0.3866 0.9125
13.2257 -20.4652 0.4116 0.9071
15.1907 -21.5537 0.4454 0.8999
17.3921 -22.6834 0.4829 0.8919
18.6716 -23.3644 0.5052 0.8872
20.4949 -24.6150 0.5411 0.8797
40.7150 -46.9482 1.0497 0.7799
41.3244 -45.7597 1.0415 0.7814
44.2461 -40.0614 1.0082 0.7876
47.0653 -39.2906 1.0356 0.7825
52.5369 -42.0961 1.1372 0.7639
89.5187 -11.9677 1.5257 0.6968
80.3099 -7.4668 1.3624 0.7242
81.1132 -5.9001 1.3738 0.7223
81.9304 -4.3065 1.3859 0.7202
80.8472 5.5115 1.3688 0.7231
74.9922 8.1505 1.2742 0.7395
70.4488 9.0925 1.1999 0.7526
70.9127 10.6052 1.2112 0.7506
62.2941 13.1956 1.0756 0.7751
60.6099 14.1172 1.0512 0.7796
57.2345 15.7806 1.0029 0.7886
54.2440 17.3296 0.9619 0.7963
49.7580 17.0057 0.8882 0.8103
49.5577 18.0574 0.8910 0.8098
50.3386 19.4965 0.9119 0.8058
48.8247 20.0476 0.8916 0.8097
48.9236 21.2469 0.9010 0.8078
53.2338 24.4017 0.9892 0.7911
51.9715 25.0989 0.9749 0.7938
51.4897 26.1550 0.9755 0.7937
52.3501 27.9294 1.0023 0.7887
55.9947 31.3353 1.0839 0.7736
39.3126 23.0492 0.7698 0.8333
65.1511 51.7189 1.4051 0.7169
68.2512 56.4524 1.4958 0.7016
53.0736 47.6169 1.2045 0.7518
31.6080 29.5260 0.7306 0.8411
23.6669 25.9688 0.5935 0.8689
22.3781 26.6297 0.5876 0.8701
20.4875 27.5990 0.5806 0.8715
19.8664 27.9175 0.5788 0.8719
19.2489 28.2341 0.5772 0.8722
18.6345 28.5491 0.5759 0.8725
17.4129 29.1755 0.5739 0.8729
16.8047 29.4873 0.5733 0.8730
16.0020 29.4386 0.5660 0.8746
15.4104 29.7604 0.5661 0.8745
14.8112 30.0680 0.5662 0.8745
14.2115 30.3756 0.5665 0.8744
13.6648 30.8054 0.5693 0.8739
12.5504 31.6687 0.5754 0.8726
11.9370 31.9831 0.5767 0.8723
10.0777 32.9365 0.5818 0.8713
9.4493 33.2575 0.5840 0.8708
8.8162 33.5821 0.5865 0.8703
8.1775 33.9097 0.5892 0.8698
7.5325 34.2404 0.5922 0.8691
5.5539 35.2549 0.6029 0.8669
2.7875 36.6733 0.6213 0.8632
0.3023 8.4702 0.1432 0.9667
-0.9453 38.3893 0.6487 0.8576
-2.5453 39.2161 0.6638 0.8545
-3.3743 39.6445 0.6721 0.8528
-5.0977 40.5351 0.6901 0.8492
-7.8710 41.9682 0.7213 0.8430
-8.7381 41.9230 0.7234 0.8426
-11.0163 37.4798 0.6599 0.8553
-11.5258 36.4862 0.6463 0.8581
-12.0149 35.5323 0.6336 0.8607
-12.4853 34.6149 0.6216 0.8631
-12.9921 33.8713 0.6128 0.8649
-16.1225 35.4765 0.6582 0.8556
-17.2734 36.0666 0.6755 0.8522
-18.4867 36.6887 0.6940 0.8484
-26.0840 40.9437 0.8200 0.8235
-21.7767 32.7129 0.6638 0.8545
-57.3036 54.7273 1.3385 0.7283
-58.0571 53.2577 1.3308 0.7297
-49.6477 -23.1499 -0.3084 0.8032
-51.9105 -25.4872 -0.3256 0.7935
-76.0244 -43.1961 -0.4923 0.7049
-72.3790 -45.0653 -0.4800 0.7110
-62.8463 -42.7272 -0.4279 0.7379
-76.7546 -59.2476 -0.5459 0.6785
-65.4283 -59.4741 -0.4978 0.7021
-30.2053 -30.9796 -0.2436 0.8411
-29.6627 -31.6722 -0.2443 0.8407
-37.4485 -55.7045 -0.3779 0.7645
-33.1976 -59.1428 -0.3819 0.7624
-32.1498 -60.0734 -0.3836 0.7614
-30.9313 -60.6982 -0.3835 0.7615
-29.5602 -61.0079 -0.3817 0.7625
-26.0467 -63.2027 -0.3849 0.7608
-30.8396 -89.8559 -0.5349 0.6839
-27.1115 -84.4860 -0.4996 0.7012
-21.5691 -72.1683 -0.4241 0.7399
-15.9049 -62.2294 -0.3616 0.7734
-13.7441 -58.6648 -0.3392 0.7858
-7.6409 -39.7433 -0.2279 0.8505
-6.3581 -37.0745 -0.2118 0.8603
-5.3181 -35.2483 -0.2007 0.8671
-2.7087 -30.1987 -0.1707 0.8858
-0.2304 -25.4029 -0.1430 0.9034
0.2695 -24.4355 -0.1376 0.9069
0.7329 -23.5388 -0.1326 0.9101
1.9286 -21.0386 -0.1189 0.9190
4.0474 -17.1247 -0.0991 0.9320
4.7477 -15.7725 -0.0927 0.9362
6.0929 -16.5542 -0.0993 0.9319
7.5896 -17.3216 -0.1065 0.9271
8.1384 -17.6030 -0.1092 0.9254
9.9019 -18.4153 -0.1177 0.9198
12.1533 -19.6616 -0.1301 0.9117
12.9804 -20.0857 -0.1346 0.9088
14.7200 -20.8857 -0.1439 0.9028
15.8515 -21.5578 -0.1507 0.8985
16.9680 -22.1303 -0.1570 0.8944
42.0454 -44.7178 -0.3456 0.7823
43.2241 -42.4188 -0.3410 0.7849
45.2463 -40.9670 -0.3436 0.7834
47.0663 -39.2914 -0.3451 0.7825
58.9575 -15.2732 -0.3429 0.7838
92.5464 -14.2709 -0.5272 0.6876
87.5380 -11.7029 -0.4972 0.7024
80.2076 -7.4573 -0.4535 0.7245
73.6982 -3.8738 -0.4155 0.7444
82.6333 -2.6797 -0.4655 0.7184
84.4741 0.6568 -0.4756 0.7133
85.2499 2.3767 -0.4802 0.7110
76.4756 3.6713 -0.4311 0.7362
73.6073 5.0179 -0.4154 0.7444
66.6675 8.6045 -0.3785 0.7642
62.7156 10.6719 -0.3582 0.7753
60.8441 11.6161 -0.3488 0.7805
36.7483 7.7843 -0.2115 0.8605
55.8474 14.1969 -0.3244 0.7941
54.4197 15.0045 -0.3178 0.7979
52.7560 15.6931 -0.3099 0.8024
51.6735 16.5083 -0.3054 0.8049
49.7577 17.0056 -0.2961 0.8103
38.2225 13.9272 -0.2290 0.8498
48.8244 20.0475 -0.2971 0.8097
49.7130 22.7878 -0.3079 0.8035
52.3490 27.9288 -0.3341 0.7887
55.9934 31.3346 -0.3613 0.7736
55.4869 34.0489 -0.3665 0.7707
57.3273 36.7841 -0.3835 0.7615
62.3924 47.5168 -0.4416 0.7307
64.9446 51.5550 -0.4669 0.7177
67.9770 56.2256 -0.4967 0.7027
60.5837 58.9169 -0.4758 0.7132
52.1732 52.8188 -0.4180 0.7431
23.6668 25.9687 -0.1978 0.8689
23.0490 26.3349 -0.1970 0.8694
22.3780 26.6295 -0.1958 0.8701
21.7427 26.9553 -0.1950 0.8706
16.8047 29.4871 -0.1911 0.8731
16.0019 29.4385 -0.1886 0.8746
13.7614 27.9370 -0.1753 0.8829
12.5892 31.7668 -0.1924 0.8722
11.9740 32.0822 -0.1928 0.8720
8.8276 33.6255 -0.1957 0.8702
8.1775 33.9095 -0.1964 0.8698
7.5325 34.2402 -0.1974 0.8692
6.2213 34.9125 -0.1997 0.8677
2.7875 36.6731 -0.2071 0.8632
0.3022 8.4693 -0.0477 0.9667
-0.0679 15.0056 -0.0845 0.9417
-1.7360 38.7977 -0.2187 0.8561
-4.2246 40.0837 -0.2269 0.8511
-5.0977 40.5348 -0.2300 0.8492
-8.7383 41.9238 -0.2411 0.8426
-9.9297 39.6001 -0.2299 0.8493
-11.0165 37.4804 -0.2199 0.8553
-11.5260 36.4869 -0.2154 0.8581
-12.0151 35.5329 -0.2112 0.8607
-12.9386 33.7319 -0.2034 0.8654
-14.2340 33.0695 -0.2027 0.8659
-16.3601 34.1597 -0.2132 0.8594
-17.5093 34.7489 -0.2191 0.8559
-20.0097 36.0309 -0.2320 0.8480
-22.8297 37.4769 -0.2471 0.8390
-24.3825 38.2730 -0.2555 0.8340
-56.5418 56.2152 -0.4489 0.7269
-58.0579 53.2584 -0.4436 0.7297
-83.9058 -16.5854 -2.4083 0.7102
-66.0106 -14.4322 -1.9026 0.7631
-64.9331 -15.5702 -1.8802 0.7655
-82.3215 -21.4979 -2.3957 0.7114
-81.7257 -23.1061 -2.3914 0.7119
-79.0111 -29.3731 -2.3736 0.7137
-77.4641 -32.3976 -2.3643 0.7146
-51.9116 -25.4878 -1.6284 0.7934
-74.0101 -38.2023 -2.3452 0.7166
-73.0754 -39.5994 -2.3403 0.7171
-72.1133 -40.9739 -2.3354 0.7176
-70.1104 -43.6527 -2.3255 0.7186
-67.0082 -47.5533 -2.3136 0.7198
-65.0793 -50.2354 -2.3149 0.7197
-64.0754 -51.5481 -2.3156 0.7196
-64.1464 -53.7639 -2.3568 0.7154
-64.2383 -58.3924 -2.4444 0.7065
-62.4766 -61.5536 -2.4696 0.7040
-30.2524 -31.0279 -1.2202 0.8408
-29.6640 -31.6736 -1.2219 0.8406
-58.7117 -65.2700 -2.4720 0.7038
-57.4077 -66.4592 -2.4728 0.7037
-37.7985 -51.6172 -1.8015 0.7741
-37.5963 -53.5671 -1.8428 0.7696
-36.4178 -54.1713 -1.8380 0.7701
-44.7375 -69.5247 -2.3279 0.7183
-43.3472 -70.4353 -2.3288 0.7182
-41.9387 -71.3189 -2.3297 0.7182
-33.1487 -59.0559 -1.9069 0.7626
-30.7271 -60.2975 -1.9056 0.7628
-15.9007 -57.3808 -1.6766 0.7880
-12.3829 -52.8546 -1.5286 0.8047
-8.9884 -42.1634 -1.2139 0.8415
-7.6406 -39.7416 -1.1395 0.8505
-5.3179 -35.2470 -1.0037 0.8671
-3.4612 -31.4679 -0.8914 0.8810
-0.2304 -25.4022 -0.7153 0.9033
0.7329 -23.5382 -0.6631 0.9101
1.9286 -21.0381 -0.5949 0.9189
2.9443 -19.2589 -0.5486 0.9250
3.2418 -18.6833 -0.5339 0.9269
3.7920 -17.6185 -0.5075 0.9304
4.0473 -17.1244 -0.4955 0.9320
4.2590 -16.5285 -0.4806 0.9340
4.4918 -16.0868 -0.4703 0.9353
4.7477 -15.7726 -0.4638 0.9362
5.2002 -16.0965 -0.4763 0.9346
6.0930 -16.5543 -0.4967 0.9318
6.5691 -16.7984 -0.5079 0.9304
7.0673 -17.0539 -0.5198 0.9288
7.5897 -17.3217 -0.5325 0.9271
8.1384 -17.6031 -0.5461 0.9253
8.7161 -17.8993 -0.5606 0.9234
9.3256 -18.2119 -0.5761 0.9214
9.9020 -18.4154 -0.5887 0.9197
10.6534 -18.8926 -0.6107 0.9169
11.3795 -19.2650 -0.6300 0.9144
12.1534 -19.6618 -0.6509 0.9117
13.8674 -20.5406 -0.6978 0.9056
14.7201 -20.8859 -0.7195 0.9028
19.5126 -23.4352 -0.8587 0.8851
40.7139 -46.9470 -1.7498 0.7798
41.3233 -45.7585 -1.7361 0.7814
41.9234 -44.5881 -1.7233 0.7828
47.0673 -39.2923 -1.7264 0.7824
72.8054 -53.6789 -2.5470 0.6963
73.8847 -52.2159 -2.5475 0.6963
76.9408 -47.6965 -2.5490 0.6961
77.8972 -46.1487 -2.5494 0.6961
79.7151 -42.9956 -2.5503 0.6960
80.5752 -41.3912 -2.5507 0.6959
81.4023 -39.7694 -2.5510 0.6959
82.9564 -36.4759 -2.5517 0.6958
83.6828 -34.8057 -2.5520 0.6958
84.3751 -33.1209 -2.5523 0.6958
81.5064 -24.6491 -2.3977 0.7112
81.9909 -23.0078 -2.3979 0.7112
58.9562 -15.2728 -1.7149 0.7837
56.1912 -13.3576 -1.6263 0.7936
64.5202 -12.6221 -1.8512 0.7687
60.5919 -10.5941 -1.7320 0.7818
55.4814 -7.4173 -1.5761 0.7993
46.7779 -3.4026 -1.3206 0.8289
44.7391 -2.3516 -1.2615 0.8359
42.7440 -1.3862 -1.2042 0.8427
41.1644 -0.5072 -1.1592 0.8481
38.7317 1.0798 -1.0910 0.8564
58.3409 2.8007 -1.6446 0.7916
56.2064 3.8317 -1.5863 0.7982
54.4919 4.8167 -1.5404 0.8034
52.6114 5.7180 -1.4901 0.8092
49.5680 7.4131 -1.4112 0.8183
48.1281 8.1896 -1.3747 0.8225
47.0030 8.9736 -1.3474 0.8257
42.5391 11.7288 -1.2425 0.8381
41.4004 12.3152 -1.2162 0.8413
38.1840 13.9130 -1.1443 0.8499
38.5796 14.9420 -1.1649 0.8474
31.8640 13.8381 -0.9782 0.8702
40.4345 18.5346 -1.2525 0.8369
41.1186 19.8576 -1.2858 0.8330
35.2488 20.6665 -1.1505 0.8492
36.0466 22.1195 -1.1909 0.8443
36.8258 23.6292 -1.2320 0.8394
38.5566 26.9868 -1.3252 0.8283
39.7682 29.0427 -1.3866 0.8211
40.7921 31.0664 -1.4438 0.8145
42.8528 35.4447 -1.5659 0.8005
44.5746 38.4032 -1.6567 0.7902
51.8239 52.4651 -2.0765 0.7445
21.7426 26.9552 -0.9751 0.8706
19.8662 27.9172 -0.9648 0.8719
19.3284 28.3509 -0.9662 0.8717
18.0225 28.8626 -0.9581 0.8727
17.4849 29.2961 -0.9607 0.8724
16.8046 29.4870 -0.9557 0.8730
15.5065 29.9461 -0.9496 0.8738
11.9740 32.0821 -0.9642 0.8719
10.7455 32.7516 -0.9706 0.8712
9.4493 33.2572 -0.9735 0.8708
8.1774 33.9093 -0.9822 0.8697
6.2213 34.9123 -0.9985 0.8677
5.5538 35.2545 -1.0049 0.8669
4.8976 35.7489 -1.0160 0.8656
4.1914 35.9531 -1.0192 0.8652
4.9457 88.5929 -2.4985 0.7011
0.3022 8.4684 -0.2386 0.9667
1.3807 88.6466 -2.4964 0.7013
-0.0679 15.0055 -0.4225 0.9417
-0.9453 38.3889 -1.0813 0.8576
-1.7360 38.7975 -1.0935 0.8561
-3.3743 39.6441 -1.1203 0.8528
-4.2245 40.0834 -1.1349 0.8510
-6.9189 41.4757 -1.1840 0.8451
-7.8709 41.9677 -1.2023 0.8429
-8.7384 41.9247 -1.2059 0.8425
-9.3484 40.7350 -1.1768 0.8460
-9.9299 39.6009 -1.1496 0.8493
-10.4853 38.5176 -1.1240 0.8524
-11.0167 37.4811 -1.1000 0.8553
-11.5262 36.4875 -1.0775 0.8580
-12.4857 34.6161 -1.0362 0.8631
-14.4177 31.7251 -0.9812 0.8698
-15.4468 32.2527 -1.0070 0.8667
-17.6389 33.3225 -1.0616 0.8600
-18.6135 33.5168 -1.0795 0.8578
-19.8839 34.1682 -1.1132 0.8537
-22.6812 35.6024 -1.1886 0.8446
-21.7771 32.7134 -1.1066 0.8545
-52.8436 69.8571 -2.4664 0.7043
-54.2210 68.7611 -2.4657 0.7044
-55.5757 67.6381 -2.4650 0.7045
-59.5010 64.1136 -2.4630 0.7047
-64.3923 59.0691 -2.4605 0.7049
-44.3445 -11.5804 -2.3243 0.8323
-44.1067 -12.4703 -2.3245 0.8323
-44.1076 -14.4082 -2.3532 0.8304
-44.8094 -15.6407 -2.4069 0.8269
-45.0565 -18.8438 -2.4768 0.8223
-44.2731 -20.6438 -2.4774 0.8223
-42.9649 -23.2826 -2.4783 0.8222
-42.4939 -24.1445 -2.4786 0.8222
-42.0059 -24.9970 -2.4790 0.8222
-41.5010 -25.8397 -2.4793 0.8222
-39.8862 -28.3058 -2.4804 0.8221
-39.3154 -29.1061 -2.4808 0.8221
-25.8720 -22.5849 -1.7417 0.8715
-34.8866 -34.3712 -2.4837 0.8219
-30.2525 -31.0280 -2.1976 0.8407
-30.7736 -34.2112 -2.3336 0.8317
-30.0856 -34.8292 -2.3341 0.8317
-29.3853 -35.4336 -2.3345 0.8316
-28.6728 -36.0238 -2.3350 0.8316
-27.9486 -36.5999 -2.3354 0.8316
-26.4658 -37.7084 -2.3364 0.8315
-25.7078 -38.2402 -2.3368 0.8315
-24.9393 -38.7571 -2.3373 0.8314
-23.3715 -39.7444 -2.3383 0.8314
-20.9476 -41.1065 -2.3398 0.8313
-20.1216 -41.5281 -2.3403 0.8313
-18.4447 -42.3216 -2.3413 0.8312
-17.5944 -42.6930 -2.3418 0.8312
-16.7365 -43.0474 -2.3423 0.8311
-15.8717 -43.3848 -2.3428 0.8311
-15.0000 -43.7047 -2.3434 0.8310
-14.1219 -44.0071 -2.3439 0.8310
-13.2376 -44.2920 -2.3444 0.8310
-11.4524 -44.8086 -2.3455 0.8309
-2.7085 -30.1968 -1.5376 0.8857
-2.0029 -28.8315 -1.4657 0.8907
-1.3601 -27.5876 -1.4008 0.8953
0.7328 -23.5377 -1.1943 0.9100
1.1639 -22.7035 -1.1529 0.9130
1.9285 -21.0376 -1.0714 0.9189
3.2417 -18.6829 -0.9616 0.9269
3.7919 -17.6182 -0.9140 0.9304
4.0473 -17.1240 -0.8924 0.9320
4.2589 -16.5282 -0.8656 0.9339
4.4917 -16.0865 -0.8470 0.9353
5.2002 -16.0966 -0.8579 0.9345
6.0930 -16.5544 -0.8946 0.9318
7.0673 -17.0540 -0.9362 0.9287
7.5897 -17.3219 -0.9591 0.9271
10.6535 -18.8928 -1.1000 0.9168
12.1535 -19.6619 -1.1723 0.9116
12.9807 -20.0861 -1.2129 0.9087
13.8676 -20.5408 -1.2569 0.9055
14.7202 -20.8861 -1.2959 0.9027
15.8518 -21.5582 -1.3571 0.8984
18.1837 -22.7539 -1.4772 0.8899
19.5128 -23.4354 -1.5465 0.8850
25.5247 -29.4324 -1.9758 0.8555
34.0858 -36.2523 -2.5235 0.8193
34.8125 -35.5652 -2.5239 0.8193
35.5254 -34.8636 -2.5243 0.8193
36.9078 -33.4171 -2.5250 0.8192
38.2308 -31.9155 -2.5256 0.8192
38.8693 -31.1447 -2.5260 0.8192
42.8850 -25.4064 -2.5279 0.8190
43.8791 -23.6669 -2.5283 0.8190
44.8021 -21.8882 -2.5288 0.8190
45.2363 -20.9850 -2.5290 0.8190
46.7872 -17.2892 -2.5296 0.8189
47.1279 -16.3464 -2.5297 0.8189
47.4490 -15.3968 -2.5299 0.8189
47.7509 -14.4408 -2.5300 0.8189
48.0336 -13.4784 -2.5301 0.8189
48.2962 -12.5113 -2.5302 0.8189
48.3132 -10.4638 -2.5070 0.8204
45.9829 -8.9957 -2.3762 0.8289
46.1550 -8.0699 -2.3762 0.8289
46.4429 -6.2089 -2.3763 0.8289
46.6549 -4.3377 -2.3763 0.8289
46.7322 -3.3993 -2.3762 0.8289
39.9408 0.3106 -2.0256 0.8522
37.0294 1.7777 -1.8801 0.8620
33.5334 3.6446 -1.7106 0.8736
32.3475 4.1750 -1.6541 0.8775
31.2941 4.6801 -1.6047 0.8810
30.5966 5.2064 -1.5740 0.8831
28.5109 7.2477 -1.4919 0.8889
29.3652 8.7351 -1.5537 0.8845
29.6608 9.4758 -1.5791 0.8828
30.6116 11.1539 -1.6523 0.8777
31.5194 12.2077 -1.7142 0.8734
31.6697 13.7537 -1.7510 0.8708
32.7077 14.9928 -1.8247 0.8658
33.0138 15.9436 -1.8593 0.8634
31.2904 15.8944 -1.7799 0.8689
34.2015 18.2468 -1.9659 0.8562
34.8780 19.5181 -2.0269 0.8521
35.2486 20.6664 -2.0722 0.8490
37.0223 23.7553 -2.2308 0.8385
39.5423 27.6768 -2.4478 0.8242
38.9833 28.4695 -2.4481 0.8242
38.4082 29.2509 -2.4484 0.8242
37.8175 30.0207 -2.4487 0.8242
37.2114 30.7786 -2.4490 0.8241
29.7056 26.6514 -2.0240 0.8523
31.5323 29.4553 -2.1883 0.8413
33.2629 35.0564 -2.4508 0.8240
21.7425 26.9550 -1.7563 0.8705
21.1125 27.2780 -1.7493 0.8710
20.4872 27.5986 -1.7431 0.8714
19.8655 27.9163 -1.7376 0.8718
18.6306 28.5433 -1.7286 0.8724
16.0018 29.4382 -1.6992 0.8744
15.5065 29.9459 -1.7102 0.8737
14.4374 30.8585 -1.7278 0.8724
13.6459 30.7627 -1.7067 0.8739
13.0021 30.9762 -1.7037 0.8741
11.9362 31.9808 -1.7312 0.8722
10.7011 32.6163 -1.7409 0.8715
10.0775 32.9360 -1.7468 0.8711
8.8161 33.5817 -1.7608 0.8702
8.1774 33.9092 -1.7690 0.8696
7.5324 34.2399 -1.7780 0.8690
6.8975 34.6592 -1.7922 0.8680
5.5538 35.2544 -1.8099 0.8668
3.4950 36.3099 -1.8499 0.8641
0.7545 48.4431 -2.4570 0.8236
-0.0679 15.0054 -0.7610 0.9417
-0.9453 38.3887 -1.9474 0.8574
-1.7360 38.7973 -1.9695 0.8559
-4.2245 40.0832 -2.0440 0.8509
-5.9951 40.9982 -2.1013 0.8471
-6.9189 41.4755 -2.1325 0.8450
-9.3486 40.7358 -2.1196 0.8459
-9.9301 39.6016 -2.0705 0.8491
-11.0169 37.4818 -1.9813 0.8552
-11.5264 36.4881 -1.9406 0.8579
-17.7757 32.0082 -1.8568 0.8636
-18.6907 32.1178 -1.8846 0.8617
-21.7772 32.7137 -1.9930 0.8544
-29.5372 37.4580 -2.4192 0.8261
-30.2413 36.8050 -2.4158 0.8263
-30.9297 36.1371 -2.4123 0.8265
-31.6538 35.5129 -2.4126 0.8265
-32.3383 34.8452 -2.4109 0.8266
-32.9863 34.1411 -2.4076 0.8268
-34.3133 32.7706 -2.4063 0.8269
-34.9289 32.0415 -2.4038 0.8271
-33.2187 -6.5662 -2.4828 0.8730
-33.0817 -7.2328 -2.4829 0.8730
-31.7544 -11.8049 -2.4840 0.8730
-30.4219 -14.9367 -2.4850 0.8729
-30.1183 -15.5464 -2.4852 0.8729
-29.8024 -16.1499 -2.4854 0.8729
-29.1349 -17.3376 -2.4859 0.8729
-28.4203 -18.4980 -2.4864 0.8728
-27.6597 -19.6291 -2.4869 0.8728
-26.8544 -20.7291 -2.4874 0.8728
-26.4315 -21.2639 -2.4873 0.8728
-24.4213 -20.4685 -2.3364 0.8800
-24.0078 -20.9575 -2.3367 0.8800
-23.1518 -21.9105 -2.3372 0.8800
-22.7096 -22.3741 -2.3375 0.8800
-21.3283 -23.7107 -2.3384 0.8799
-19.8687 -24.9626 -2.3393 0.8799
-19.3657 -25.3603 -2.3396 0.8799
-17.8099 -26.4921 -2.3406 0.8798
-17.2764 -26.8484 -2.3409 0.8798
-16.7357 -27.1940 -2.3413 0.8798
-16.1882 -27.5288 -2.3416 0.8798
-14.5064 -28.4667 -2.3426 0.8797
-11.5864 -29.8008 -2.3444 0.8796
-10.9869 -30.0323 -2.3448 0.8796
-9.7743 -30.4590 -2.3455 0.8796
-8.5448 -30.8370 -2.3462 0.8796
-7.9250 -31.0071 -2.3466 0.8795
-7.3014 -31.1650 -2.3470 0.8795
-6.0451 -31.4431 -2.3477 0.8795
-4.1412 -31.7657 -2.3488 0.8794
-0.7658 -26.2506 -1.9256 0.9000
-0.2304 -25.4008 -1.8625 0.9031
0.7328 -23.5370 -1.7266 0.9099
1.1639 -22.7029 -1.6668 0.9129
1.9285 -21.0371 -1.5490 0.9188
2.2967 -20.5109 -1.5133 0.9206
2.6298 -19.8664 -1.4694 0.9228
2.9442 -19.2581 -1.4284 0.9248
3.2416 -18.6825 -1.3903 0.9268
3.5237 -18.1366 -1.3547 0.9286
3.7919 -17.6178 -1.3214 0.9303
4.0472 -17.1237 -1.2901 0.9319
4.2588 -16.5279 -1.2514 0.9338
5.2003 -16.0968 -1.2403 0.9344
6.0931 -16.5546 -1.2934 0.9317
6.5691 -16.7986 -1.3225 0.9302
9.9021 -18.4158 -1.5331 0.9196
10.6536 -18.8930 -1.5903 0.9167
11.3798 -19.2653 -1.6406 0.9142
12.9808 -20.0863 -1.7535 0.9085
13.8677 -20.5410 -1.8172 0.9054
14.4186 -19.6092 -1.7846 0.9070
16.9685 -22.1310 -2.0448 0.8942
18.1839 -22.7542 -2.1357 0.8897
19.5130 -23.4357 -2.2360 0.8849
21.1136 -24.3460 -2.3629 0.8788
21.6009 -23.9193 -2.3631 0.8787
22.0795 -23.4829 -2.3634 0.8787
22.5492 -23.0368 -2.3636 0.8787
23.9033 -21.6426 -2.3643 0.8787
26.7777 -21.4561 -2.5159 0.8714
27.2321 -20.9356 -2.5186 0.8713
27.6496 -20.3858 -2.5188 0.8713
28.0558 -19.8276 -2.5190 0.8713
28.8341 -18.6870 -2.5194 0.8713
29.2058 -18.1051 -2.5195 0.8713
29.9137 -16.9191 -2.5199 0.8712
30.2495 -16.3155 -2.5200 0.8712
30.5730 -15.7052 -2.5202 0.8712
31.4686 -13.8368 -2.5205 0.8712
31.7418 -13.2022 -2.5207 0.8712
32.0020 -12.5622 -2.5208 0.8712
32.2493 -11.9170 -2.5209 0.8712
32.7043 -10.6123 -2.5210 0.8712
32.9120 -9.9532 -2.5211 0.8712
33.2871 -8.6231 -2.5212 0.8712
33.7480 -6.6021 -2.5214 0.8712
34.1700 -3.8710 -2.5214 0.8712
32.2905 0.2511 -2.3677 0.8785
32.1628 2.8429 -2.3674 0.8785
32.0203 4.1327 -2.3673 0.8785
30.5011 5.1902 -2.2686 0.8833
28.6690 6.0729 -2.1487 0.8891
27.9329 6.5061 -2.1029 0.8913
28.5104 7.2476 -2.1569 0.8887
29.2913 8.7131 -2.2407 0.8846
29.8356 10.1968 -2.3119 0.8812
31.2966 11.4034 -2.4423 0.8749
31.0635 12.0312 -2.4425 0.8749
20.8876 9.5746 -1.6848 0.9120
21.1750 10.2262 -1.7242 0.9100
29.7124 15.0929 -2.4435 0.8749
29.4055 15.6881 -2.4437 0.8749
29.0866 16.2773 -2.4439 0.8749
23.4427 13.7446 -1.9925 0.8967
25.4149 17.7886 -2.2746 0.8830
26.1235 20.7377 -2.4456 0.8748
25.7038 21.2603 -2.4458 0.8748
25.2735 21.7744 -2.4460 0.8748
24.3823 22.7762 -2.4464 0.8747
23.9216 23.2635 -2.4466 0.8747
22.9713 24.2099 -2.4470 0.8747
21.4758 25.5559 -2.4476 0.8747
20.4345 26.4020 -2.4479 0.8747
19.9012 26.8093 -2.4481 0.8747
18.2534 27.9654 -2.4486 0.8746
17.6889 28.3284 -2.4488 0.8746
17.1171 28.6799 -2.4489 0.8746
16.5384 29.0199 -2.4491 0.8746
15.3607 29.6645 -2.4494 0.8746
14.7623 29.9689 -2.4495 0.8746
14.1579 30.2611 -2.4496 0.8746
13.5476 30.5411 -2.4498 0.8746
12.9318 30.8087 -2.4499 0.8746
6.5008 17.4177 -1.3632 0.9281
9.7782 31.9577 -2.4504 0.8746
6.5241 32.7832 -2.4509 0.8745
5.8642 32.9086 -2.4509 0.8745
5.2019 33.0209 -2.4510 0.8745
4.5375 33.1199 -2.4511 0.8745
1.8635 33.3818 -2.4514 0.8745
-1.4947 33.4046 -2.4518 0.8745
-3.5050 33.2559 -2.4519 0.8745
-5.5026 32.9856 -2.4520 0.8745
-6.1644 32.8687 -2.4520 0.8745
-7.4803 32.5951 -2.4521 0.8745
-8.1339 32.4384 -2.4521 0.8745
-8.7425 32.2290 -2.4506 0.8746
-9.3870 31.9364 -2.4407 0.8750
-9.9946 31.6391 -2.4328 0.8754
-11.2593 31.2159 -2.4332 0.8754
-11.7541 30.6440 -2.4065 0.8767
-12.9716 30.1366 -2.4057 0.8767
-13.5482 29.8118 -2.4010 0.8769
-14.1247 29.4921 -2.3976 0.8771
-14.7154 29.2039 -2.3978 0.8771
-15.3044 28.9078 -2.3981 0.8771
-16.9569 27.8361 -2.3899 0.8775
-17.5030 27.4744 -2.3885 0.8775
-18.0542 27.1211 -2.3889 0.8775
-19.0977 26.3298 -2.3849 0.8777
-19.6060 25.9184 -2.3829 0.8778
-22.0486 23.7578 -2.3766 0.8781
-23.8275 21.8577 -2.3708 0.8784
-25.3100 -5.5337 -2.4873 0.9011
-25.1947 -6.0414 -2.4874 0.9011
-25.0693 -6.5468 -2.4875 0.9011
-24.7883 -7.5495 -2.4877 0.9011
-24.6327 -8.0465 -2.4878 0.9011
-24.1070 -9.5176 -2.4882 0.9011
-23.4940 -10.9549 -2.4887 0.9011
-23.2706 -11.4255 -2.4888 0.9011
-22.7958 -12.3530 -2.4892 0.9011
-22.0148 -13.7071 -2.4897 0.9010
-20.5107 -15.8324 -2.4875 0.9011
-18.6752 -15.6525 -2.3394 0.9067
-18.3585 -16.0260 -2.3396 0.9067
-17.7029 -16.7538 -2.3400 0.9067
-17.3643 -17.1078 -2.3402 0.9067
-17.0186 -17.4550 -2.3405 0.9067
-16.6661 -17.7951 -2.3407 0.9067
-16.3067 -18.1282 -2.3409 0.9067
-15.9407 -18.4540 -2.3411 0.9067
-15.5682 -18.7726 -2.3414 0.9066
-15.1894 -19.0836 -2.3416 0.9066
-14.4133 -19.6826 -2.3421 0.9066
-13.6136 -20.2502 -2.3426 0.9066
-13.2054 -20.5219 -2.3429 0.9066
-12.7917 -20.7854 -2.3431 0.9066
-12.3728 -21.0406 -2.3434 0.9066
-11.9488 -21.2873 -2.3436 0.9066
-11.0863 -21.7551 -2.3442 0.9065
-10.2055 -22.1881 -2.3447 0.9065
-9.7587 -22.3913 -2.3450 0.9065
-9.3078 -22.5855 -2.3452 0.9065
-8.8531 -22.7706 -2.3455 0.9065
-8.3947 -22.9467 -2.3458 0.9065
-7.9328 -23.1135 -2.3461 0.9065
-6.0541 -23.6871 -2.3472 0.9064
-3.6496 -24.1896 -2.3486 0.9064
-1.6962 -24.4164 -2.3497 0.9063
-1.2053 -24.4485 -2.3500 0.9063
0.2695 -24.4330 -2.3458 0.9065
1.1639 -22.7024 -2.1824 0.9127
1.5545 -21.7601 -2.0944 0.9161
1.9284 -21.0367 -2.0281 0.9186
2.2967 -20.5104 -1.9814 0.9204
2.6297 -19.8660 -1.9239 0.9226
3.2416 -18.6821 -1.8204 0.9266
3.5237 -18.1363 -1.7737 0.9284
3.7918 -17.6175 -1.7301 0.9301
4.2587 -16.5276 -1.6386 0.9337
4.4915 -16.0859 -1.6034 0.9351
6.0931 -16.5547 -1.6936 0.9316
6.5692 -16.7988 -1.7317 0.9301
7.0674 -17.0543 -1.7723 0.9285
7.5898 -17.3221 -1.8156 0.9268
9.9022 -18.4159 -2.0074 0.9194
10.6537 -18.8931 -2.0823 0.9165
11.3798 -19.2655 -2.1481 0.9140
12.9809 -20.0864 -2.2960 0.9084
14.9510 -19.4997 -2.3590 0.9060
17.1965 -17.5683 -2.3602 0.9059
17.8912 -16.8657 -2.3605 0.9059
18.2279 -16.5039 -2.3607 0.9059
20.1037 -16.7828 -2.5142 0.9001
20.7645 -15.9635 -2.5145 0.9001
21.0825 -15.5440 -2.5147 0.9001
21.3918 -15.1180 -2.5148 0.9001
21.9845 -14.2479 -2.5151 0.9001
22.2676 -13.8040 -2.5152 0.9001
22.8065 -12.8993 -2.5155 0.9001
23.5454 -11.5032 -2.5158 0.9001
23.7728 -11.0282 -2.5159 0.9000
23.9905 -10.5486 -2.5160 0.9000
24.3966 -9.5767 -2.5162 0.9000
24.5849 -9.0848 -2.5163 0.9000
24.9314 -8.0900 -2.5164 0.9000
25.0895 -7.5875 -2.5165 0.9000
25.7261 -5.0328 -2.5167 0.9000
25.8223 -4.5149 -2.5167 0.9000
26.1451 -1.9018 -2.5167 0.9000
26.1086 0.7279 -2.5075 0.9004
25.1927 1.2094 -2.4214 0.9036
24.5682 1.6748 -2.3641 0.9058
24.5186 2.1672 -2.3631 0.9058
24.4694 2.6595 -2.3630 0.9058
24.4103 3.1505 -2.3630 0.9058
24.2625 4.1286 -2.3628 0.9058
24.1738 4.6152 -2.3627 0.9058
24.0753 5.0998 -2.3626 0.9058
23.7212 6.5404 -2.3623 0.9059
23.5839 7.0154 -2.3622 0.9059
23.4370 7.4875 -2.3621 0.9059
23.2806 7.9566 -2.3620 0.9059
23.1148 8.4224 -2.3619 0.9059
22.9396 8.8847 -2.3617 0.9059
22.7764 9.3521 -2.3638 0.9058
21.4494 9.3152 -2.2451 0.9103
21.6536 9.9258 -2.2869 0.9087
22.4275 10.8325 -2.3912 0.9048
22.2920 11.3271 -2.4008 0.9044
22.1441 11.8196 -2.4101 0.9041
21.4119 13.1392 -2.4118 0.9040
20.6805 14.4748 -2.4234 0.9035
20.4230 14.9172 -2.4281 0.9034
20.1581 15.3520 -2.4326 0.9032
19.8807 15.7819 -2.4369 0.9030
19.6084 16.1967 -2.4410 0.9029
18.2604 17.7579 -2.4454 0.9027
17.9009 18.1223 -2.4455 0.9027
17.5341 18.4794 -2.4456 0.9027
16.3914 19.5056 -2.4460 0.9027
14.7753 20.7632 -2.4466 0.9027
14.3558 21.0570 -2.4467 0.9027
13.9304 21.3423 -2.4468 0.9027
13.4994 21.6190 -2.4469 0.9027
13.0629 21.8870 -2.4471 0.9026
9.8681 23.5098 -2.4478 0.9026
9.3940 23.7042 -2.4479 0.9026
6.4644 17.3203 -1.7749 0.9284
7.4614 24.3858 -2.4483 0.9026
6.9701 24.5317 -2.4484 0.9026
5.9791 24.7937 -2.4486 0.9026
5.4799 24.9096 -2.4486 0.9026
4.9785 25.0155 -2.4487 0.9026
3.9719 25.1940 -2.4487 0.9026
3.4568 25.2316 -2.4450 0.9027
2.9460 25.2542 -2.4410 0.9029
1.9204 25.2654 -2.4326 0.9032
1.4097 25.2521 -2.4281 0.9034
-1.1298 25.2482 -2.4264 0.9034
-1.6370 25.2224 -2.4266 0.9034
-2.6309 24.9620 -2.4097 0.9041
-3.1198 24.8074 -2.4004 0.9044
-3.6087 24.6787 -2.3945 0.9046
-4.0986 24.5694 -2.3914 0.9048
-4.5871 24.4577 -2.3890 0.9048
-5.0731 24.3396 -2.3869 0.9049
-6.0422 24.0965 -2.3850 0.9050
-6.5263 23.9742 -2.3854 0.9050
-8.8695 23.1233 -2.3777 0.9053
-9.7809 22.7237 -2.3751 0.9054
-11.5573 21.8333 -2.3717 0.9055
-11.9867 21.5841 -2.3703 0.9056
-12.4110 21.3268 -2.3689 0.9056
-12.8319 21.0646 -2.3680 0.9056
-15.6149 19.0041 -2.3614 0.9059
-15.9844 18.6756 -2.3600 0.9059
-16.7029 17.9977 -2.3573 0.9060
-17.3976 17.2971 -2.3553 0.9061
-17.7339 16.9366 -2.3543 0.9062
-18.0602 16.5672 -2.3529 0.9062
-20.5635 -4.0647 -2.4899 0.9190
-20.3849 -4.8881 -2.4901 0.9190
-20.2832 -5.2969 -2.4902 0.9190
-19.9295 -6.5102 -2.4904 0.9190
-19.6535 -7.3063 -2.4907 0.9190
-19.5036 -7.7002 -2.4908 0.9190
-19.1802 -8.4785 -2.4910 0.9190
-19.0069 -8.8626 -2.4911 0.9190
-18.6375 -9.6202 -2.4914 0.9190
-18.2379 -10.3625 -2.4917 0.9190
-18.0270 -10.7275 -2.4918 0.9190
-17.8089 -11.0883 -2.4920 0.9190
-17.5835 -11.4446 -2.4921 0.9190
-17.3511 -11.7964 -2.4923 0.9190
-17.1116 -12.1435 -2.4924 0.9190
-16.6121 -12.8230 -2.4928 0.9189
-16.3522 -13.1551 -2.4929 0.9189
-16.0481 -13.4506 -2.4873 0.9191
-15.0877 -13.1708 -2.3790 0.9225
-14.3185 -13.5508 -2.3417 0.9237
-13.4791 -14.3922 -2.3423 0.9236
-10.6644 -12.3459 -1.9379 0.9364
-12.2838 -15.4331 -2.3430 0.9236
-11.6557 -15.9169 -2.3434 0.9236
-11.3345 -16.1493 -2.3436 0.9236
-11.0086 -16.3752 -2.3438 0.9236
-10.6783 -16.5946 -2.3440 0.9236
-10.0046 -17.0133 -2.3445 0.9236
-9.6616 -17.2125 -2.3447 0.9236
-9.3145 -17.4047 -2.3449 0.9236
-8.2512 -17.9393 -2.3455 0.9235
-7.1573 -18.4091 -2.3462 0.9235
-6.4130 -18.6853 -2.3466 0.9235
-5.2770 -19.0433 -2.3473 0.9235
-4.1212 -19.3323 -2.3480 0.9235
-3.3418 -19.4861 -2.3485 0.9235
-2.1623 -19.6578 -2.3492 0.9234
-1.3708 -19.7327 -2.3496 0.9234
-0.1794 -19.7853 -2.3503 0.9234
1.4105 -19.7434 -2.3512 0.9234
1.8071 -19.7130 -2.3514 0.9234
2.5983 -19.6282 -2.3519 0.9233
2.9440 -19.2573 -2.3141 0.9245
3.5236 -18.1359 -2.1946 0.9283
3.7917 -17.6171 -2.1406 0.9300
4.2587 -16.5273 -2.0273 0.9336
4.4915 -16.0857 -1.9838 0.9349
6.0931 -16.5548 -2.0954 0.9314
7.5899 -17.3222 -2.2465 0.9266
8.1387 -17.6036 -2.3037 0.9249
8.6808 -17.8267 -2.3553 0.9232
9.0380 -17.6501 -2.3555 0.9232
9.7415 -17.2755 -2.3559 0.9232
10.4295 -16.8728 -2.3562 0.9232
10.7672 -16.6610 -2.3564 0.9232
11.1007 -16.4425 -2.3566 0.9232
11.4298 -16.2173 -2.3568 0.9232
12.3888 -15.5025 -2.3573 0.9232
12.6987 -15.2515 -2.3574 0.9232
13.3030 -14.7309 -2.3577 0.9232
14.1569 -14.4630 -2.4041 0.9217
15.0513 -14.7709 -2.5050 0.9186
15.3838 -14.5019 -2.5113 0.9184
15.6730 -14.1907 -2.5115 0.9184
16.5023 -13.2227 -2.5119 0.9183
17.0220 -12.5502 -2.5121 0.9183
17.2716 -12.2062 -2.5123 0.9183
17.9781 -11.1448 -2.5126 0.9183
18.1992 -10.7818 -2.5127 0.9183
18.4129 -10.4142 -2.5128 0.9183
18.6191 -10.0425 -2.5129 0.9183
19.0090 -9.2869 -2.5131 0.9183
19.9913 -6.9340 -2.5135 0.9183
20.1270 -6.5310 -2.5135 0.9183
20.2546 -6.1254 -2.5136 0.9183
20.3739 -5.7172 -2.5136 0.9183
20.6822 -4.4794 -2.5137 0.9183
20.7682 -4.0629 -2.5137 0.9183
20.8458 -3.6448 -2.5137 0.9183
20.9755 -2.8042 -2.5138 0.9183
21.1063 -1.5353 -2.5138 0.9183
21.1328 -1.1108 -2.5137 0.9183
21.1507 -0.6860 -2.5137 0.9183
21.1600 -0.2607 -2.5137 0.9183
21.1529 0.5897 -2.5136 0.9183
21.0779 1.8631 -2.5135 0.9183
21.0357 2.2863 -2.5135 0.9183
20.9851 2.7085 -2.5134 0.9183
19.7184 3.7646 -2.3846 0.9223
19.4365 4.1172 -2.3600 0.9231
19.3493 4.5068 -2.3599 0.9231
19.1512 5.2803 -2.3598 0.9231
18.9221 6.0451 -2.3596 0.9231
18.7960 6.4239 -2.3595 0.9231
16.0094 5.8334 -2.0240 0.9337
18.5211 7.1733 -2.3593 0.9231
18.2161 7.9110 -2.3591 0.9231
18.0526 8.2751 -2.3589 0.9231
17.8817 8.6357 -2.3588 0.9231
17.7036 8.9929 -2.3587 0.9231
17.5184 9.3463 -2.3586 0.9231
16.4875 11.0532 -2.3579 0.9232
16.2610 11.3815 -2.3577 0.9232
16.0335 11.7093 -2.3584 0.9231
15.8058 12.0374 -2.3600 0.9231
15.5712 12.3609 -2.3616 0.9230
15.3301 12.6800 -2.3632 0.9230
14.3016 13.9082 -2.3697 0.9228
13.7507 14.4922 -2.3731 0.9227
13.4658 14.7767 -2.3748 0.9226
13.1772 15.0558 -2.3767 0.9226
12.8827 15.3302 -2.3786 0.9225
12.5837 15.6005 -2.3808 0.9224
11.9645 16.1262 -2.3853 0.9223
11.3276 16.6152 -2.3887 0.9222
9.2619 17.8865 -2.3926 0.9221
8.8996 18.0670 -2.3923 0.9221
8.5328 18.2381 -2.3918 0.9221
7.0267 18.8268 -2.3870 0.9222
6.6431 18.9531 -2.3856 0.9223
6.2581 19.0744 -2.3846 0.9223
5.8714 19.1884 -2.3836 0.9224
5.4820 19.2953 -2.3827 0.9224
5.0917 19.3949 -2.3819 0.9224
4.6990 19.4869 -2.3811 0.9224
4.3054 19.5708 -2.3803 0.9225
3.5133 19.7155 -2.3788 0.9225
3.1154 19.7762 -2.3781 0.9225
2.7165 19.8285 -2.3773 0.9225
1.1142 19.9589 -2.3745 0.9226
0.3021 8.4648 -1.0061 0.9665
0.3114 19.9946 -2.3754 0.9226
-0.0679 15.0052 -1.7824 0.9413
-0.4920 19.9810 -2.3742 0.9226
-0.8931 19.9598 -2.3733 0.9227
-1.2936 19.9304 -2.3724 0.9227
-1.6932 19.8934 -2.3716 0.9227
-2.8858 19.7342 -2.3691 0.9228
-3.6738 19.5886 -2.3674 0.9229
-4.4549 19.4117 -2.3658 0.9229
-5.2310 19.2162 -2.3657 0.9229
-5.6140 19.0998 -2.3648 0.9229
-6.3721 18.8445 -2.3630 0.9230
-7.4875 18.4054 -2.3603 0.9231
-7.8529 18.2445 -2.3594 0.9231
-9.6286 17.3379 -2.3558 0.9232
-10.3093 16.9235 -2.3539 0.9233
-12.5472 15.2704 -2.3477 0.9235
-13.1398 14.7417 -2.3457 0.9235
-13.4289 14.4699 -2.3450 0.9236
-13.7108 14.1907 -2.3439 0.9236
-13.9870 13.9062 -2.3429 0.9236
-17.1809 -3.7563 -2.4918 0.9314
-17.1024 -4.1010 -2.4919 0.9314
-17.0170 -4.4439 -2.4920 0.9314
-16.9248 -4.7852 -2.4921 0.9314
-16.8258 -5.1244 -2.4921 0.9314
-16.2298 -6.7877 -2.4926 0.9314
-16.0908 -7.1128 -2.4927 0.9314
-15.9452 -7.4350 -2.4928 0.9314
-15.7933 -7.7543 -2.4929 0.9314
-15.4704 -8.3834 -2.4931 0.9314
-15.2995 -8.6930 -2.4933 0.9314
-14.7502 -9.6005 -2.4936 0.9314
-14.5550 -9.8955 -2.4938 0.9314
-14.3540 -10.1865 -2.4939 0.9314
-14.1472 -10.4735 -2.4940 0.9314
-13.7165 -11.0348 -2.4943 0.9313
-13.4928 -11.3088 -2.4945 0.9313
-13.0290 -11.8433 -2.4948 0.9313
-12.7693 -12.0847 -2.4911 0.9314
-11.7408 -12.0418 -2.3830 0.9343
-10.9087 -12.1272 -2.3112 0.9362
-10.6497 -12.3289 -2.3084 0.9363
-10.5598 -12.7333 -2.3439 0.9354
-10.3025 -12.9438 -2.3440 0.9353
-10.0410 -13.1491 -2.3442 0.9353
-9.7754 -13.3492 -2.3444 0.9353
-9.2325 -13.7333 -2.3447 0.9353
-8.6745 -14.0952 -2.3450 0.9353
-8.3901 -14.2678 -2.3452 0.9353
-8.1023 -14.4346 -2.3454 0.9353
-7.5169 -14.7507 -2.3457 0.9353
-7.2195 -14.9000 -2.3459 0.9353
-6.9191 -15.0432 -2.3461 0.9353
-6.3101 -15.3115 -2.3465 0.9353
-5.6906 -15.5552 -2.3469 0.9353
-5.0618 -15.7738 -2.3472 0.9353
-4.4246 -15.9670 -2.3476 0.9353
-4.1032 -16.0540 -2.3478 0.9352
-3.4553 -16.2086 -2.3482 0.9352
-2.4730 -16.3913 -2.3488 0.9352
-2.1433 -16.4391 -2.3490 0.9352
-1.8127 -16.4802 -2.3491 0.9352
-1.4813 -16.5146 -2.3493 0.9352
-0.8166 -16.5636 -2.3497 0.9352
-0.4836 -16.5780 -2.3499 0.9352
0.8494 -16.5687 -2.3507 0.9352
1.1823 -16.5496 -2.3509 0.9352
1.5148 -16.5238 -2.3511 0.9352
2.5083 -16.4065 -2.3516 0.9351
2.8376 -16.3541 -2.3518 0.9351
3.1660 -16.2950 -2.3520 0.9351
4.4656 -15.9931 -2.3527 0.9351
4.7479 -15.7732 -2.3339 0.9356
5.4224 -15.6986 -2.3533 0.9351
6.3598 -15.3467 -2.3538 0.9351
