ply
format ascii 1.0
element vertex 1572
property float32 x
property float32 y
property float32 z
property float32 I
end_header
-17.3873 -3.0709 -2.5017 0.9312
-17.3221 -3.4197 -2.5017 0.9312
-17.2499 -3.7671 -2.5017 0.9312
-17.1707 -4.1130 -2.5017 0.9312
-17.0845 -4.4572 -2.5017 0.9312
-16.8916 -5.1402 -2.5017 0.9312
-16.7849 -5.4786 -2.5017 0.9312
-16.6714 -5.8148 -2.5017 0.9312
-16.5512 -6.1486 -2.5017 0.9312
-16.4243 -6.4800 -2.5017 0.9312
-16.0040 -7.4579 -2.5017 0.9312
-15.8509 -7.7780 -2.5017 0.9312
-15.6914 -8.0950 -2.5017 0.9312
-15.1751 -9.0257 -2.5017 0.9312
-14.8002 -9.6282 -2.5017 0.9312
-14.6037 -9.9237 -2.5017 0.9312
-13.9792 -10.7856 -2.5017 0.9312
-13.7596 -11.0643 -2.5017 0.9312
-13.0679 -11.8733 -2.5017 0.9312
-12.5802 -12.3888 -2.5017 0.9312
-12.0722 -12.8843 -2.5017 0.9312
-11.8109 -13.1243 -2.5017 0.9312
-11.5448 -13.3590 -2.5017 0.9312
-10.7188 -14.0304 -2.5017 0.9312
-10.4347 -14.2429 -2.5017 0.9312
-10.1464 -14.4497 -2.5017 0.9312
-9.8539 -14.6507 -2.5017 0.9312
-9.2385 -15.0044 -2.4966 0.9313
-8.4078 -14.2908 -2.3493 0.9352
-8.1189 -14.4568 -2.3493 0.9352
-7.8268 -14.6171 -2.3493 0.9352
-7.5314 -14.7714 -2.3493 0.9352
-7.2331 -14.9198 -2.3493 0.9352
-6.3209 -15.3285 -2.3493 0.9352
-6.0116 -15.4524 -2.3493 0.9352
-5.0696 -15.7865 -2.3493 0.9352
-4.4311 -15.9775 -2.3493 0.9352
-4.1092 -16.0633 -2.3493 0.9352
-3.4604 -16.2154 -2.3493 0.9352
-3.1338 -16.2817 -2.3493 0.9352
-2.4770 -16.3945 -2.3493 0.9352
-1.4847 -16.5139 -2.3493 0.9352
-1.1525 -16.5404 -2.3493 0.9352
-0.8199 -16.5602 -2.3493 0.9352
-0.1538 -16.5798 -2.3493 0.9352
0.1795 -16.5795 -2.3493 0.9352
0.8455 -16.5589 -2.3493 0.9352
1.1781 -16.5385 -2.3493 0.9352
1.5102 -16.5115 -2.3493 0.9352
2.5024 -16.3905 -2.3493 0.9352
3.1590 -16.2767 -2.3493 0.9352
3.4855 -16.2099 -2.3493 0.9352
4.4558 -15.9704 -2.3493 0.9352
4.7759 -15.8776 -2.3493 0.9352
5.0940 -15.7784 -2.3493 0.9352
6.0354 -15.4428 -2.3493 0.9352
6.3446 -15.3184 -2.3493 0.9352
6.6511 -15.1878 -2.3493 0.9352
7.8492 -14.6046 -2.3492 0.9352
8.4298 -14.2774 -2.3492 0.9352
9.2747 -13.7435 -2.3492 0.9352
10.0860 -13.1597 -2.3492 0.9352
10.3484 -12.9543 -2.3492 0.9352
10.8606 -12.5280 -2.3492 0.9352
11.1101 -12.3072 -2.3492 0.9352
11.3552 -12.0815 -2.3492 0.9352
11.5957 -11.8508 -2.3492 0.9352
13.3083 -11.5758 -2.4992 0.9312
13.5516 -11.3172 -2.5016 0.9312
13.9954 -10.7635 -2.5016 0.9312
14.4166 -10.1924 -2.5016 0.9312
14.6185 -9.9007 -2.5016 0.9312
14.8145 -9.6049 -2.5016 0.9312
15.0045 -9.3052 -2.5016 0.9312
15.5379 -8.3842 -2.5016 0.9312
15.7033 -8.0703 -2.5016 0.9312
15.8623 -7.7531 -2.5016 0.9312
16.0149 -7.4327 -2.5016 0.9312
16.3006 -6.7832 -2.5016 0.9312
16.4336 -6.4543 -2.5016 0.9312
16.5600 -6.1227 -2.5016 0.9312
16.6797 -5.7887 -2.5016 0.9312
16.8989 -5.1138 -2.5016 0.9312
17.1763 -4.0862 -2.5016 0.9312
17.3266 -3.3927 -2.5016 0.9312
17.3913 -3.0438 -2.5016 0.9312
17.4489 -2.6937 -2.5016 0.9312
17.5431 -1.9904 -2.5016 0.9312
17.6311 -0.9297 -2.5016 0.9312
17.6542 -0.2205 -2.5016 0.9312
17.6551 0.1343 -2.5016 0.9312
17.6488 0.4891 -2.5016 0.9312
17.6149 1.1979 -2.5016 0.9312
17.5525 1.9047 -2.5016 0.9312
17.5107 2.2571 -2.5016 0.9312
17.4059 2.9589 -2.5016 0.9312
17.3429 3.3081 -2.5016 0.9312
17.2729 3.6560 -2.5016 0.9312
17.1960 4.0024 -2.5016 0.9312
17.1121 4.3471 -2.5016 0.9312
16.9236 5.0312 -2.5016 0.9312
16.8190 5.3703 -2.5016 0.9312
16.7077 5.7072 -2.5016 0.9312
16.5897 6.0418 -2.5016 0.9312
16.3335 6.7036 -2.5016 0.9312
16.1955 7.0304 -2.5016 0.9312
14.6296 7.8021 -2.3492 0.9352
14.4699 8.0946 -2.3492 0.9352
13.9558 8.9518 -2.3492 0.9352
13.5848 9.5053 -2.3492 0.9352
13.1919 10.0435 -2.3492 0.9352
12.3428 11.0705 -2.3492 0.9352
12.1178 11.3163 -2.3492 0.9352
11.8880 11.5575 -2.3492 0.9352
11.4140 12.0259 -2.3492 0.9352
11.1700 12.2528 -2.3492 0.9352
10.9215 12.4748 -2.3492 0.9352
10.6686 12.6918 -2.3492 0.9352
10.4114 12.9036 -2.3492 0.9352
10.1500 13.1103 -2.3492 0.9352
9.6150 13.5076 -2.3492 0.9352
8.7938 14.0785 -2.3519 0.9351
7.9628 14.6441 -2.3618 0.9349
7.6768 14.8205 -2.3649 0.9348
-11.3599 8.6210 -2.3493 0.9438
-11.5308 8.3909 -2.3493 0.9438
-11.6971 8.1575 -2.3493 0.9438
-12.5498 7.6717 -2.4231 0.9421
-13.5509 6.8544 -2.5017 0.9403
-13.9393 6.0254 -2.5017 0.9403
-14.0576 5.7441 -2.5017 0.9403
-14.1702 5.4604 -2.5017 0.9403
-14.3782 4.8866 -2.5017 0.9403
-14.4735 4.5967 -2.5017 0.9403
-14.5629 4.3049 -2.5017 0.9403
-14.6465 4.0114 -2.5017 0.9403
-14.7242 3.7162 -2.5017 0.9403
-14.9213 2.8223 -2.5017 0.9403
-15.0227 2.2204 -2.5017 0.9403
-15.1771 -0.5183 -2.5017 0.9403
-15.1440 -1.1277 -2.5017 0.9403
-15.1183 -1.4318 -2.5017 0.9403
-15.0045 -2.3402 -2.5017 0.9403
-14.8984 -2.9412 -2.5017 0.9403
-14.8362 -3.2400 -2.5017 0.9403
-14.7681 -3.5375 -2.5017 0.9403
-14.6941 -3.8336 -2.5017 0.9403
-14.4364 -4.7120 -2.5017 0.9403
-14.2354 -5.2883 -2.5017 0.9403
-14.1262 -5.5733 -2.5017 0.9403
-14.0114 -5.8561 -2.5017 0.9403
-13.7647 -6.4144 -2.5017 0.9403
-13.6331 -6.6897 -2.5017 0.9403
-13.3532 -7.2321 -2.5017 0.9403
-13.2052 -7.4990 -2.5017 0.9403
-12.5603 -8.5352 -2.5017 0.9403
-12.3863 -8.7859 -2.5017 0.9403
-12.2072 -9.0330 -2.5017 0.9403
-12.0232 -9.2765 -2.5017 0.9403
-11.6408 -9.7521 -2.5017 0.9403
-11.4424 -9.9841 -2.5017 0.9403
-10.8200 -10.6554 -2.5017 0.9403
-10.3831 -11.0816 -2.5017 0.9403
-10.1583 -11.2880 -2.5017 0.9403
-8.7267 -12.4279 -2.5017 0.9403
-8.2203 -12.7686 -2.5017 0.9403
-7.9620 -12.9312 -2.5017 0.9403
-7.3412 -13.0720 -2.4698 0.9410
-6.7799 -12.6620 -2.3661 0.9434
-6.2210 -12.8322 -2.3493 0.9438
-5.9619 -12.9546 -2.3493 0.9438
-5.7004 -13.0718 -2.3493 0.9438
-5.1705 -13.2903 -2.3493 0.9438
-4.6322 -13.4873 -2.3493 0.9438
-4.3603 -13.5777 -2.3493 0.9438
-3.8111 -13.7420 -2.3493 0.9438
-3.5342 -13.8157 -2.3493 0.9438
-2.9762 -13.9466 -2.3493 0.9438
-2.6953 -14.0036 -2.3493 0.9438
-2.1304 -14.1005 -2.3493 0.9438
-1.5621 -14.1748 -2.3493 0.9438
-0.7052 -14.2431 -2.3493 0.9438
-0.1323 -14.2599 -2.3493 0.9438
0.1543 -14.2597 -2.3493 0.9438
1.0133 -14.2245 -2.3493 0.9438
1.5841 -14.1723 -2.3493 0.9438
1.8686 -14.1376 -2.3493 0.9438
2.4351 -14.0511 -2.3493 0.9438
2.9978 -13.9419 -2.3493 0.9438
3.2773 -13.8788 -2.3493 0.9438
3.5556 -13.8101 -2.3493 0.9438
4.1077 -13.6561 -2.3493 0.9438
3.9825 -11.5374 -2.0107 0.9517
5.4569 -13.1751 -2.3493 0.9438
5.7205 -13.0628 -2.3493 0.9438
5.9819 -12.9452 -2.3493 0.9438
6.2408 -12.8223 -2.3493 0.9438
7.0021 -12.4230 -2.3492 0.9438
7.2503 -12.2798 -2.3492 0.9438
7.4956 -12.1316 -2.3492 0.9438
8.2130 -11.6579 -2.3492 0.9438
8.9357 -11.1859 -2.3585 0.9436
9.6824 -11.1689 -2.4351 0.9418
10.0802 -11.1663 -2.4782 0.9408
10.6128 -10.8463 -2.4999 0.9403
11.0478 -10.4184 -2.5016 0.9403
11.6555 -9.7338 -2.5016 0.9403
11.8488 -9.4976 -2.5016 0.9403
12.2208 -9.0138 -2.5016 0.9403
12.3995 -8.7664 -2.5016 0.9403
13.3639 -7.2111 -2.5016 0.9403
13.5061 -6.9411 -2.5016 0.9403
13.6429 -6.6683 -2.5016 0.9403
13.7742 -6.3928 -2.5016 0.9403
14.0199 -5.8341 -2.5016 0.9403
14.3460 -4.9788 -2.5016 0.9403
14.4431 -4.6895 -2.5016 0.9403
14.8407 -3.2169 -2.5016 0.9403
15.0076 -2.3168 -2.5016 0.9403
15.0511 -2.0148 -2.5016 0.9403
15.0885 -1.7119 -2.5016 0.9403
15.1199 -1.4083 -2.5016 0.9403
15.1643 -0.7996 -2.5016 0.9403
15.1503 1.0303 -2.5016 0.9403
15.0607 1.9413 -2.5016 0.9403
14.9706 2.5449 -2.5016 0.9403
14.8562 3.1444 -2.5016 0.9403
14.7900 3.4424 -2.5016 0.9403
14.4658 4.6189 -2.5016 0.9403
14.3701 4.9087 -2.5016 0.9403
14.2685 5.1965 -2.5016 0.9403
14.1612 5.4822 -2.5016 0.9403
14.0482 5.7657 -2.5016 0.9403
13.6753 6.6017 -2.5016 0.9403
13.5398 6.8751 -2.5016 0.9403
13.3989 7.1458 -2.5016 0.9403
13.2434 7.4084 -2.4999 0.9403
13.0694 7.6600 -2.4956 0.9404
12.6524 7.7613 -2.4453 0.9416
12.1181 7.7730 -2.3717 0.9433
11.8460 7.9389 -2.3492 0.9438
11.6841 8.1754 -2.3492 0.9438
11.5175 8.4085 -2.3492 0.9438
10.2740 8.4953 -2.1962 0.9474
10.6159 9.5215 -2.3492 0.9438
10.4224 9.7329 -2.3492 0.9438
10.2247 9.9404 -2.3492 0.9438
10.0229 10.1439 -2.3492 0.9438
8.5015 11.4491 -2.3492 0.9438
8.2697 11.6176 -2.3492 0.9438
7.7962 11.9405 -2.3492 0.9438
7.0626 12.3886 -2.3492 0.9438
6.5590 12.6624 -2.3492 0.9438
6.0449 12.9158 -2.3492 0.9438
5.7842 13.0346 -2.3492 0.9438
-9.8026 7.7544 -2.3493 0.9504
-10.8890 7.5940 -2.4953 0.9474
-11.0551 7.3841 -2.4988 0.9473
-11.2142 7.1687 -2.5017 0.9473
-11.3560 6.9419 -2.5017 0.9473
-11.6258 6.4799 -2.5017 0.9473
-11.8768 6.0075 -2.5017 0.9473
-12.1086 5.5254 -2.5017 0.9473
-12.2172 5.2810 -2.5017 0.9473
-12.3208 5.0344 -2.5017 0.9473
-12.4195 4.7858 -2.5017 0.9473
-12.5132 4.5352 -2.5017 0.9473
-12.7637 3.7730 -2.5017 0.9473
-12.8370 3.5158 -2.5017 0.9473
-12.9051 3.2571 -2.5017 0.9473
-13.0255 2.7359 -2.5017 0.9473
-13.1249 2.2103 -2.5017 0.9473
-13.1667 1.9461 -2.5017 0.9473
-13.2805 0.8825 -2.5017 0.9473
-13.3095 0.0806 -2.5017 0.9473
-13.2902 -0.7215 -2.5017 0.9473
-13.2730 -0.9884 -2.5017 0.9473
-13.1508 -2.0511 -2.5017 0.9473
-13.1069 -2.3149 -2.5017 0.9473
-13.0033 -2.8397 -2.5017 0.9473
-12.8085 -3.6181 -2.5017 0.9473
-12.6528 -4.1298 -2.5017 0.9473
-12.5673 -4.3833 -2.5017 0.9473
-12.1747 -5.3783 -2.5017 0.9473
-12.0641 -5.6219 -2.5017 0.9473
-11.8285 -6.1021 -2.5017 0.9473
-11.5737 -6.5725 -2.5017 0.9473
-11.4393 -6.8038 -2.5017 0.9473
-11.3003 -7.0323 -2.5017 0.9473
-11.1567 -7.2579 -2.5017 0.9473
-10.0287 -8.7506 -2.5017 0.9473
-9.2937 -9.5276 -2.5017 0.9473
-8.4985 -10.2432 -2.5017 0.9473
-8.2910 -10.4119 -2.5017 0.9473
-7.2047 -11.1911 -2.5017 0.9473
-6.9783 -11.3336 -2.5017 0.9473
-6.7492 -11.4715 -2.5017 0.9473
-6.5173 -11.6048 -2.5017 0.9473
-6.2827 -11.7335 -2.5017 0.9473
-5.7916 -11.9465 -2.4954 0.9474
-5.1263 -11.7555 -2.4105 0.9491
-3.5817 -11.9746 -2.3493 0.9504
-3.3403 -12.0442 -2.3493 0.9504
-3.0976 -12.1089 -2.3493 0.9504
-2.1152 -12.3185 -2.3493 0.9504
-1.8672 -12.3585 -2.3493 0.9504
-1.6185 -12.3935 -2.3493 0.9504
-1.3691 -12.4235 -2.3493 0.9504
-1.1192 -12.4485 -2.3493 0.9504
-0.8688 -12.4685 -2.3493 0.9504
-0.6180 -12.4835 -2.3493 0.9504
-0.3671 -12.4933 -2.3493 0.9504
-0.1159 -12.4982 -2.3493 0.9504
0.1353 -12.4980 -2.3493 0.9504
0.3864 -12.4927 -2.3493 0.9504
0.6374 -12.4825 -2.3493 0.9504
0.8881 -12.4671 -2.3493 0.9504
1.1385 -12.4468 -2.3493 0.9504
1.3883 -12.4213 -2.3493 0.9504
1.6377 -12.3909 -2.3493 0.9504
2.3813 -12.2697 -2.3493 0.9504
2.8724 -12.1641 -2.3493 0.9504
3.1163 -12.1039 -2.3493 0.9504
3.9709 -11.5036 -2.2874 0.9517
4.7827 -11.5474 -2.3493 0.9504
5.0138 -11.4489 -2.3493 0.9504
5.2482 -11.3575 -2.3517 0.9504
5.4698 -11.2382 -2.3493 0.9504
6.3046 -11.1855 -2.4134 0.9491
6.6006 -11.1795 -2.4402 0.9485
6.9034 -11.1731 -2.4686 0.9479
7.4303 -11.0104 -2.4967 0.9474
7.8819 -10.7236 -2.5015 0.9473
8.0963 -10.5636 -2.5016 0.9473
8.3069 -10.3988 -2.5016 0.9473
8.9184 -9.8793 -2.5016 0.9473
9.3082 -9.5130 -2.5016 0.9473
10.2155 -8.5312 -2.5016 0.9473
10.3849 -8.3242 -2.5016 0.9473
10.7110 -7.9002 -2.5016 0.9473
11.1676 -7.2404 -2.5016 0.9473
11.3108 -7.0146 -2.5016 0.9473
11.4495 -6.7858 -2.5016 0.9473
11.5835 -6.5544 -2.5016 0.9473
11.7129 -6.3203 -2.5016 0.9473
11.9574 -5.8445 -2.5016 0.9473
12.0725 -5.6030 -2.5016 0.9473
12.1826 -5.3593 -2.5016 0.9473
12.2879 -5.1134 -2.5016 0.9473
12.5736 -4.3637 -2.5016 0.9473
12.6588 -4.1101 -2.5016 0.9473
12.8137 -3.5981 -2.5016 0.9473
12.9479 -3.0803 -2.5016 0.9473
13.2519 -1.2344 -2.5016 0.9473
13.2908 -0.7008 -2.5016 0.9473
13.3042 0.3687 -2.5016 0.9473
13.2941 0.6360 -2.5016 0.9473
13.2786 0.9030 -2.5016 0.9473
13.2578 1.1697 -2.5016 0.9473
13.2001 1.7015 -2.5016 0.9473
13.1210 2.2305 -2.5016 0.9473
13.0208 2.7560 -2.5016 0.9473
12.8995 3.2770 -2.5016 0.9473
12.8311 3.5355 -2.5016 0.9473
12.7575 3.7927 -2.5016 0.9473
12.5948 4.3023 -2.5016 0.9473
12.5057 4.5545 -2.5016 0.9473
12.4117 4.8049 -2.5016 0.9473
12.2086 5.2997 -2.5016 0.9473
11.8671 6.0258 -2.5016 0.9473
11.4825 6.7299 -2.5016 0.9473
11.2027 7.1858 -2.5016 0.9473
11.0480 7.4041 -2.4998 0.9473
10.8815 7.6138 -2.4962 0.9474
10.1914 7.7592 -2.4076 0.9492
9.6322 7.9646 -2.3492 0.9504
9.4702 8.1565 -2.3492 0.9504
9.1348 8.5305 -2.3492 0.9504
8.6042 9.0654 -2.3492 0.9504
7.8484 9.7271 -2.3492 0.9504
7.6513 9.8829 -2.3492 0.9504
7.2480 10.1823 -2.3492 0.9504
7.0420 10.3259 -2.3492 0.9504
6.8330 10.4654 -2.3492 0.9504
6.6213 10.6006 -2.3492 0.9504
6.4070 10.7315 -2.3492 0.9504
5.9706 10.9803 -2.3492 0.9504
5.5245 11.2114 -2.3492 0.9504
5.0695 11.4243 -2.3492 0.9504
4.8390 11.5239 -2.3492 0.9504
-9.2747 7.3369 -2.4997 0.9528
-9.7075 6.7700 -2.5017 0.9528
-9.8416 6.5735 -2.5017 0.9528
-9.9717 6.3744 -2.5017 0.9528
-10.0978 6.1728 -2.5017 0.9528
-10.3377 5.7620 -2.5017 0.9528
-10.5609 5.3419 -2.5017 0.9528
-10.6661 5.1286 -2.5017 0.9528
-10.7670 4.9133 -2.5017 0.9528
-10.8636 4.6959 -2.5017 0.9528
-11.0435 4.2556 -2.5017 0.9528
-11.1268 4.0328 -2.5017 0.9528
-11.2056 3.8084 -2.5017 0.9528
-11.2799 3.5824 -2.5017 0.9528
-11.3496 3.3550 -2.5017 0.9528
-11.4753 2.8962 -2.5017 0.9528
-11.5311 2.6650 -2.5017 0.9528
-11.5824 2.4328 -2.5017 0.9528
-11.6289 2.1995 -2.5017 0.9528
-11.6708 1.9654 -2.5017 0.9528
-11.7403 1.4948 -2.5017 0.9528
-11.8091 0.7847 -2.5017 0.9528
-11.8311 0.3095 -2.5017 0.9528
-11.8177 -0.6415 -2.5017 0.9528
-11.8024 -0.8789 -2.5017 0.9528
-11.7576 -1.3525 -2.5017 0.9528
-11.7280 -1.5885 -2.5017 0.9528
-11.6110 -2.2922 -2.5017 0.9528
-11.5095 -2.7570 -2.5017 0.9528
-11.3894 -3.2172 -2.5017 0.9528
-11.0943 -4.1214 -2.5017 0.9528
-11.0092 -4.3436 -2.5017 0.9528
-10.8258 -4.7824 -2.5017 0.9528
-10.5180 -5.4261 -2.5017 0.9528
-10.4068 -5.6363 -2.5017 0.9528
-10.2914 -5.8443 -2.5017 0.9528
-10.1719 -6.0500 -2.5017 0.9528
-9.9206 -6.4538 -2.5017 0.9528
-9.6532 -6.8472 -2.5017 0.9528
-9.3703 -7.2296 -2.5017 0.9528
-9.2231 -7.4164 -2.5017 0.9528
-8.5978 -8.1331 -2.5017 0.9528
-8.0921 -8.6364 -2.5017 0.9528
-7.9169 -8.7973 -2.5017 0.9528
-6.9944 -9.5471 -2.5017 0.9528
-6.8012 -9.6857 -2.5017 0.9528
-6.4065 -9.9512 -2.5017 0.9528
-5.7952 -10.3191 -2.5017 0.9528
-5.5866 -10.4335 -2.5017 0.9528
-5.3758 -10.5436 -2.5017 0.9528
-4.5118 -10.9413 -2.5017 0.9528
-4.2905 -11.0284 -2.5014 0.9528
-4.0646 -11.1030 -2.4993 0.9528
-3.6096 -11.2401 -2.4954 0.9529
-2.3943 -11.2199 -2.4251 0.9542
-2.1589 -11.2168 -2.4145 0.9544
-1.4650 -11.2185 -2.3915 0.9548
-1.2363 -11.2187 -2.3858 0.9549
-1.0086 -11.2188 -2.3810 0.9550
-0.7817 -11.2186 -2.3771 0.9551
-0.5554 -11.2183 -2.3742 0.9551
-0.1040 -11.2172 -2.3712 0.9552
0.3469 -11.2154 -2.3718 0.9552
0.5726 -11.2142 -2.3736 0.9551
0.7988 -11.2129 -2.3762 0.9551
1.9416 -11.2036 -2.4035 0.9546
2.8817 -11.1928 -2.4431 0.9538
3.6102 -11.1825 -2.4839 0.9531
4.3000 -11.0025 -2.4970 0.9529
4.5228 -10.9199 -2.4984 0.9528
4.7441 -10.8331 -2.4999 0.9528
4.9639 -10.7421 -2.5014 0.9528
5.3921 -10.5351 -2.5017 0.9528
5.6027 -10.4247 -2.5017 0.9528
7.1993 -9.3933 -2.5016 0.9528
7.3866 -9.2467 -2.5016 0.9528
7.5709 -9.0964 -2.5016 0.9528
7.7522 -8.9424 -2.5016 0.9528
8.1053 -8.6237 -2.5016 0.9528
8.6102 -8.1196 -2.5016 0.9528
8.7716 -7.9450 -2.5016 0.9528
9.0837 -7.5861 -2.5016 0.9528
9.3812 -7.2149 -2.5016 0.9528
9.7989 -6.6365 -2.5016 0.9528
9.9303 -6.4382 -2.5016 0.9528
10.0577 -6.2374 -2.5016 0.9528
10.1810 -6.0340 -2.5016 0.9528
10.3002 -5.8282 -2.5016 0.9528
10.4152 -5.6200 -2.5016 0.9528
10.6327 -5.1970 -2.5016 0.9528
10.7350 -4.9822 -2.5016 0.9528
11.0156 -4.3264 -2.5016 0.9528
11.1806 -3.8802 -2.5016 0.9528
11.2563 -3.6548 -2.5016 0.9528
11.6962 -1.8056 -2.5016 0.9528
11.7593 -1.3342 -2.5016 0.9528
11.8034 -0.8606 -2.5016 0.9528
11.8183 -0.6232 -2.5016 0.9528
11.8285 -0.3856 -2.5016 0.9528
11.8338 -0.1478 -2.5016 0.9528
11.8075 0.8030 -2.5016 0.9528
11.7657 1.2768 -2.5016 0.9528
11.7049 1.7485 -2.5016 0.9528
11.6674 1.9834 -2.5016 0.9528
11.6252 2.2175 -2.5016 0.9528
11.5267 2.6828 -2.5016 0.9528
11.4704 2.9139 -2.5016 0.9528
11.3441 3.3725 -2.5016 0.9528
11.1202 4.0499 -2.5016 0.9528
11.0366 4.2726 -2.5016 0.9528
10.9485 4.4935 -2.5016 0.9528
10.8560 4.7126 -2.5016 0.9528
10.5523 5.3582 -2.5016 0.9528
10.4425 5.5691 -2.5016 0.9528
10.3285 5.7778 -2.5016 0.9528
10.2103 5.9843 -2.5016 0.9528
10.0880 6.1882 -2.5016 0.9528
9.8312 6.5886 -2.5016 0.9528
9.6968 6.7848 -2.5016 0.9528
9.4163 7.1690 -2.5016 0.9528
9.1058 7.5294 -2.4976 0.9528
8.9422 7.7018 -2.4946 0.9529
7.8221 7.9165 -2.3525 0.9555
7.6509 8.0611 -2.3492 0.9556
6.8037 8.7879 -2.3492 0.9556
6.6257 8.9229 -2.3492 0.9556
5.8878 9.4261 -2.3492 0.9556
5.5042 9.6551 -2.3492 0.9556
4.7111 10.0659 -2.3492 0.9556
-8.3482 6.6039 -2.5017 0.9572
-8.6068 6.2632 -2.5017 0.9572
-8.8515 5.9122 -2.5017 0.9572
-8.9686 5.7332 -2.5017 0.9572
-9.0820 5.5518 -2.5017 0.9572
-9.4000 4.9945 -2.5017 0.9572
-9.5931 4.6127 -2.5017 0.9572
-9.6839 4.4190 -2.5017 0.9572
-9.7707 4.2235 -2.5017 0.9572
-9.9326 3.8275 -2.5017 0.9572
-10.0075 3.6271 -2.5017 0.9572
-10.0783 3.4252 -2.5017 0.9572
-10.2078 3.0175 -2.5017 0.9572
-10.3711 2.3969 -2.5017 0.9572
-10.4590 1.9782 -2.5017 0.9572
-10.5301 1.5564 -2.5017 0.9572
-10.5592 1.3445 -2.5017 0.9572
-10.5841 1.1320 -2.5017 0.9572
-10.6047 0.9191 -2.5017 0.9572
-10.6211 0.7057 -2.5017 0.9572
-10.6443 0.0645 -2.5017 0.9572
-10.6434 -0.1494 -2.5017 0.9572
-10.6151 -0.7905 -2.5017 0.9572
-10.5971 -1.0037 -2.5017 0.9572
-10.5748 -1.2164 -2.5017 0.9572
-10.5482 -1.4287 -2.5017 0.9572
-10.2437 -2.8936 -2.5017 0.9572
-10.1191 -3.3029 -2.5017 0.9572
-9.9017 -3.9066 -2.5017 0.9572
-9.8212 -4.1048 -2.5017 0.9572
-9.6483 -4.4961 -2.5017 0.9572
-9.4599 -4.8802 -2.5017 0.9572
-9.2561 -5.2564 -2.5017 0.9572
-9.0374 -5.6241 -2.5017 0.9572
-8.9226 -5.8046 -2.5017 0.9572
-8.8041 -5.9827 -2.5017 0.9572
-8.6821 -6.1584 -2.5017 0.9572
-8.4276 -6.5023 -2.5017 0.9572
-8.1595 -6.8357 -2.5017 0.9572
-8.0205 -6.9983 -2.5017 0.9572
-7.8783 -7.1580 -2.5017 0.9572
-7.4326 -7.6197 -2.5017 0.9572
-7.2780 -7.7676 -2.5017 0.9572
-6.7967 -8.1920 -2.5017 0.9572
-6.4621 -8.4585 -2.5017 0.9572
-6.2908 -8.5866 -2.5017 0.9572
-5.9407 -8.8325 -2.5017 0.9572
-5.0246 -9.3839 -2.5017 0.9572
-4.6435 -9.5782 -2.5017 0.9572
-4.2548 -9.7571 -2.5017 0.9572
-4.0579 -9.8406 -2.5017 0.9572
-3.8593 -9.9201 -2.5017 0.9572
-3.2546 -10.1346 -2.5017 0.9572
-2.8447 -10.2572 -2.5017 0.9572
-2.4302 -10.3633 -2.5017 0.9572
-2.2215 -10.4100 -2.5017 0.9572
-2.0119 -10.4526 -2.5017 0.9572
-1.8014 -10.4909 -2.5017 0.9572
-1.1660 -10.5803 -2.5017 0.9572
-0.7399 -10.6187 -2.5017 0.9572
-0.3126 -10.6398 -2.5017 0.9572
0.1152 -10.6438 -2.5017 0.9572
0.5428 -10.6305 -2.5017 0.9572
0.9696 -10.6001 -2.5017 0.9572
1.6065 -10.5224 -2.5017 0.9572
1.8176 -10.4880 -2.5017 0.9572
2.4463 -10.3594 -2.5017 0.9572
2.8606 -10.2528 -2.5017 0.9572
3.6747 -9.9899 -2.5017 0.9572
3.8747 -9.9140 -2.5017 0.9572
4.0731 -9.8342 -2.5017 0.9572
4.2699 -9.7503 -2.5017 0.9572
4.4650 -9.6626 -2.5017 0.9572
4.6583 -9.5709 -2.5017 0.9572
4.8497 -9.4753 -2.5017 0.9572
5.2265 -9.2728 -2.5017 0.9572
5.9542 -8.8231 -2.5017 0.9572
6.1304 -8.7017 -2.5017 0.9572
6.3040 -8.5768 -2.5016 0.9572
6.4750 -8.4483 -2.5016 0.9572
6.6435 -8.3165 -2.5016 0.9572
6.8093 -8.1813 -2.5016 0.9572
6.9723 -8.0428 -2.5016 0.9572
7.1326 -7.9011 -2.5016 0.9572
7.5957 -7.4570 -2.5016 0.9572
8.1699 -6.8229 -2.5016 0.9572
8.3054 -6.6573 -2.5016 0.9572
8.6914 -6.1448 -2.5016 0.9572
8.8132 -5.9689 -2.5016 0.9572
9.0459 -5.6099 -2.5016 0.9572
9.1568 -5.4270 -2.5016 0.9572
9.3675 -5.0547 -2.5016 0.9572
9.4672 -4.8654 -2.5016 0.9572
9.5630 -4.6742 -2.5016 0.9572
9.7431 -4.2861 -2.5016 0.9572
9.8273 -4.0896 -2.5016 0.9572
9.9075 -3.8911 -2.5016 0.9572
9.9837 -3.6912 -2.5016 0.9572
10.0559 -3.4899 -2.5016 0.9572
10.1880 -3.0830 -2.5016 0.9572
10.2479 -2.8776 -2.5016 0.9572
10.3036 -2.6711 -2.5016 0.9572
10.4026 -2.2547 -2.5016 0.9572
10.4458 -2.0454 -2.5016 0.9572
10.4848 -1.8351 -2.5016 0.9572
10.6294 -0.5605 -2.5016 0.9572
10.6434 -0.1329 -2.5016 0.9572
10.6439 0.0810 -2.5016 0.9572
10.6401 0.2949 -2.5016 0.9572
10.6320 0.5086 -2.5016 0.9572
10.5569 1.3608 -2.5016 0.9572
10.5274 1.5726 -2.5016 0.9572
10.4135 2.2041 -2.5016 0.9572
10.3671 2.4129 -2.5016 0.9572
10.1399 3.2376 -2.5016 0.9572
10.0727 3.4408 -2.5016 0.9572
9.9264 3.8427 -2.5016 0.9572
9.5857 4.6274 -2.5016 0.9572
9.4908 4.8191 -2.5016 0.9572
9.1832 5.3823 -2.5016 0.9572
8.9595 5.7469 -2.5016 0.9572
8.7213 6.1023 -2.5016 0.9572
8.5969 6.2763 -2.5016 0.9572
8.3378 6.6167 -2.5016 0.9572
8.2031 6.7829 -2.5016 0.9572
8.0652 6.9464 -2.5016 0.9572
7.9239 7.1071 -2.5016 0.9572
7.7795 7.2649 -2.5016 0.9572
7.4674 7.5576 -2.4970 0.9573
7.3070 7.6987 -2.4946 0.9573
7.0538 7.7376 -2.4608 0.9579
6.7801 7.7443 -2.4191 0.9586
6.1192 7.9039 -2.3492 0.9598
5.9591 8.0252 -2.3492 0.9598
5.7967 8.1434 -2.3492 0.9598
5.6319 8.2582 -2.3492 0.9598
5.4648 8.3697 -2.3492 0.9598
5.2955 8.4779 -2.3492 0.9598
5.1240 8.5826 -2.3492 0.9598
4.9505 8.6838 -2.3492 0.9598
3.8700 9.2163 -2.3493 0.9598
-7.5778 5.9945 -2.5017 0.9609
-7.6967 5.8410 -2.5017 0.9609
-7.8125 5.6851 -2.5017 0.9609
-8.1409 5.2041 -2.5017 0.9609
-8.3434 4.8727 -2.5017 0.9609
-8.4397 4.7041 -2.5017 0.9609
-8.5325 4.5335 -2.5017 0.9609
-8.7078 4.1870 -2.5017 0.9609
-8.7902 4.0112 -2.5017 0.9609
-8.8690 3.8337 -2.5017 0.9609
-9.0839 3.2923 -2.5017 0.9609
-9.1482 3.1091 -2.5017 0.9609
-9.3189 2.5522 -2.5017 0.9609
-9.3683 2.3645 -2.5017 0.9609
-9.4140 2.1757 -2.5017 0.9609
-9.5847 1.2204 -2.5017 0.9609
-9.6073 1.0275 -2.5017 0.9609
-9.6518 0.4468 -2.5017 0.9609
-9.6588 0.2527 -2.5017 0.9609
-9.6619 0.0586 -2.5017 0.9609
-9.6612 -0.1356 -2.5017 0.9609
-9.6355 -0.7175 -2.5017 0.9609
-9.6191 -0.9110 -2.5017 0.9609
-9.5988 -1.1041 -2.5017 0.9609
-9.5149 -1.6805 -2.5017 0.9609
-9.4792 -1.8714 -2.5017 0.9609
-9.3963 -2.2508 -2.5017 0.9609
-9.3492 -2.4391 -2.5017 0.9609
-9.2436 -2.8129 -2.5017 0.9609
-9.0573 -3.3647 -2.5017 0.9609
-8.9879 -3.5460 -2.5017 0.9609
-8.9148 -3.7260 -2.5017 0.9609
-8.7579 -4.0812 -2.5017 0.9609
-8.4019 -4.7713 -2.5017 0.9609
-8.3043 -4.9391 -2.5017 0.9609
-8.0991 -5.2689 -2.5017 0.9609
-7.9916 -5.4305 -2.5017 0.9609
-7.6499 -5.9022 -2.5017 0.9609
-7.0192 -6.6398 -2.5017 0.9609
-6.8843 -6.7796 -2.5017 0.9609
-6.7467 -6.9165 -2.5017 0.9609
-6.4633 -7.1821 -2.5017 0.9609
-6.0188 -7.5584 -2.5017 0.9609
-5.7102 -7.7942 -2.5017 0.9609
-5.5524 -7.9074 -2.5017 0.9609
-5.3924 -8.0174 -2.5017 0.9609
-5.2302 -8.1241 -2.5017 0.9609
-4.5609 -8.5179 -2.5017 0.9609
-4.2150 -8.6943 -2.5017 0.9609
-4.0394 -8.7772 -2.5017 0.9609
-3.3215 -9.0732 -2.5017 0.9609
-2.5822 -9.3106 -2.5017 0.9609
-2.2060 -9.4069 -2.5017 0.9609
-1.8262 -9.4879 -2.5017 0.9609
-1.4435 -9.5536 -2.5017 0.9609
-1.0584 -9.6039 -2.5017 0.9609
-0.8652 -9.6232 -2.5017 0.9609
-0.6716 -9.6387 -2.5017 0.9609
-0.4778 -9.6502 -2.5017 0.9609
-0.2837 -9.6579 -2.5017 0.9609
0.4927 -9.6495 -2.5017 0.9609
0.6865 -9.6376 -2.5017 0.9609
1.2660 -9.5787 -2.5017 0.9609
1.4582 -9.5513 -2.5017 0.9609
1.6499 -9.5201 -2.5017 0.9609
1.8409 -9.4850 -2.5017 0.9609
2.2205 -9.4034 -2.5017 0.9609
2.4090 -9.3569 -2.5017 0.9609
2.7831 -9.2525 -2.5017 0.9609
3.3355 -9.0680 -2.5017 0.9609
3.8759 -8.8505 -2.5017 0.9609
4.2284 -8.6876 -2.5017 0.9609
4.4021 -8.6009 -2.5017 0.9609
4.5741 -8.5107 -2.5017 0.9609
4.9123 -8.3200 -2.5017 0.9609
5.0786 -8.2196 -2.5017 0.9609
5.4048 -8.0089 -2.5017 0.9609
5.5646 -7.8987 -2.5017 0.9609
5.8775 -7.6687 -2.5017 0.9609
6.0304 -7.5490 -2.5017 0.9609
6.1809 -7.4263 -2.5016 0.9609
6.3289 -7.3006 -2.5016 0.9609
6.4743 -7.1719 -2.5016 0.9609
6.6171 -7.0404 -2.5016 0.9609
6.7573 -6.9060 -2.5016 0.9609
6.8947 -6.7688 -2.5016 0.9609
7.2900 -6.3410 -2.5016 0.9609
7.4160 -6.1932 -2.5016 0.9609
7.8893 -5.5777 -2.5016 0.9609
7.9998 -5.4181 -2.5016 0.9609
8.2111 -5.0922 -2.5016 0.9609
8.3118 -4.9262 -2.5016 0.9609
8.5030 -4.5882 -2.5016 0.9609
8.5935 -4.4164 -2.5016 0.9609
8.6805 -4.2428 -2.5016 0.9609
8.8440 -3.8906 -2.5016 0.9609
9.0623 -3.3506 -2.5016 0.9609
9.1278 -3.1679 -2.5016 0.9609
9.3021 -2.6121 -2.5016 0.9609
9.3527 -2.4246 -2.5016 0.9609
9.4426 -2.0468 -2.5016 0.9609
9.4818 -1.8566 -2.5016 0.9609
9.5488 -1.4741 -2.5016 0.9609
9.5765 -1.2819 -2.5016 0.9609
9.6003 -1.0892 -2.5016 0.9609
9.6203 -0.8961 -2.5016 0.9609
9.6485 -0.5088 -2.5016 0.9609
9.6568 -0.3147 -2.5016 0.9609
9.6611 -0.1206 -2.5016 0.9609
9.6396 0.6555 -2.5016 0.9609
9.6245 0.8491 -2.5016 0.9609
9.6055 1.0424 -2.5016 0.9609
9.5826 1.2352 -2.5016 0.9609
9.5559 1.4275 -2.5016 0.9609
9.5252 1.6193 -2.5016 0.9609
9.4908 1.8103 -2.5016 0.9609
9.4104 2.1903 -2.5016 0.9609
9.3147 2.5666 -2.5016 0.9609
9.2041 2.9389 -2.5016 0.9609
9.0786 3.3063 -2.5016 0.9609
9.0103 3.4881 -2.5016 0.9609
8.7011 4.2004 -2.5016 0.9609
8.3357 4.8855 -2.5016 0.9609
8.2358 5.0521 -2.5016 0.9609
8.1326 5.2165 -2.5016 0.9609
8.0262 5.3789 -2.5016 0.9609
7.9165 5.5392 -2.5016 0.9609
7.4461 6.1570 -2.5016 0.9609
7.1927 6.4512 -2.5016 0.9609
7.0616 6.5944 -2.5016 0.9609
6.9276 6.7350 -2.5016 0.9609
6.7909 6.8729 -2.5016 0.9609
6.3644 7.2696 -2.5016 0.9609
6.2123 7.3904 -2.4998 0.9609
6.0577 7.5078 -2.4978 0.9609
5.9010 7.6220 -2.4958 0.9610
5.7377 7.7270 -2.4919 0.9610
5.5042 7.7325 -2.4575 0.9615
5.2768 7.7377 -2.4249 0.9620
5.0552 7.7426 -2.3942 0.9625
4.6511 7.7905 -2.3493 0.9632
4.3343 7.9711 -2.3493 0.9632
4.1733 8.0566 -2.3493 0.9632
3.6802 8.2935 -2.3493 0.9632
-6.9306 5.4826 -2.5017 0.9639
-7.0394 5.3422 -2.5017 0.9639
-7.1454 5.1996 -2.5017 0.9639
-7.2484 5.0550 -2.5017 0.9639
-7.3485 4.9083 -2.5017 0.9639
-7.5398 4.6091 -2.5017 0.9639
-7.6309 4.4566 -2.5017 0.9639
-7.7189 4.3024 -2.5017 0.9639
-7.8039 4.1464 -2.5017 0.9639
-7.9642 3.8294 -2.5017 0.9639
-8.0395 3.6686 -2.5017 0.9639
-8.1804 3.3426 -2.5017 0.9639
-8.2460 3.1775 -2.5017 0.9639
-8.3081 3.0112 -2.5017 0.9639
-8.4224 2.6749 -2.5017 0.9639
-8.4745 2.5051 -2.5017 0.9639
-8.5231 2.3343 -2.5017 0.9639
-8.5683 2.1626 -2.5017 0.9639
-8.6100 1.9899 -2.5017 0.9639
-8.6831 1.6423 -2.5017 0.9639
-8.7143 1.4675 -2.5017 0.9639
-8.7420 1.2921 -2.5017 0.9639
-8.7869 0.9398 -2.5017 0.9639
-8.8040 0.7630 -2.5017 0.9639
-8.8368 0.0535 -2.5017 0.9639
-8.8361 -0.1240 -2.5017 0.9639
-8.8319 -0.3016 -2.5017 0.9639
-8.8240 -0.4790 -2.5017 0.9639
-8.8126 -0.6562 -2.5017 0.9639
-8.7571 -1.1861 -2.5017 0.9639
-8.7315 -1.3618 -2.5017 0.9639
-8.7023 -1.5370 -2.5017 0.9639
-8.6697 -1.7116 -2.5017 0.9639
-8.6335 -1.8854 -2.5017 0.9639
-8.5508 -2.2308 -2.5017 0.9639
-8.5042 -2.4022 -2.5017 0.9639
-8.2203 -3.2432 -2.5017 0.9639
-8.0834 -3.5709 -2.5017 0.9639
-8.0100 -3.7327 -2.5017 0.9639
-7.9334 -3.8929 -2.5017 0.9639
-7.8535 -4.0515 -2.5017 0.9639
-7.6844 -4.3638 -2.5017 0.9639
-7.5951 -4.5174 -2.5017 0.9639
-7.4075 -4.8189 -2.5017 0.9639
-7.2078 -5.1127 -2.5017 0.9639
-7.1037 -5.2565 -2.5017 0.9639
-6.9966 -5.3982 -2.5017 0.9639
-6.6586 -5.8099 -2.5017 0.9639
-6.4198 -6.0728 -2.5017 0.9639
-6.1705 -6.3259 -2.5017 0.9639
-5.9114 -6.5687 -2.5017 0.9639
-5.7782 -6.6862 -2.5017 0.9639
-5.6426 -6.8010 -2.5017 0.9639
-5.5048 -6.9130 -2.5017 0.9639
-5.3648 -7.0222 -2.5017 0.9639
-5.2226 -7.1286 -2.5017 0.9639
-5.0783 -7.2321 -2.5017 0.9639
-4.9319 -7.3327 -2.5017 0.9639
-4.6333 -7.5250 -2.5017 0.9639
-4.4811 -7.6165 -2.5017 0.9639
-4.1714 -7.7905 -2.5017 0.9639
-3.5324 -8.1003 -2.5017 0.9639
-3.3689 -8.1696 -2.5017 0.9639
-2.8705 -8.3578 -2.5017 0.9639
-2.5323 -8.4663 -2.5017 0.9639
-1.8443 -8.6424 -2.5017 0.9639
-1.6702 -8.6777 -2.5017 0.9639
-1.4955 -8.7095 -2.5017 0.9639
-1.3202 -8.7378 -2.5017 0.9639
-1.1443 -8.7625 -2.5017 0.9639
-0.7913 -8.8014 -2.5017 0.9639
-0.6142 -8.8156 -2.5017 0.9639
-0.4370 -8.8261 -2.5017 0.9639
-0.0820 -8.8365 -2.5017 0.9639
0.0956 -8.8364 -2.5017 0.9639
0.6279 -8.8146 -2.5017 0.9639
0.8049 -8.8002 -2.5017 0.9639
1.1579 -8.7607 -2.5017 0.9639
1.3337 -8.7357 -2.5017 0.9639
1.6837 -8.6750 -2.5017 0.9639
2.3749 -8.5118 -2.5017 0.9639
2.5454 -8.4624 -2.5017 0.9639
2.7150 -8.4095 -2.5017 0.9639
3.2167 -8.2306 -2.5017 0.9639
3.5449 -8.0947 -2.5017 0.9639
3.8673 -7.9457 -2.5017 0.9639
4.0262 -7.8664 -2.5017 0.9639
4.4929 -7.6095 -2.5017 0.9639
4.6449 -7.5177 -2.5017 0.9639
5.3756 -7.0138 -2.5017 0.9639
5.5154 -6.9043 -2.5017 0.9639
5.7884 -6.6771 -2.5017 0.9639
6.0521 -6.4391 -2.5016 0.9639
6.5496 -5.9324 -2.5016 0.9639
6.6675 -5.7995 -2.5016 0.9639
6.8951 -5.5269 -2.5016 0.9639
7.2156 -5.1014 -2.5016 0.9639
7.4148 -4.8074 -2.5016 0.9639
7.5099 -4.6574 -2.5016 0.9639
7.7769 -4.1964 -2.5016 0.9639
8.0887 -3.5583 -2.5016 0.9639
8.2252 -3.2304 -2.5016 0.9639
8.2884 -3.0645 -2.5016 0.9639
8.3484 -2.8973 -2.5016 0.9639
8.5969 -2.0452 -2.5016 0.9639
8.6362 -1.8720 -2.5016 0.9639
8.6721 -1.6981 -2.5016 0.9639
8.7045 -1.5235 -2.5016 0.9639
8.7334 -1.3482 -2.5016 0.9639
8.7987 -0.8196 -2.5016 0.9639
8.8134 -0.6426 -2.5016 0.9639
8.8361 -0.1104 -2.5016 0.9639
8.8267 0.4223 -2.5016 0.9639
8.7852 0.9533 -2.5016 0.9639
8.7643 1.1297 -2.5016 0.9639
8.7118 1.4810 -2.5016 0.9639
8.6803 1.6557 -2.5016 0.9639
8.6453 1.8299 -2.5016 0.9639
8.5648 2.1758 -2.5016 0.9639
8.5193 2.3475 -2.5016 0.9639
8.4704 2.5182 -2.5016 0.9639
8.4181 2.6879 -2.5016 0.9639
8.3624 2.8565 -2.5016 0.9639
8.3033 3.0240 -2.5016 0.9639
8.2408 3.1903 -2.5016 0.9639
8.1751 3.3552 -2.5016 0.9639
8.1060 3.5188 -2.5016 0.9639
7.7121 4.3142 -2.5016 0.9639
7.6239 4.4683 -2.5016 0.9639
7.4382 4.7711 -2.5016 0.9639
7.3408 4.9196 -2.5016 0.9639
7.0310 5.3530 -2.5016 0.9639
6.9220 5.4932 -2.5016 0.9639
6.8102 5.6312 -2.5016 0.9639
6.5784 5.9003 -2.5016 0.9639
6.4585 6.0313 -2.5016 0.9639
6.2110 6.2860 -2.5016 0.9639
6.0834 6.4095 -2.5016 0.9639
5.6861 6.7644 -2.5016 0.9639
5.5490 6.8773 -2.5016 0.9639
5.2682 7.0947 -2.5016 0.9639
4.8272 7.3933 -2.4996 0.9640
4.1988 7.7219 -2.4883 0.9641
4.0019 7.7258 -2.4631 0.9645
3.8088 7.7295 -2.4394 0.9648
3.6192 7.7329 -2.4171 0.9651
3.2497 7.7391 -2.3762 0.9657
-6.3789 5.0461 -2.5017 0.9665
-6.5765 4.7857 -2.5017 0.9665
-6.6714 4.6526 -2.5017 0.9665
-6.7635 4.5176 -2.5017 0.9665
-6.8529 4.3808 -2.5017 0.9665
-7.1045 3.9598 -2.5017 0.9665
-7.3995 3.3766 -2.5017 0.9665
-7.5292 3.0765 -2.5017 0.9665
-7.7009 2.6172 -2.5017 0.9665
-7.7519 2.4620 -2.5017 0.9665
-7.8862 1.9904 -2.5017 0.9665
-7.9918 1.5116 -2.5017 0.9665
-8.0684 1.0273 -2.5017 0.9665
-8.1248 0.3761 -2.5017 0.9665
-8.1334 0.0493 -2.5017 0.9665
-8.1327 -0.1142 -2.5017 0.9665
-8.1288 -0.2776 -2.5017 0.9665
-8.1216 -0.4409 -2.5017 0.9665
-8.0802 -0.9295 -2.5017 0.9665
-8.0599 -1.0916 -2.5017 0.9665
-8.0095 -1.4146 -2.5017 0.9665
-7.9795 -1.5753 -2.5017 0.9665
-7.9462 -1.7353 -2.5017 0.9665
-7.9097 -1.8947 -2.5017 0.9665
-7.8701 -2.0533 -2.5017 0.9665
-7.7812 -2.3679 -2.5017 0.9665
-7.5660 -2.9850 -2.5017 0.9665
-7.4399 -3.2866 -2.5017 0.9665
-7.3723 -3.4355 -2.5017 0.9665
-7.2283 -3.7290 -2.5017 0.9665
-6.9905 -4.1578 -2.5017 0.9665
-6.9055 -4.2974 -2.5017 0.9665
-6.5381 -4.8380 -2.5017 0.9665
-6.3384 -5.0969 -2.5017 0.9665
-6.2347 -5.2232 -2.5017 0.9665
-6.1285 -5.3474 -2.5017 0.9665
-6.0198 -5.4695 -2.5017 0.9665
-5.9087 -5.5894 -2.5017 0.9665
-5.5612 -5.9353 -2.5017 0.9665
-5.4408 -6.0458 -2.5017 0.9665
-5.3182 -6.1539 -2.5017 0.9665
-5.1934 -6.2596 -2.5017 0.9665
-5.0666 -6.3627 -2.5017 0.9665
-4.9377 -6.4632 -2.5017 0.9665
-4.8068 -6.5611 -2.5017 0.9665
-4.6740 -6.6564 -2.5017 0.9665
-4.4027 -6.8388 -2.5017 0.9665
-4.1244 -7.0102 -2.5017 0.9665
-3.8394 -7.1703 -2.5017 0.9665
-3.5481 -7.3188 -2.5017 0.9665
-3.4003 -7.3886 -2.5017 0.9665
-2.4869 -7.7439 -2.5017 0.9665
-2.3307 -7.7924 -2.5017 0.9665
-2.0157 -7.8797 -2.5017 0.9665
-1.8570 -7.9187 -2.5017 0.9665
-1.6975 -7.9544 -2.5017 0.9665
-1.5373 -7.9869 -2.5017 0.9665
-1.3765 -8.0161 -2.5017 0.9665
-1.0532 -8.0650 -2.5017 0.9665
-0.8909 -8.0845 -2.5017 0.9665
-0.7283 -8.1008 -2.5017 0.9665
-0.5654 -8.1138 -2.5017 0.9665
-0.4022 -8.1235 -2.5017 0.9665
0.4148 -8.1229 -2.5017 0.9665
0.5779 -8.1129 -2.5017 0.9665
0.7408 -8.0996 -2.5017 0.9665
1.0657 -8.0633 -2.5017 0.9665
1.2275 -8.0403 -2.5017 0.9665
1.3888 -8.0140 -2.5017 0.9665
1.5496 -7.9845 -2.5017 0.9665
1.8692 -7.9157 -2.5017 0.9665
2.0279 -7.8766 -2.5017 0.9665
2.3428 -7.7887 -2.5017 0.9665
2.4988 -7.7400 -2.5017 0.9665
2.6539 -7.6883 -2.5017 0.9665
3.1123 -7.5144 -2.5017 0.9665
3.4117 -7.3832 -2.5017 0.9665
3.7057 -7.2402 -2.5017 0.9665
4.2751 -6.9192 -2.5017 0.9665
4.4133 -6.8319 -2.5017 0.9665
4.5497 -6.7418 -2.5017 0.9665
5.6882 -5.8134 -2.5017 0.9665
5.8039 -5.6979 -2.5017 0.9665
5.9173 -5.5801 -2.5017 0.9665
6.0282 -5.4601 -2.5016 0.9665
6.2427 -5.2134 -2.5016 0.9665
6.3462 -5.0870 -2.5016 0.9665
6.6412 -4.6953 -2.5016 0.9665
6.8245 -4.4246 -2.5016 0.9665
6.9121 -4.2866 -2.5016 0.9665
6.9968 -4.1468 -2.5016 0.9665
7.0787 -4.0054 -2.5016 0.9665
7.3072 -3.5716 -2.5016 0.9665
7.5091 -3.1248 -2.5016 0.9665
7.6286 -2.8205 -2.5016 0.9665
7.8731 -2.0410 -2.5016 0.9665
7.9487 -1.7230 -2.5016 0.9665
8.0381 -1.2409 -2.5016 0.9665
8.1290 -0.2650 -2.5016 0.9665
8.1327 -0.1016 -2.5016 0.9665
8.1240 0.3887 -2.5016 0.9665
8.1146 0.5518 -2.5016 0.9665
8.1019 0.7148 -2.5016 0.9665
8.0666 1.0398 -2.5016 0.9665
8.0441 1.2017 -2.5016 0.9665
7.9893 1.5239 -2.5016 0.9665
7.8830 2.0026 -2.5016 0.9665
7.8411 2.1606 -2.5016 0.9665
7.7961 2.3177 -2.5016 0.9665
7.6967 2.6291 -2.5016 0.9665
7.6423 2.7832 -2.5016 0.9665
7.5848 2.9363 -2.5016 0.9665
7.4607 3.2387 -2.5016 0.9665
7.3941 3.3879 -2.5016 0.9665
7.0982 3.9708 -2.5016 0.9665
6.8460 4.3913 -2.5016 0.9665
6.5690 4.7958 -2.5016 0.9665
6.3710 5.0559 -2.5016 0.9665
6.2681 5.1829 -2.5016 0.9665
6.1627 5.3078 -2.5016 0.9665
5.8316 5.6695 -2.5016 0.9665
5.7165 5.7856 -2.5016 0.9665
5.3575 6.1195 -2.5016 0.9665
4.8488 6.5300 -2.5016 0.9665
4.7166 6.6261 -2.5017 0.9665
4.5825 6.7195 -2.5017 0.9665
4.3088 6.8983 -2.5017 0.9665
4.1693 6.9835 -2.5017 0.9665
3.2954 7.4263 -2.4990 0.9666
-5.9951 4.5496 -2.5017 0.9688
-6.1731 4.3051 -2.5017 0.9688
-6.4989 3.7955 -2.5017 0.9688
-6.6461 3.5312 -2.5017 0.9688
-6.8468 3.1244 -2.5017 0.9688
-6.9082 2.9862 -2.5017 0.9688
-7.0756 2.5645 -2.5017 0.9688
-7.2173 2.1335 -2.5017 0.9688
-7.2587 1.9880 -2.5017 0.9688
-7.3327 1.6947 -2.5017 0.9688
-7.3949 1.3987 -2.5017 0.9688
-7.4215 1.2498 -2.5017 0.9688
-7.4451 1.1004 -2.5017 0.9688
-7.4658 0.9506 -2.5017 0.9688
-7.4833 0.8004 -2.5017 0.9688
-7.4979 0.6498 -2.5017 0.9688
-7.5095 0.4990 -2.5017 0.9688
-7.5180 0.3480 -2.5017 0.9688
-7.5259 0.0456 -2.5017 0.9688
-7.5253 -0.1056 -2.5017 0.9688
-7.5150 -0.4079 -2.5017 0.9688
-7.5052 -0.5589 -2.5017 0.9688
-7.4767 -0.8600 -2.5017 0.9688
-7.3527 -1.6057 -2.5017 0.9688
-7.2823 -1.8999 -2.5017 0.9688
-7.2000 -2.1910 -2.5017 0.9688
-7.1545 -2.3352 -2.5017 0.9688
-7.1062 -2.4785 -2.5017 0.9688
-6.9439 -2.9022 -2.5017 0.9688
-6.8217 -3.1789 -2.5017 0.9688
-6.6884 -3.4504 -2.5017 0.9688
-6.6178 -3.5842 -2.5017 0.9688
-6.5444 -3.7164 -2.5017 0.9688
-6.4684 -3.8472 -2.5017 0.9688
-5.7691 -4.8331 -2.5017 0.9688
-5.6708 -4.9480 -2.5017 0.9688
-5.4674 -5.1719 -2.5017 0.9688
-5.2551 -5.3874 -2.5017 0.9688
-4.6882 -5.8874 -2.5017 0.9688
-3.8163 -6.4866 -2.5017 0.9688
-3.5526 -6.6347 -2.5017 0.9688
-2.1567 -7.2104 -2.5017 0.9688
-1.7183 -7.3272 -2.5017 0.9688
-1.4225 -7.3903 -2.5017 0.9688
-1.2736 -7.4174 -2.5017 0.9688
-0.8244 -7.4807 -2.5017 0.9688
-0.5231 -7.5078 -2.5017 0.9688
-0.3721 -7.5168 -2.5017 0.9688
-0.0698 -7.5256 -2.5017 0.9688
0.5348 -7.5069 -2.5017 0.9688
0.6855 -7.4947 -2.5017 0.9688
0.8360 -7.4794 -2.5017 0.9688
0.9861 -7.4611 -2.5017 0.9688
1.1359 -7.4397 -2.5017 0.9688
1.2851 -7.4154 -2.5017 0.9688
1.7296 -7.3245 -2.5017 0.9688
1.8765 -7.2883 -2.5017 0.9688
2.0225 -7.2491 -2.5017 0.9688
2.4556 -7.1140 -2.5017 0.9688
2.5981 -7.0633 -2.5017 0.9688
3.0190 -6.8939 -2.5017 0.9688
3.1569 -6.8318 -2.5017 0.9688
3.2936 -6.7670 -2.5017 0.9688
3.4289 -6.6994 -2.5017 0.9688
3.6953 -6.5562 -2.5017 0.9688
3.8263 -6.4806 -2.5017 0.9688
3.9558 -6.4024 -2.5017 0.9688
4.4572 -6.0641 -2.5017 0.9688
4.5781 -5.9733 -2.5017 0.9688
4.8144 -5.7845 -2.5017 0.9688
5.0430 -5.5863 -2.5017 0.9688
5.3704 -5.2724 -2.5017 0.9688
5.4753 -5.1634 -2.5017 0.9688
5.5779 -5.0523 -2.5017 0.9688
5.8722 -4.7070 -2.5016 0.9688
6.1452 -4.3446 -2.5016 0.9688
6.2313 -4.2203 -2.5016 0.9688
6.3958 -3.9665 -2.5016 0.9688
6.6937 -3.4400 -2.5016 0.9688
6.8265 -3.1683 -2.5016 0.9688
7.0050 -2.7512 -2.5016 0.9688
7.0589 -2.6099 -2.5016 0.9688
7.1580 -2.3241 -2.5016 0.9688
7.2033 -2.1798 -2.5016 0.9688
7.2456 -2.0346 -2.5016 0.9688
7.2851 -1.8886 -2.5016 0.9688
7.3215 -1.7418 -2.5016 0.9688
7.3856 -1.4462 -2.5016 0.9688
7.4132 -1.2975 -2.5016 0.9688
7.4779 -0.8484 -2.5016 0.9688
7.4934 -0.6980 -2.5016 0.9688
7.5219 -0.2452 -2.5016 0.9688
7.5173 0.3596 -2.5016 0.9688
7.4968 0.6614 -2.5016 0.9688
7.4641 0.9621 -2.5016 0.9688
7.2942 1.8530 -2.5016 0.9688
7.2555 1.9992 -2.5016 0.9688
7.2138 2.1446 -2.5016 0.9688
7.1693 2.2892 -2.5016 0.9688
7.1218 2.4328 -2.5016 0.9688
7.0715 2.5754 -2.5016 0.9688
6.9623 2.8575 -2.5016 0.9688
6.9035 2.9968 -2.5016 0.9688
6.8419 3.1349 -2.5016 0.9688
6.4151 3.9352 -2.5016 0.9688
6.2518 4.1898 -2.5016 0.9688
6.1663 4.3146 -2.5016 0.9688
6.0784 4.4376 -2.5016 0.9688
5.7999 4.7958 -2.5016 0.9688
5.5004 5.1366 -2.5016 0.9688
4.6072 5.9509 -2.5017 0.9688
4.4867 6.0422 -2.5017 0.9688
3.7273 6.5381 -2.5017 0.9688
3.5951 6.6117 -2.5017 0.9688
3.4615 6.6826 -2.5017 0.9688
3.0526 6.8790 -2.5017 0.9688
-5.6565 4.1162 -2.5017 0.9707
-5.8173 3.8856 -2.5017 0.9707
-5.8942 3.7679 -2.5017 0.9707
-6.0409 3.5280 -2.5017 0.9707
-6.1105 3.4059 -2.5017 0.9707
-6.3047 3.0315 -2.5017 0.9707
-6.4759 2.6461 -2.5017 0.9707
-6.5770 2.3837 -2.5017 0.9707
-6.6235 2.2511 -2.5017 0.9707
-6.7472 1.8479 -2.5017 0.9707
-6.7829 1.7119 -2.5017 0.9707
-6.8160 1.5753 -2.5017 0.9707
-6.8462 1.4380 -2.5017 0.9707
-6.8738 1.3001 -2.5017 0.9707
-6.8985 1.1617 -2.5017 0.9707
-6.9204 1.0229 -2.5017 0.9707
-6.9560 0.7439 -2.5017 0.9707
-6.9802 0.4638 -2.5017 0.9707
-6.9882 0.3235 -2.5017 0.9707
-6.9955 0.0424 -2.5017 0.9707
-6.9854 -0.3792 -2.5017 0.9707
-6.9645 -0.6596 -2.5017 0.9707
-6.9323 -0.9389 -2.5017 0.9707
-6.8632 -1.3549 -2.5017 0.9707
-6.8032 -1.6296 -2.5017 0.9707
-6.7691 -1.7660 -2.5017 0.9707
-6.7322 -1.9017 -2.5017 0.9707
-6.6926 -2.0366 -2.5017 0.9707
-6.6054 -2.3039 -2.5017 0.9707
-6.5578 -2.4362 -2.5017 0.9707
-6.5075 -2.5674 -2.5017 0.9707
-6.2803 -3.0817 -2.5017 0.9707
-6.2171 -3.2073 -2.5017 0.9707
-6.1514 -3.3316 -2.5017 0.9707
-6.0832 -3.4545 -2.5017 0.9707
-6.0125 -3.5761 -2.5017 0.9707
-5.9395 -3.6962 -2.5017 0.9707
-5.7059 -4.0473 -2.5017 0.9707
-5.4517 -4.3838 -2.5017 0.9707
-5.3625 -4.4925 -2.5017 0.9707
-5.2711 -4.5993 -2.5017 0.9707
-5.1777 -4.7043 -2.5017 0.9707
-5.0821 -4.8074 -2.5017 0.9707
-4.9844 -4.9086 -2.5017 0.9707
-4.7832 -5.1049 -2.5017 0.9707
-4.6796 -5.2000 -2.5017 0.9707
-4.5742 -5.2930 -2.5017 0.9707
-4.3578 -5.4725 -2.5017 0.9707
-4.2469 -5.5590 -2.5017 0.9707
-4.1343 -5.6432 -2.5017 0.9707
-3.9042 -5.8048 -2.5017 0.9707
-3.7868 -5.8821 -2.5017 0.9707
-3.5474 -6.0295 -2.5017 0.9707
-3.0517 -6.2949 -2.5017 0.9707
-2.9246 -6.3549 -2.5017 0.9707
-2.7963 -6.4124 -2.5017 0.9707
-2.4049 -6.5693 -2.5017 0.9707
-2.0047 -6.7022 -2.5017 0.9707
-1.8696 -6.7412 -2.5017 0.9707
-1.7337 -6.7774 -2.5017 0.9707
-1.4600 -6.8416 -2.5017 0.9707
-1.3222 -6.8695 -2.5017 0.9707
-1.1839 -6.8947 -2.5017 0.9707
-0.9059 -6.9367 -2.5017 0.9707
-0.7663 -6.9535 -2.5017 0.9707
-0.6264 -6.9675 -2.5017 0.9707
-0.2054 -6.9926 -2.5017 0.9707
0.0757 -6.9952 -2.5017 0.9707
0.2163 -6.9922 -2.5017 0.9707
0.4971 -6.9779 -2.5017 0.9707
0.7771 -6.9523 -2.5017 0.9707
0.9166 -6.9353 -2.5017 0.9707
1.0558 -6.9154 -2.5017 0.9707
1.1946 -6.8928 -2.5017 0.9707
1.4706 -6.8393 -2.5017 0.9707
1.6077 -6.8083 -2.5017 0.9707
2.5465 -6.5156 -2.5017 0.9707
2.6769 -6.4631 -2.5017 0.9707
2.8062 -6.4080 -2.5017 0.9707
3.0615 -6.2901 -2.5017 0.9707
3.3117 -6.1620 -2.5017 0.9707
3.5567 -6.0239 -2.5017 0.9707
3.6770 -5.9513 -2.5017 0.9707
3.7959 -5.8761 -2.5017 0.9707
3.9132 -5.7987 -2.5017 0.9707
4.0289 -5.7188 -2.5017 0.9707
4.8925 -5.0001 -2.5017 0.9707
4.9920 -4.9008 -2.5017 0.9707
5.1849 -4.6962 -2.5017 0.9707
5.3694 -4.4841 -2.5017 0.9707
6.0884 -3.4451 -2.5016 0.9707
6.2219 -3.1976 -2.5016 0.9707
6.3454 -2.9450 -2.5016 0.9707
6.4033 -2.8169 -2.5016 0.9707
6.6536 -2.1603 -2.5016 0.9707
6.7350 -1.8912 -2.5016 0.9707
6.8056 -1.6190 -2.5016 0.9707
6.8367 -1.4820 -2.5016 0.9707
6.8651 -1.3443 -2.5016 0.9707
6.9136 -1.0673 -2.5016 0.9707
6.9337 -0.9282 -2.5016 0.9707
6.9509 -0.7886 -2.5016 0.9707
6.9770 -0.5087 -2.5016 0.9707
6.9918 -0.2279 -2.5016 0.9707
6.9950 -0.0874 -2.5016 0.9707
6.9953 0.0532 -2.5016 0.9707
6.9928 0.1938 -2.5016 0.9707
6.9684 0.6148 -2.5016 0.9707
6.9187 1.0336 -2.5016 0.9707
6.8716 1.3107 -2.5016 0.9707
6.8439 1.4486 -2.5016 0.9707
6.8134 1.5858 -2.5016 0.9707
6.6199 2.2613 -2.5016 0.9707
6.5732 2.3939 -2.5016 0.9707
6.5237 2.5255 -2.5016 0.9707
6.2999 3.0412 -2.5016 0.9707
6.2375 3.1672 -2.5016 0.9707
6.1726 3.2919 -2.5016 0.9707
6.1052 3.4153 -2.5016 0.9707
6.0353 3.5373 -2.5016 0.9707
5.9630 3.6579 -2.5016 0.9707
5.5660 4.2376 -2.5016 0.9707
5.1128 4.7746 -2.5016 0.9707
4.9168 4.9762 -2.5017 0.9707
4.8158 5.0740 -2.5017 0.9707
4.7129 5.1697 -2.5017 0.9707
4.5013 5.3550 -2.5017 0.9707
4.3928 5.4443 -2.5017 0.9707
4.2825 5.5315 -2.5017 0.9707
3.9414 5.7795 -2.5017 0.9707
3.8245 5.8575 -2.5017 0.9707
3.7060 5.9332 -2.5017 0.9707
3.5860 6.0065 -2.5017 0.9707
3.3418 6.1457 -2.5017 0.9707
3.2176 6.2116 -2.5017 0.9707
2.8375 6.3942 -2.5017 0.9707
2.7084 6.4500 -2.5017 0.9707
-5.1198 4.0501 -2.5017 0.9724
-5.3546 3.7342 -2.5017 0.9724
-5.4285 3.6259 -2.5017 0.9724
-5.5698 3.4048 -2.5017 0.9724
-5.7649 3.0630 -2.5017 0.9724
-5.8833 2.8289 -2.5017 0.9724
-5.9390 2.7101 -2.5017 0.9724
-5.9922 2.5902 -2.5017 0.9724
-6.0431 2.4693 -2.5017 0.9724
-6.0915 2.3473 -2.5017 0.9724
-6.1374 2.2244 -2.5017 0.9724
-6.2962 1.7244 -2.5017 0.9724
-6.4144 1.2132 -2.5017 0.9724
-6.4375 1.0841 -2.5017 0.9724
-6.4579 0.9545 -2.5017 0.9724
-6.5037 0.5637 -2.5017 0.9724
-6.5138 0.4328 -2.5017 0.9724
-6.5211 0.3018 -2.5017 0.9724
-6.5259 0.1707 -2.5017 0.9724
-6.5280 0.0396 -2.5017 0.9724
-6.5275 -0.0916 -2.5017 0.9724
-6.4990 -0.6155 -2.5017 0.9724
-6.4853 -0.7460 -2.5017 0.9724
-6.4690 -0.8762 -2.5017 0.9724
-6.4501 -1.0060 -2.5017 0.9724
-6.4286 -1.1354 -2.5017 0.9724
-6.4045 -1.2644 -2.5017 0.9724
-6.3167 -1.6480 -2.5017 0.9724
-6.2454 -1.9005 -2.5017 0.9724
-6.2059 -2.0256 -2.5017 0.9724
-6.1639 -2.1499 -2.5017 0.9724
-6.1195 -2.2733 -2.5017 0.9724
-6.0232 -2.5174 -2.5017 0.9724
-5.8606 -2.8758 -2.5017 0.9724
-5.8016 -2.9929 -2.5017 0.9724
-5.6766 -3.2237 -2.5017 0.9724
-5.0041 -4.1922 -2.5017 0.9724
-4.9189 -4.2920 -2.5017 0.9724
-4.8316 -4.3899 -2.5017 0.9724
-4.7424 -4.4861 -2.5017 0.9724
-4.5583 -4.6731 -2.5017 0.9724
-4.4635 -4.7638 -2.5017 0.9724
-4.1683 -5.0240 -2.5017 0.9724
-3.9631 -5.1875 -2.5017 0.9724
-3.8580 -5.2661 -2.5017 0.9724
-3.5337 -5.4890 -2.5017 0.9724
-3.0815 -5.7550 -2.5017 0.9724
-2.7292 -5.9302 -2.5017 0.9724
-2.1205 -6.1741 -2.5017 0.9724
-1.9960 -6.2155 -2.5017 0.9724
-1.8707 -6.2543 -2.5017 0.9724
-1.7446 -6.2906 -2.5017 0.9724
-1.4904 -6.3557 -2.5017 0.9724
-1.3624 -6.3843 -2.5017 0.9724
-1.2338 -6.4104 -2.5017 0.9724
-1.1048 -6.4339 -2.5017 0.9724
-0.9753 -6.4548 -2.5017 0.9724
-0.3228 -6.5201 -2.5017 0.9724
-0.0605 -6.5278 -2.5017 0.9724
0.3329 -6.5196 -2.5017 0.9724
0.7251 -6.4877 -2.5017 0.9724
0.8554 -6.4718 -2.5017 0.9724
2.0056 -6.2123 -2.5017 0.9724
2.2536 -6.1267 -2.5017 0.9724
2.6187 -5.9798 -2.5017 0.9724
2.7383 -5.9259 -2.5017 0.9724
3.0904 -5.7502 -2.5017 0.9724
3.3190 -5.6213 -2.5017 0.9724
3.4313 -5.5535 -2.5017 0.9724
3.6517 -5.4112 -2.5017 0.9724
3.7597 -5.3367 -2.5017 0.9724
4.0744 -5.1004 -2.5017 0.9724
4.4708 -4.7568 -2.5017 0.9724
4.5655 -4.6660 -2.5017 0.9724
4.6583 -4.5733 -2.5017 0.9724
4.7493 -4.4787 -2.5017 0.9724
4.8383 -4.3824 -2.5017 0.9724
4.9254 -4.2843 -2.5017 0.9724
5.0936 -4.0829 -2.5017 0.9724
5.2536 -3.8749 -2.5017 0.9724
5.3304 -3.7685 -2.5017 0.9724
5.4050 -3.6607 -2.5017 0.9724
5.4775 -3.5513 -2.5017 0.9724
5.6815 -3.2148 -2.5017 0.9724
5.7450 -3.1000 -2.5016 0.9724
5.8061 -2.9839 -2.5016 0.9724
5.8649 -2.8666 -2.5016 0.9724
5.9754 -2.6286 -2.5016 0.9724
6.0762 -2.3864 -2.5016 0.9724
6.1229 -2.2638 -2.5016 0.9724
6.2482 -1.8908 -2.5016 0.9724
6.2849 -1.7648 -2.5016 0.9724
6.3191 -1.6382 -2.5016 0.9724
6.3508 -1.5108 -2.5016 0.9724
6.3798 -1.3829 -2.5016 0.9724
6.4063 -1.2544 -2.5016 0.9724
6.4516 -0.9960 -2.5016 0.9724
6.4703 -0.8661 -2.5016 0.9724
6.4864 -0.7359 -2.5016 0.9724
6.4999 -0.6054 -2.5016 0.9724
6.5189 -0.3438 -2.5016 0.9724
6.5275 -0.0815 -2.5016 0.9724
6.5278 0.0497 -2.5016 0.9724
6.5130 0.4429 -2.5016 0.9724
6.4899 0.7043 -2.5016 0.9724
6.4564 0.9645 -2.5016 0.9724
6.4124 1.2231 -2.5016 0.9724
6.3865 1.3518 -2.5016 0.9724
6.3581 1.4798 -2.5016 0.9724
6.2187 1.9856 -2.5016 0.9724
6.1775 2.1102 -2.5016 0.9724
6.1339 2.2339 -2.5016 0.9724
6.0392 2.4786 -2.5016 0.9724
5.9881 2.5994 -2.5016 0.9724
5.6320 3.3009 -2.5016 0.9724
5.4948 3.5245 -2.5016 0.9724
5.4228 3.6342 -2.5016 0.9724
5.3487 3.7425 -2.5016 0.9724
5.2724 3.8492 -2.5016 0.9724
5.1940 3.9544 -2.5016 0.9724
5.1135 4.0580 -2.5016 0.9724
5.0309 4.1599 -2.5017 0.9724
4.8597 4.3587 -2.5017 0.9724
4.7711 4.4555 -2.5017 0.9724
4.4940 4.7349 -2.5017 0.9724
4.3979 4.8242 -2.5017 0.9724
4.3001 4.9117 -2.5017 0.9724
4.0992 5.0805 -2.5017 0.9724
3.9963 5.1618 -2.5017 0.9724
3.4583 5.5367 -2.5017 0.9724
3.3464 5.6051 -2.5017 0.9724
3.2331 5.6712 -2.5017 0.9724
3.1184 5.7350 -2.5017 0.9724
3.0026 5.7965 -2.5017 0.9724
2.8855 5.8557 -2.5017 0.9724
2.6478 5.9669 -2.5017 0.9724
-4.7939 3.7922 -2.5017 0.9739
-5.0137 3.4965 -2.5017 0.9739
-5.0829 3.3950 -2.5017 0.9739
-5.1501 3.2922 -2.5017 0.9739
-5.2152 3.1881 -2.5017 0.9739
-5.3391 2.9759 -2.5017 0.9739
-5.3979 2.8680 -2.5017 0.9739
-5.4544 2.7589 -2.5017 0.9739
-5.6107 2.4253 -2.5017 0.9739
-5.6583 2.3121 -2.5017 0.9739
-5.7037 2.1979 -2.5017 0.9739
-5.8617 1.7328 -2.5017 0.9739
-5.8954 1.6146 -2.5017 0.9739
-5.9555 1.3764 -2.5017 0.9739
-5.9819 1.2565 -2.5017 0.9739
-6.0468 0.8937 -2.5017 0.9739
-6.0635 0.7720 -2.5017 0.9739
-6.0778 0.6500 -2.5017 0.9739
-6.0990 0.4053 -2.5017 0.9739
-6.1124 0.0370 -2.5017 0.9739
-6.0956 -0.4539 -2.5017 0.9739
-6.0572 -0.8204 -2.5017 0.9739
-6.0395 -0.9419 -2.5017 0.9739
-6.0193 -1.0631 -2.5017 0.9739
-5.9443 -1.4239 -2.5017 0.9739
-5.8477 -1.7795 -2.5017 0.9739
-5.8108 -1.8966 -2.5017 0.9739
-5.7299 -2.1286 -2.5017 0.9739
-5.6859 -2.2433 -2.5017 0.9739
-5.6397 -2.3571 -2.5017 0.9739
-5.5912 -2.4700 -2.5017 0.9739
-5.5404 -2.5818 -2.5017 0.9739
-5.4322 -2.8024 -2.5017 0.9739
-4.9856 -3.5364 -2.5017 0.9739
-4.8395 -3.7339 -2.5017 0.9739
-4.7635 -3.8304 -2.5017 0.9739
-4.6855 -3.9253 -2.5017 0.9739
-4.6057 -4.0187 -2.5017 0.9739
-4.5240 -4.1104 -2.5017 0.9739
-4.3552 -4.2889 -2.5017 0.9739
-4.1793 -4.4604 -2.5017 0.9739
-3.9030 -4.7042 -2.5017 0.9739
-3.8076 -4.7817 -2.5017 0.9739
-3.6124 -4.9308 -2.5017 0.9739
-3.3087 -5.1395 -2.5017 0.9739
-3.2048 -5.2050 -2.5017 0.9739
-3.0996 -5.2683 -2.5017 0.9739
-2.9931 -5.3295 -2.5017 0.9739
-2.7765 -5.4455 -2.5017 0.9739
-2.4433 -5.6029 -2.5017 0.9739
-2.2162 -5.6966 -2.5017 0.9739
-2.1013 -5.7399 -2.5017 0.9739
-1.9855 -5.7810 -2.5017 0.9739
-1.6335 -5.8901 -2.5017 0.9739
-1.3956 -5.9510 -2.5017 0.9739
-1.2757 -5.9779 -2.5017 0.9739
-1.0344 -6.0243 -2.5017 0.9739
-0.9132 -6.0439 -2.5017 0.9739
-0.6696 -6.0757 -2.5017 0.9739
-0.5473 -6.0879 -2.5017 0.9739
-0.4249 -6.0977 -2.5017 0.9739
-0.3023 -6.1050 -2.5017 0.9739
0.0662 -6.1121 -2.5017 0.9739
0.3117 -6.1045 -2.5017 0.9739
0.5568 -6.0870 -2.5017 0.9739
0.6790 -6.0746 -2.5017 0.9739
0.8009 -6.0597 -2.5017 0.9739
0.9225 -6.0424 -2.5017 0.9739
1.0438 -6.0227 -2.5017 0.9739
1.2849 -5.9758 -2.5017 0.9739
1.6427 -5.8876 -2.5017 0.9739
1.7606 -5.8534 -2.5017 0.9739
1.9944 -5.7779 -2.5017 0.9739
2.1101 -5.7366 -2.5017 0.9739
2.2250 -5.6931 -2.5017 0.9739
2.3390 -5.6472 -2.5017 0.9739
2.4520 -5.5991 -2.5017 0.9739
2.5640 -5.5487 -2.5017 0.9739
2.6750 -5.4960 -2.5017 0.9739
3.1077 -5.2635 -2.5017 0.9739
3.2128 -5.2000 -2.5017 0.9739
3.4192 -5.0666 -2.5017 0.9739
3.5203 -4.9969 -2.5017 0.9739
3.7183 -4.8514 -2.5017 0.9739
3.9102 -4.6981 -2.5017 0.9739
4.0038 -4.6186 -2.5017 0.9739
4.1862 -4.4539 -2.5017 0.9739
4.2748 -4.3689 -2.5017 0.9739
4.3618 -4.2821 -2.5017 0.9739
4.4469 -4.1936 -2.5017 0.9739
4.5303 -4.1034 -2.5017 0.9739
4.6119 -4.0115 -2.5017 0.9739
5.0609 -3.4276 -2.5017 0.9739
5.1288 -3.3252 -2.5017 0.9739
5.1946 -3.2215 -2.5017 0.9739
5.4365 -2.7939 -2.5017 0.9739
5.4915 -2.6841 -2.5017 0.9739
5.5444 -2.5732 -2.5017 0.9739
5.6433 -2.3483 -2.5016 0.9739
5.6893 -2.2345 -2.5016 0.9739
5.7331 -2.1197 -2.5016 0.9739
5.7745 -2.0040 -2.5016 0.9739
5.9464 -1.4146 -2.5016 0.9739
