ply
format ascii 1.0
element vertex 1589
property float32 x
property float32 y
property float32 z
property float32 I
end_header
5.7731 -16.6927 -2.5026 0.9311
6.1078 -16.5750 -2.5029 0.9311
6.4402 -16.4507 -2.5031 0.9311
7.0972 -16.1820 -2.5036 0.9311
7.4215 -16.0378 -2.5039 0.9311
7.7430 -15.8871 -2.5041 0.9311
8.6883 -15.3965 -2.5049 0.9311
8.9967 -15.2204 -2.5051 0.9311
9.6027 -14.8497 -2.5056 0.9310
11.0485 -13.8186 -2.5068 0.9310
11.3249 -13.5951 -2.5071 0.9310
11.5967 -13.3661 -2.5073 0.9310
12.1264 -12.8919 -2.5077 0.9310
12.3840 -12.6468 -2.5080 0.9310
12.8842 -12.1414 -2.5084 0.9310
13.5955 -11.3462 -2.5090 0.9310
14.0426 -10.7928 -2.5095 0.9309
14.6705 -9.9298 -2.5100 0.9309
14.8682 -9.6339 -2.5102 0.9309
15.0598 -9.3340 -2.5104 0.9309
15.2453 -9.0302 -2.5106 0.9309
15.4248 -8.7228 -2.5108 0.9309
15.5979 -8.4118 -2.5110 0.9309
15.7649 -8.0974 -2.5111 0.9309
16.0795 -7.4586 -2.5115 0.9309
16.5026 -6.4779 -2.5119 0.9309
16.8657 -5.4732 -2.5124 0.9309
17.1673 -4.4482 -2.5127 0.9309
17.3337 -3.7554 -2.5130 0.9309
17.4065 -3.4066 -2.5131 0.9309
17.4721 -3.0565 -2.5132 0.9308
17.5307 -2.7050 -2.5133 0.9308
17.5822 -2.3524 -2.5134 0.9308
17.6637 -1.6445 -2.5136 0.9308
17.7409 -0.2214 -2.5139 0.9308
17.7363 0.4914 -2.5140 0.9308
17.5991 2.2675 -2.5142 0.9308
17.5502 2.6205 -2.5142 0.9308
17.4942 2.9726 -2.5143 0.9308
17.0101 5.0545 -2.5143 0.9308
16.6744 6.0696 -2.5142 0.9308
16.4167 6.7342 -2.5142 0.9308
16.2670 7.0578 -2.5125 0.9309
16.0883 7.3677 -2.5072 0.9310
15.4316 7.4454 -2.4277 0.9331
14.8581 7.5404 -2.3608 0.9349
13.8413 9.2705 -2.3604 0.9349
12.8394 10.6096 -2.3599 0.9349
12.6232 10.8648 -2.3598 0.9349
12.4018 11.1156 -2.3597 0.9349
12.1754 11.3619 -2.3596 0.9349
11.9441 11.6036 -2.3595 0.9349
11.7080 11.8406 -2.3594 0.9349
10.2184 11.6622 -2.1970 0.9393
9.8222 11.6750 -2.1618 0.9402
9.4383 11.6875 -2.1285 0.9411
9.0659 11.6995 -2.0971 0.9420
7.9876 11.7010 -2.0074 0.9444
7.6083 11.6409 -1.9704 0.9454
7.2427 11.5829 -1.9356 0.9463
6.5584 11.4910 -1.8747 0.9480
6.2549 11.4892 -1.8535 0.9485
5.9579 11.4873 -1.8335 0.9491
5.6525 11.4557 -1.8100 0.9497
4.4593 11.2291 -1.7119 0.9524
3.9029 11.8664 -1.7700 0.9508
3.3859 11.8831 -1.7507 0.9513
2.3811 11.9156 -1.7217 0.9521
2.1345 11.9236 -1.7163 0.9522
1.8895 11.9315 -1.7116 0.9524
1.6456 11.9394 -1.7077 0.9525
1.4028 11.9473 -1.7044 0.9526
0.9194 11.9629 -1.7000 0.9527
0.4372 11.9633 -1.6962 0.9528
-0.7564 11.8189 -1.6780 0.9533
-1.7114 11.7809 -1.6868 0.9530
-2.4325 11.7273 -1.6970 0.9528
-2.6666 11.6715 -1.6963 0.9528
-2.9004 11.6153 -1.6963 0.9528
-3.8139 12.1159 -1.7997 0.9500
-4.0861 12.1247 -1.8129 0.9496
-4.6431 12.1427 -1.8420 0.9488
-5.2193 12.1613 -1.8751 0.9479
-5.5155 12.1708 -1.8933 0.9474
-6.1260 12.1906 -1.9331 0.9464
-8.1383 12.2556 -2.0845 0.9423
-8.5062 12.2675 -2.1151 0.9415
-8.8851 12.2797 -2.1476 0.9406
-10.5513 -10.8412 -2.4922 0.9405
-10.3319 -11.0514 -2.4923 0.9405
-9.8807 -11.4586 -2.4926 0.9405
-8.5912 -11.7524 -2.3982 0.9427
-8.1780 -11.6723 -2.3479 0.9439
-7.9202 -11.8020 -2.3415 0.9440
-7.6820 -11.9594 -2.3416 0.9440
-7.1964 -12.2598 -2.3419 0.9440
-6.1907 -12.8012 -2.3425 0.9440
-5.0569 -11.6261 -2.0886 0.9499
-5.1447 -13.2605 -2.3432 0.9440
-4.8777 -13.3621 -2.3433 0.9440
-4.3377 -13.5492 -2.3437 0.9440
-3.7906 -13.7146 -2.3440 0.9439
-3.2372 -13.8579 -2.3444 0.9439
-2.6784 -13.9790 -2.3448 0.9439
-1.8321 -14.1183 -2.3453 0.9439
-1.5483 -14.1535 -2.3455 0.9439
-1.2638 -14.1829 -2.3457 0.9439
-0.6932 -14.2246 -2.3461 0.9439
-0.4074 -14.2368 -2.3463 0.9439
1.0226 -14.2120 -2.3473 0.9439
1.8772 -14.1283 -2.3479 0.9439
2.1608 -14.0890 -2.3481 0.9439
2.4800 -14.2535 -2.3834 0.9430
2.8533 -14.6498 -2.4587 0.9413
3.1950 -14.8121 -2.4962 0.9404
3.4984 -14.7725 -2.5009 0.9403
3.7954 -14.7032 -2.5016 0.9403
4.6753 -14.4517 -2.5022 0.9403
5.5386 -14.1476 -2.5029 0.9403
5.8222 -14.0348 -2.5031 0.9403
6.1034 -13.9162 -2.5033 0.9403
6.3823 -13.7920 -2.5036 0.9403
6.6586 -13.6622 -2.5038 0.9402
6.9323 -13.5268 -2.5040 0.9402
7.2032 -13.3860 -2.5042 0.9402
7.9983 -12.9312 -2.5048 0.9402
8.2572 -12.7690 -2.5051 0.9402
8.7648 -12.4291 -2.5055 0.9402
9.4998 -11.8815 -2.5061 0.9402
9.7373 -11.6893 -2.5063 0.9402
9.9709 -11.4922 -2.5065 0.9402
10.2005 -11.2905 -2.5067 0.9402
10.4261 -11.0842 -2.5069 0.9402
10.6474 -10.8734 -2.5071 0.9402
10.8645 -10.6581 -2.5072 0.9402
11.2855 -10.2147 -2.5076 0.9402
11.6883 -9.7546 -2.5080 0.9401
12.0724 -9.2785 -2.5083 0.9401
12.4370 -8.7874 -2.5087 0.9401
12.9462 -8.0240 -2.5092 0.9401
13.2597 -7.4984 -2.5095 0.9401
13.4084 -7.2310 -2.5096 0.9401
13.9487 -6.1329 -2.5102 0.9401
14.0698 -5.8518 -2.5103 0.9401
14.1853 -5.5683 -2.5105 0.9401
14.4970 -4.7045 -2.5108 0.9401
14.6756 -4.1188 -2.5111 0.9401
14.7560 -3.8234 -2.5112 0.9401
14.8304 -3.5264 -2.5113 0.9401
15.0176 -2.6271 -2.5116 0.9401
15.1120 -2.0219 -2.5117 0.9401
15.1501 -1.7180 -2.5118 0.9401
15.2077 -1.1082 -2.5120 0.9401
15.2274 -0.8025 -2.5120 0.9401
15.2408 -0.4965 -2.5121 0.9401
15.2440 0.4223 -2.5122 0.9401
15.2327 0.7284 -2.5123 0.9400
15.2153 1.0343 -2.5123 0.9400
15.1619 1.6446 -2.5124 0.9400
15.0839 2.2523 -2.5125 0.9400
15.0357 2.5548 -2.5125 0.9400
14.9815 2.8563 -2.5125 0.9400
14.9211 3.1567 -2.5125 0.9400
14.7823 3.7535 -2.5125 0.9400
14.7039 4.0496 -2.5125 0.9400
14.5293 4.6369 -2.5125 0.9400
14.4331 4.9278 -2.5125 0.9400
14.2233 5.5034 -2.5124 0.9400
13.8655 6.3497 -2.5123 0.9400
13.4450 7.1664 -2.5099 0.9401
13.2754 7.4222 -2.5056 0.9402
12.8204 7.5098 -2.4477 0.9415
11.2172 8.8960 -2.3585 0.9436
10.8500 9.3387 -2.3583 0.9436
10.6598 9.5543 -2.3582 0.9436
10.0637 10.1776 -2.3579 0.9436
9.8568 10.3772 -2.3578 0.9436
9.4311 10.7637 -2.3576 0.9436
9.2125 10.9504 -2.3575 0.9436
8.7644 11.3104 -2.3572 0.9436
8.3021 11.6520 -2.3569 0.9437
8.0659 11.8157 -2.3568 0.9437
7.0222 11.7489 -2.2549 0.9460
7.0898 12.4219 -2.3562 0.9437
6.5843 12.6950 -2.3559 0.9437
6.3275 12.8238 -2.3558 0.9437
6.0682 12.9475 -2.3556 0.9437
5.5425 13.1789 -2.3553 0.9437
5.2763 13.2866 -2.3551 0.9437
4.4186 11.8131 -2.0778 0.9502
3.6430 11.8748 -2.0462 0.9509
2.8793 11.8995 -2.0169 0.9516
2.6292 11.9076 -2.0089 0.9518
1.6456 11.9394 -1.9855 0.9523
1.4028 11.9472 -1.9817 0.9524
0.9194 11.9628 -1.9766 0.9525
0.6784 11.9706 -1.9752 0.9526
0.1968 11.9700 -1.9722 0.9526
-0.0435 11.9319 -1.9657 0.9528
-0.2824 11.8940 -1.9600 0.9529
-0.9920 11.7815 -1.9477 0.9532
-1.2269 11.7443 -1.9453 0.9533
-2.4021 11.5804 -1.9484 0.9532
-2.6331 11.5253 -1.9476 0.9532
-2.8641 11.4698 -1.9475 0.9532
-3.0949 11.4139 -1.9482 0.9532
-3.3259 11.3575 -1.9496 0.9532
-3.8138 12.1158 -2.0925 0.9498
-4.0860 12.1246 -2.1078 0.9495
-4.3623 12.1335 -2.1241 0.9491
-5.8175 12.1806 -2.2237 0.9467
-6.1181 12.1747 -2.2447 0.9463
-6.6503 12.5967 -2.3466 0.9439
-6.9014 12.4595 -2.3464 0.9439
-7.3950 12.1702 -2.3460 0.9439
-9.0596 -9.6904 -2.4934 0.9474
-8.6638 -10.0474 -2.4937 0.9474
-7.8309 -10.7124 -2.4941 0.9474
-7.6145 -10.8680 -2.4943 0.9474
-7.3950 -11.0193 -2.4944 0.9474
-7.1647 -11.1540 -2.4918 0.9475
-6.9315 -11.2831 -2.4890 0.9475
-6.6631 -11.3513 -2.4740 0.9478
-6.3351 -11.3067 -2.4361 0.9486
-6.0168 -11.2634 -2.4002 0.9494
-5.7161 -11.2380 -2.3698 0.9500
-5.4284 -11.2248 -2.3436 0.9505
-4.7428 -11.5321 -2.3438 0.9505
-3.8029 -11.8787 -2.3444 0.9505
-3.3232 -12.0234 -2.3447 0.9505
-2.5935 -12.2042 -2.3451 0.9505
-2.1016 -12.3003 -2.3455 0.9505
-1.6061 -12.3765 -2.3458 0.9505
-1.1078 -12.4328 -2.3461 0.9505
-0.8579 -12.4535 -2.3463 0.9505
-0.1064 -12.4853 -2.3468 0.9505
0.1444 -12.4859 -2.3470 0.9504
1.2083 -13.1078 -2.4742 0.9478
1.4832 -13.1868 -2.4942 0.9474
1.7500 -13.1712 -2.4974 0.9474
2.0168 -13.1501 -2.5006 0.9473
2.8058 -13.0078 -2.5012 0.9473
3.3265 -12.8866 -2.5016 0.9473
3.8420 -12.7446 -2.5020 0.9473
4.3514 -12.5819 -2.5023 0.9473
4.6036 -12.4929 -2.5025 0.9473
4.8540 -12.3989 -2.5027 0.9472
5.1024 -12.2998 -2.5029 0.9472
5.5932 -12.0868 -2.5033 0.9472
6.3124 -11.7307 -2.5039 0.9472
6.5473 -11.6024 -2.5041 0.9472
6.7795 -11.4694 -2.5042 0.9472
7.0090 -11.3317 -2.5044 0.9472
7.2358 -11.1895 -2.5046 0.9472
7.4596 -11.0427 -2.5048 0.9472
8.1129 -10.5756 -2.5053 0.9472
8.3242 -10.4113 -2.5055 0.9472
8.5323 -10.2427 -2.5057 0.9472
8.9380 -9.8931 -2.5060 0.9472
9.1356 -9.7122 -2.5062 0.9472
9.5195 -9.3387 -2.5065 0.9472
10.7391 -7.9159 -2.5076 0.9471
11.3424 -7.0300 -2.5082 0.9471
11.4820 -6.8011 -2.5084 0.9471
11.6169 -6.5694 -2.5085 0.9471
11.8726 -6.0982 -2.5087 0.9471
11.9933 -5.8588 -2.5089 0.9471
12.4273 -4.8782 -2.5094 0.9471
12.5233 -4.6278 -2.5095 0.9471
12.6142 -4.3755 -2.5096 0.9471
12.7001 -4.1214 -2.5097 0.9471
12.9268 -3.3494 -2.5100 0.9471
13.1064 -2.5651 -2.5102 0.9471
13.1557 -2.3014 -2.5103 0.9471
13.1997 -2.0367 -2.5104 0.9471
13.2383 -1.7712 -2.5105 0.9471
13.2716 -1.5050 -2.5105 0.9471
13.2995 -1.2382 -2.5106 0.9471
13.3392 -0.7030 -2.5107 0.9471
13.3572 -0.1667 -2.5108 0.9471
13.3581 0.1016 -2.5109 0.9471
13.3076 1.1736 -2.5110 0.9471
13.2132 1.9729 -2.5111 0.9471
13.1234 2.5021 -2.5111 0.9471
13.0706 2.7652 -2.5111 0.9471
12.9490 3.2879 -2.5111 0.9471
12.8803 3.5474 -2.5111 0.9471
12.7274 4.0618 -2.5111 0.9471
12.6431 4.3166 -2.5111 0.9471
12.4594 4.8208 -2.5111 0.9471
12.1460 5.5623 -2.5110 0.9471
11.9124 6.0454 -2.5109 0.9471
11.7883 6.2834 -2.5108 0.9471
11.6595 6.5188 -2.5108 0.9471
11.5260 6.7515 -2.5107 0.9471
11.3878 6.9815 -2.5107 0.9471
11.2364 7.2032 -2.5087 0.9471
11.0735 7.4167 -2.5051 0.9472
10.8063 7.5565 -2.4785 0.9477
10.3875 7.5788 -2.4169 0.9490
9.8265 7.7931 -2.3573 0.9502
9.6677 7.9886 -2.3573 0.9502
9.3384 8.3699 -2.3571 0.9502
9.1680 8.5555 -2.3570 0.9502
8.8163 8.9161 -2.3568 0.9502
8.6351 9.0910 -2.3567 0.9502
8.4504 9.2622 -2.3566 0.9503
8.2623 9.4297 -2.3565 0.9503
8.0708 9.5933 -2.3564 0.9503
7.8761 9.7531 -2.3563 0.9503
7.4774 10.0605 -2.3561 0.9503
7.2734 10.2082 -2.3560 0.9503
7.0665 10.3517 -2.3558 0.9503
6.8568 10.4910 -2.3557 0.9503
5.7687 11.1226 -2.3551 0.9503
4.6230 11.6414 -2.3544 0.9503
4.3880 11.7312 -2.3542 0.9503
3.9127 11.8965 -2.3539 0.9503
3.4313 12.0424 -2.3536 0.9503
3.1885 12.1081 -2.3534 0.9503
2.4530 12.2756 -2.3529 0.9503
2.2058 12.3215 -2.3528 0.9503
0.4372 11.9629 -2.2500 0.9524
0.1968 11.9695 -2.2501 0.9524
-0.2845 11.9843 -2.2532 0.9524
-0.5260 11.9960 -2.2569 0.9523
-1.0123 12.0229 -2.2678 0.9521
-1.2992 12.4368 -2.3503 0.9504
-1.5486 12.4072 -2.3502 0.9504
-1.7974 12.3726 -2.3500 0.9504
-2.7838 12.1847 -2.3493 0.9504
-3.2704 12.0612 -2.3489 0.9504
-3.5118 11.9921 -2.3487 0.9504
-3.7517 11.9183 -2.3485 0.9504
-5.1550 11.3755 -2.3475 0.9504
-5.3821 11.2688 -2.3473 0.9504
-5.6069 11.1576 -2.3471 0.9504
-5.8295 11.0419 -2.3469 0.9505
-6.2673 10.7972 -2.3466 0.9505
-6.4825 10.6684 -2.3464 0.9505
-6.9047 10.3979 -2.3461 0.9505
-7.1117 10.2563 -2.3459 0.9505
-7.3157 10.1107 -2.3457 0.9505
-8.2299 -8.4560 -2.4942 0.9529
-7.7066 -8.9373 -2.4945 0.9529
-7.3420 -9.2404 -2.4947 0.9529
-7.1552 -9.3864 -2.4948 0.9529
-6.9655 -9.5286 -2.4949 0.9529
-6.7730 -9.6671 -2.4951 0.9529
-6.1794 -10.0588 -2.4954 0.9529
-5.9764 -10.1814 -2.4955 0.9529
-5.7710 -10.2999 -2.4956 0.9529
-5.3532 -10.5245 -2.4959 0.9529
-4.9263 -10.7313 -2.4960 0.9529
-4.7071 -10.8219 -2.4946 0.9529
-3.8167 -11.1457 -2.4903 0.9530
-3.3582 -11.2640 -2.4846 0.9531
-2.8902 -11.3391 -2.4735 0.9533
-2.2018 -11.4916 -2.4733 0.9533
-1.9744 -11.5560 -2.4781 0.9532
-1.7460 -11.6205 -2.4839 0.9531
-1.5164 -11.6858 -2.4909 0.9530
-0.3379 -11.8089 -2.4972 0.9528
0.1368 -11.8240 -2.4995 0.9528
1.0857 -11.7780 -2.5002 0.9528
1.5581 -11.7265 -2.5005 0.9528
2.0281 -11.6561 -2.5009 0.9528
2.2619 -11.6138 -2.5010 0.9528
2.4950 -11.5668 -2.5012 0.9528
2.7270 -11.5151 -2.5014 0.9528
2.9579 -11.4588 -2.5016 0.9528
3.1877 -11.3979 -2.5017 0.9528
3.4162 -11.3323 -2.5019 0.9528
3.8692 -11.1875 -2.5023 0.9528
4.3160 -11.0246 -2.5026 0.9527
4.5369 -10.9364 -2.5028 0.9527
4.7559 -10.8438 -2.5029 0.9527
4.9731 -10.7468 -2.5031 0.9527
5.4015 -10.5398 -2.5034 0.9527
5.6125 -10.4299 -2.5036 0.9527
5.8212 -10.3158 -2.5038 0.9527
6.0277 -10.1974 -2.5039 0.9527
6.2317 -10.0750 -2.5041 0.9527
6.6322 -9.8178 -2.5044 0.9527
7.4007 -9.2561 -2.5051 0.9527
7.5856 -9.1062 -2.5052 0.9527
7.7674 -8.9525 -2.5054 0.9527
8.4630 -8.3022 -2.5060 0.9527
8.6285 -8.1310 -2.5061 0.9527
8.9492 -7.7788 -2.5064 0.9527
9.1041 -7.5979 -2.5065 0.9527
9.5467 -7.0369 -2.5070 0.9527
9.6867 -6.8441 -2.5071 0.9527
9.8227 -6.6485 -2.5072 0.9527
9.9548 -6.4502 -2.5073 0.9527
10.2068 -6.0458 -2.5076 0.9527
10.4424 -5.6315 -2.5078 0.9527
10.5539 -5.4208 -2.5079 0.9527
11.0466 -4.3362 -2.5085 0.9526
11.2127 -3.8893 -2.5087 0.9526
11.2889 -3.6635 -2.5088 0.9526
11.3607 -3.4361 -2.5089 0.9526
11.4903 -2.9772 -2.5090 0.9526
11.6936 -2.0456 -2.5093 0.9526
11.7670 -1.5744 -2.5095 0.9526
11.7965 -1.3377 -2.5095 0.9526
11.8213 -1.1005 -2.5096 0.9526
11.8668 -0.3866 -2.5097 0.9526
11.8724 -0.1482 -2.5098 0.9526
11.8732 0.0903 -2.5098 0.9526
11.8692 0.3288 -2.5099 0.9526
11.8603 0.5672 -2.5099 0.9526
11.7771 1.5174 -2.5100 0.9526
11.7443 1.7536 -2.5100 0.9526
11.7068 1.9892 -2.5100 0.9526
11.6645 2.2239 -2.5101 0.9526
11.6175 2.4578 -2.5101 0.9526
11.5658 2.6907 -2.5101 0.9526
11.5094 2.9224 -2.5101 0.9526
11.3827 3.3823 -2.5101 0.9526
11.1582 4.0617 -2.5100 0.9526
11.0743 4.2849 -2.5100 0.9526
10.8930 4.7262 -2.5099 0.9526
10.3635 5.7942 -2.5098 0.9526
10.2448 6.0010 -2.5097 0.9526
10.1220 6.2055 -2.5097 0.9526
9.9951 6.4074 -2.5096 0.9526
9.7292 6.8034 -2.5095 0.9526
9.4445 7.1859 -2.5085 0.9526
9.2870 7.3652 -2.5055 0.9527
8.8416 7.6100 -2.4659 0.9534
7.8367 7.9254 -2.3560 0.9555
7.6756 8.0809 -2.3559 0.9555
7.3443 8.3820 -2.3557 0.9555
7.1742 8.5275 -2.3556 0.9555
6.6467 8.9430 -2.3553 0.9555
6.2816 9.2019 -2.3551 0.9555
5.9064 9.4459 -2.3549 0.9555
5.7152 9.5622 -2.3548 0.9555
5.5217 9.6745 -2.3546 0.9555
5.1282 9.8875 -2.3544 0.9555
4.7264 10.0845 -2.3542 0.9555
3.6904 10.5046 -2.3535 0.9555
3.4785 10.5760 -2.3534 0.9555
2.8347 10.7644 -2.3529 0.9555
2.1808 10.9136 -2.3525 0.9555
1.9610 10.9545 -2.3524 0.9555
1.7405 10.9910 -2.3522 0.9555
1.5193 11.0230 -2.3521 0.9555
1.0653 9.0729 -1.9310 0.9633
0.8815 9.0790 -1.9281 0.9634
0.8525 11.0924 -2.3516 0.9555
0.4062 11.1162 -2.3513 0.9555
0.1829 11.1214 -2.3512 0.9555
-0.7102 11.0972 -2.3505 0.9556
-0.9329 11.0799 -2.3504 0.9556
-2.0385 10.9268 -2.3496 0.9556
-2.6923 10.7820 -2.3491 0.9556
-3.5480 10.5282 -2.3484 0.9556
-3.7585 10.4541 -2.3483 0.9556
-4.3804 10.2067 -2.3478 0.9556
-4.9862 9.9223 -2.3473 0.9556
-6.1406 9.2472 -2.3464 0.9556
-6.3247 9.1214 -2.3462 0.9556
-7.4042 -7.6075 -2.4950 0.9573
-6.9332 -8.0405 -2.4952 0.9573
-6.7706 -8.1784 -2.4953 0.9573
-6.0933 -8.6968 -2.4957 0.9573
-5.9176 -8.8178 -2.4958 0.9573
-5.7395 -8.9353 -2.4959 0.9573
-4.8157 -9.4678 -2.4965 0.9573
-4.6248 -9.5631 -2.4966 0.9573
-4.2374 -9.7421 -2.4968 0.9573
-4.0410 -9.8257 -2.4969 0.9573
-3.4425 -10.0528 -2.4973 0.9573
-3.2400 -10.1204 -2.4975 0.9573
-3.0362 -10.1840 -2.4976 0.9573
-2.8312 -10.2435 -2.4977 0.9573
-2.2095 -10.3971 -2.4981 0.9573
-2.0003 -10.4400 -2.4983 0.9573
-1.5796 -10.5131 -2.4985 0.9573
-1.3682 -10.5433 -2.4987 0.9573
-0.5176 -10.6216 -2.4993 0.9572
-0.3042 -10.6304 -2.4994 0.9572
-0.0906 -10.6350 -2.4996 0.9572
0.1230 -10.6353 -2.4997 0.9572
0.3367 -10.6314 -2.4999 0.9572
0.5502 -10.6231 -2.5000 0.9572
0.7635 -10.6106 -2.5002 0.9572
0.9765 -10.5937 -2.5003 0.9572
1.1892 -10.5726 -2.5005 0.9572
1.4014 -10.5472 -2.5006 0.9572
1.8241 -10.4837 -2.5009 0.9572
2.2440 -10.4033 -2.5012 0.9572
2.6603 -10.3060 -2.5016 0.9572
2.8670 -10.2512 -2.5017 0.9572
3.0725 -10.1921 -2.5019 0.9572
3.2768 -10.1290 -2.5020 0.9572
3.6815 -9.9904 -2.5023 0.9572
3.8816 -9.9151 -2.5025 0.9572
4.8577 -9.4788 -2.5032 0.9572
5.9643 -8.8291 -2.5041 0.9572
6.3148 -8.5834 -2.5044 0.9572
7.1456 -7.9092 -2.5051 0.9571
7.3035 -7.7645 -2.5053 0.9571
7.4583 -7.6166 -2.5054 0.9571
7.6102 -7.4657 -2.5055 0.9571
7.7591 -7.3117 -2.5057 0.9571
8.0473 -6.9949 -2.5059 0.9571
8.1866 -6.8321 -2.5060 0.9571
8.4552 -6.4985 -2.5063 0.9571
8.5844 -6.3276 -2.5064 0.9571
8.9512 -5.8000 -2.5068 0.9571
9.0663 -5.6192 -2.5069 0.9571
9.1777 -5.4362 -2.5070 0.9571
9.4897 -4.8742 -2.5073 0.9571
9.5861 -4.6828 -2.5074 0.9571
9.6786 -4.4895 -2.5075 0.9571
9.9325 -3.8989 -2.5078 0.9571
10.0818 -3.4971 -2.5079 0.9571
10.1503 -3.2940 -2.5080 0.9571
10.3313 -2.6769 -2.5083 0.9571
10.3832 -2.4689 -2.5083 0.9571
10.4310 -2.2599 -2.5084 0.9571
10.5490 -1.6277 -2.5086 0.9571
10.6602 -0.5618 -2.5089 0.9571
10.6745 -0.1332 -2.5089 0.9571
10.6715 0.2956 -2.5090 0.9571
10.6636 0.5099 -2.5091 0.9571
10.6513 0.7240 -2.5091 0.9571
10.4874 1.9995 -2.5092 0.9571
10.4452 2.2098 -2.5092 0.9571
10.3987 2.4192 -2.5092 0.9571
10.2932 2.8348 -2.5092 0.9571
10.1036 3.4496 -2.5092 0.9571
9.9568 3.8525 -2.5091 0.9571
9.8773 4.0517 -2.5091 0.9571
9.7939 4.2493 -2.5091 0.9571
9.6151 4.6391 -2.5090 0.9571
9.5198 4.8312 -2.5090 0.9571
9.3178 5.2096 -2.5089 0.9571
8.8689 5.9402 -2.5087 0.9571
8.6228 6.2913 -2.5086 0.9571
8.3628 6.6323 -2.5085 0.9571
8.2276 6.7987 -2.5084 0.9571
7.9475 7.1233 -2.5083 0.9571
7.7975 7.2766 -2.5066 0.9571
7.6421 7.4242 -2.5041 0.9572
6.9916 7.6634 -2.4380 0.9583
6.7270 7.6775 -2.3990 0.9589
6.4704 7.6910 -2.3622 0.9595
5.4807 8.3855 -2.3544 0.9597
4.9650 8.6992 -2.3541 0.9597
4.7891 8.7968 -2.3540 0.9597
3.8820 9.2305 -2.3534 0.9597
3.6956 9.3061 -2.3533 0.9597
3.3185 9.4461 -2.3531 0.9597
3.1279 9.5103 -2.3529 0.9597
2.9361 9.5707 -2.3528 0.9597
2.7432 9.6273 -2.3527 0.9597
2.1580 9.7734 -2.3523 0.9597
1.9611 9.8142 -2.3522 0.9597
1.7635 9.8511 -2.3520 0.9597
1.5652 9.8840 -2.3519 0.9597
0.8806 9.0699 -2.1417 0.9632
0.7667 9.9754 -2.3514 0.9597
0.5661 9.9882 -2.3512 0.9597
-0.4381 9.9916 -2.3505 0.9597
-0.6387 9.9802 -2.3504 0.9597
-0.8390 9.9647 -2.3502 0.9597
-1.0389 9.9453 -2.3501 0.9597
-2.0303 9.7880 -2.3494 0.9598
-2.2263 9.7446 -2.3492 0.9598
-2.4215 9.6973 -2.3491 0.9598
-2.8086 9.5911 -2.3488 0.9598
-3.0005 9.5321 -2.3486 0.9598
-3.1912 9.4694 -2.3485 0.9598
-3.5685 9.3324 -2.3482 0.9598
-3.9400 9.1804 -2.3479 0.9598
-4.1233 9.0989 -2.3478 0.9598
-4.3050 9.0137 -2.3476 0.9598
-4.4849 8.9249 -2.3475 0.9598
-5.0134 8.6370 -2.3471 0.9598
-5.1856 8.5340 -2.3469 0.9598
-5.3556 8.4277 -2.3468 0.9598
-5.5235 8.3179 -2.3467 0.9598
-5.8525 8.0884 -2.3464 0.9598
-6.7225 -6.9071 -2.4956 0.9610
-6.4400 -7.1720 -2.4957 0.9610
-6.2948 -7.3001 -2.4958 0.9610
-6.1471 -7.4254 -2.4959 0.9610
-5.9970 -7.5476 -2.4960 0.9610
-5.8444 -7.6668 -2.4961 0.9610
-5.6894 -7.7829 -2.4961 0.9609
-5.3726 -8.0057 -2.4963 0.9609
-5.2109 -8.1123 -2.4964 0.9609
-4.7134 -8.4124 -2.4967 0.9609
-4.5437 -8.5058 -2.4968 0.9609
-3.8470 -8.8445 -2.4972 0.9609
-3.6687 -8.9204 -2.4974 0.9609
-3.3078 -9.0614 -2.4976 0.9609
-3.1252 -9.1264 -2.4977 0.9609
-2.5703 -9.2994 -2.4981 0.9609
-1.8159 -9.4776 -2.4986 0.9609
-1.4340 -9.5439 -2.4988 0.9609
-1.2420 -9.5712 -2.4989 0.9609
-0.8567 -9.6144 -2.4992 0.9609
-0.6634 -9.6302 -2.4993 0.9609
-0.4699 -9.6421 -2.4995 0.9609
-0.2761 -9.6501 -2.4996 0.9609
0.3056 -9.6508 -2.5000 0.9609
0.8864 -9.6165 -2.5004 0.9609
1.0795 -9.5972 -2.5006 0.9609
1.6558 -9.5164 -2.5010 0.9609
2.2263 -9.4010 -2.5014 0.9609
2.4148 -9.3549 -2.5016 0.9609
2.6024 -9.3050 -2.5017 0.9609
2.7889 -9.2514 -2.5018 0.9609
3.7035 -8.9276 -2.5025 0.9609
3.8823 -8.8519 -2.5027 0.9608
4.0596 -8.7726 -2.5028 0.9608
4.2352 -8.6898 -2.5029 0.9608
4.4091 -8.6035 -2.5031 0.9608
4.7516 -8.4203 -2.5034 0.9608
4.9201 -8.3236 -2.5035 0.9608
5.0866 -8.2236 -2.5036 0.9608
5.2510 -8.1202 -2.5038 0.9608
5.7314 -7.7904 -2.5041 0.9608
6.0403 -7.5547 -2.5044 0.9608
6.1911 -7.4322 -2.5045 0.9608
6.3395 -7.3067 -2.5047 0.9608
6.4853 -7.1783 -2.5048 0.9608
6.7691 -6.9127 -2.5050 0.9608
6.9069 -6.7757 -2.5051 0.9608
7.3034 -6.3483 -2.5055 0.9608
7.5532 -6.0504 -2.5057 0.9608
8.4268 -4.7654 -2.5066 0.9608
8.7834 -4.0743 -2.5069 0.9608
8.8638 -3.8972 -2.5070 0.9608
8.9406 -3.7185 -2.5071 0.9608
9.0138 -3.5383 -2.5072 0.9608
9.2114 -2.9892 -2.5074 0.9608
9.3245 -2.6170 -2.5076 0.9608
9.4660 -2.0508 -2.5078 0.9608
9.5055 -1.8603 -2.5078 0.9608
9.5730 -1.4771 -2.5079 0.9608
9.6250 -1.0915 -2.5080 0.9608
9.6451 -0.8979 -2.5081 0.9608
9.6840 0.2683 -2.5083 0.9608
9.6768 0.4627 -2.5084 0.9608
9.6656 0.6570 -2.5084 0.9608
9.5820 1.4308 -2.5085 0.9608
9.5514 1.6229 -2.5085 0.9608
9.4785 2.0053 -2.5085 0.9608
9.3904 2.3843 -2.5085 0.9608
9.1038 3.3138 -2.5084 0.9608
8.4556 4.7275 -2.5082 0.9608
8.3588 4.8963 -2.5082 0.9608
8.2586 5.0631 -2.5082 0.9608
8.0483 5.3905 -2.5081 0.9608
7.7086 5.8651 -2.5079 0.9608
7.5890 6.0186 -2.5079 0.9608
7.4664 6.1697 -2.5078 0.9608
7.3408 6.3183 -2.5077 0.9608
7.2122 6.4643 -2.5077 0.9608
7.0807 6.6077 -2.5076 0.9608
6.8093 6.8863 -2.5075 0.9608
6.6694 7.0215 -2.5074 0.9608
6.5268 7.1538 -2.5073 0.9608
6.3789 7.2802 -2.5062 0.9608
6.0715 7.5183 -2.5021 0.9609
5.9146 7.6327 -2.5001 0.9609
5.7146 7.6888 -2.4804 0.9612
5.4868 7.7007 -2.4482 0.9617
4.8358 7.7337 -2.3616 0.9630
4.6638 7.8031 -2.3537 0.9631
4.0218 8.1509 -2.3533 0.9631
2.4896 8.7376 -2.3524 0.9632
2.3135 8.7854 -2.3522 0.9632
2.1365 8.8296 -2.3521 0.9632
1.9586 8.8703 -2.3520 0.9632
1.7799 8.9074 -2.3519 0.9632
1.6006 8.9409 -2.3518 0.9632
1.4206 8.9708 -2.3516 0.9632
1.2401 8.9971 -2.3515 0.9632
0.6958 9.0540 -2.3512 0.9632
0.5138 9.0656 -2.3510 0.9632
-0.0331 9.0787 -2.3506 0.9632
-0.2154 9.0757 -2.3505 0.9632
-0.3977 9.0690 -2.3504 0.9632
-0.5797 9.0587 -2.3503 0.9632
-0.7615 9.0447 -2.3501 0.9632
-1.1241 9.0058 -2.3499 0.9632
-1.4847 8.9524 -2.3496 0.9632
-1.8429 8.8846 -2.3493 0.9632
-2.0208 8.8453 -2.3492 0.9632
-2.1980 8.8024 -2.3491 0.9632
-2.3742 8.7560 -2.3489 0.9632
-3.0687 8.5353 -2.3484 0.9632
-3.4086 8.4042 -2.3482 0.9632
-3.9079 8.1823 -2.3478 0.9632
-4.7447 7.8084 -2.3657 0.9630
-5.1607 7.7716 -2.4155 0.9622
-5.3754 7.7524 -2.4425 0.9618
-5.5949 7.7325 -2.4712 0.9613
-6.0216 -6.4410 -2.4961 0.9640
-5.7584 -6.6780 -2.4963 0.9640
-5.3463 -7.0133 -2.4965 0.9640
-5.0606 -7.2229 -2.4967 0.9640
-4.7667 -7.4208 -2.4969 0.9640
-4.6169 -7.5153 -2.4969 0.9640
-4.3116 -7.6953 -2.4971 0.9640
-4.1563 -7.7806 -2.4972 0.9640
-3.9994 -7.8629 -2.4973 0.9640
-3.5190 -8.0904 -2.4976 0.9640
-3.3559 -8.1598 -2.4977 0.9640
-3.0257 -8.2887 -2.4979 0.9640
-2.8587 -8.3481 -2.4980 0.9640
-2.5213 -8.4570 -2.4982 0.9640
-2.3511 -8.5063 -2.4984 0.9640
-2.0077 -8.5946 -2.4986 0.9640
-0.9600 -8.7761 -2.4993 0.9640
-0.7836 -8.7941 -2.4994 0.9640
-0.6068 -8.8085 -2.4995 0.9640
-0.0752 -8.8303 -2.4999 0.9640
0.6339 -8.8096 -2.5004 0.9639
0.9873 -8.7780 -2.5006 0.9639
1.3392 -8.7321 -2.5009 0.9639
1.6890 -8.6722 -2.5012 0.9639
1.8630 -8.6369 -2.5013 0.9639
2.3801 -8.5104 -2.5017 0.9639
2.7203 -8.4087 -2.5019 0.9639
3.2223 -8.2309 -2.5023 0.9639
3.5506 -8.0957 -2.5026 0.9639
3.8733 -7.9473 -2.5028 0.9639
4.1898 -7.7861 -2.5031 0.9639
4.4996 -7.6123 -2.5033 0.9639
4.9506 -7.3286 -2.5037 0.9639
5.2415 -7.1245 -2.5039 0.9639
5.3838 -7.0181 -2.5040 0.9639
5.5239 -6.9089 -2.5042 0.9639
5.6619 -6.7969 -2.5043 0.9639
5.7975 -6.6821 -2.5044 0.9639
6.0618 -6.4444 -2.5046 0.9639
6.1902 -6.3216 -2.5047 0.9639
6.3163 -6.1963 -2.5048 0.9639
6.6788 -5.8054 -2.5052 0.9639
6.9072 -5.5329 -2.5054 0.9639
7.0172 -5.3933 -2.5055 0.9639
7.1244 -5.2514 -2.5056 0.9639
7.3302 -4.9614 -2.5058 0.9639
7.5241 -4.6634 -2.5059 0.9639
7.6165 -4.5115 -2.5060 0.9639
7.8752 -4.0450 -2.5063 0.9639
7.9551 -3.8861 -2.5064 0.9639
8.1053 -3.5637 -2.5065 0.9639
8.1755 -3.4003 -2.5066 0.9639
8.2424 -3.2355 -2.5067 0.9639
8.3662 -2.9020 -2.5068 0.9639
8.4230 -2.7334 -2.5069 0.9639
8.4765 -2.5637 -2.5070 0.9639
8.5265 -2.3930 -2.5070 0.9639
8.5730 -2.2213 -2.5071 0.9639
8.6161 -2.0487 -2.5072 0.9639
8.6919 -1.7011 -2.5073 0.9639
8.7245 -1.5262 -2.5073 0.9638
8.7535 -1.3507 -2.5074 0.9638
8.8010 -0.9980 -2.5075 0.9638
8.8195 -0.8211 -2.5075 0.9638
8.8533 -0.2884 -2.5076 0.9638
8.8550 0.2453 -2.5077 0.9638
8.8483 0.4231 -2.5078 0.9638
8.8244 0.7782 -2.5078 0.9638
8.8070 0.9553 -2.5078 0.9638
8.7861 1.1320 -2.5078 0.9638
8.7616 1.3083 -2.5079 0.9638
8.7336 1.4840 -2.5079 0.9638
8.7021 1.6591 -2.5079 0.9638
8.6285 2.0073 -2.5079 0.9638
8.5864 2.1802 -2.5079 0.9638
8.5409 2.3523 -2.5079 0.9638
8.3244 3.0302 -2.5079 0.9638
8.1959 3.3620 -2.5078 0.9638
8.1266 3.5259 -2.5078 0.9638
8.0541 3.6884 -2.5078 0.9638
7.9783 3.8494 -2.5078 0.9638
7.8171 4.1667 -2.5077 0.9638
7.7317 4.3228 -2.5077 0.9638
7.6432 4.4771 -2.5076 0.9638
7.3594 4.9291 -2.5075 0.9638
7.1552 5.2205 -2.5074 0.9638
6.8274 5.6416 -2.5073 0.9639
5.9682 6.5416 -2.5068 0.9639
5.7003 6.7757 -2.5067 0.9639
5.5629 6.8886 -2.5066 0.9639
5.1375 7.2104 -2.5063 0.9639
4.6860 7.4942 -2.5022 0.9639
4.3760 7.6672 -2.4992 0.9640
3.6339 7.7534 -2.4240 0.9650
3.4494 7.7618 -2.4045 0.9653
3.2677 7.7700 -2.3862 0.9656
2.9136 7.7897 -2.3544 0.9660
2.5961 7.8933 -2.3523 0.9660
2.4369 7.9435 -2.3522 0.9660
2.2768 7.9905 -2.3521 0.9660
2.1157 8.0342 -2.3520 0.9661
1.6278 8.1459 -2.3516 0.9661
1.2992 8.2040 -2.3514 0.9661
0.6364 8.2802 -2.3510 0.9661
0.3033 8.2982 -2.3507 0.9661
-0.1970 8.3002 -2.3504 0.9661
-0.6965 8.2720 -2.3500 0.9661
-0.8624 8.2559 -2.3499 0.9661
-1.0280 8.2365 -2.3498 0.9661
-1.1932 8.2138 -2.3497 0.9661
-1.5220 8.1584 -2.3494 0.9661
-1.6855 8.1258 -2.3493 0.9661
-1.8483 8.0899 -2.3492 0.9661
-2.1715 8.0083 -2.3490 0.9661
-2.3318 7.9627 -2.3488 0.9661
-2.4911 7.9138 -2.3487 0.9661
-2.6569 7.8839 -2.3552 0.9660
-3.0084 7.8675 -2.3845 0.9656
-3.5538 7.8420 -2.4373 0.9648
-3.7410 7.8329 -2.4574 0.9646
-3.9314 7.8234 -2.4787 0.9643
-4.1111 7.7871 -2.4928 0.9641
-4.4247 7.6228 -2.4952 0.9640
-4.5791 7.5360 -2.4964 0.9640
-4.7319 7.4462 -2.4976 0.9640
-5.6611 -5.8166 -2.4965 0.9666
-5.5432 -5.9292 -2.4966 0.9666
-5.3009 -6.1474 -2.4967 0.9666
-5.1765 -6.2528 -2.4968 0.9666
-4.9214 -6.4561 -2.4969 0.9666
-4.7909 -6.5538 -2.4970 0.9666
-4.5241 -6.7414 -2.4971 0.9666
-4.0832 -6.9561 -2.4809 0.9668
-3.9427 -7.0368 -2.4810 0.9668
-3.8020 -7.1174 -2.4819 0.9668
-3.3880 -7.3804 -2.4978 0.9666
-3.2392 -7.4473 -2.4979 0.9666
-3.0891 -7.5111 -2.4980 0.9666
-2.9377 -7.5719 -2.4981 0.9666
-2.6314 -7.6844 -2.4983 0.9666
-2.3209 -7.7845 -2.4985 0.9666
-2.1641 -7.8299 -2.4986 0.9666
-2.0065 -7.8721 -2.4987 0.9666
-1.3684 -8.0091 -2.4991 0.9666
-0.2325 -8.1244 -2.4999 0.9666
-0.0692 -8.1278 -2.5000 0.9666
0.0940 -8.1279 -2.5001 0.9666
0.5835 -8.1086 -2.5005 0.9666
0.7462 -8.0956 -2.5006 0.9665
1.3939 -8.0111 -2.5011 0.9665
1.5546 -7.9819 -2.5012 0.9665
1.7147 -7.9494 -2.5013 0.9665
2.1906 -7.8328 -2.5017 0.9665
2.8128 -7.6332 -2.5021 0.9665
2.9657 -7.5755 -2.5022 0.9665
3.1174 -7.5147 -2.5024 0.9665
3.2679 -7.4510 -2.5025 0.9665
3.4170 -7.3841 -2.5026 0.9665
3.5648 -7.3143 -2.5027 0.9665
4.1412 -7.0059 -2.5032 0.9665
4.4196 -6.8345 -2.5034 0.9665
4.6910 -6.6521 -2.5036 0.9665
4.8238 -6.5568 -2.5037 0.9665
5.0837 -6.3583 -2.5039 0.9665
5.4582 -6.0414 -2.5043 0.9665
5.5786 -5.9308 -2.5044 0.9665
5.6969 -5.8178 -2.5045 0.9665
5.8128 -5.7024 -2.5046 0.9665
6.0376 -5.4648 -2.5048 0.9665
6.2527 -5.2183 -2.5050 0.9665
6.4578 -4.9633 -2.5051 0.9665
6.5564 -4.8327 -2.5052 0.9665
6.6524 -4.7002 -2.5053 0.9665
6.7457 -4.5658 -2.5054 0.9665
6.9241 -4.2915 -2.5056 0.9665
7.0092 -4.1517 -2.5057 0.9665
7.0914 -4.0102 -2.5058 0.9665
7.2472 -3.7224 -2.5059 0.9665
7.3207 -3.5762 -2.5060 0.9665
7.5235 -3.1291 -2.5062 0.9665
7.5850 -2.9774 -2.5063 0.9665
7.6435 -2.8245 -2.5064 0.9665
7.6989 -2.6705 -2.5064 0.9665
7.8003 -2.3592 -2.5065 0.9665
7.8463 -2.2021 -2.5066 0.9665
7.8891 -2.0441 -2.5067 0.9665
7.9288 -1.8853 -2.5067 0.9665
7.9652 -1.7257 -2.5068 0.9665
7.9984 -1.5654 -2.5068 0.9665
8.0284 -1.4045 -2.5069 0.9665
8.0552 -1.2429 -2.5069 0.9665
8.1158 -0.7556 -2.5070 0.9665
8.1399 -0.4290 -2.5071 0.9665
8.1507 -0.1017 -2.5072 0.9665
8.1423 0.3894 -2.5073 0.9665
8.1202 0.7161 -2.5073 0.9665
8.0367 1.3656 -2.5074 0.9665
7.9755 1.6873 -2.5074 0.9665
7.9400 1.8471 -2.5074 0.9665
7.8594 2.1646 -2.5074 0.9665
7.7661 2.4785 -2.5074 0.9665
7.6602 2.7884 -2.5073 0.9665
7.5419 3.0938 -2.5073 0.9665
7.4782 3.2446 -2.5073 0.9665
7.4115 3.3941 -2.5073 0.9665
7.3417 3.5423 -2.5073 0.9665
7.1934 3.8342 -2.5072 0.9665
7.0334 4.1199 -2.5071 0.9665
6.6796 4.6709 -2.5070 0.9665
6.5843 4.8040 -2.5069 0.9665
6.4864 4.9352 -2.5069 0.9665
6.3858 5.0644 -2.5068 0.9665
5.8452 5.6786 -2.5066 0.9665
5.4922 6.0199 -2.5064 0.9665
4.8602 6.5393 -2.5060 0.9665
4.3191 6.9074 -2.5057 0.9665
3.8949 7.1543 -2.5055 0.9665
3.1532 7.4975 -2.5017 0.9665
3.0007 7.5562 -2.5007 0.9665
2.8472 7.6120 -2.4997 0.9666
2.6927 7.6648 -2.4988 0.9666
2.3811 7.7615 -2.4971 0.9666
1.8852 7.7912 -2.4656 0.9670
1.7217 7.7973 -2.4560 0.9671
1.3979 7.8087 -2.4400 0.9673
1.2374 7.8141 -2.4334 0.9674
0.9187 7.8243 -2.4231 0.9676
0.7602 7.8291 -2.4194 0.9676
0.4442 7.8382 -2.4147 0.9677
0.1290 7.8466 -2.4138 0.9677
-0.0286 7.8505 -2.4147 0.9677
-0.5031 7.8613 -2.4229 0.9676
-0.6620 7.8626 -2.4269 0.9675
-0.8214 7.8630 -2.4316 0.9675
-1.1423 7.8632 -2.4439 0.9673
-1.3040 7.8630 -2.4515 0.9672
-1.4668 7.8627 -2.4601 0.9671
-2.5918 7.6908 -2.4962 0.9666
-2.9003 7.5848 -2.4977 0.9666
-3.0530 7.5274 -2.4984 0.9666
-3.5034 7.3353 -2.5003 0.9666
-3.6499 7.2631 -2.5002 0.9666
-3.7949 7.1880 -2.5001 0.9666
-3.9383 7.1100 -2.5000 0.9666
-4.0801 7.0292 -2.4998 0.9666
-4.2203 6.9455 -2.4997 0.9666
-4.3588 6.8590 -2.4996 0.9666
-4.4955 6.7698 -2.4995 0.9666
-5.2390 -5.3829 -2.4969 0.9688
-5.1300 -5.4872 -2.4969 0.9688
-5.0188 -5.5893 -2.4970 0.9688
-4.9057 -5.6891 -2.4971 0.9688
-4.6734 -5.8818 -2.4972 0.9688
-4.5545 -5.9747 -2.4973 0.9688
-4.4337 -6.0651 -2.4973 0.9688
-4.1867 -6.2387 -2.4975 0.9688
-4.0607 -6.3217 -2.4975 0.9688
-3.9330 -6.4022 -2.4976 0.9688
-3.8037 -6.4801 -2.4977 0.9688
-3.5406 -6.6280 -2.4978 0.9688
-3.4069 -6.6981 -2.4979 0.9688
-2.9976 -6.8918 -2.4982 0.9688
-2.5774 -7.0606 -2.4984 0.9688
-2.4351 -7.1112 -2.4985 0.9688
-2.2919 -7.1589 -2.4986 0.9688
-1.8568 -7.2848 -2.4989 0.9688
-1.7102 -7.3209 -2.4990 0.9688
-1.5628 -7.3540 -2.4991 0.9688
-1.4148 -7.3842 -2.4992 0.9688
-1.2663 -7.4115 -2.4993 0.9688
-1.1172 -7.4357 -2.4994 0.9688
-0.8177 -7.4752 -2.4996 0.9688
-0.3661 -7.5118 -2.4999 0.9688
-0.0641 -7.5211 -2.5001 0.9688
0.3891 -7.5122 -2.5005 0.9688
0.5399 -7.5032 -2.5006 0.9688
0.8409 -7.4761 -2.5008 0.9688
0.9909 -7.4580 -2.5009 0.9688
1.4385 -7.3858 -2.5012 0.9688
1.5866 -7.3557 -2.5013 0.9688
1.8810 -7.2867 -2.5015 0.9688
2.0270 -7.2477 -2.5016 0.9688
2.1723 -7.2059 -2.5018 0.9688
2.3167 -7.1611 -2.5019 0.9688
2.4602 -7.1134 -2.5020 0.9688
2.6027 -7.0629 -2.5021 0.9688
2.8845 -6.9533 -2.5023 0.9688
3.0237 -6.8942 -2.5024 0.9688
3.1617 -6.8324 -2.5025 0.9688
3.4339 -6.7005 -2.5027 0.9688
3.5679 -6.6304 -2.5028 0.9688
4.0893 -6.3237 -2.5033 0.9688
4.4633 -6.0667 -2.5036 0.9688
4.5844 -5.9761 -2.5037 0.9688
4.7037 -5.8830 -2.5038 0.9687
4.8211 -5.7876 -2.5039 0.9687
4.9366 -5.6898 -2.5040 0.9687
5.1615 -5.4874 -2.5041 0.9687
5.4833 -5.1671 -2.5044 0.9687
5.5862 -5.0561 -2.5045 0.9687
5.7851 -4.8280 -2.5047 0.9687
5.8811 -4.7110 -2.5048 0.9687
5.9748 -4.5921 -2.5049 0.9687
6.1548 -4.3487 -2.5050 0.9687
6.4062 -3.9705 -2.5053 0.9687
6.4848 -3.8411 -2.5054 0.9687
6.5609 -3.7102 -2.5054 0.9687
6.6343 -3.5778 -2.5055 0.9687
6.7050 -3.4439 -2.5056 0.9687
6.7730 -3.3086 -2.5057 0.9687
6.8383 -3.1720 -2.5057 0.9687
6.9008 -3.0341 -2.5058 0.9687
6.9606 -2.8950 -2.5059 0.9687
7.0175 -2.7546 -2.5059 0.9687
7.0716 -2.6132 -2.5060 0.9687
7.1228 -2.4707 -2.5061 0.9687
7.1712 -2.3271 -2.5061 0.9687
7.2166 -2.1827 -2.5062 0.9687
7.2592 -2.0373 -2.5062 0.9687
7.2988 -1.8912 -2.5063 0.9687
7.3691 -1.5965 -2.5064 0.9687
7.4276 -1.2993 -2.5065 0.9687
7.4523 -1.1499 -2.5065 0.9687
7.4927 -0.8497 -2.5066 0.9687
7.5084 -0.6990 -2.5066 0.9687
7.5210 -0.5481 -2.5067 0.9687
7.5372 -0.2455 -2.5067 0.9687
7.5411 0.0574 -2.5068 0.9687
7.5385 0.2088 -2.5068 0.9687
7.5124 0.6625 -2.5069 0.9687
7.4977 0.8133 -2.5069 0.9687
7.4590 1.1138 -2.5069 0.9687
7.4083 1.4125 -2.5069 0.9687
7.3785 1.5610 -2.5069 0.9687
7.3456 1.7089 -2.5069 0.9687
7.3098 1.8561 -2.5069 0.9687
7.2294 2.1482 -2.5069 0.9687
7.1848 2.2929 -2.5069 0.9687
7.0868 2.5796 -2.5069 0.9687
6.7922 3.2771 -2.5068 0.9687
6.5823 3.6801 -2.5067 0.9687
6.5070 3.8116 -2.5067 0.9687
6.4290 3.9414 -2.5067 0.9687
6.1797 4.3213 -2.5066 0.9687
6.0916 4.4445 -2.5065 0.9687
6.0010 4.5659 -2.5065 0.9687
5.9079 4.6854 -2.5064 0.9687
5.6147 5.0324 -2.5063 0.9687
5.4078 5.2536 -2.5062 0.9687
5.3011 5.3611 -2.5061 0.9687
5.0812 5.5694 -2.5060 0.9687
4.7362 5.8649 -2.5058 0.9687
4.4966 6.0500 -2.5057 0.9687
4.3740 6.1390 -2.5056 0.9687
4.2497 6.2254 -2.5056 0.9687
4.1237 6.3093 -2.5055 0.9687
3.7359 6.5456 -2.5052 0.9687
3.6035 6.6192 -2.5052 0.9687
3.3346 6.7581 -2.5050 0.9687
3.1980 6.8235 -2.5049 0.9687
2.9212 6.9459 -2.5047 0.9687
2.7810 7.0030 -2.5047 0.9687
2.6397 7.0572 -2.5046 0.9687
2.3539 7.1570 -2.5044 0.9687
2.0644 7.2452 -2.5042 0.9687
1.9184 7.2849 -2.5041 0.9687
1.7716 7.3217 -2.5040 0.9687
1.6240 7.3549 -2.5037 0.9687
1.4756 7.3845 -2.5032 0.9688
1.3267 7.4112 -2.5027 0.9688
1.1774 7.4350 -2.5022 0.9688
0.7272 7.4894 -2.5012 0.9688
0.5765 7.5017 -2.5010 0.9688
0.4257 7.5112 -2.5008 0.9688
0.1237 7.5215 -2.5005 0.9688
-0.1785 7.5202 -2.5005 0.9688
-0.3295 7.5152 -2.5005 0.9688
-0.4805 7.5074 -2.5006 0.9688
-0.6312 7.4966 -2.5007 0.9688
-0.7817 7.4828 -2.5009 0.9688
-1.2313 7.4243 -2.5016 0.9688
-1.3803 7.3987 -2.5018 0.9688
-1.5285 7.3692 -2.5017 0.9688
-1.8231 7.3012 -2.5015 0.9688
-2.4029 7.1301 -2.5010 0.9688
-2.5455 7.0801 -2.5009 0.9688
-2.6871 7.0272 -2.5008 0.9688
-3.1050 6.8517 -2.5005 0.9688
-3.2419 6.7877 -2.5004 0.9688
-3.3774 6.7209 -2.5003 0.9688
-3.5116 6.6514 -2.5002 0.9688
-3.6443 6.5793 -2.5001 0.9688
-3.7756 6.5045 -2.5000 0.9688
-3.9053 6.4271 -2.4999 0.9688
-4.4078 6.0919 -2.4995 0.9688
-4.8704 -5.0042 -2.4972 0.9708
-4.7690 -5.1012 -2.4973 0.9708
-4.6657 -5.1960 -2.4973 0.9708
-4.5605 -5.2888 -2.4974 0.9708
-4.4535 -5.3795 -2.4974 0.9708
-4.2340 -5.5543 -2.4975 0.9708
-4.1217 -5.6384 -2.4976 0.9708
-3.7750 -5.8768 -2.4978 0.9708
-3.6562 -5.9517 -2.4979 0.9708
-3.1671 -6.2267 -2.4982 0.9708
-3.0415 -6.2892 -2.4983 0.9708
-2.3960 -6.5635 -2.4987 0.9708
-1.4528 -6.8362 -2.4993 0.9707
-1.1771 -6.8896 -2.4995 0.9707
-1.0385 -6.9121 -2.4996 0.9707
-0.7601 -6.9487 -2.4997 0.9707
-0.6204 -6.9629 -2.4998 0.9707
-0.4805 -6.9742 -2.4999 0.9707
-0.3403 -6.9827 -2.5000 0.9707
-0.0596 -6.9913 -2.5002 0.9707
0.0809 -6.9914 -2.5003 0.9707
0.3616 -6.9830 -2.5005 0.9707
0.7816 -6.9494 -2.5008 0.9707
0.9211 -6.9326 -2.5009 0.9707
1.0602 -6.9129 -2.5010 0.9707
1.4748 -6.8374 -2.5013 0.9707
1.6119 -6.8066 -2.5014 0.9707
1.7484 -6.7732 -2.5015 0.9707
2.1534 -6.6564 -2.5018 0.9707
2.5507 -6.5154 -2.5021 0.9707
2.6812 -6.4631 -2.5022 0.9707
2.8105 -6.4082 -2.5023 0.9707
2.9388 -6.3507 -2.5024 0.9707
3.0659 -6.2906 -2.5025 0.9707
3.6819 -5.9527 -2.5030 0.9707
3.8009 -5.8778 -2.5031 0.9707
4.0342 -5.7208 -2.5033 0.9707
4.5884 -5.2884 -2.5038 0.9707
4.8991 -5.0030 -2.5041 0.9707
4.9987 -4.9038 -2.5041 0.9707
5.3769 -4.4874 -2.5045 0.9707
5.5532 -4.2681 -2.5046 0.9707
5.8007 -3.9262 -2.5049 0.9707
5.9541 -3.6903 -2.5050 0.9707
6.0272 -3.5700 -2.5051 0.9707
6.1660 -3.3253 -2.5052 0.9707
6.2950 -3.0751 -2.5054 0.9707
6.4137 -2.8199 -2.5055 0.9707
6.4692 -2.6906 -2.5056 0.9707
6.6649 -2.1629 -2.5058 0.9707
6.7835 -1.7576 -2.5059 0.9707
6.8176 -1.6211 -2.5060 0.9707
6.9463 -0.9294 -2.5062 0.9707
6.9637 -0.7897 -2.5062 0.9707
6.9900 -0.5094 -2.5063 0.9707
6.9989 -0.3689 -2.5063 0.9707
7.0050 -0.2282 -2.5064 0.9707
7.0086 0.0533 -2.5064 0.9707
7.0010 0.3348 -2.5065 0.9707
6.9929 0.4754 -2.5065 0.9707
6.9517 0.8957 -2.5065 0.9707
6.9102 1.1742 -2.5065 0.9707
6.8575 1.4508 -2.5065 0.9707
6.8269 1.5882 -2.5065 0.9707
6.7937 1.7250 -2.5066 0.9707
6.7576 1.8611 -2.5065 0.9707
6.7189 1.9965 -2.5065 0.9707
6.6332 2.2647 -2.5065 0.9707
6.5864 2.3975 -2.5065 0.9707
6.4847 2.6601 -2.5065 0.9707
6.3725 2.9183 -2.5065 0.9707
6.3126 3.0457 -2.5064 0.9707
6.1175 3.4203 -2.5064 0.9707
5.9002 3.7824 -2.5063 0.9707
5.5773 4.2435 -2.5061 0.9707
5.4908 4.3546 -2.5061 0.9707
5.4021 4.4639 -2.5061 0.9707
5.0260 4.8828 -2.5059 0.9707
4.9268 4.9826 -2.5058 0.9707
4.7225 5.1763 -2.5057 0.9707
4.4019 5.4509 -2.5055 0.9707
4.2914 5.5381 -2.5055 0.9707
4.0653 5.7057 -2.5053 0.9707
3.9498 5.7860 -2.5053 0.9707
3.7140 5.9397 -2.5051 0.9707
3.3492 6.1521 -2.5049 0.9707
3.2249 6.2179 -2.5048 0.9707
2.8443 6.4002 -2.5046 0.9707
2.7151 6.4558 -2.5045 0.9707
2.4534 6.5592 -2.5043 0.9707
2.3211 6.6070 -2.5043 0.9707
1.7831 6.7710 -2.5039 0.9707
1.6466 6.8052 -2.5038 0.9707
1.5096 6.8367 -2.5037 0.9707
1.3719 6.8654 -2.5036 0.9707
1.0950 6.9144 -2.5035 0.9707
0.8163 6.9523 -2.5033 0.9707
0.6765 6.9670 -2.5032 0.9707
0.5364 6.9789 -2.5031 0.9707
0.2556 6.9943 -2.5029 0.9707
0.1151 6.9978 -2.5028 0.9707
-0.1661 6.9962 -2.5026 0.9707
-0.3066 6.9912 -2.5025 0.9707
-0.5871 6.9727 -2.5023 0.9707
-0.7270 6.9592 -2.5022 0.9707
-1.2830 6.8772 -2.5018 0.9707
-1.4208 6.8498 -2.5017 0.9707
-1.5581 6.8196 -2.5016 0.9707
-1.6947 6.7867 -2.5015 0.9707
-2.3661 6.5812 -2.5010 0.9707
-2.7579 6.4260 -2.5007 0.9707
-2.8863 6.3691 -2.5006 0.9707
-3.0135 6.3095 -2.5005 0.9707
-3.1395 6.2475 -2.5004 0.9707
-3.6302 5.9744 -2.5000 0.9707
-3.7494 5.9000 -2.4999 0.9707
-3.8670 5.8233 -2.4998 0.9707
-4.2562 -4.9359 -2.4976 0.9725
-4.1563 -5.0205 -2.4977 0.9725
-3.9515 -5.1836 -2.4978 0.9725
-3.7403 -5.3384 -2.4979 0.9725
-3.4122 -5.5544 -2.4981 0.9725
-3.3000 -5.6220 -2.4982 0.9725
-3.1866 -5.6873 -2.4983 0.9725
-3.0718 -5.7503 -2.4983 0.9725
-2.8385 -5.8694 -2.4985 0.9725
-2.6006 -5.9790 -2.4986 0.9725
-2.3585 -6.0790 -2.4988 0.9725
-2.1126 -6.1692 -2.4989 0.9725
-1.9883 -6.2106 -2.4990 0.9725
-1.8632 -6.2495 -2.4991 0.9725
-1.7374 -6.2859 -2.4992 0.9725
-1.6108 -6.3197 -2.4993 0.9724
-1.4836 -6.3510 -2.4993 0.9724
-1.2274 -6.4059 -2.4995 0.9724
-0.4484 -6.5084 -2.5000 0.9724
0.3375 -6.5165 -2.5006 0.9724
0.4683 -6.5086 -2.5007 0.9724
0.7294 -6.4851 -2.5009 0.9724
0.8596 -6.4693 -2.5010 0.9724
0.9894 -6.4510 -2.5011 0.9724
1.1188 -6.4301 -2.5012 0.9724
1.2478 -6.4066 -2.5012 0.9724
1.3763 -6.3804 -2.5013 0.9724
1.6315 -6.3205 -2.5015 0.9724
1.7582 -6.2867 -2.5016 0.9724
2.6227 -5.9798 -2.5023 0.9724
2.7423 -5.9261 -2.5024 0.9724
2.9784 -5.8117 -2.5026 0.9724
3.0946 -5.7508 -2.5027 0.9724
3.4357 -5.5546 -2.5029 0.9724
3.5467 -5.4847 -2.5030 0.9724
3.6563 -5.4126 -2.5031 0.9724
3.9761 -5.1831 -2.5034 0.9724
4.0795 -5.1023 -2.5035 0.9724
4.1813 -5.0195 -2.5035 0.9724
4.2815 -4.9347 -2.5036 0.9724
4.3799 -4.8479 -2.5037 0.9724
4.5713 -4.6684 -2.5039 0.9724
5.0172 -4.1871 -2.5043 0.9724
5.1816 -3.9825 -2.5044 0.9724
5.3377 -3.7714 -2.5046 0.9724
5.5556 -3.4433 -2.5048 0.9724
5.6238 -3.3311 -2.5048 0.9724
5.7534 -3.1027 -2.5050 0.9724
5.8147 -2.9866 -2.5050 0.9724
5.9302 -2.7508 -2.5052 0.9724
5.9844 -2.6312 -2.5052 0.9724
6.0362 -2.5105 -2.5053 0.9724
6.1325 -2.2661 -2.5054 0.9724
6.2188 -2.0181 -2.5055 0.9724
6.3294 -1.6400 -2.5056 0.9724
6.3612 -1.5125 -2.5057 0.9724
6.4170 -1.2559 -2.5058 0.9724
6.4410 -1.1267 -2.5058 0.9724
6.4625 -0.9972 -2.5058 0.9724
6.5111 -0.6062 -2.5059 0.9724
6.5303 -0.3442 -2.5060 0.9724
6.5360 -0.2129 -2.5060 0.9724
6.5390 -0.0816 -2.5061 0.9724
6.5394 0.0498 -2.5061 0.9724
6.5322 0.3124 -2.5061 0.9724
6.5145 0.5745 -2.5062 0.9724
6.5017 0.7052 -2.5062 0.9724
6.4862 0.8357 -2.5062 0.9724
6.4681 0.9658 -2.5062 0.9724
6.4475 1.0955 -2.5062 0.9724
6.3698 1.4819 -2.5062 0.9724
6.3051 1.7365 -2.5062 0.9724
6.2690 1.8628 -2.5062 0.9724
6.1454 2.2370 -2.5062 0.9724
6.0992 2.3599 -2.5062 0.9724
5.9459 2.7229 -2.5061 0.9724
5.8316 2.9595 -2.5061 0.9724
5.7709 3.0760 -2.5061 0.9724
5.7079 3.1913 -2.5060 0.9724
5.3589 3.7473 -2.5059 0.9724
5.2824 3.8542 -2.5059 0.9724
5.1232 4.0631 -2.5058 0.9724
5.0405 4.1651 -2.5057 0.9724
4.9557 4.2654 -2.5057 0.9724
4.7803 4.4609 -2.5056 0.9724
4.6896 4.5559 -2.5056 0.9724
4.5971 4.6491 -2.5055 0.9724
4.5027 4.7404 -2.5055 0.9724
4.4064 4.8298 -2.5054 0.9724
4.0042 5.1674 -2.5052 0.9724
3.8995 5.2467 -2.5051 0.9724
3.7932 5.3238 -2.5051 0.9724
3.6854 5.3988 -2.5050 0.9724
3.1251 5.7404 -2.5047 0.9724
3.0091 5.8018 -2.5046 0.9724
2.7735 5.9176 -2.5045 0.9724
2.5334 6.0239 -2.5043 0.9724
2.4118 6.0734 -2.5042 0.9724
2.1658 6.1650 -2.5041 0.9724
2.0415 6.2070 -2.5040 0.9724
1.9163 6.2466 -2.5039 0.9724
1.6638 6.3181 -2.5038 0.9724
1.4086 6.3794 -2.5036 0.9724
1.1512 6.4304 -2.5034 0.9724
1.0217 6.4520 -2.5033 0.9724
0.1074 6.5299 -2.5027 0.9724
-0.0238 6.5305 -2.5026 0.9724
-0.1550 6.5284 -2.5025 0.9724
-0.4170 6.5164 -2.5023 0.9724
-0.6784 6.4940 -2.5021 0.9724
-0.8086 6.4788 -2.5020 0.9724
-0.9386 6.4610 -2.5020 0.9724
-1.1972 6.4176 -2.5018 0.9724
-1.5814 6.3331 -2.5015 0.9724
-1.9597 6.2257 -2.5012 0.9724
-2.2080 6.1415 -2.5010 0.9724
-2.3309 6.0956 -2.5009 0.9724
-2.4527 6.0474 -2.5008 0.9724
-2.6934 5.9435 -2.5006 0.9724
-2.9298 5.8301 -2.5004 0.9724
-3.0462 5.7699 -2.5004 0.9724
-3.2752 5.6425 -2.5002 0.9724
-3.6087 5.4344 -2.4999 0.9724
-4.2565 -4.3734 -2.4977 0.9740
-4.0776 -4.5410 -2.4978 0.9740
-3.7002 -4.8541 -2.4980 0.9740
-3.6021 -4.9275 -2.4981 0.9740
-3.2990 -5.1359 -2.4983 0.9740
-3.1952 -5.2012 -2.4983 0.9740
-2.8764 -5.3846 -2.4985 0.9740
-2.6580 -5.4961 -2.4987 0.9740
-2.5471 -5.5486 -2.4987 0.9740
-2.4352 -5.5988 -2.4988 0.9740
-2.0938 -5.7358 -2.4990 0.9740
-1.9782 -5.7768 -2.4991 0.9740
-1.8618 -5.8156 -2.4992 0.9740
-1.7447 -5.8520 -2.4992 0.9740
-1.0286 -6.0204 -2.4997 0.9739
-0.7860 -6.0573 -2.4999 0.9739
-0.6642 -6.0720 -2.5000 0.9739
-0.5421 -6.0844 -2.5000 0.9739
-0.2974 -6.1016 -2.5002 0.9739
-0.1747 -6.1066 -2.5003 0.9739
0.1934 -6.1067 -2.5006 0.9739
0.4385 -6.0944 -2.5007 0.9739
0.5609 -6.0846 -2.5008 0.9739
0.8048 -6.0575 -2.5010 0.9739
0.9264 -6.0404 -2.5011 0.9739
1.0476 -6.0208 -2.5012 0.9739
1.2886 -5.9742 -2.5013 0.9739
1.4084 -5.9474 -2.5014 0.9739
1.5277 -5.9181 -2.5015 0.9739
1.9980 -5.7772 -2.5019 0.9739
2.1137 -5.7361 -2.5020 0.9739
2.2286 -5.6927 -2.5021 0.9739
2.6787 -5.4962 -2.5024 0.9739
2.7887 -5.4415 -2.5025 0.9739
3.1117 -5.2642 -2.5028 0.9739
3.2169 -5.2008 -2.5028 0.9739
3.3208 -5.1353 -2.5029 0.9739
3.6244 -4.9265 -2.5032 0.9739
3.7228 -4.8529 -2.5033 0.9739
3.8196 -4.7772 -2.5033 0.9739
3.9149 -4.6997 -2.5034 0.9739
4.0087 -4.6203 -2.5035 0.9739
4.3671 -4.2842 -2.5038 0.9739
4.4524 -4.1957 -2.5039 0.9739
4.6974 -3.9203 -2.5041 0.9739
5.0675 -3.4300 -2.5044 0.9739
5.1356 -3.3276 -2.5045 0.9739
5.2015 -3.2238 -2.5046 0.9739
5.3270 -3.0125 -2.5047 0.9739
5.6029 -2.4634 -2.5050 0.9739
5.6514 -2.3504 -2.5050 0.9739
5.7830 -2.0060 -2.5052 0.9739
5.8223 -1.8894 -2.5052 0.9739
5.8592 -1.7721 -2.5053 0.9739
5.9556 -1.4161 -2.5054 0.9739
5.9829 -1.2962 -2.5055 0.9739
6.0680 -0.8119 -2.5056 0.9739
6.1139 -0.3222 -2.5057 0.9739
6.1192 -0.1994 -2.5057 0.9739
6.1223 0.0466 -2.5058 0.9739
6.1156 0.2925 -2.5058 0.9739
6.1085 0.4152 -2.5058 0.9739
6.0870 0.6603 -2.5059 0.9739
6.0556 0.9042 -2.5059 0.9739
6.0363 1.0257 -2.5059 0.9739
5.8692 1.7440 -2.5059 0.9739
5.7944 1.9783 -2.5059 0.9739
5.7534 2.0943 -2.5059 0.9739
5.6168 2.4370 -2.5058 0.9739
5.4029 2.8799 -2.5058 0.9739
5.2195 3.1999 -2.5057 0.9739
5.0171 3.5083 -2.5056 0.9739
4.9456 3.6084 -2.5056 0.9739
4.7965 3.8040 -2.5055 0.9739
4.5585 4.0858 -2.5054 0.9739
4.4754 4.1764 -2.5054 0.9739
4.0337 4.6037 -2.5051 0.9739
3.8454 4.7618 -2.5050 0.9739
3.7489 4.8380 -2.5050 0.9739
3.5514 4.9844 -2.5048 0.9739
3.3482 5.1228 -2.5047 0.9739
3.2445 5.1889 -2.5047 0.9739
2.9259 5.3745 -2.5045 0.9739
2.8173 5.4320 -2.5044 0.9739
2.7076 5.4874 -2.5043 0.9739
2.4848 5.5914 -2.5042 0.9739
2.3720 5.6400 -2.5041 0.9739
2.2581 5.6863 -2.5041 0.9739
2.1434 5.7304 -2.5040 0.9739
2.0278 5.7721 -2.5039 0.9739
1.9114 5.8115 -2.5038 0.9739
1.6763 5.8832 -2.5037 0.9739
1.3188 5.9729 -2.5035 0.9739
1.0778 6.0207 -2.5033 0.9739
0.8351 6.0587 -2.5031 0.9739
0.7132 6.0741 -2.5030 0.9739
0.5910 6.0870 -2.5030 0.9739
0.4686 6.0974 -2.5029 0.9739
-0.2678 6.1083 -2.5024 0.9739
-0.3905 6.1014 -2.5023 0.9739
-0.5129 6.0921 -2.5022 0.9739
-0.8788 6.0496 -2.5019 0.9739
-1.1210 6.0090 -2.5017 0.9739
-1.2414 5.9850 -2.5017 0.9739
-1.8350 5.8293 -2.5012 0.9739
-1.9516 5.7911 -2.5011 0.9739
-2.0675 5.7505 -2.5010 0.9739
-2.1825 5.7076 -2.5009 0.9739
-2.4098 5.6150 -2.5008 0.9739
-2.5220 5.5653 -2.5007 0.9739
-3.0668 5.2834 -2.5003 0.9739
-3.1722 5.2206 -2.5002 0.9739
-3.3791 5.0886 -2.5000 0.9739
-3.5805 4.9485 -2.4998 0.9739
-3.9144 -4.1870 -2.4980 0.9753
-3.8296 -4.2648 -2.4981 0.9753
-3.6553 -4.4154 -2.4982 0.9753
-3.2894 -4.6949 -2.4984 0.9753
-3.0983 -4.8235 -2.4985 0.9753
-3.0009 -4.8848 -2.4985 0.9753
-2.9022 -4.9443 -2.4986 0.9753
-2.7014 -5.0571 -2.4987 0.9753
-2.4963 -5.1618 -2.4988 0.9753
-2.2871 -5.2581 -2.4990 0.9753
-2.0741 -5.3460 -2.4991 0.9753
-1.9664 -5.3868 -2.4992 0.9753
-1.7485 -5.4617 -2.4993 0.9753
-1.6385 -5.4959 -2.4994 0.9753
-1.5278 -5.5278 -2.4995 0.9753
-1.4165 -5.5576 -2.4995 0.9753
-1.0794 -5.6333 -2.4997 0.9753
-0.9660 -5.6540 -2.4998 0.9753
-0.7382 -5.6886 -2.5000 0.9753
-0.6238 -5.7025 -2.5001 0.9753
-0.3943 -5.7233 -2.5002 0.9753
0.4118 -5.7233 -2.5008 0.9753
0.8700 -5.6726 -2.5011 0.9753
0.9838 -5.6541 -2.5012 0.9753
1.0972 -5.6334 -2.5013 0.9753
1.2102 -5.6104 -2.5014 0.9753
1.6568 -5.4959 -2.5017 0.9753
1.8763 -5.4253 -2.5019 0.9753
1.9850 -5.3867 -2.5019 0.9753
2.3060 -5.2579 -2.5022 0.9753
2.4113 -5.2107 -2.5023 0.9753
2.5155 -5.1614 -2.5024 0.9753
2.6188 -5.1100 -2.5024 0.9753
2.7210 -5.0565 -2.5025 0.9753
2.8221 -5.0010 -2.5026 0.9753
2.9221 -4.9435 -2.5027 0.9753
3.1185 -4.8224 -2.5028 0.9753
3.3098 -4.6936 -2.5030 0.9753
3.4959 -4.5571 -2.5031 0.9753
3.7644 -4.3387 -2.5034 0.9752
3.9358 -4.1842 -2.5035 0.9752
4.0192 -4.1045 -2.5036 0.9752
4.2594 -3.8553 -2.5038 0.9752
4.3361 -3.7690 -2.5039 0.9752
4.4111 -3.6813 -2.5039 0.9752
4.5556 -3.5013 -2.5041 0.9752
4.6251 -3.4092 -2.5041 0.9752
4.6928 -3.3157 -2.5042 0.9752
4.7586 -3.2209 -2.5043 0.9752
4.8224 -3.1247 -2.5043 0.9752
4.8844 -3.0273 -2.5044 0.9752
5.0022 -2.8288 -2.5045 0.9752
5.0582 -2.7278 -2.5046 0.9752
5.1120 -2.6257 -2.5046 0.9752
5.2136 -2.4184 -2.5047 0.9752
5.3067 -2.2071 -2.5048 0.9752
5.3501 -2.1001 -2.5049 0.9752
5.4303 -1.8836 -2.5050 0.9752
5.5644 -1.4418 -2.5051 0.9752
5.5923 -1.3297 -2.5052 0.9752
5.6180 -1.2171 -2.5052 0.9752
5.6414 -1.1041 -2.5052 0.9752
5.6625 -0.9906 -2.5053 0.9752
5.6813 -0.8766 -2.5053 0.9752
5.6979 -0.7623 -2.5053 0.9752
5.7240 -0.5329 -2.5054 0.9752
5.7409 -0.3026 -2.5055 0.9752
5.7459 -0.1872 -2.5055 0.9752
5.7485 -0.0717 -2.5055 0.9752
5.7469 0.1592 -2.5055 0.9752
5.7426 0.2746 -2.5056 0.9752
5.6862 0.8491 -2.5056 0.9752
5.6476 1.0768 -2.5056 0.9752
5.6248 1.1900 -2.5056 0.9752
5.5725 1.4149 -2.5056 0.9752
5.4771 1.7480 -2.5056 0.9752
5.4025 1.9665 -2.5056 0.9752
5.3619 2.0747 -2.5056 0.9752
5.3191 2.1819 -2.5056 0.9752
5.0179 2.8055 -2.5055 0.9752
4.8397 3.1025 -2.5054 0.9752
4.6439 3.3883 -2.5053 0.9752
4.5749 3.4808 -2.5053 0.9752
4.5040 3.5720 -2.5053 0.9752
4.4313 3.6617 -2.5052 0.9752
4.2805 3.8366 -2.5052 0.9752
4.1228 4.0053 -2.5051 0.9752
3.5203 4.5429 -2.5047 0.9752
3.4283 4.6127 -2.5047 0.9752
3.3349 4.6805 -2.5046 0.9752
2.7475 5.0468 -2.5043 0.9752
2.6455 5.1008 -2.5042 0.9752
2.5425 5.1528 -2.5042 0.9752
2.4384 5.2027 -2.5041 0.9752
2.1205 5.3397 -2.5039 0.9752
2.0127 5.3811 -2.5038 0.9752
1.9042 5.4203 -2.5038 0.9752
1.7949 5.4572 -2.5037 0.9752
1.5742 5.5246 -2.5036 0.9752
1.4628 5.5550 -2.5035 0.9752
1.2385 5.6089 -2.5033 0.9752
0.8983 5.6728 -2.5031 0.9753
0.7842 5.6895 -2.5030 0.9753
0.6697 5.7040 -2.5029 0.9753
0.5550 5.7161 -2.5029 0.9753
0.3249 5.7334 -2.5027 0.9753
0.2097 5.7386 -2.5026 0.9753
-0.1363 5.7402 -2.5024 0.9753
-0.3667 5.7297 -2.5022 0.9753
-0.5965 5.7100 -2.5021 0.9753
-0.8253 5.6811 -2.5019 0.9753
-0.9392 5.6632 -2.5018 0.9753
-1.1658 5.6205 -2.5016 0.9753
-1.2784 5.5958 -2.5016 0.9753
-1.9416 5.4004 -2.5011 0.9753
-2.1568 5.3177 -2.5009 0.9753
-2.3685 5.2264 -2.5007 0.9753
-2.4729 5.1776 -2.5007 0.9753
-2.5763 5.1267 -2.5006 0.9753
-2.6787 5.0738 -2.5005 0.9753
-2.7800 5.0188 -2.5004 0.9753
-2.9791 4.9028 -2.5003 0.9753
-3.0769 4.8418 -2.5002 0.9753
-3.1734 4.7789 -2.5001 0.9753
-3.6059 -4.0158 -2.4983 0.9765
-3.4418 -4.1575 -2.4983 0.9765
-3.3577 -4.2259 -2.4984 0.9765
-3.1854 -4.3575 -2.4985 0.9765
-3.0973 -4.4207 -2.4985 0.9765
-3.0079 -4.4821 -2.4986 0.9765
-2.9174 -4.5417 -2.4986 0.9765
-2.5436 -4.7617 -2.4989 0.9765
-2.4475 -4.8119 -2.4989 0.9765
-2.3504 -4.8602 -2.4990 0.9765
-2.2524 -4.9066 -2.4991 0.9765
