ply
format ascii 1.0
element vertex 1555
property float32 x
property float32 y
property float32 z
property float32 I
end_header
15.8112 16.4767 -0.1286 0.9127
13.9522 16.4137 -0.1213 0.9174
13.1101 16.7421 -0.1197 0.9185
12.6968 16.9033 -0.1190 0.9189
6.7337 9.7577 -0.0667 0.9537
6.5186 9.8642 -0.0666 0.9538
12.6929 20.9951 -0.1381 0.9065
16.0212 29.0786 -0.1869 0.8756
14.2635 30.0396 -0.1872 0.8754
13.1515 29.1978 -0.1803 0.8798
12.4367 34.8434 -0.2083 0.8624
0.0338 26.9104 -0.1515 0.8979
-2.5295 9.5104 -0.0554 0.9614
-2.7304 9.4933 -0.0556 0.9613
-2.9328 9.4762 -0.0558 0.9611
-3.3432 9.4413 -0.0564 0.9607
-3.9757 9.3876 -0.0574 0.9600
-4.1919 9.3692 -0.0578 0.9598
-4.4112 9.3506 -0.0582 0.9595
-4.6230 9.3101 -0.0585 0.9593
-38.1775 63.5080 -0.4172 0.7435
-38.2445 43.4208 -0.3258 0.7934
-43.0189 46.9066 -0.3583 0.7752
-42.2554 42.5115 -0.3375 0.7868
-40.7400 34.8791 -0.3019 0.8069
-40.6786 33.4337 -0.2965 0.8101
-40.4073 31.8723 -0.2897 0.8139
-40.1480 30.3794 -0.2835 0.8176
-39.8416 28.9073 -0.2771 0.8213
-39.6613 27.5774 -0.2720 0.8243
-40.0364 24.3981 -0.2640 0.8290
-15.0062 8.7362 -0.0978 0.9329
-15.1637 8.4246 -0.0977 0.9330
-48.1264 23.0601 -0.3005 0.8078
-52.1887 22.4753 -0.3199 0.7967
-57.8100 23.5307 -0.3514 0.7791
-58.9123 22.6105 -0.3553 0.7769
-57.7305 20.8361 -0.3456 0.7823
-59.8467 18.9190 -0.3534 0.7780
-61.1041 17.9743 -0.3586 0.7751
-64.8026 14.8870 -0.3743 0.7665
-68.6431 14.3237 -0.3948 0.7554
-35.6917 4.4974 -0.2025 0.8660
-91.1309 9.6274 -0.5160 0.6931
-97.3461 6.3429 -0.5492 0.6769
-97.6606 4.3951 -0.5504 0.6764
-52.0111 0.2489 -0.2928 0.8122
-87.3309 -32.5618 -0.5247 0.6888
-41.8145 -21.6336 -0.2651 0.8283
5.2673 -19.2551 -0.5621 0.9232
5.5971 -18.9556 -0.5565 0.9240
5.7852 -18.2355 -0.5387 0.9263
6.2778 -17.3382 -0.5192 0.9289
7.1043 -15.5824 -0.4822 0.9338
7.4142 -14.6701 -0.4628 0.9363
8.6984 -14.2409 -0.4699 0.9354
9.6848 -14.5112 -0.4912 0.9326
11.1394 -14.6900 -0.5191 0.9289
11.5777 -14.6472 -0.5257 0.9280
12.1310 -14.7289 -0.5373 0.9265
14.1481 -15.2096 -0.5849 0.9202
15.6584 -15.5323 -0.6210 0.9155
16.5691 -15.7879 -0.6444 0.9125
17.8868 -16.3706 -0.6827 0.9075
18.5447 -16.3002 -0.6952 0.9059
19.8008 -16.7112 -0.7296 0.9015
16.7143 -13.5407 -0.6057 0.9175
28.3376 -20.2565 -0.9808 0.8699
69.3301 -45.4647 -2.3345 0.7177
72.9089 -45.7436 -2.4236 0.7086
68.2215 -39.0739 -2.2137 0.7301
67.0771 -34.9173 -2.1293 0.7389
66.9020 -31.4774 -2.0819 0.7439
66.2976 -27.9977 -2.0264 0.7498
65.0102 -22.9456 -1.9412 0.7589
57.7611 -16.5485 -1.6919 0.7863
61.5549 -9.8369 -1.7553 0.7792
64.6326 -9.0009 -1.8375 0.7702
68.8640 -8.1834 -1.9527 0.7577
74.0816 -7.2973 -2.0961 0.7424
53.9731 -4.2236 -1.5244 0.8052
53.6557 -2.0349 -1.5119 0.8067
88.6421 -1.5793 -2.4964 0.7013
71.7316 0.1635 -2.0198 0.7505
47.1757 1.0556 -1.3287 0.8279
44.3472 1.8843 -1.2499 0.8373
88.4575 7.3278 -2.4993 0.7010
46.3277 5.7196 -1.3144 0.8296
27.9462 4.0218 -0.7950 0.8932
40.9261 6.7317 -1.1679 0.8471
45.9554 8.5105 -1.3160 0.8294
45.7520 9.4274 -1.3153 0.8295
45.1046 14.1344 -1.3310 0.8277
44.4636 15.9219 -1.3298 0.8278
34.7283 14.0342 -1.0547 0.8608
34.6331 14.8120 -1.0606 0.8601
32.3729 14.6216 -1.0002 0.8675
30.9063 15.4830 -0.9733 0.8708
42.9749 24.8747 -1.3982 0.8198
42.6367 25.8363 -1.4038 0.8191
42.0381 29.0739 -1.4392 0.8150
30.1736 24.6731 -1.0975 0.8556
29.8868 25.4576 -1.1055 0.8546
29.6265 26.2811 -1.1151 0.8534
18.0470 16.6689 -0.6918 0.9064
8.1031 8.1114 -0.3228 0.9552
16.4349 17.1266 -0.6684 0.9094
15.6787 17.0099 -0.6514 0.9116
14.0473 16.5256 -0.6107 0.9169
13.6203 16.6916 -0.6066 0.9174
13.1989 16.8556 -0.6028 0.9179
6.7282 9.7497 -0.3336 0.9537
6.5081 9.8483 -0.3324 0.9539
16.0215 29.0792 -0.9349 0.8756
15.0140 30.0469 -0.9458 0.8742
12.4412 34.8559 -1.0421 0.8623
9.2868 41.0896 -1.1862 0.8449
2.2694 27.7410 -0.7837 0.8946
-1.1647 8.3011 -0.2360 0.9670
-7.0072 31.3689 -0.9051 0.8793
-2.7304 9.4935 -0.2782 0.9612
-3.1371 9.4589 -0.2806 0.9609
-3.3433 9.4414 -0.2820 0.9607
-3.9758 9.3877 -0.2871 0.9600
-38.8819 67.7251 -2.1989 0.7316
-38.0435 63.2851 -2.0792 0.7442
-37.4991 59.6325 -1.9835 0.7544
-36.8614 56.0854 -1.8898 0.7645
-36.2263 52.7774 -1.8025 0.7740
-27.2299 34.9538 -1.2476 0.8375
-34.0649 40.2791 -1.4854 0.8097
-33.6732 38.2308 -1.4345 0.8156
-27.0607 28.3414 -1.1034 0.8549
-42.1946 42.4502 -1.6853 0.7870
-42.7674 41.3315 -1.6747 0.7882
-41.2060 38.2516 -1.5831 0.7985
-40.6653 34.8151 -1.5074 0.8072
-40.6791 33.4342 -1.4827 0.8100
-40.4079 31.8727 -1.4492 0.8139
-39.9001 28.9498 -1.3881 0.8210
-39.6618 27.5777 -1.3602 0.8242
-40.2429 26.7986 -1.3614 0.8241
-38.8530 24.7609 -1.2973 0.8316
-40.0375 24.3988 -1.3202 0.8289
-46.0253 23.2018 -1.4513 0.8136
-47.7843 22.8962 -1.4920 0.8089
-49.6455 22.5730 -1.5356 0.8039
-52.1904 22.4760 -1.6001 0.7966
-57.6361 23.4600 -1.7522 0.7796
-58.7352 22.5425 -1.7715 0.7774
-58.7739 19.8873 -1.7471 0.7801
-60.9129 17.9181 -1.7878 0.7756
-63.3352 15.8961 -1.8387 0.7700
-64.5999 14.8404 -1.8664 0.7670
-65.9036 13.7521 -1.8957 0.7638
-67.4390 12.6641 -1.9321 0.7599
-83.3563 13.9256 -2.3797 0.7131
-83.3025 12.2016 -2.3707 0.7140
-35.7111 4.4998 -1.0135 0.8659
-83.0939 8.7783 -2.3528 0.7158
-82.5282 3.7141 -2.3262 0.7185
-52.0063 0.2489 -1.4644 0.8121
-62.0539 -0.9499 -1.7475 0.7801
-81.9925 -2.9037 -2.3102 0.7201
-83.7670 -6.3437 -2.3654 0.7145
-86.9631 -10.1132 -2.4652 0.7045
-86.0592 -17.0999 -2.4706 0.7039
-85.7463 -18.8361 -2.4720 0.7038
-77.7830 -29.0019 -2.3375 0.7174
-39.3015 -18.3711 -1.2216 0.8406
-37.9421 -18.6736 -1.1907 0.8443
-40.2309 -20.8143 -1.2754 0.8342
-37.8636 -20.5642 -1.2132 0.8416
4.1779 -18.1013 -0.9421 0.9283
5.2476 -19.1830 -1.0086 0.9234
5.5233 -18.7056 -0.9891 0.9249
5.9796 -17.6125 -0.9433 0.9282
6.2192 -17.1765 -0.9264 0.9294
6.4023 -16.6305 -0.9037 0.9311
6.6646 -16.3255 -0.8943 0.9318
7.3036 -15.2027 -0.8553 0.9347
8.5757 -14.0400 -0.8343 0.9362
9.0646 -14.1914 -0.8540 0.9348
9.4653 -14.1823 -0.8647 0.9340
10.4197 -14.3300 -0.8985 0.9315
10.8094 -14.2548 -0.9073 0.9309
11.3945 -14.4154 -0.9319 0.9290
11.9057 -14.4554 -0.9497 0.9277
13.2247 -14.8025 -1.0067 0.9236
14.7496 -15.2308 -1.0752 0.9186
17.5234 -16.0380 -1.2047 0.9092
18.4129 -16.1844 -1.2432 0.9065
19.8042 -16.7141 -1.3142 0.9014
23.1332 -17.9833 -1.4860 0.8893
41.9197 -27.4897 -2.5423 0.8181
42.4579 -26.6385 -2.5419 0.8181
42.9788 -25.7765 -2.5416 0.8181
43.4816 -24.9041 -2.5412 0.8182
43.9665 -24.0218 -2.5408 0.8182
44.4334 -23.1300 -2.5404 0.8182
44.8819 -22.2290 -2.5400 0.8182
45.3116 -21.3191 -2.5396 0.8183
46.1152 -19.4746 -2.5387 0.8183
47.4927 -15.6970 -2.5367 0.8185
47.7882 -14.7364 -2.5362 0.8185
48.0643 -13.7704 -2.5356 0.8185
48.5570 -11.8229 -2.5345 0.8186
48.7735 -10.8425 -2.5339 0.8186
48.9566 -9.8553 -2.5326 0.8187
48.3982 -8.7350 -2.4941 0.8212
47.1048 -7.5276 -2.4192 0.8261
46.5350 -5.5300 -2.3766 0.8289
46.6247 -4.5927 -2.3760 0.8289
46.7860 0.1066 -2.3727 0.8291
46.0419 1.0302 -2.3356 0.8316
41.3654 3.4267 -2.1050 0.8468
38.6649 4.7736 -1.9757 0.8555
34.2616 7.0598 -1.7741 0.8693
33.2077 7.5412 -1.7270 0.8725
25.6047 6.3581 -1.3380 0.8997
28.0825 9.4238 -1.5022 0.8881
27.4051 9.8135 -1.4763 0.8900
25.9559 10.4892 -1.4198 0.8939
25.2335 10.7919 -1.3918 0.8959
22.2250 11.6984 -1.2737 0.9043
31.0794 17.1650 -1.8006 0.8674
41.3559 23.9375 -2.4233 0.8258
40.8869 24.7753 -2.4245 0.8257
39.8964 26.4227 -2.4268 0.8256
30.2434 24.7302 -1.9813 0.8552
30.2626 25.7777 -2.0160 0.8528
35.1509 31.1817 -2.3830 0.8285
33.4328 30.8800 -2.3081 0.8334
17.7408 17.0593 -1.2482 0.9061
8.1023 8.1106 -0.5814 0.9551
16.5807 17.2785 -1.2145 0.9085
15.3153 17.3006 -1.1718 0.9116
13.7740 16.2041 -1.0785 0.9183
12.8521 16.4127 -1.0572 0.9199
12.4331 17.2639 -1.0789 0.9183
6.7228 9.7418 -0.6003 0.9537
6.4976 9.8324 -0.5977 0.9539
16.8764 27.9151 -1.6543 0.8775
14.4202 27.4644 -1.5732 0.8832
12.9235 27.2177 -1.5280 0.8863
12.2330 27.1586 -1.5106 0.8875
11.4913 26.9451 -1.4856 0.8893
10.1900 26.8333 -1.4557 0.8914
9.5238 26.6824 -1.4368 0.8927
7.0947 26.4074 -1.3867 0.8963
6.5020 26.2993 -1.3739 0.8972
5.8861 26.0431 -1.3541 0.8986
5.3449 26.0746 -1.3498 0.8989
4.8024 26.0815 -1.3449 0.8992
4.2337 25.9055 -1.3312 0.9002
3.6957 25.8679 -1.3252 0.9006
3.1566 25.7853 -1.3174 0.9012
2.6238 25.7054 -1.3104 0.9017
1.5716 25.5082 -1.2961 0.9027
1.0533 25.4022 -1.2894 0.9032
-0.4733 25.1214 -1.2742 0.9043
-0.9799 25.1557 -1.2767 0.9041
-1.8285 23.0629 -1.1733 0.9115
-10.4372 87.0683 -4.4472 0.7038
-13.9225 86.5517 -4.4458 0.7039
-15.6563 86.2419 -4.4452 0.7039
-7.7337 38.2146 -1.9773 0.8554
-2.7304 9.4937 -0.5010 0.9612
-3.7625 9.4060 -0.5138 0.9602
-19.7870 36.1275 -2.0890 0.8479
-20.6550 35.9772 -2.1039 0.8469
-21.5358 35.8247 -2.1198 0.8459
-32.9621 48.0219 -2.9539 0.7919
-20.5095 28.6295 -1.7860 0.8684
-21.4925 28.7629 -1.8209 0.8661
-28.1048 27.1612 -1.9821 0.8551
-35.4518 32.9099 -2.4532 0.8239
-37.7395 29.7680 -2.4377 0.8249
-38.2664 28.9556 -2.4336 0.8251
-38.7754 28.1338 -2.4295 0.8254
-39.2659 27.3025 -2.4254 0.8257
-38.6465 25.7355 -2.3547 0.8303
-38.8534 24.7612 -2.3365 0.8315
-14.9794 8.7206 -0.8790 0.9329
-37.9243 20.0835 -2.1763 0.8421
-42.8257 19.4722 -2.3858 0.8283
-43.9062 15.8466 -2.3673 0.8295
-44.3289 14.0135 -2.3578 0.8301
-44.5109 13.0933 -2.3530 0.8304
-44.8181 11.2486 -2.3434 0.8310
-34.9655 5.1215 -1.7922 0.8680
-35.7306 4.5023 -1.8264 0.8657
-35.6922 3.7706 -1.8202 0.8661
-45.7955 2.0610 -2.3248 0.8323
-45.8400 1.1407 -2.3255 0.8322
-48.2153 0.2308 -2.4452 0.8244
-48.8392 -1.7296 -2.4784 0.8222
-48.7584 -3.6925 -2.4798 0.8221
-48.6888 -4.6728 -2.4806 0.8221
-48.4907 -6.6290 -2.4820 0.8220
-48.3625 -7.6043 -2.4828 0.8219
-48.2149 -8.5771 -2.4836 0.8219
-48.0478 -9.5471 -2.4843 0.8218
-47.6554 -11.4769 -2.4859 0.8217
-47.4304 -12.4361 -2.4867 0.8217
-46.6404 -15.2857 -2.4891 0.8215
-46.3392 -16.2250 -2.4899 0.8215
-45.6802 -18.0856 -2.4916 0.8214
-43.0781 -18.0648 -2.3690 0.8294
-41.8385 -19.5570 -2.3422 0.8311
-39.3442 -20.3556 -2.2465 0.8374
-36.6190 -19.8883 -2.1133 0.8463
4.1708 -18.0703 -1.3598 0.9283
4.5389 -18.0064 -1.3616 0.9282
5.2671 -19.2544 -1.4636 0.9231
6.3607 -16.5224 -1.2981 0.9315
6.9807 -15.3112 -1.2338 0.9347
7.4075 -14.6570 -1.2041 0.9363
7.6530 -14.4157 -1.1967 0.9366
7.7241 -13.8693 -1.1640 0.9383
8.0464 -13.7889 -1.1706 0.9380
8.5195 -13.9480 -1.1984 0.9366
9.0606 -14.1852 -1.2342 0.9347
9.9679 -14.3043 -1.2784 0.9325
10.8593 -14.3207 -1.3178 0.9305
11.3705 -14.3851 -1.3445 0.9291
13.8374 -14.8756 -1.4896 0.9217
14.7406 -15.2215 -1.5536 0.9185
15.6250 -15.4991 -1.6137 0.9155
16.3770 -15.6049 -1.6586 0.9133
23.1715 -18.0131 -2.1520 0.8890
26.3612 -18.8437 -2.3759 0.8781
30.2641 -16.5353 -2.5286 0.8708
30.8971 -15.3026 -2.5281 0.8708
31.7514 -13.4087 -2.5272 0.8709
32.0102 -12.7664 -2.5268 0.8709
32.2560 -12.1191 -2.5265 0.8709
32.4885 -11.4669 -2.5262 0.8709
32.9136 -10.1495 -2.5254 0.8710
33.2848 -8.8164 -2.5247 0.8710
33.4499 -8.1446 -2.5243 0.8710
33.6015 -7.4697 -2.5239 0.8710
33.7393 -6.7920 -2.5235 0.8711
33.8633 -6.1117 -2.5230 0.8711
34.0697 -4.7446 -2.5222 0.8711
34.1521 -4.0584 -2.5217 0.8712
34.2206 -3.3708 -2.5213 0.8712
34.2751 -2.6821 -2.5208 0.8712
34.3157 -1.9926 -2.5203 0.8712
34.3423 -1.3025 -2.5199 0.8712
34.3549 -0.6121 -2.5194 0.8713
34.2392 0.7661 -2.5111 0.8717
32.9055 1.3982 -2.4149 0.8763
32.1250 2.6613 -2.3635 0.8787
32.0583 3.3055 -2.3630 0.8787
31.9787 3.9481 -2.3626 0.8788
27.8406 4.0066 -2.0624 0.8933
31.7808 5.2274 -2.3615 0.8788
25.0473 5.6880 -1.8833 0.9021
24.6860 6.1300 -1.8650 0.9030
24.8923 6.7150 -1.8904 0.9018
25.3009 7.9285 -1.9441 0.8991
28.0964 9.4285 -2.1730 0.8879
26.5519 10.1143 -2.0833 0.8923
25.7989 10.4257 -2.0403 0.8944
24.8708 10.6368 -1.9834 0.8972
23.3909 11.1359 -1.8995 0.9013
22.7166 11.3803 -1.8630 0.9031
22.1307 11.6488 -1.8337 0.9046
21.3021 11.7651 -1.7843 0.9070
20.5084 11.8706 -1.7375 0.9093
19.2703 12.2131 -1.6728 0.9126
16.1177 12.6479 -1.5022 0.9211
15.8298 12.9441 -1.4993 0.9213
15.1072 12.8684 -1.4551 0.9235
14.6827 13.0248 -1.4391 0.9243
8.1015 8.1098 -0.8405 0.9551
12.9770 13.5232 -1.3742 0.9276
11.6915 13.7542 -1.3236 0.9302
11.1879 13.7107 -1.2975 0.9315
13.0802 16.7040 -1.5556 0.9184
10.0726 13.9863 -1.2638 0.9332
6.4870 9.8165 -0.8627 0.9539
17.0417 28.1883 -2.4152 0.8762
7.7129 13.9991 -1.1719 0.9379
13.0015 27.3820 -2.2225 0.8855
12.1954 27.0750 -2.1773 0.8877
11.4688 26.8922 -2.1436 0.8894
10.8332 26.8865 -2.1254 0.8902
10.1470 26.7201 -2.0957 0.8917
8.8702 26.5228 -2.0506 0.8939
8.2631 26.4638 -2.0328 0.8948
7.0217 26.1359 -1.9843 0.8971
5.3343 26.0227 -1.9477 0.8989
4.2102 25.7612 -1.9139 0.9006
3.6655 25.6567 -1.9003 0.9013
3.1330 25.5927 -1.8905 0.9018
2.0689 25.2891 -1.8604 0.9032
1.5648 25.3984 -1.8658 0.9030
1.0401 25.0858 -1.8409 0.9042
0.5348 25.0476 -1.8370 0.9044
0.0313 24.9926 -1.8325 0.9046
-0.4695 24.9202 -1.8275 0.9049
-0.6092 15.6391 -1.1476 0.9392
-2.3381 23.4894 -1.7308 0.9097
-2.2772 18.9968 -1.4029 0.9261
-1.1647 8.3014 -0.6146 0.9669
-6.2031 30.6514 -2.2930 0.8821
-2.3399 9.5674 -0.7222 0.9613
-2.5297 9.5109 -0.7216 0.9613
-2.9330 9.4766 -0.7274 0.9610
-3.1372 9.4593 -0.7307 0.9608
-3.3434 9.4418 -0.7344 0.9606
-3.5382 9.3879 -0.7356 0.9606
-3.7626 9.4062 -0.7428 0.9602
-3.9759 9.3881 -0.7475 0.9599
-4.1921 9.3697 -0.7526 0.9597
-4.5659 9.1952 -0.7528 0.9597
-4.5052 8.6329 -0.7140 0.9617
-15.8607 28.9588 -2.4209 0.8760
-16.4290 28.6162 -2.4194 0.8760
-18.6210 27.1286 -2.4126 0.8764
-21.6402 24.5692 -2.4006 0.8769
-23.0164 23.1558 -2.3939 0.8773
-23.8806 22.1684 -2.3891 0.8775
-24.7004 21.1470 -2.3842 0.8777
-25.0930 20.6240 -2.3816 0.8779
-25.4742 20.0934 -2.3789 0.8780
-25.8436 19.5555 -2.3763 0.8781
-26.5475 18.4591 -2.3708 0.8784
-27.2034 17.3367 -2.3652 0.8786
-12.6537 7.3666 -1.0736 0.9430
-28.6261 14.4307 -2.3505 0.8793
-29.1073 13.2346 -2.3445 0.8796
-29.3287 12.6305 -2.3414 0.8798
-29.5373 12.0227 -2.3383 0.8799
-29.9157 10.7972 -2.3320 0.8802
-30.0855 10.1800 -2.3288 0.8804
-30.6335 8.3462 -2.3280 0.8804
-30.7996 7.7302 -2.3283 0.8804
-30.9535 7.1109 -2.3287 0.8804
-31.0951 6.4886 -2.3291 0.8804
-31.2243 5.8635 -2.3295 0.8804
-31.3410 5.2358 -2.3298 0.8803
-31.5369 3.9738 -2.3306 0.8803
-33.6467 2.8723 -2.4760 0.8733
-33.7947 2.2020 -2.4832 0.8730
-33.8385 1.5229 -2.4836 0.8730
-33.8882 -0.5188 -2.4850 0.8729
-33.8776 -1.1997 -2.4855 0.8729
-33.8534 -1.8805 -2.4860 0.8729
-33.6992 -3.9189 -2.4876 0.8728
-33.3041 -6.6175 -2.4897 0.8727
-33.0258 -7.9536 -2.4908 0.8726
-32.3095 -10.5889 -2.4930 0.8725
-32.0976 -11.2385 -2.4936 0.8725
-31.6347 -12.5247 -2.4947 0.8724
-30.8442 -14.4178 -2.4964 0.8724
5.2670 -19.2540 -1.9164 0.9229
5.4217 -17.0895 -1.7213 0.9305
6.8538 -15.8701 -1.6596 0.9329
7.0177 -15.3923 -1.6241 0.9343
7.0819 -14.7411 -1.5701 0.9364
7.3205 -14.4848 -1.5581 0.9369
8.1223 -13.9189 -1.5472 0.9373
8.5181 -13.9457 -1.5688 0.9364
9.0629 -14.1887 -1.6163 0.9346
9.4351 -14.1370 -1.6317 0.9340
9.9267 -14.2452 -1.6669 0.9326
10.3695 -14.2611 -1.6928 0.9316
10.8116 -14.2577 -1.7178 0.9306
11.3787 -14.3954 -1.7616 0.9289
12.5925 -14.6781 -1.8567 0.9252
13.9514 -14.9981 -1.9665 0.9210
15.3994 -15.2753 -2.0824 0.9165
16.1900 -15.4267 -2.1469 0.9141
18.3614 -16.1391 -2.3469 0.9064
19.7879 -14.7545 -2.3697 0.9056
20.0792 -14.3532 -2.3696 0.9056
20.7390 -14.2040 -2.4133 0.9039
21.9388 -14.3869 -2.5187 0.8999
22.5338 -13.5146 -2.5226 0.8998
22.7990 -13.0581 -2.5224 0.8998
23.0550 -12.5964 -2.5222 0.8998
24.3894 -9.7270 -2.5208 0.8999
24.5774 -9.2341 -2.5206 0.8999
24.7554 -8.7375 -2.5203 0.8999
25.0810 -7.7342 -2.5198 0.8999
25.3656 -6.7188 -2.5192 0.8999
25.4925 -6.2070 -2.5189 0.8999
25.6089 -5.6929 -2.5186 0.8999
25.7149 -5.1766 -2.5183 0.9000
25.8104 -4.6583 -2.5180 0.9000
25.8955 -4.1382 -2.5176 0.9000
25.9700 -3.6167 -2.5173 0.9000
26.0339 -3.0937 -2.5170 0.9000
26.1620 -1.5191 -2.5159 0.9000
26.1835 -0.9930 -2.5156 0.9001
26.1841 0.5859 -2.5144 0.9001
26.1314 1.6369 -2.5137 0.9001
25.8699 3.7230 -2.5092 0.9003
25.4058 4.1789 -2.4719 0.9017
24.0544 4.9565 -2.3579 0.9060
23.9459 5.4379 -2.3575 0.9060
23.5627 6.8671 -2.3563 0.9061
23.2598 7.8055 -2.3554 0.9061
22.9194 8.7306 -2.3546 0.9061
20.5543 11.8972 -2.2800 0.9090
16.6578 12.5392 -2.0017 0.9196
16.0652 12.6066 -1.9605 0.9212
15.0972 12.8598 -1.9039 0.9234
14.6383 12.9853 -1.8786 0.9244
14.1592 13.0780 -1.8505 0.9255
13.7631 13.2344 -1.8331 0.9261
8.1007 8.1090 -1.1004 0.9550
12.8674 13.4089 -1.7842 0.9280
11.5799 13.6229 -1.7165 0.9307
11.0591 13.5529 -1.6794 0.9321
10.3059 13.7204 -1.6474 0.9334
9.8250 13.6426 -1.6141 0.9347
8.3224 13.7661 -1.5444 0.9374
7.9444 13.7578 -1.5252 0.9382
7.1580 13.6330 -1.4783 0.9400
6.8707 13.7501 -1.4757 0.9401
5.9113 13.8611 -1.4467 0.9412
5.2156 13.7344 -1.4104 0.9427
3.7215 13.8521 -1.3770 0.9440
3.4221 13.8418 -1.3689 0.9443
3.1310 13.8534 -1.3635 0.9445
2.2504 13.7701 -1.3395 0.9455
1.9851 13.8947 -1.3475 0.9452
1.6853 13.7666 -1.3315 0.9458
1.4259 13.9700 -1.3482 0.9451
0.8543 13.8663 -1.3338 0.9457
0.2976 13.9402 -1.3386 0.9455
-0.2620 13.9068 -1.3354 0.9456
-0.5490 14.0935 -1.3541 0.9449
-0.9161 15.5022 -1.4909 0.9395
-1.4617 18.4367 -1.7756 0.9284
-2.0376 20.4700 -1.9749 0.9207
-1.1648 8.3015 -0.8048 0.9669
-3.3834 18.6370 -1.8185 0.9267
-5.4317 24.3160 -2.3920 0.9047
-2.3401 9.5681 -0.9456 0.9612
-2.5297 9.5110 -0.9449 0.9612
-2.9330 9.4768 -0.9524 0.9609
-3.3435 9.4419 -0.9616 0.9605
-3.9760 9.3882 -0.9788 0.9599
-4.1922 9.3699 -0.9855 0.9596
-4.4115 9.3513 -0.9927 0.9593
-13.5878 20.6741 -2.3751 0.9054
-14.3906 20.0881 -2.3723 0.9055
-15.9168 18.8204 -2.3664 0.9057
-16.2807 18.4842 -2.3648 0.9058
-17.3279 17.4329 -2.3598 0.9060
-17.9873 16.6977 -2.3562 0.9061
-18.9151 15.5464 -2.3506 0.9063
-19.2078 15.1507 -2.3487 0.9064
-20.2920 13.5129 -2.3406 0.9067
-20.7808 12.6638 -2.3363 0.9068
-12.6508 7.3650 -1.4054 0.9429
-15.0745 8.3750 -1.6556 0.9331
-16.4525 8.2939 -1.7689 0.9286
-21.8948 10.4911 -2.3309 0.9070
-22.1031 10.0499 -2.3311 0.9070
-22.3026 9.6047 -2.3313 0.9070
-22.4933 9.1556 -2.3315 0.9070
-22.6749 8.7026 -2.3317 0.9070
-22.8475 8.2461 -2.3320 0.9070
-23.1653 7.3231 -2.3325 0.9070
-23.6893 5.4421 -2.3335 0.9069
-25.6228 3.7531 -2.4862 0.9012
-25.6964 3.2379 -2.4865 0.9012
-25.7598 2.7214 -2.4868 0.9011
-25.8877 1.1651 -2.4879 0.9011
-25.9097 0.6448 -2.4882 0.9011
-25.9212 0.1241 -2.4886 0.9011
-25.9223 -0.3968 -2.4890 0.9011
-25.7717 -2.9970 -2.4909 0.9010
-25.7103 -3.5148 -2.4913 0.9010
-25.5567 -4.5463 -2.4921 0.9009
-25.3618 -5.5713 -2.4929 0.9009
-25.2490 -6.0807 -2.4933 0.9009
-24.8495 -7.5946 -2.4946 0.9009
-24.3596 -9.0826 -2.4959 0.9008
-24.1764 -9.5719 -2.4963 0.9008
-23.5684 -11.0168 -2.4977 0.9007
-23.3465 -11.4902 -2.4981 0.9007
-23.1151 -11.9591 -2.4986 0.9007
4.4756 -19.3911 -2.3640 0.9230
5.2547 -19.2088 -2.3656 0.9229
5.6146 -16.5371 -2.0745 0.9321
6.2833 -17.3533 -2.1923 0.9284
6.2939 -16.3489 -2.0810 0.9319
6.6312 -16.2438 -2.0841 0.9318
7.0943 -14.7669 -1.9460 0.9361
7.3710 -13.8845 -1.8673 0.9386
9.4322 -14.1327 -2.0183 0.9338
10.4127 -14.3204 -2.1032 0.9312
10.9350 -14.4204 -2.1497 0.9297
11.4811 -14.5249 -2.1993 0.9281
12.0532 -14.6344 -2.2521 0.9265
12.6537 -14.7494 -2.3084 0.9247
13.2733 -14.8568 -2.3665 0.9229
14.6946 -13.4490 -2.3662 0.9229
14.9614 -13.1506 -2.3661 0.9229
15.2221 -12.8469 -2.3661 0.9229
15.7466 -12.7568 -2.4072 0.9216
16.6932 -12.9769 -2.5116 0.9184
16.9933 -12.6707 -2.5179 0.9182
17.2526 -12.3326 -2.5191 0.9181
18.6042 -10.1647 -2.5183 0.9181
18.9950 -9.4078 -2.5179 0.9182
19.1788 -9.0236 -2.5177 0.9182
19.3548 -8.6358 -2.5175 0.9182
19.5229 -8.2446 -2.5174 0.9182
19.8352 -7.4524 -2.5169 0.9182
20.3623 -5.8337 -2.5161 0.9182
20.4735 -5.4229 -2.5158 0.9182
20.9036 -3.3405 -2.5146 0.9183
21.0164 -2.4975 -2.5140 0.9183
21.0600 -2.0745 -2.5137 0.9183
21.0951 -1.6507 -2.5135 0.9183
21.1216 -1.2265 -2.5132 0.9183
21.1496 0.0482 -2.5123 0.9183
21.1418 0.4731 -2.5120 0.9183
21.1254 0.8976 -2.5117 0.9184
21.0250 2.1678 -2.5107 0.9184
20.9745 2.5895 -2.5104 0.9184
20.9155 3.0100 -2.5101 0.9184
20.8480 3.4292 -2.5097 0.9184
20.4944 5.0892 -2.5084 0.9185
20.3377 5.4863 -2.5022 0.9186
18.7896 6.3054 -2.3543 0.9233
18.3677 7.4227 -2.3532 0.9233
18.0495 8.1523 -2.3526 0.9233
17.7023 8.8682 -2.3519 0.9233
17.3266 9.5695 -2.3512 0.9234
16.7113 10.5913 -2.3502 0.9234
16.0358 11.5736 -2.3491 0.9234
15.7977 11.8918 -2.3488 0.9234
15.5533 12.2050 -2.3484 0.9235
15.3027 12.5132 -2.3481 0.9235
15.0460 12.8162 -2.3478 0.9235
14.7630 13.0959 -2.3442 0.9236
14.2666 13.1773 -2.3070 0.9248
13.8576 13.3253 -2.2836 0.9255
8.0998 8.1081 -1.3614 0.9549
12.9612 13.5066 -2.2236 0.9274
12.5525 13.6182 -2.2000 0.9281
11.1090 13.6141 -2.0872 0.9317
10.6949 13.6578 -2.0606 0.9325
10.2481 13.6434 -2.0269 0.9336
6.7063 9.7180 -1.4026 0.9536
6.3502 10.0424 -1.4114 0.9533
8.4011 13.8962 -1.9289 0.9367
7.5430 13.6906 -1.8567 0.9390
7.1837 13.6819 -1.8356 0.9397
6.1833 13.7277 -1.7884 0.9412
5.2724 13.8838 -1.7641 0.9419
4.9164 13.7741 -1.7373 0.9428
4.5556 13.6216 -1.7061 0.9438
3.9819 13.7152 -1.6964 0.9441
3.1481 13.9292 -1.6963 0.9441
2.7721 13.5236 -1.6398 0.9459
2.5055 13.6071 -1.6435 0.9458
1.9559 13.6905 -1.6427 0.9458
1.6767 13.6963 -1.6391 0.9459
1.1250 13.7523 -1.6390 0.9459
0.8402 13.6382 -1.6231 0.9464
0.0172 13.7416 -1.6323 0.9462
-0.2560 13.5877 -1.6143 0.9467
-0.5383 13.8200 -1.6429 0.9458
-0.8780 14.8573 -1.7679 0.9418
-2.6871 16.7051 -2.0098 0.9341
-3.9521 19.5289 -2.3668 0.9229
-2.3402 9.5687 -1.1701 0.9611
-2.7306 9.4942 -1.1735 0.9610
-3.1373 9.4596 -1.1839 0.9606
-3.3435 9.4421 -1.1898 0.9605
-3.5384 9.3886 -1.1918 0.9604
-3.7627 9.4065 -1.2034 0.9600
-3.9761 9.3884 -1.2111 0.9598
-4.4116 9.3514 -1.2282 0.9592
-4.5054 8.6333 -1.1568 0.9615
-9.5270 17.3946 -2.3558 0.9232
-9.8703 17.1922 -2.3548 0.9233
-10.5439 16.7673 -2.3528 0.9233
-11.1988 16.3152 -2.3506 0.9234
-10.4422 14.5764 -2.1299 0.9303
-12.1425 15.5868 -2.3470 0.9235
-12.4467 15.3317 -2.3458 0.9235
-13.3253 14.5296 -2.3418 0.9237
-14.1513 13.6762 -2.3377 0.9238
-14.6710 13.0803 -2.3348 0.9239
-14.9213 12.7747 -2.3333 0.9239
-15.1720 12.4698 -2.3328 0.9239
-14.2887 9.5151 -2.0392 0.9332
-14.2408 9.0757 -2.0059 0.9342
-12.5606 7.3124 -1.7264 0.9431
-14.0863 7.8260 -1.9141 0.9372
-14.3418 7.5950 -1.9277 0.9367
-14.9376 7.5302 -1.9871 0.9348
-15.5716 7.4612 -2.0511 0.9328
-16.2480 7.3877 -2.1202 0.9306
-18.0520 7.7741 -2.3347 0.9239
-18.2059 7.4104 -2.3349 0.9239
-18.4919 6.6741 -2.3353 0.9239
-18.6239 6.3018 -2.3355 0.9239
-19.1474 5.6324 -2.3708 0.9228
-20.0169 5.4537 -2.4644 0.9198
-20.2937 5.0934 -2.4854 0.9192
-20.5066 4.2791 -2.4884 0.9191
-20.7926 2.6200 -2.4894 0.9190
-20.8856 1.7829 -2.4899 0.9190
-20.9710 0.1004 -2.4911 0.9190
-20.9713 -0.3210 -2.4914 0.9190
-20.9632 -0.7424 -2.4917 0.9190
-20.8464 -2.4243 -2.4929 0.9189
-20.4197 -4.9177 -2.4949 0.9189
-19.3912 -8.1317 -2.4977 0.9188
-19.2266 -8.5209 -2.4981 0.9188
-18.6865 -9.6679 -2.4992 0.9187
-18.4912 -10.0428 -2.4995 0.9187
4.0761 -16.1702 -2.3628 0.9348
4.7229 -15.9948 -2.3630 0.9348
5.3261 -15.6875 -2.3474 0.9353
5.9531 -15.4635 -2.3478 0.9353
6.3044 -15.4431 -2.3634 0.9348
7.0942 -14.7666 -2.3212 0.9360
7.3709 -13.8842 -2.2273 0.9385
8.9705 -14.0440 -2.3612 0.9349
9.2611 -13.8764 -2.3638 0.9348
9.8111 -13.4931 -2.3638 0.9348
10.0802 -13.2932 -2.3638 0.9348
10.3452 -13.0879 -2.3638 0.9348
10.6060 -12.8773 -2.3638 0.9348
10.8625 -12.6615 -2.3637 0.9348
11.1146 -12.4405 -2.3637 0.9348
11.3621 -12.2145 -2.3637 0.9348
12.0667 -11.9694 -2.4082 0.9336
12.6646 -12.0675 -2.4786 0.9318
13.3412 -11.7265 -2.5167 0.9308
14.0220 -10.9004 -2.5165 0.9308
14.6515 -10.0347 -2.5162 0.9308
15.5803 -8.5125 -2.5156 0.9308
15.7473 -8.1973 -2.5154 0.9308
15.9079 -7.8788 -2.5153 0.9308
16.0620 -7.5571 -2.5151 0.9308
16.3506 -6.9049 -2.5148 0.9308
16.4849 -6.5745 -2.5146 0.9308
16.7334 -5.9061 -2.5143 0.9308
16.8475 -5.5683 -2.5141 0.9308
17.1484 -4.5422 -2.5135 0.9308
17.2348 -4.1964 -2.5133 0.9308
17.3866 -3.5000 -2.5129 0.9309
17.4519 -3.1497 -2.5127 0.9309
17.5101 -2.7982 -2.5125 0.9309
17.5612 -2.4456 -2.5123 0.9309
17.6052 -2.0921 -2.5120 0.9309
17.6421 -1.7378 -2.5118 0.9309
17.6718 -1.3829 -2.5116 0.9309
17.7096 -0.6716 -2.5111 0.9309
17.7126 0.3963 -2.5103 0.9309
17.6992 0.7521 -2.5101 0.9309
17.6787 1.1074 -2.5098 0.9309
17.6161 1.8164 -2.5093 0.9310
17.5742 2.1697 -2.5090 0.9310
17.5251 2.5221 -2.5087 0.9310
17.4690 2.8734 -2.5084 0.9310
17.4058 3.2234 -2.5081 0.9310
17.2583 3.9192 -2.5076 0.9310
16.8801 5.2897 -2.5064 0.9310
16.6496 5.9620 -2.5058 0.9310
16.4928 6.2826 -2.5007 0.9312
16.1362 6.5209 -2.4660 0.9321
15.5384 6.6455 -2.3945 0.9340
14.9863 7.1347 -2.3518 0.9351
14.8381 7.4334 -2.3515 0.9352
14.6840 7.7291 -2.3512 0.9352
14.5239 8.0216 -2.3509 0.9352
14.1865 8.5965 -2.3503 0.9352
14.0092 8.8787 -2.3500 0.9352
13.8262 9.1573 -2.3497 0.9352
13.6378 9.4320 -2.3494 0.9352
13.2446 9.9699 -2.3489 0.9352
13.0400 10.2327 -2.3486 0.9352
12.8302 10.4914 -2.3483 0.9352
12.6152 10.7457 -2.3480 0.9352
8.0990 8.1073 -1.6237 0.9548
11.4669 11.9495 -2.3466 0.9353
10.7223 12.6140 -2.3457 0.9353
10.4655 12.8254 -2.3454 0.9353
10.2045 13.0315 -2.3452 0.9353
6.7008 9.7100 -1.6716 0.9535
6.3398 10.0259 -1.6807 0.9532
6.4882 13.6646 -2.1433 0.9407
6.1652 13.6876 -2.1270 0.9412
5.8468 13.7098 -2.1118 0.9416
5.5147 13.6870 -2.0908 0.9421
5.1770 13.6326 -2.0662 0.9428
4.9052 13.7427 -2.0675 0.9428
4.5814 13.6989 -2.0467 0.9433
4.2589 13.6399 -2.0246 0.9439
3.0719 13.5920 -1.9744 0.9453
2.2347 13.6739 -1.9631 0.9456
1.6796 13.7202 -1.9585 0.9457
1.1150 13.6299 -1.9377 0.9463
0.8391 13.6196 -1.9334 0.9464
0.5672 13.6798 -1.9399 0.9462
0.0172 13.6991 -1.9410 0.9462
-0.8749 14.8058 -2.1015 0.9418
-1.5441 15.5124 -2.2088 0.9390
-2.6344 16.3773 -2.3503 0.9352
-3.6142 16.1799 -2.3490 0.9352
-2.3404 9.5693 -1.3958 0.9610
-2.7306 9.4943 -1.3998 0.9609
-2.9331 9.4771 -1.4056 0.9607
-3.1374 9.4598 -1.4121 0.9605
-3.7628 9.4067 -1.4355 0.9599
-3.9762 9.3886 -1.4446 0.9596
-4.4116 9.3516 -1.4651 0.9591
-4.5662 9.1957 -1.4547 0.9594
-4.5055 8.6336 -1.3798 0.9614
-7.9330 14.4842 -2.3399 0.9355
-8.2193 14.3165 -2.3390 0.9355
-8.7810 13.9639 -2.3372 0.9355
-9.3274 13.5888 -2.3353 0.9356
-9.5970 13.3967 -2.3350 0.9356
-10.1276 13.0004 -2.3350 0.9356
-10.3868 12.7943 -2.3350 0.9356
-10.6419 12.5832 -2.3350 0.9356
-10.8927 12.3670 -2.3350 0.9356
-11.6185 11.6889 -2.3352 0.9356
-12.0792 11.2132 -2.3353 0.9356
-12.3024 10.9685 -2.3353 0.9356
-12.9421 10.2084 -2.3355 0.9356
-13.1451 9.9467 -2.3356 0.9356
-13.3427 9.6809 -2.3357 0.9356
-13.5351 9.4113 -2.3358 0.9356
-13.7221 9.1378 -2.3359 0.9356
-14.1968 7.5182 -2.2762 0.9372
-14.7259 7.4235 -2.3366 0.9355
-14.8730 7.1265 -2.3368 0.9355
-15.1491 6.5241 -2.3371 0.9355
-15.4989 6.3086 -2.3710 0.9346
-16.1074 6.1820 -2.4446 0.9327
-16.4908 5.9519 -2.4841 0.9316
-16.6408 5.6307 -2.4891 0.9315
-16.7531 5.2961 -2.4895 0.9315
-16.9549 4.6194 -2.4899 0.9315
-17.1296 3.9352 -2.4903 0.9315
-17.3399 2.8968 -2.4909 0.9314
-17.3962 2.5481 -2.4911 0.9314
-17.4877 1.8475 -2.4916 0.9314
-17.5229 1.4958 -2.4918 0.9314
-17.5722 0.7908 -2.4923 0.9314
-17.5862 0.4377 -2.4926 0.9314
-17.5931 -0.2693 -2.4931 0.9314
-17.5717 -0.9761 -2.4936 0.9314
-17.5220 -1.6816 -2.4941 0.9314
-17.4866 -2.0335 -2.4944 0.9313
-17.4441 -2.3847 -2.4946 0.9313
-17.3945 -2.7350 -2.4949 0.9313
-17.3380 -3.0843 -2.4952 0.9313
-17.2745 -3.4324 -2.4955 0.9313
-17.2039 -3.7792 -2.4957 0.9313
-17.0421 -4.4683 -2.4963 0.9313
-16.8528 -5.1506 -2.4969 0.9313
-16.6361 -5.8249 -2.4975 0.9313
-16.5177 -6.1587 -2.4978 0.9313
-16.3926 -6.4901 -2.4981 0.9313
-16.1225 -7.1452 -2.4987 0.9312
-15.8262 -7.7890 -2.4993 0.9312
-15.5043 -8.4206 -2.4999 0.9312
3.7816 -13.8238 -2.3610 0.9436
4.3342 -13.6617 -2.3612 0.9436
4.6080 -13.5723 -2.3612 0.9436
4.8799 -13.4774 -2.3613 0.9435
5.4177 -13.2712 -2.3614 0.9435
5.9467 -13.0434 -2.3615 0.9435
6.2077 -12.9215 -2.3616 0.9435
6.4662 -12.7944 -2.3616 0.9435
6.7221 -12.6621 -2.3617 0.9435
7.2255 -12.3821 -2.3617 0.9435
7.4729 -12.2345 -2.3617 0.9435
7.7172 -12.0819 -2.3617 0.9435
8.1964 -11.7622 -2.3618 0.9435
8.4311 -11.5952 -2.3618 0.9435
9.5097 -11.5462 -2.4642 0.9412
9.9128 -11.5545 -2.5080 0.9401
10.1579 -11.3697 -2.5117 0.9401
10.3974 -11.1774 -2.5149 0.9400
10.6197 -10.9661 -2.5148 0.9400
11.0513 -10.5302 -2.5147 0.9400
11.4649 -10.0773 -2.5146 0.9400
11.6647 -9.8446 -2.5145 0.9400
11.8598 -9.6080 -2.5145 0.9400
12.0501 -9.3675 -2.5144 0.9400
12.2355 -9.1232 -2.5143 0.9400
12.4159 -8.8752 -2.5142 0.9400
12.9266 -8.1102 -2.5139 0.9400
13.0864 -7.8485 -2.5138 0.9400
13.2409 -7.5837 -2.5137 0.9400
13.8043 -6.4949 -2.5132 0.9400
14.1681 -5.6506 -2.5128 0.9400
14.2779 -5.3644 -2.5127 0.9400
14.4802 -4.7859 -2.5124 0.9400
14.5725 -4.4937 -2.5122 0.9401
14.7393 -3.9041 -2.5119 0.9401
14.8137 -3.6069 -2.5117 0.9401
14.9445 -3.0084 -2.5113 0.9401
15.0008 -2.7074 -2.5112 0.9401
15.0511 -2.4052 -2.5110 0.9401
15.0952 -2.1022 -2.5108 0.9401
15.1332 -1.7983 -2.5106 0.9401
15.1651 -1.4938 -2.5104 0.9401
15.2103 -0.8832 -2.5100 0.9401
15.2269 0.3407 -2.5091 0.9401
15.1747 1.2571 -2.5084 0.9401
15.1449 1.5616 -2.5082 0.9401
15.1091 1.8654 -2.5080 0.9401
15.0672 2.1684 -2.5077 0.9402
15.0191 2.4704 -2.5075 0.9402
14.9650 2.7714 -2.5072 0.9402
14.9049 3.0712 -2.5070 0.9402
14.6884 3.9624 -2.5063 0.9402
14.2097 5.4129 -2.5050 0.9402
14.0967 5.6967 -2.5047 0.9402
12.8354 7.0890 -2.4156 0.9423
12.3828 7.1674 -2.3570 0.9436
12.2008 7.3933 -2.3502 0.9438
12.0485 7.6361 -2.3499 0.9438
11.5629 8.3454 -2.3492 0.9438
11.0357 9.0240 -2.3484 0.9438
10.2712 9.8766 -2.3474 0.9439
9.8641 10.2792 -2.3470 0.9439
7.2962 8.9415 -1.9012 0.9543
7.0242 8.9702 -1.8769 0.9549
6.4449 9.7527 -1.9258 0.9537
6.3292 10.0092 -1.9509 0.9531
5.6433 10.2427 -1.9265 0.9537
6.1010 12.8490 -2.3432 0.9440
5.8411 12.9679 -2.3430 0.9440
5.5788 13.0814 -2.3428 0.9440
4.7794 13.3902 -2.3422 0.9440
4.5090 13.4824 -2.3420 0.9440
3.9630 13.6503 -2.3416 0.9440
3.4109 13.7962 -2.3412 0.9440
3.0950 13.6939 -2.3128 0.9447
2.2475 13.7521 -2.2956 0.9451
1.4089 13.8037 -2.2858 0.9453
0.8451 13.7174 -2.2641 0.9458
0.5721 13.7987 -2.2751 0.9456
0.2937 13.7555 -2.2666 0.9458
-0.5418 13.9088 -2.2931 0.9451
-0.8376 14.1743 -2.3391 0.9441
-1.1221 14.1533 -2.3389 0.9441
-1.4061 14.1265 -2.3387 0.9441
-2.2541 14.0133 -2.3382 0.9441
-2.5351 13.9646 -2.3381 0.9441
-3.0938 13.8503 -2.3379 0.9441
-2.5298 9.5115 -1.6214 0.9609
-3.1374 9.4600 -1.6419 0.9604
-3.4592 9.1784 -1.6159 0.9610
-3.9762 9.3888 -1.6797 0.9595
-4.5662 9.1958 -1.6914 0.9592
-4.5056 8.6338 -1.6044 0.9613
-7.7913 11.8547 -2.3370 0.9441
-8.0279 11.6957 -2.3370 0.9441
-8.2613 11.5321 -2.3370 0.9441
-8.4913 11.3638 -2.3370 0.9441
-9.3766 10.6456 -2.3370 0.9441
-9.5887 10.4552 -2.3371 0.9441
-9.7969 10.2606 -2.3371 0.9441
-10.2016 9.8591 -2.3372 0.9441
-10.3978 9.6523 -2.3372 0.9441
-10.5899 9.4417 -2.3373 0.9441
-10.7777 9.2272 -2.3373 0.9441
-11.1404 8.7873 -2.3375 0.9441
-11.8115 7.8655 -2.3378 0.9441
-12.2654 7.1406 -2.3381 0.9441
-12.4070 6.8930 -2.3382 0.9441
-13.6014 6.5172 -2.4846 0.9407
-13.7521 6.2529 -2.4887 0.9406
-13.8849 5.9796 -2.4905 0.9406
-14.1155 5.4175 -2.4908 0.9405
-14.2223 5.1332 -2.4909 0.9405
-14.4189 4.5582 -2.4912 0.9405
-14.5085 4.2678 -2.4914 0.9405
-14.5923 3.9757 -2.4915 0.9405
-14.8084 3.0901 -2.4921 0.9405
-14.8685 2.7921 -2.4922 0.9405
-14.9710 2.1929 -2.4926 0.9405
-15.0794 1.2873 -2.4932 0.9405
-15.1334 0.3766 -2.4938 0.9405
-15.1200 -0.8399 -2.4947 0.9405
-15.1014 -1.1436 -2.4949 0.9405
-15.0768 -1.4470 -2.4952 0.9404
-15.0461 -1.7498 -2.4954 0.9404
-14.9664 -2.3532 -2.4958 0.9404
-14.9175 -2.6537 -2.4961 0.9404
-14.8017 -3.2515 -2.4966 0.9404
-14.7349 -3.5486 -2.4968 0.9404
-14.6621 -3.8443 -2.4971 0.9404
-14.4987 -4.4311 -2.4976 0.9404
-14.4082 -4.7221 -2.4978 0.9404
-14.3118 -5.0111 -2.4981 0.9404
-14.1018 -5.5832 -2.4986 0.9404
-13.9882 -5.8659 -2.4988 0.9404
-13.6137 -6.7001 -2.4996 0.9403
-13.3364 -7.2431 -2.5001 0.9403
2.8230 -12.2310 -2.3594 0.9502
3.5551 -12.0399 -2.3596 0.9502
3.7964 -11.9664 -2.3597 0.9502
4.0361 -11.8880 -2.3598 0.9502
4.2743 -11.8049 -2.3598 0.9502
4.9780 -11.5267 -2.3600 0.9502
5.2087 -11.4246 -2.3600 0.9502
5.4373 -11.3178 -2.3601 0.9502
5.6637 -11.2064 -2.3601 0.9502
5.9290 -11.1681 -2.3766 0.9498
6.2317 -11.1896 -2.4074 0.9492
6.5425 -11.2116 -2.4399 0.9485
6.8618 -11.2340 -2.4743 0.9478
7.1770 -11.2362 -2.5060 0.9472
7.4093 -11.1017 -2.5087 0.9471
7.6393 -10.9628 -2.5115 0.9471
8.2918 -10.4901 -2.5133 0.9470
8.5008 -10.3213 -2.5133 0.9470
9.6797 -9.2233 -2.5131 0.9470
9.8629 -9.0268 -2.5131 0.9470
10.0421 -8.8266 -2.5130 0.9470
10.3881 -8.4157 -2.5129 0.9470
10.7172 -7.9911 -2.5128 0.9470
11.0289 -7.5536 -2.5126 0.9470
11.3227 -7.1040 -2.5124 0.9471
11.4628 -6.8748 -2.5123 0.9471
12.2032 -5.4449 -2.5117 0.9471
12.3096 -5.1983 -2.5116 0.9471
12.5072 -4.6991 -2.5113 0.9471
12.5984 -4.4467 -2.5112 0.9471
12.6845 -4.1924 -2.5110 0.9471
12.7655 -3.9365 -2.5109 0.9471
12.8413 -3.6790 -2.5108 0.9471
12.9771 -3.1597 -2.5105 0.9471
13.1414 -2.3718 -2.5100 0.9471
13.2243 -1.8416 -2.5096 0.9471
13.2858 -1.3087 -2.5093 0.9471
13.3085 -1.0414 -2.5091 0.9471
13.3257 -0.7738 -2.5089 0.9471
13.3376 -0.5058 -2.5088 0.9471
13.3311 0.5664 -2.5080 0.9471
13.2696 1.3682 -2.5074 0.9472
13.1126 2.4283 -2.5066 0.9472
12.9391 3.2131 -2.5059 0.9472
12.8708 3.4721 -2.5057 0.9472
12.7973 3.7296 -2.5055 0.9472
12.7187 3.9857 -2.5053 0.9472
12.5461 4.4926 -2.5048 0.9472
12.2493 5.2388 -2.5041 0.9472
12.0268 5.7257 -2.5037 0.9472
11.9082 5.9656 -2.5034 0.9472
11.7849 6.2031 -2.5032 0.9472
11.6568 6.4381 -2.5030 0.9472
11.5240 6.6703 -2.5027 0.9472
11.3810 6.8965 -2.5013 0.9473
11.2242 7.1137 -2.4977 0.9474
10.6685 7.3784 -2.4381 0.9486
10.2971 7.4318 -2.3869 0.9496
9.8306 7.7142 -2.3488 0.9504
9.3454 8.2901 -2.3481 0.9504
8.0242 8.0324 -2.1341 0.9548
8.4629 9.1814 -2.3470 0.9504
8.2760 9.3488 -2.3468 0.9505
7.5756 8.9121 -2.1985 0.9535
7.2963 8.9416 -2.1692 0.9541
7.0243 8.9704 -2.1415 0.9547
6.7591 8.9984 -2.1154 0.9552
6.2471 9.0525 -2.0674 0.9562
5.7570 9.1043 -2.0247 0.9571
5.5049 9.1056 -2.0000 0.9576
5.5824 9.6673 -2.0983 0.9556
5.6431 10.2423 -2.1980 0.9535
5.5746 11.1564 -2.3442 0.9505
5.1211 11.3695 -2.3438 0.9505
4.8913 11.4692 -2.3436 0.9505
4.6595 11.5642 -2.3434 0.9505
3.9534 11.8212 -2.3429 0.9505
3.7149 11.8974 -2.3427 0.9505
3.4748 11.9688 -2.3425 0.9505
2.7469 12.1537 -2.3420 0.9506
2.5020 12.2056 -2.3419 0.9506
2.0093 12.2947 -2.3416 0.9506
1.7618 12.3318 -2.3414 0.9506
1.5136 12.3639 -2.3413 0.9506
0.7658 12.4304 -2.3409 0.9506
0.5159 12.4426 -2.3407 0.9506
-0.2346 12.4490 -2.3403 0.9506
-0.4846 12.4412 -2.3402 0.9506
-0.7344 12.4283 -2.3401 0.9506
-0.9840 12.4104 -2.3400 0.9506
-1.2330 12.3876 -2.3399 0.9506
-1.1649 8.3021 -1.5757 0.9665
-1.9768 12.2892 -2.3396 0.9506
-2.4687 12.1989 -2.3394 0.9506
-3.1988 12.0268 -2.3391 0.9506
-3.0034 9.0557 -1.7933 0.9619
-3.1919 9.0139 -1.7973 0.9618
-3.3810 8.9708 -1.8019 0.9617
-3.7683 8.8978 -1.8162 0.9614
-3.9653 8.8627 -1.8250 0.9613
-4.3733 8.8073 -1.8483 0.9608
-5.9766 10.9122 -2.3385 0.9506
-6.4100 10.6631 -2.3385 0.9506
-6.6229 10.5321 -2.3385 0.9506
-6.8332 10.3968 -2.3385 0.9506
-7.4471 9.9663 -2.3385 0.9506
-7.6459 9.8147 -2.3385 0.9506
-7.8416 9.6591 -2.3385 0.9506
-8.2234 9.3364 -2.3385 0.9506
-8.5921 8.9987 -2.3386 0.9506
-8.7713 8.8244 -2.3386 0.9506
-9.7701 7.7065 -2.3389 0.9506
-9.9232 7.5088 -2.3390 0.9506
-10.7008 7.1259 -2.4165 0.9490
-11.4451 6.6630 -2.4892 0.9475
-11.5863 6.4371 -2.4913 0.9475
-11.7138 6.2033 -2.4914 0.9475
-11.8366 5.9669 -2.4915 0.9475
-11.9546 5.7281 -2.4916 0.9475
-12.0678 5.4871 -2.4917 0.9475
-12.2797 4.9983 -2.4920 0.9475
-12.6440 3.9971 -2.4925 0.9475
-12.7959 3.4863 -2.4928 0.9475
-12.9272 2.9697 -2.4931 0.9474
-13.0377 2.4483 -2.4934 0.9474
-13.1273 1.9228 -2.4937 0.9474
-13.2689 0.3302 -2.4948 0.9474
-13.2677 -0.4699 -2.4954 0.9474
-13.2566 -0.7364 -2.4956 0.9474
-13.2402 -1.0027 -2.4958 0.9474
-13.1589 -1.7989 -2.4964 0.9474
-13.1212 -2.0631 -2.4966 0.9474
-12.9763 -2.8505 -2.4972 0.9474
-12.8536 -3.3701 -2.4976 0.9474
-12.6305 -4.1395 -2.4983 0.9473
-12.5459 -4.3928 -2.4985 0.9473
-12.3615 -4.8941 -2.4990 0.9473
-12.2618 -5.1420 -2.4992 0.9473
-11.9330 -5.8729 -2.4999 0.9473
3.0086 -10.9981 -2.4102 0.9545
3.4925 -11.0085 -2.4413 0.9539
4.2483 -11.0352 -2.4995 0.9528
4.4796 -10.9732 -2.5054 0.9527
4.7023 -10.8883 -2.5070 0.9527
4.9237 -10.7994 -2.5088 0.9526
5.3601 -10.6059 -2.5119 0.9526
5.7820 -10.3822 -2.5120 0.9526
6.1946 -10.1417 -2.5120 0.9526
6.7943 -9.7501 -2.5120 0.9526
7.1805 -9.4693 -2.5120 0.9526
7.5551 -9.1731 -2.5120 0.9526
7.7379 -9.0194 -2.5120 0.9526
8.0938 -8.7010 -2.5119 0.9526
8.4366 -8.3686 -2.5119 0.9526
8.6029 -8.1973 -2.5118 0.9526
8.9250 -7.8448 -2.5117 0.9526
9.2326 -7.4796 -2.5116 0.9526
9.3808 -7.2924 -2.5116 0.9526
9.6657 -6.9093 -2.5115 0.9526
9.9349 -6.5150 -2.5113 0.9526
10.5364 -5.4848 -2.5109 0.9526
10.6441 -5.2718 -2.5108 0.9526
10.8464 -4.8395 -2.5106 0.9526
10.9410 -4.6204 -2.5105 0.9526
11.1168 -4.1767 -2.5102 0.9526
11.1979 -3.9523 -2.5101 0.9526
11.4140 -3.2701 -2.5097 0.9526
11.4768 -3.0399 -2.5096 0.9526
11.5883 -2.5761 -2.5093 0.9526
11.7205 -1.8730 -2.5089 0.9526
11.7551 -1.6370 -2.5088 0.9526
11.7849 -1.4005 -2.5086 0.9526
11.8562 -0.4497 -2.5080 0.9527
11.8621 -0.2113 -2.5078 0.9527
11.8594 0.2654 -2.5075 0.9527
11.8508 0.5036 -2.5073 0.9527
11.8375 0.7415 -2.5071 0.9527
11.8194 0.9791 -2.5069 0.9527
11.6573 2.1588 -2.5060 0.9527
11.6107 2.3924 -2.5058 0.9527
11.5034 2.8565 -2.5054 0.9527
11.4428 3.0869 -2.5053 0.9527
11.3078 3.5435 -2.5049 0.9527
11.2335 3.7697 -2.5047 0.9527
11.1546 3.9943 -2.5045 0.9527
10.9833 4.4385 -2.5041 0.9527
10.6934 5.0909 -2.5035 0.9527
10.5881 5.3043 -2.5032 0.9527
10.4785 5.5155 -2.5030 0.9527
9.9986 6.3369 -2.5022 0.9528
9.8684 6.5360 -2.5020 0.9528
9.7343 6.7323 -2.5018 0.9528
8.2721 7.6405 -2.3803 0.9550
7.6893 8.0129 -2.3475 0.9556
7.5261 8.1651 -2.3473 0.9556
7.3600 8.3140 -2.3471 0.9556
7.1908 8.4595 -2.3469 0.9556
6.6666 8.8752 -2.3463 0.9556
5.9473 8.9997 -2.2802 0.9569
5.7070 9.0251 -2.2571 0.9573
5.4713 9.0500 -2.2354 0.9577
5.4786 9.4876 -2.3158 0.9562
5.3537 9.7169 -2.3451 0.9557
5.1570 9.8218 -2.3449 0.9557
4.5549 10.1125 -2.3444 0.9557
4.1444 10.2858 -2.3441 0.9557
3.9366 10.3663 -2.3439 0.9557
3.7273 10.4426 -2.3438 0.9557
3.5165 10.5147 -2.3436 0.9557
3.0908 10.6461 -2.3433 0.9557
2.6603 10.7603 -2.3430 0.9557
2.2256 10.8572 -2.3427 0.9557
1.5672 10.9696 -2.3423 0.9557
1.3464 10.9983 -2.3422 0.9557
1.1251 11.0225 -2.3420 0.9557
0.9033 11.0423 -2.3419 0.9557
0.6813 11.0576 -2.3418 0.9557
0.4589 11.0685 -2.3417 0.9557
0.0139 11.0769 -2.3414 0.9557
-0.6534 11.0561 -2.3411 0.9557
-0.8753 11.0403 -2.3410 0.9557
-1.3181 10.9953 -2.3408 0.9557
-1.1649 8.3022 -1.7721 0.9663
-1.7586 10.9327 -2.3406 0.9557
-1.9778 10.8947 -2.3406 0.9557
-2.4138 10.8057 -2.3404 0.9557
-2.3408 9.5712 -2.0828 0.9605
-2.8458 10.6994 -2.3403 0.9557
-3.0601 10.6398 -2.3402 0.9557
-3.4849 10.5077 -2.3401 0.9557
-3.5389 9.3900 -2.1211 0.9598
-4.1113 10.2780 -2.3399 0.9558
-4.7228 10.0112 -2.3398 0.9558
-5.1210 9.8131 -2.3398 0.9558
-5.3171 9.7081 -2.3397 0.9558
-6.2638 9.1256 -2.3397 0.9558
-6.4459 8.9979 -2.3397 0.9558
-6.8022 8.7318 -2.3397 0.9558
-6.9763 8.5934 -2.3397 0.9558
-7.1476 8.4515 -2.3397 0.9558
-7.3161 8.3063 -2.3397 0.9558
-7.4815 8.1577 -2.3397 0.9558
-7.6440 8.0058 -2.3398 0.9558
-7.9597 7.6925 -2.3398 0.9558
-8.3453 7.4404 -2.3633 0.9553
-8.6410 7.3979 -2.4045 0.9546
-9.3843 7.1010 -2.4876 0.9530
-9.5357 6.9187 -2.4903 0.9530
-9.6795 6.7304 -2.4921 0.9529
-9.8131 6.5347 -2.4921 0.9529
-9.9427 6.3365 -2.4922 0.9529
-10.3074 5.7266 -2.4925 0.9529
-10.5299 5.3082 -2.4926 0.9529
-10.6349 5.0958 -2.4927 0.9529
-10.7355 4.8813 -2.4928 0.9529
-11.1735 3.7808 -2.4934 0.9529
-11.2478 3.5557 -2.4935 0.9529
-11.4433 2.8721 -2.4939 0.9529
-11.4993 2.6417 -2.4940 0.9529
-11.5507 2.4103 -2.4942 0.9529
-11.5975 2.1779 -2.4943 0.9529
-11.6396 1.9445 -2.4945 0.9529
-11.6770 1.7104 -2.4946 0.9529
-11.7097 1.4755 -2.4948 0.9529
-11.7377 1.2400 -2.4949 0.9529
-11.8067 0.0565 -2.4957 0.9529
-11.8062 -0.1807 -2.4959 0.9529
-11.8010 -0.4179 -2.4961 0.9529
-11.7764 -0.8918 -2.4964 0.9529
-11.6701 -1.8350 -2.4971 0.9528
-11.6317 -2.0692 -2.4973 0.9528
-11.5887 -2.3027 -2.4975 0.9528
-11.4886 -2.7668 -2.4979 0.9528
-11.3699 -3.2266 -2.4983 0.9528
-11.2329 -3.6814 -2.4987 0.9528
-10.9045 -4.5728 -2.4995 0.9528
-10.8113 -4.7914 -2.4997 0.9528
-10.7137 -5.0080 -2.4999 0.9528
-10.6118 -5.2227 -2.5001 0.9528
-10.5056 -5.4353 -2.5003 0.9528
-10.3951 -5.6457 -2.5005 0.9528
2.6108 -10.3573 -2.5104 0.9571
2.8185 -10.3031 -2.5104 0.9571
3.2303 -10.1820 -2.5105 0.9571
3.6369 -10.0444 -2.5107 0.9571
3.8380 -9.9695 -2.5107 0.9571
4.0376 -9.8906 -2.5107 0.9571
5.1982 -9.3339 -2.5109 0.9571
5.7512 -9.0039 -2.5110 0.9570
5.9309 -8.8866 -2.5110 0.9570
6.1083 -8.7656 -2.5110 0.9570
6.2832 -8.6411 -2.5110 0.9570
6.4555 -8.5131 -2.5110 0.9570
6.6253 -8.3817 -2.5110 0.9570
6.7923 -8.2469 -2.5110 0.9570
6.9566 -8.1087 -2.5109 0.9570
7.1180 -7.9672 -2.5109 0.9571
7.4322 -7.6746 -2.5109 0.9571
7.5848 -7.5237 -2.5108 0.9571
8.0239 -7.0527 -2.5107 0.9571
8.5636 -6.3853 -2.5105 0.9571
8.6899 -6.2118 -2.5105 0.9571
8.8127 -6.0358 -2.5104 0.9571
8.9320 -5.8573 -2.5103 0.9571
9.1596 -5.4935 -2.5102 0.9571
9.2678 -5.3081 -2.5101 0.9571
9.3723 -5.1207 -2.5100 0.9571
10.0680 -3.5535 -2.5093 0.9571
10.2017 -3.1459 -2.5091 0.9571
10.2624 -2.9402 -2.5089 0.9571
10.4633 -2.1063 -2.5084 0.9571
10.5695 -1.4719 -2.5080 0.9571
10.5963 -1.2592 -2.5079 0.9571
10.6372 -0.8324 -2.5076 0.9571
10.6608 -0.4043 -2.5073 0.9571
10.6661 -0.1900 -2.5072 0.9571
10.6639 0.2386 -2.5069 0.9571
10.6443 0.6668 -2.5066 0.9571
10.6281 0.8804 -2.5064 0.9571
10.5828 1.3065 -2.5061 0.9571
10.5537 1.5188 -2.5059 0.9571
10.4827 1.9413 -2.5056 0.9571
10.3446 2.5688 -2.5051 0.9571
10.1690 3.1867 -2.5045 0.9572
10.1022 3.3901 -2.5044 0.9572
10.0313 3.5921 -2.5042 0.9572
9.7077 4.3846 -2.5035 0.9572
9.6169 4.5784 -2.5033 0.9572
9.5223 4.7704 -2.5031 0.9572
9.4239 4.9604 -2.5029 0.9572
9.2156 5.3342 -2.5025 0.9572
8.9925 5.6992 -2.5022 0.9572
8.5034 6.4009 -2.5014 0.9572
8.1005 6.9001 -2.5009 0.9572
7.6610 7.3667 -2.4979 0.9573
7.3449 7.6540 -2.4931 0.9573
7.1175 7.7218 -2.4681 0.9578
6.8580 7.7470 -2.4316 0.9584
6.1563 7.8619 -2.3468 0.9598
5.5037 8.3284 -2.3461 0.9598
5.3349 8.4367 -2.3460 0.9598
5.1639 8.5416 -2.3458 0.9598
4.8160 8.7410 -2.3455 0.9598
4.2798 9.0135 -2.3450 0.9598
4.0976 9.0971 -2.3449 0.9598
3.5414 9.3256 -2.3445 0.9598
3.3531 9.3943 -2.3443 0.9598
3.1635 9.4593 -2.3442 0.9598
2.7806 9.5776 -2.3439 0.9598
2.5875 9.6309 -2.3438 0.9599
2.3933 9.6804 -2.3436 0.9599
2.1982 9.7260 -2.3435 0.9599
2.0022 9.7677 -2.3434 0.9599
1.2113 9.8949 -2.3429 0.9599
0.8127 9.9346 -2.3426 0.9599
-0.1877 9.9638 -2.3421 0.9599
-0.3879 9.9576 -2.3420 0.9599
-0.7875 9.9332 -2.3418 0.9599
-0.9869 9.9150 -2.3418 0.9599
-1.1859 9.8928 -2.3417 0.9599
-1.1649 8.3023 -1.9704 0.9661
-1.5823 9.8365 -2.3415 0.9599
-1.7795 9.8024 -2.3414 0.9599
-2.1718 9.7224 -2.3413 0.9599
-2.5605 9.6268 -2.3412 0.9599
-3.3248 9.3893 -2.3410 0.9599
-3.6992 9.2478 -2.3409 0.9599
-4.2494 9.0077 -2.3408 0.9599
-4.9587 8.6371 -2.3407 0.9599
-5.3016 8.4309 -2.3406 0.9599
-5.4699 8.3226 -2.3406 0.9599
-5.6360 8.2110 -2.3406 0.9599
-5.9613 7.9779 -2.3406 0.9599
-6.4610 7.6396 -2.3515 0.9597
-6.7027 7.6099 -2.3833 0.9592
-7.2062 7.5473 -2.4525 0.9580
-7.6107 7.3552 -2.4875 0.9574
-7.9145 7.0564 -2.4920 0.9574
-8.0570 6.8979 -2.4928 0.9574
-8.1941 6.7347 -2.4928 0.9574
-8.4584 6.4004 -2.4929 0.9574
-8.5855 6.2293 -2.4930 0.9574
-8.7092 6.0557 -2.4930 0.9573
-8.9459 5.7012 -2.4932 0.9573
-9.0589 5.5205 -2.4932 0.9573
-9.1682 5.3375 -2.4933 0.9573
-9.5685 4.5848 -2.4936 0.9573
-9.6590 4.3918 -2.4937 0.9573
-9.7457 4.1970 -2.4938 0.9573
-9.8284 4.0005 -2.4939 0.9573
-9.9820 3.6027 -2.4941 0.9573
-10.2409 2.7902 -2.4946 0.9573
-10.2954 2.5840 -2.4947 0.9573
-10.4339 1.9594 -2.4951 0.9573
-10.5053 1.5387 -2.4953 0.9573
-10.5346 1.3274 -2.4955 0.9573
-10.5598 1.1156 -2.4956 0.9573
-10.5806 0.9032 -2.4957 0.9573
-10.6096 0.4775 -2.4960 0.9573
-10.6177 0.2642 -2.4962 0.9573
-10.6215 0.0509 -2.4963 0.9573
-10.6210 -0.1626 -2.4965 0.9573
-10.6163 -0.3760 -2.4966 0.9573
-10.5939 -0.8023 -2.4969 0.9573
-10.5763 -1.0150 -2.4971 0.9573
-10.5545 -1.2274 -2.4973 0.9573
-10.4635 -1.8614 -2.4978 0.9573
-10.4246 -2.0714 -2.4979 0.9573
-10.3816 -2.2805 -2.4981 0.9573
-10.3344 -2.4888 -2.4983 0.9573
-10.2275 -2.9024 -2.4986 0.9573
-9.8884 -3.9150 -2.4995 0.9572
-9.7245 -4.3097 -2.4999 0.9572
-9.6366 -4.5045 -2.5001 0.9572
-9.5449 -4.6976 -2.5002 0.9572
2.3691 -9.3985 -2.5096 0.9607
2.9312 -9.2393 -2.5097 0.9607
3.3001 -9.1144 -2.5098 0.9607
3.4827 -9.0464 -2.5099 0.9607
3.8434 -8.8995 -2.5099 0.9607
4.3727 -8.6521 -2.5100 0.9607
4.7169 -8.4696 -2.5101 0.9607
4.8861 -8.3732 -2.5101 0.9607
5.2186 -8.1702 -2.5101 0.9607
5.3817 -8.0637 -2.5101 0.9607
5.8577 -7.7249 -2.5101 0.9607
6.0118 -7.6055 -2.5101 0.9607
6.1633 -7.4832 -2.5101 0.9607
6.3124 -7.3578 -2.5101 0.9607
6.6028 -7.0982 -2.5101 0.9607
7.1510 -6.5448 -2.5099 0.9607
7.2810 -6.3997 -2.5099 0.9607
7.4080 -6.2521 -2.5099 0.9607
7.5320 -6.1019 -2.5098 0.9607
7.7707 -5.7941 -2.5097 0.9607
7.8854 -5.6367 -2.5097 0.9607
7.9969 -5.4770 -2.5096 0.9607
8.1051 -5.3151 -2.5095 0.9607
8.3117 -4.9849 -2.5094 0.9607
8.4099 -4.8168 -2.5093 0.9607
8.5047 -4.6467 -2.5093 0.9607
8.6840 -4.3010 -2.5091 0.9607
8.7684 -4.1255 -2.5090 0.9608
8.8492 -3.9484 -2.5089 0.9608
8.9264 -3.7696 -2.5089 0.9608
9.0000 -3.5894 -2.5088 0.9608
9.2577 -2.8548 -2.5084 0.9608
9.3128 -2.6681 -2.5083 0.9608
9.4117 -2.2916 -2.5080 0.9608
9.4554 -2.1019 -2.5079 0.9608
9.4953 -1.9115 -2.5078 0.9608
9.5918 -1.3358 -2.5075 0.9608
9.6661 -0.5613 -2.5069 0.9608
9.6749 -0.3669 -2.5068 0.9608
9.6779 0.2165 -2.5064 0.9608
9.6603 0.6051 -2.5061 0.9608
9.6270 0.9926 -2.5058 0.9608
9.3888 2.3314 -2.5048 0.9608
9.2864 2.7064 -2.5044 0.9608
9.1047 3.2603 -2.5040 0.9608
9.0368 3.4423 -2.5038 0.9608
8.8900 3.8021 -2.5035 0.9608
8.7289 4.1556 -2.5031 0.9608
8.2654 5.0085 -2.5023 0.9609
8.1625 5.1732 -2.5021 0.9609
7.9470 5.4962 -2.5018 0.9609
7.8344 5.6544 -2.5016 0.9609
7.5999 5.9638 -2.5013 0.9609
7.4781 6.1149 -2.5011 0.9609
6.9611 6.6937 -2.5004 0.9609
6.8248 6.8318 -2.5003 0.9609
5.9417 7.5878 -2.4953 0.9610
5.7836 7.6998 -2.4934 0.9610
5.4063 7.8341 -2.4645 0.9614
5.1880 7.8507 -2.4364 0.9619
4.3722 7.9355 -2.3459 0.9633
4.2116 8.0213 -2.3457 0.9633
4.0493 8.1038 -2.3456 0.9633
3.7200 8.2589 -2.3453 0.9633
2.8721 8.5880 -2.3446 0.9633
2.6989 8.6435 -2.3445 0.9633
2.1729 8.7890 -2.3441 0.9633
1.8179 8.8683 -2.3439 0.9633
0.9190 9.0038 -2.3434 0.9633
0.5565 9.0327 -2.3432 0.9633
0.3749 9.0417 -2.3431 0.9633
0.1932 9.0470 -2.3430 0.9633
0.0114 9.0487 -2.3429 0.9633
-0.5337 9.0320 -2.3426 0.9633
-1.1649 8.3025 -2.1707 0.9660
-1.4367 8.9314 -2.3422 0.9633
-1.7942 8.8660 -2.3421 0.9633
-2.1489 8.7863 -2.3420 0.9633
-2.5000 8.6925 -2.3419 0.9633
-2.8471 8.5846 -2.3418 0.9633
-3.0190 8.5256 -2.3417 0.9633
-3.6935 8.2551 -2.3416 0.9633
-4.0220 8.0999 -2.3415 0.9633
-4.1839 8.0174 -2.3415 0.9633
-4.5026 7.8427 -2.3415 0.9633
-4.6796 7.7845 -2.3517 0.9632
-4.8830 7.7651 -2.3750 0.9628
-5.5162 7.7002 -2.4525 0.9616
-5.9034 7.5780 -2.4872 0.9611
-6.6503 6.9651 -2.4934 0.9610
-6.7890 6.8301 -2.4934 0.9610
-6.9249 6.6924 -2.4935 0.9610
-7.3159 6.2634 -2.4936 0.9610
-7.4403 6.1152 -2.4936 0.9610
-7.6803 5.8116 -2.4937 0.9610
-7.9079 5.4986 -2.4938 0.9610
-8.0170 5.3387 -2.4939 0.9610
-8.1228 5.1767 -2.4939 0.9610
-8.2254 5.0126 -2.4940 0.9610
-8.4207 4.6783 -2.4941 0.9610
-8.6023 4.3365 -2.4943 0.9610
-8.6880 4.1629 -2.4944 0.9610
-8.9239 3.6324 -2.4946 0.9610
-8.9954 3.4525 -2.4947 0.9610
-9.1276 3.0885 -2.4949 0.9610
-9.2982 2.5333 -2.4952 0.9610
-9.4352 1.9688 -2.4956 0.9610
-9.4733 1.7790 -2.4957 0.9610
-9.5076 1.5884 -2.4958 0.9610
-9.5380 1.3971 -2.4959 0.9610
-9.5646 1.2052 -2.4960 0.9610
-9.6063 0.8201 -2.4963 0.9609
-9.6213 0.6269 -2.4964 0.9609
-9.6325 0.4335 -2.4965 0.9609
-9.6427 -0.1476 -2.4970 0.9609
-9.6383 -0.3413 -2.4971 0.9609
-9.6301 -0.5349 -2.4972 0.9609
-9.6179 -0.7284 -2.4974 0.9609
-9.5306 -1.4985 -2.4980 0.9609
-9.4639 -1.8804 -2.4983 0.9609
-9.4248 -2.0704 -2.4984 0.9609
-9.3352 -2.4476 -2.4987 0.9609
-9.1725 -3.0061 -2.4992 0.9609
-8.9765 -3.5539 -2.4997 0.9609
-8.9039 -3.7338 -2.4999 0.9609
-8.7478 -4.0891 -2.5002 0.9609
-8.6645 -4.2643 -2.5004 0.9609
-8.4873 -4.6096 -2.5007 0.9609
