ply
format ascii 1.0
element vertex 1573
property float32 x
property float32 y
property float32 z
property float32 I
end_header
-5.8682 23.9446 -1.8076 0.9059
-6.3901 23.9816 -1.8197 0.9053
-6.9086 23.9827 -1.8300 0.9047
-2.9007 9.3593 -0.7184 0.9615
-3.1128 9.3741 -0.7242 0.9612
-3.5369 9.3754 -0.7347 0.9606
-3.7538 9.3761 -0.7405 0.9603
-4.4268 9.3782 -0.7604 0.9593
-4.6595 9.3789 -0.7679 0.9589
-4.8970 9.3796 -0.7758 0.9585
-5.1135 9.3328 -0.7803 0.9582
-5.1160 8.5084 -0.7279 0.9610
-8.3010 13.1981 -1.1432 0.9394
-8.6769 13.2005 -1.1583 0.9386
-9.0631 13.2028 -1.1742 0.9378
-10.6781 13.1548 -1.2423 0.9343
-11.1732 13.2137 -1.2688 0.9330
-11.6384 13.2166 -1.2912 0.9318
-12.1206 13.2196 -1.3150 0.9306
-13.8053 13.3473 -1.4080 0.9259
-14.2026 13.1904 -1.4212 0.9252
-14.7730 13.1780 -1.4515 0.9237
-9.5320 8.1653 -0.9203 0.9509
-17.0458 13.4544 -1.5923 0.9166
-21.0921 13.4553 -1.8344 0.9045
-26.5832 13.4198 -2.1834 0.8874
-28.0245 13.4486 -2.2792 0.8828
-29.9053 11.5013 -2.3493 0.8794
-30.1301 10.8988 -2.3493 0.8794
-33.3937 6.9990 -2.5017 0.8721
-33.8475 4.2987 -2.5017 0.8721
-33.9928 2.9370 -2.5017 0.8721
-34.1188 0.2017 -2.5017 0.8721
-34.0251 -2.5349 -2.5017 0.8721
-33.9674 -3.2172 -2.5017 0.8721
-33.8960 -3.8982 -2.5017 0.8721
-33.8109 -4.5776 -2.5017 0.8721
-33.6000 -5.9307 -2.5017 0.8721
-33.1822 -7.9417 -2.5017 0.8721
-32.6443 -9.9239 -2.5017 0.8721
-32.1464 -11.2002 -2.4960 0.8724
-30.6708 -11.3813 -2.3987 0.8770
-28.7716 -14.1001 -2.3493 0.8794
-27.2143 -16.9115 -2.3493 0.8794
-26.5138 -17.9898 -2.3493 0.8794
-25.7705 -19.0393 -2.3493 0.8794
-25.3833 -19.5526 -2.3493 0.8794
-23.7954 -19.1024 -2.2374 0.8848
-23.4490 -19.6109 -2.2414 0.8846
-23.3922 -21.2154 -2.3155 0.8810
-23.3386 -22.0363 -2.3535 0.8792
-23.3219 -23.8621 -2.4465 0.8747
-22.8499 -25.3379 -2.5017 0.8721
16.0016 -18.5132 -2.3493 0.9063
17.0866 -17.5168 -2.3493 0.9063
19.2844 -17.5245 -2.5017 0.9006
19.9721 -16.7366 -2.5017 0.9006
20.3039 -16.3324 -2.5017 0.9006
21.2498 -15.0811 -2.5017 0.9006
21.5482 -14.6516 -2.5017 0.9006
22.1188 -13.7752 -2.5017 0.9006
22.3908 -13.3285 -2.5016 0.9006
23.1521 -11.9571 -2.5016 0.9006
23.3874 -11.4901 -2.5016 0.9006
23.8297 -10.5424 -2.5016 0.9006
24.7658 -8.1022 -2.5016 0.9006
24.9234 -7.6035 -2.5016 0.9006
25.0710 -7.1019 -2.5016 0.9006
25.2085 -6.5973 -2.5016 0.9006
25.4529 -5.5805 -2.5016 0.9006
25.7426 -4.0388 -2.5016 0.9006
25.8184 -3.5214 -2.5016 0.9006
25.9389 -2.4826 -2.5016 0.9006
25.9835 -1.9616 -2.5016 0.9006
26.0310 1.1739 -2.5016 0.9006
26.0022 1.6960 -2.5016 0.9006
25.9132 2.7380 -2.5016 0.9006
25.8530 3.2575 -2.5016 0.9006
25.7824 3.7757 -2.5016 0.9006
25.6101 4.8072 -2.5016 0.9006
24.6887 7.7987 -2.4857 0.9012
23.1810 7.8374 -2.3492 0.9063
23.0190 8.3010 -2.3492 0.9063
22.8478 8.7612 -2.3492 0.9063
22.4779 9.6710 -2.3492 0.9063
22.2793 10.1201 -2.3492 0.9063
22.0717 10.5652 -2.3492 0.9063
21.6300 11.4424 -2.3492 0.9063
21.3960 11.8741 -2.3492 0.9063
21.1534 12.3011 -2.3492 0.9063
19.4114 15.2906 -2.3723 0.9055
19.1620 15.7273 -2.3799 0.9052
18.8553 16.1196 -2.3815 0.9051
17.8570 17.2305 -2.3823 0.9051
17.5096 17.5874 -2.3826 0.9051
14.6600 16.6148 -2.1273 0.9148
13.9533 17.1551 -2.1230 0.9150
13.9556 17.8792 -2.1775 0.9129
13.9579 18.6417 -2.2358 0.9107
13.9604 19.4466 -2.2982 0.9083
13.6704 20.7525 -2.3858 0.9050
13.2531 21.0257 -2.3861 0.9050
12.4024 21.5469 -2.3868 0.9049
11.0884 22.2641 -2.3879 0.9049
5.6253 13.2359 -1.3807 0.9438
5.3150 13.2378 -1.3695 0.9443
4.7708 13.4159 -1.3670 0.9444
4.0830 13.1281 -1.3199 0.9463
3.5128 13.1316 -1.3050 0.9468
2.9545 13.1350 -1.2925 0.9473
2.4059 13.1384 -1.2823 0.9477
1.8568 13.0838 -1.2687 0.9483
1.5899 13.0855 -1.2655 0.9484
1.0640 13.1446 -1.2661 0.9484
0.7990 13.1462 -1.2644 0.9485
0.5345 13.1478 -1.2633 0.9485
-0.2575 13.1527 -1.2630 0.9485
-0.7865 13.1560 -1.2653 0.9484
-1.0520 13.1576 -1.2672 0.9483
-1.8466 13.1046 -1.2705 0.9482
-2.1158 13.1062 -1.2746 0.9481
-1.8513 9.1236 -0.8938 0.9633
-1.8110 8.0886 -0.7958 0.9672
-3.1128 9.3741 -0.9483 0.9611
-3.7538 9.3761 -0.9696 0.9602
-3.9742 9.3768 -0.9777 0.9599
-4.4268 9.3782 -0.9956 0.9592
-4.6595 9.3789 -1.0054 0.9588
-5.1135 9.3328 -1.0217 0.9581
-5.1160 8.5084 -0.9531 0.9609
-8.4237 13.3932 -1.5190 0.9384
-9.5446 13.3231 -1.5734 0.9363
-9.9570 13.3257 -1.5970 0.9353
-10.6781 13.1548 -1.6266 0.9342
-11.2729 13.3317 -1.6761 0.9322
-12.6149 13.7586 -1.7921 0.9277
-12.8526 13.4652 -1.7871 0.9279
-13.8053 13.3473 -1.8435 0.9257
-17.0204 13.4344 -2.0817 0.9166
-17.7520 13.4425 -2.1378 0.9144
-18.9703 13.2018 -2.2189 0.9113
-20.2091 13.4701 -2.3317 0.9070
-21.1417 12.3221 -2.3493 0.9063
-21.3847 11.8954 -2.3493 0.9063
-22.0617 10.5871 -2.3493 0.9063
-22.4688 9.6933 -2.3493 0.9063
-22.6588 9.2404 -2.3493 0.9063
-22.8397 8.7839 -2.3493 0.9063
-24.9591 7.3633 -2.4983 0.9007
-25.1360 6.8703 -2.5017 0.9006
-25.2688 6.3645 -2.5017 0.9006
-25.3914 5.8561 -2.5017 0.9006
-25.6060 4.8325 -2.5017 0.9006
-25.6978 4.3177 -2.5017 0.9006
-25.7793 3.8011 -2.5017 0.9006
-25.9110 2.7636 -2.5017 0.9006
-26.0011 1.7217 -2.5017 0.9006
-26.0304 1.1995 -2.5017 0.9006
-26.0576 0.1541 -2.5017 0.9006
-26.0554 -0.3689 -2.5017 0.9006
-26.0196 -1.4141 -2.5017 0.9006
-25.9860 -1.9360 -2.5017 0.9006
-25.8224 -3.4961 -2.5017 0.9006
-25.7471 -4.0136 -2.5017 0.9006
-25.4589 -5.5555 -2.5017 0.9006
-25.2155 -6.5726 -2.5017 0.9006
-24.9314 -7.5792 -2.5017 0.9006
-24.6072 -8.5735 -2.5017 0.9006
-24.2434 -9.5540 -2.5017 0.9006
-23.8405 -10.5191 -2.5017 0.9006
-23.3992 -11.4673 -2.5017 0.9006
-22.9202 -12.3970 -2.5017 0.9006
-22.4043 -13.3067 -2.5017 0.9006
-20.9585 -15.4842 -2.5017 0.9006
-20.6436 -15.9016 -2.5017 0.9006
-20.3203 -16.3127 -2.5017 0.9006
-19.9889 -16.7172 -2.5017 0.9006
-19.3019 -17.5058 -2.5017 0.9006
-18.9468 -17.8896 -2.5017 0.9006
12.9328 -14.9627 -2.3493 0.9234
13.2305 -14.7001 -2.3493 0.9234
13.5228 -14.4317 -2.3493 0.9234
13.8097 -14.1574 -2.3493 0.9234
14.3667 -13.5919 -2.3493 0.9234
14.9005 -13.0044 -2.3493 0.9234
16.1300 -13.5169 -2.4998 0.9187
16.4100 -13.2002 -2.5017 0.9187
17.1745 -12.1888 -2.5017 0.9187
18.5143 -10.0375 -2.5017 0.9187
18.7120 -9.6640 -2.5017 0.9187
19.0847 -8.9053 -2.5017 0.9187
19.2596 -8.5205 -2.5017 0.9187
19.4267 -8.1323 -2.5017 0.9187
19.5860 -7.7408 -2.5017 0.9187
19.7374 -7.3463 -2.5017 0.9187
19.8808 -6.9487 -2.5017 0.9187
20.0162 -6.5483 -2.5017 0.9187
20.1436 -6.1453 -2.5017 0.9187
20.2629 -5.7399 -2.5017 0.9187
20.3740 -5.3321 -2.5016 0.9187
20.3261 -4.8859 -2.4832 0.9192
20.6579 -4.0965 -2.5016 0.9187
20.7359 -3.6811 -2.5016 0.9187
20.8056 -3.2643 -2.5016 0.9187
20.8669 -2.8461 -2.5016 0.9187
20.9199 -2.4268 -2.5016 0.9187
20.9643 -2.0065 -2.5016 0.9187
21.0279 -1.1636 -2.5016 0.9187
21.0577 -0.3189 -2.5016 0.9187
21.0599 0.1037 -2.5016 0.9187
21.0535 0.5264 -2.5016 0.9187
21.0155 1.3707 -2.5016 0.9187
20.9435 2.2129 -2.5016 0.9187
20.8949 2.6328 -2.5016 0.9187
20.8379 3.0516 -2.5016 0.9187
20.7724 3.4691 -2.5016 0.9187
20.6165 4.2998 -2.5016 0.9187
20.0820 6.3435 -2.5016 0.9187
19.6371 7.5301 -2.4982 0.9188
19.1407 7.7838 -2.4545 0.9201
18.0065 8.1793 -2.3492 0.9234
17.6638 8.8952 -2.3492 0.9234
17.4818 9.2479 -2.3492 0.9234
17.0966 9.9420 -2.3492 0.9234
16.6839 10.6200 -2.3492 0.9234
16.4674 10.9527 -2.3492 0.9234
16.2443 11.2809 -2.3493 0.9234
16.0146 11.6046 -2.3493 0.9234
15.0325 12.8515 -2.3493 0.9234
13.1816 14.9394 -2.3666 0.9229
12.9080 15.2339 -2.3718 0.9227
12.3372 15.8058 -2.3817 0.9224
11.3900 16.5575 -2.3872 0.9222
10.7187 17.0049 -2.3877 0.9222
10.3764 17.2185 -2.3880 0.9222
9.6793 17.6249 -2.3885 0.9222
6.1801 13.0593 -1.7162 0.9435
5.6253 13.2359 -1.7083 0.9437
5.3150 13.2378 -1.6945 0.9442
5.1731 13.6716 -1.7364 0.9428
4.8897 13.7503 -1.7335 0.9429
4.2517 13.6707 -1.7006 0.9440
3.3378 13.5617 -1.6590 0.9453
2.7030 13.2539 -1.6068 0.9470
2.1252 13.0822 -1.5744 0.9480
1.8568 13.0838 -1.5697 0.9482
1.0735 13.2619 -1.5805 0.9478
0.8308 13.6705 -1.6269 0.9463
0.5529 13.6006 -1.6169 0.9466
-0.2683 13.7040 -1.6282 0.9463
-0.5295 13.3488 -1.5869 0.9476
-1.6000 13.2783 -1.5887 0.9476
-1.8466 13.1046 -1.5720 0.9481
-2.1158 13.1062 -1.5770 0.9479
-2.3870 13.1079 -1.5826 0.9477
-3.3417 13.6356 -1.6677 0.9450
-3.8506 13.3671 -1.6524 0.9455
-2.9007 9.3593 -1.1639 0.9613
-3.1128 9.3741 -1.1733 0.9610
-3.7538 9.3761 -1.1997 0.9601
-5.1590 8.9834 -1.2305 0.9591
-5.1160 8.5084 -1.1793 0.9608
-9.5446 13.3231 -1.9468 0.9361
-9.9570 13.3257 -1.9760 0.9352
-12.3934 13.5171 -2.1784 0.9288
-13.8053 13.3473 -2.2810 0.9256
-14.2026 13.1904 -2.3024 0.9249
-9.5298 8.1635 -1.4906 0.9507
-15.2752 12.5624 -2.3493 0.9234
-15.5242 12.2534 -2.3493 0.9234
-15.7670 11.9394 -2.3493 0.9234
-16.0034 11.6206 -2.3493 0.9234
-17.0870 9.9590 -2.3493 0.9234
-17.6553 8.9128 -2.3493 0.9234
-19.6091 7.5415 -2.4956 0.9189
-19.9444 6.7650 -2.5017 0.9187
-20.1998 5.9592 -2.5017 0.9187
-20.5217 4.7330 -2.5017 0.9187
-20.6126 4.3202 -2.5017 0.9187
-20.6952 3.9057 -2.5017 0.9187
-20.7694 3.4896 -2.5017 0.9187
-20.8352 3.0721 -2.5017 0.9187
-20.8927 2.6534 -2.5017 0.9187
-20.9417 2.2336 -2.5017 0.9187
-20.9823 1.8129 -2.5017 0.9187
-21.0145 1.3915 -2.5017 0.9187
-21.0382 0.9695 -2.5017 0.9187
-21.0584 -0.2981 -2.5017 0.9187
-21.0023 -1.5647 -2.5017 0.9187
-20.8092 -3.2438 -2.5017 0.9187
-20.5763 -4.4901 -2.5017 0.9187
-20.3796 -5.3121 -2.5017 0.9187
-20.2689 -5.7200 -2.5017 0.9187
-20.1500 -6.1256 -2.5017 0.9187
-20.0230 -6.5287 -2.5017 0.9187
-19.7449 -7.3269 -2.5017 0.9187
-19.4350 -8.1133 -2.5017 0.9187
-19.2683 -8.5017 -2.5017 0.9187
-19.0938 -8.8867 -2.5017 0.9187
-18.9116 -9.2680 -2.5017 0.9187
-18.7218 -9.6457 -2.5017 0.9187
-18.3197 -10.3892 -2.5017 0.9187
-18.1075 -10.7547 -2.5017 0.9187
-17.8880 -11.1159 -2.5017 0.9187
-16.9390 -12.5146 -2.5017 0.9187
-16.6845 -12.8520 -2.5017 0.9187
-16.1553 -13.5111 -2.5017 0.9187
-15.8809 -13.8326 -2.5017 0.9187
-15.6001 -14.1485 -2.5017 0.9187
-15.0198 -14.7631 -2.5017 0.9187
-14.7205 -15.0615 -2.5017 0.9187
-14.4154 -15.3539 -2.5017 0.9187
10.8423 -12.5441 -2.3493 0.9352
11.0919 -12.3239 -2.3493 0.9352
11.3369 -12.0989 -2.3493 0.9352
11.5774 -11.8689 -2.3493 0.9352
13.2867 -11.5960 -2.4987 0.9312
13.5326 -11.3403 -2.5017 0.9312
13.7574 -11.0664 -2.5017 0.9312
13.9767 -10.7881 -2.5017 0.9312
14.1904 -10.5055 -2.5017 0.9312
14.7968 -9.6326 -2.5017 0.9312
15.3496 -8.7248 -2.5017 0.9312
15.6873 -8.1019 -2.5017 0.9312
15.8467 -7.7854 -2.5017 0.9312
15.9998 -7.4658 -2.5017 0.9312
16.2865 -6.8178 -2.5017 0.9312
16.4200 -6.4896 -2.5017 0.9312
16.6672 -5.8255 -2.5017 0.9312
16.7807 -5.4898 -2.5017 0.9312
17.1669 -4.1265 -2.5017 0.9312
17.3187 -3.4343 -2.5017 0.9312
17.4425 -2.7366 -2.5017 0.9312
17.5383 -2.0345 -2.5017 0.9312
17.5756 -1.6821 -2.5017 0.9312
17.6058 -1.3291 -2.5017 0.9312
17.6450 -0.6216 -2.5017 0.9312
17.6539 -0.2673 -2.5017 0.9312
17.6557 0.0870 -2.5017 0.9312
17.6185 1.1492 -2.5017 0.9312
17.5582 1.8552 -2.5017 0.9312
17.3529 3.2572 -2.5017 0.9312
17.2840 3.6048 -2.5017 0.9312
17.1254 4.2955 -2.5017 0.9312
16.9393 4.9792 -2.5017 0.9312
16.6090 5.9894 -2.5017 0.9312
16.2185 6.9779 -2.5017 0.9312
16.0752 7.3020 -2.5017 0.9312
15.8938 7.6079 -2.4967 0.9313
14.7164 7.7850 -2.3589 0.9350
14.3330 8.3349 -2.3493 0.9352
13.9870 8.9034 -2.3493 0.9352
13.4260 9.7288 -2.3493 0.9352
10.4419 8.2252 -1.8834 0.9477
11.9315 11.5129 -2.3493 0.9352
11.4599 11.9824 -2.3493 0.9352
11.2171 12.2100 -2.3493 0.9352
10.7181 12.6503 -2.3493 0.9352
10.4621 12.8628 -2.3493 0.9352
9.9375 13.2722 -2.3493 0.9352
9.6692 13.4690 -2.3493 0.9352
9.1210 13.8462 -2.3493 0.9352
8.8488 14.0383 -2.3513 0.9352
8.3018 14.4232 -2.3580 0.9350
6.1801 13.0593 -2.0471 0.9433
5.3150 13.2378 -2.0212 0.9440
5.1140 13.5156 -2.0475 0.9433
4.1247 13.2621 -1.9679 0.9454
3.5487 13.2657 -1.9457 0.9460
2.9889 13.2877 -1.9298 0.9465
2.7030 13.2539 -1.9166 0.9468
2.1252 13.0822 -1.8779 0.9479
1.8568 13.0838 -1.8724 0.9480
1.0735 13.2618 -1.8852 0.9477
0.0068 13.7297 -1.9454 0.9460
-0.2683 13.7037 -1.9420 0.9461
-0.5271 13.2887 -1.8843 0.9477
-0.8137 13.6099 -1.9318 0.9464
-1.0627 13.2920 -1.8893 0.9476
-1.6000 13.2783 -1.8950 0.9474
-1.8466 13.1046 -1.8751 0.9479
-2.3870 13.1079 -1.8878 0.9476
-1.8513 9.1236 -1.3191 0.9631
-3.2603 13.3035 -1.9407 0.9462
-3.6463 13.6845 -2.0066 0.9444
-2.9007 9.3593 -1.3883 0.9612
-3.1128 9.3741 -1.3995 0.9609
-3.3234 9.3747 -1.4093 0.9606
-3.5369 9.3754 -1.4198 0.9603
-3.7538 9.3761 -1.4310 0.9600
-4.1985 9.3774 -1.4558 0.9593
-4.4268 9.3782 -1.4694 0.9590
-4.6595 9.3789 -1.4838 0.9586
-4.8970 9.3796 -1.4992 0.9582
-5.1135 9.3328 -1.5078 0.9579
-8.3889 13.3378 -2.2325 0.9383
-8.7688 13.3401 -2.2619 0.9375
-9.1590 13.3426 -2.2931 0.9367
-9.5446 13.3231 -2.3222 0.9359
-9.9245 13.2821 -2.3493 0.9352
-10.1891 13.0803 -2.3493 0.9352
-10.4495 12.8732 -2.3493 0.9352
-11.4482 11.9938 -2.3493 0.9352
-12.3731 11.0372 -2.3493 0.9352
-12.8060 10.5318 -2.3493 0.9352
-13.0148 10.2727 -2.3493 0.9352
-13.4166 9.7422 -2.3493 0.9352
-13.6093 9.4710 -2.3493 0.9352
-14.3250 8.3491 -2.3493 0.9352
-14.4897 8.0600 -2.3493 0.9352
-14.6485 7.7676 -2.3493 0.9352
-15.1823 7.6643 -2.4097 0.9336
-15.8728 7.6171 -2.4946 0.9313
-16.2118 6.9940 -2.5017 0.9312
-16.4794 6.3378 -2.5017 0.9312
-16.7204 5.6714 -2.5017 0.9312
-16.8309 5.3348 -2.5017 0.9312
-17.2045 3.9679 -2.5017 0.9312
-17.3499 3.2744 -2.5017 0.9312
-17.4673 2.5755 -2.5017 0.9312
-17.5566 1.8725 -2.5017 0.9312
-17.6176 1.1665 -2.5017 0.9312
-17.6374 0.8128 -2.5017 0.9312
-17.6559 0.1044 -2.5017 0.9312
-17.6544 -0.2500 -2.5017 0.9312
-17.6074 -1.3118 -2.5017 0.9312
-17.4965 -2.3688 -2.5017 0.9312
-17.4455 -2.7195 -2.5017 0.9312
-17.3223 -3.4173 -2.5017 0.9312
-17.2502 -3.7643 -2.5017 0.9312
-17.1712 -4.1097 -2.5017 0.9312
-17.0853 -4.4534 -2.5017 0.9312
-16.7864 -5.4734 -2.5017 0.9312
-16.5532 -6.1426 -2.5017 0.9312
-16.4266 -6.4735 -2.5017 0.9312
-16.2934 -6.8019 -2.5017 0.9312
-16.0073 -7.4502 -2.5017 0.9312
-15.6955 -8.0865 -2.5017 0.9312
-15.5300 -8.3998 -2.5017 0.9312
-14.9965 -9.3191 -2.5017 0.9312
-14.8064 -9.6182 -2.5017 0.9312
-14.6105 -9.9133 -2.5017 0.9312
-14.2009 -10.4917 -2.5017 0.9312
-13.7685 -11.0530 -2.5017 0.9312
-13.5439 -11.3271 -2.5017 0.9312
-13.3139 -11.5966 -2.5017 0.9312
-13.0784 -11.8614 -2.5017 0.9312
-12.8378 -12.1215 -2.5017 0.9312
-12.5919 -12.3767 -2.5017 0.9312
-12.3410 -12.6269 -2.5017 0.9312
-11.8244 -13.1119 -2.5017 0.9312
10.0498 -11.1661 -2.4748 0.9409
10.3597 -11.0560 -2.4960 0.9404
10.8195 -10.6555 -2.5017 0.9403
11.2384 -10.2128 -2.5017 0.9403
11.6391 -9.7536 -2.5017 0.9403
12.5577 -8.5386 -2.5017 0.9403
12.7265 -8.2848 -2.5017 0.9403
12.8902 -8.0278 -2.5017 0.9403
13.0487 -7.7675 -2.5017 0.9403
13.4924 -6.9683 -2.5017 0.9403
14.0077 -5.8639 -2.5017 0.9403
14.1226 -5.5816 -2.5017 0.9403
14.2317 -5.2971 -2.5017 0.9403
14.3352 -5.0104 -2.5017 0.9403
14.5247 -4.4312 -2.5017 0.9403
14.6107 -4.1388 -2.5017 0.9403
14.9518 -2.6543 -2.5017 0.9403
15.0844 -1.7498 -2.5017 0.9403
15.1165 -1.4468 -2.5017 0.9403
15.1425 -1.1431 -2.5017 0.9403
15.1624 -0.8390 -2.5017 0.9403
15.1761 -0.5346 -2.5017 0.9403
15.1701 0.6841 -2.5017 0.9403
15.1305 1.2923 -2.5017 0.9403
15.0253 2.2003 -2.5017 0.9403
14.9781 2.5014 -2.5017 0.9403
14.9249 2.8015 -2.5017 0.9403
14.8657 3.1004 -2.5017 0.9403
14.8004 3.3981 -2.5017 0.9403
14.7293 3.6945 -2.5017 0.9403
14.6522 3.9893 -2.5017 0.9403
14.5692 4.2825 -2.5017 0.9403
14.0669 5.7205 -2.5017 0.9403
13.8260 6.2803 -2.5017 0.9403
13.6972 6.5565 -2.5017 0.9403
13.5629 6.8301 -2.5017 0.9403
13.4231 7.1009 -2.5017 0.9403
13.2724 7.3658 -2.5006 0.9403
12.7474 7.7593 -2.4584 0.9413
11.8739 7.8975 -2.3493 0.9438
11.7131 8.1342 -2.3493 0.9438
10.4256 8.2123 -2.1864 0.9476
10.6511 9.4823 -2.3493 0.9438
10.0613 10.1060 -2.3493 0.9438
9.2185 10.8803 -2.3493 0.9438
8.9983 11.0631 -2.3493 0.9438
8.7745 11.2414 -2.3493 0.9438
8.5471 11.4152 -2.3493 0.9438
8.3163 11.5845 -2.3493 0.9438
8.0821 11.7489 -2.3493 0.9438
7.8448 11.9088 -2.3493 0.9438
6.3574 12.7650 -2.3493 0.9438
5.8401 13.0098 -2.3493 0.9438
5.3133 13.2337 -2.3493 0.9438
5.0467 13.3376 -2.3493 0.9438
4.7759 13.4301 -2.3482 0.9439
4.4194 13.2651 -2.3034 0.9449
3.3860 13.7577 -2.3341 0.9442
2.9958 13.3186 -2.2489 0.9462
2.4274 13.2556 -2.2200 0.9468
2.1252 13.0822 -2.1834 0.9477
1.0735 13.2618 -2.1919 0.9475
0.5538 13.6242 -2.2463 0.9462
0.0068 13.7579 -2.2665 0.9458
-0.2650 13.5334 -2.2299 0.9466
-1.0631 13.2969 -2.1975 0.9474
-1.6000 13.2783 -2.2033 0.9472
-1.8110 8.0886 -1.3655 0.9670
-3.8347 13.3118 -2.2822 0.9454
-3.5369 9.3754 -1.6508 0.9602
-3.7538 9.3761 -1.6638 0.9599
-4.4268 9.3782 -1.7084 0.9588
-4.6595 9.3789 -1.7252 0.9584
-4.8970 9.3796 -1.7431 0.9580
-5.1590 8.9834 -1.7066 0.9589
-5.1160 8.5084 -1.6355 0.9606
-8.0707 11.7571 -2.3493 0.9438
-8.9875 11.0720 -2.3493 0.9438
-9.8464 10.3157 -2.3493 0.9438
-10.0514 10.1160 -2.3493 0.9438
-10.4493 9.7045 -2.3493 0.9438
-9.4377 8.0845 -2.0472 0.9509
-11.7052 8.1458 -2.3493 0.9438
-12.0512 7.6878 -2.3549 0.9437
-12.5744 7.6709 -2.4265 0.9420
-13.2557 7.3736 -2.4988 0.9404
-13.5563 6.8435 -2.5017 0.9403
-13.6909 6.5701 -2.5017 0.9403
-14.1736 5.4510 -2.5017 0.9403
-14.2802 5.1655 -2.5017 0.9403
-14.4760 4.5883 -2.5017 0.9403
-14.7258 3.7090 -2.5017 0.9403
-14.8628 3.1151 -2.5017 0.9403
-15.0647 1.9132 -2.5017 0.9403
-15.1294 1.3072 -2.5017 0.9403
-15.1806 0.3945 -2.5017 0.9403
-15.1842 -0.2150 -2.5017 0.9403
-15.1634 -0.8241 -2.5017 0.9403
-14.9546 -2.6396 -2.5017 0.9403
-14.8986 -2.9392 -2.5017 0.9403
-14.7686 -3.5346 -2.5017 0.9403
-14.6948 -3.8303 -2.5017 0.9403
-14.5292 -4.4169 -2.5017 0.9403
-14.4377 -4.7076 -2.5017 0.9403
-14.2371 -5.2831 -2.5017 0.9403
-14.1282 -5.5677 -2.5017 0.9403
-13.7676 -6.4078 -2.5017 0.9403
-13.6362 -6.6828 -2.5017 0.9403
-13.3571 -7.2246 -2.5017 0.9403
-13.2094 -7.4912 -2.5017 0.9403
-12.8982 -8.0152 -2.5017 0.9403
-12.7348 -8.2724 -2.5017 0.9403
-12.5662 -8.5263 -2.5017 0.9403
-12.3926 -8.7768 -2.5017 0.9403
-12.2139 -9.0237 -2.5017 0.9403
-11.8420 -9.5065 -2.5017 0.9403
-11.6488 -9.7422 -2.5017 0.9403
-11.4510 -9.9740 -2.5017 0.9403
-10.8301 -10.6450 -2.5017 0.9403
8.7034 -10.0694 -2.5017 0.9473
9.2935 -9.5275 -2.5017 0.9473
10.0276 -8.7516 -2.5017 0.9473
10.3707 -8.3421 -2.5017 0.9473
10.5360 -8.1324 -2.5017 0.9473
10.8538 -7.7030 -2.5017 0.9473
11.5709 -6.5770 -2.5017 0.9473
11.9457 -5.8688 -2.5017 0.9473
12.0610 -5.6279 -2.5017 0.9473
12.8758 -3.3697 -2.5017 0.9473
13.0007 -2.8504 -2.5017 0.9473
13.1046 -2.3264 -2.5017 0.9473
13.1486 -2.0629 -2.5017 0.9473
13.2208 -1.5337 -2.5017 0.9473
13.2489 -1.2680 -2.5017 0.9473
13.2717 -1.0019 -2.5017 0.9473
13.3079 -0.2015 -2.5017 0.9473
13.3093 0.0656 -2.5017 0.9473
13.2358 1.3985 -2.5017 0.9473
13.0810 2.4554 -2.5017 0.9473
12.9719 2.9783 -2.5017 0.9473
12.9096 3.2380 -2.5017 0.9473
12.6913 4.0089 -2.5017 0.9473
12.4271 4.7653 -2.5017 0.9473
12.2259 5.2601 -2.5017 0.9473
12.1179 5.5044 -2.5017 0.9473
11.7647 6.2236 -2.5017 0.9473
11.6375 6.4584 -2.5017 0.9473
11.2278 7.1470 -2.5017 0.9473
10.9111 7.5773 -2.4969 0.9474
10.6915 7.7473 -2.4817 0.9477
10.2654 7.7574 -2.4185 0.9490
9.8601 7.7669 -2.3592 0.9502
9.5001 8.1218 -2.3493 0.9504
9.1666 8.4965 -2.3493 0.9504
8.9942 8.6787 -2.3493 0.9504
8.8183 8.8574 -2.3493 0.9504
8.6388 9.0326 -2.3493 0.9504
8.2693 9.3720 -2.3493 0.9504
8.0796 9.5361 -2.3493 0.9504
7.8866 9.6963 -2.3493 0.9504
7.6904 9.8526 -2.3493 0.9504
7.4912 10.0049 -2.3493 0.9504
7.2889 10.1533 -2.3493 0.9504
7.0837 10.2975 -2.3493 0.9504
6.8756 10.4376 -2.3493 0.9504
6.4512 10.7051 -2.3493 0.9504
6.2351 10.8324 -2.3493 0.9504
5.3464 11.2975 -2.3493 0.9504
5.1186 11.4025 -2.3493 0.9504
4.8887 11.5029 -2.3493 0.9504
4.1878 11.7762 -2.3493 0.9504
3.9506 11.8579 -2.3493 0.9504
3.2300 12.0741 -2.3493 0.9504
2.9870 12.1365 -2.3493 0.9504
2.7428 12.1940 -2.3493 0.9504
2.2513 12.2943 -2.3493 0.9504
1.7562 12.3747 -2.3493 0.9504
1.5075 12.4075 -2.3493 0.9504
1.2582 12.4352 -2.3493 0.9504
1.0084 12.4580 -2.3493 0.9504
0.7582 12.4757 -2.3493 0.9504
-0.9961 12.4589 -2.3493 0.9504
-1.4953 12.4089 -2.3493 0.9504
-1.9920 12.3390 -2.3493 0.9504
-2.2392 12.2965 -2.3493 0.9504
-1.8350 9.0434 -1.7344 0.9631
-2.9750 12.1395 -2.3493 0.9504
-2.9007 9.3592 -1.8417 0.9609
-3.9389 11.8618 -2.3493 0.9504
-3.3816 8.9637 -1.8007 0.9618
-3.7695 8.8937 -1.8156 0.9614
-4.1762 8.8472 -1.8389 0.9610
-5.1160 8.5084 -1.8661 0.9604
-6.8654 10.4444 -2.3493 0.9504
-7.0736 10.3045 -2.3493 0.9504
-7.2789 10.1605 -2.3493 0.9504
-7.4814 10.0124 -2.3493 0.9504
-7.8771 9.7041 -2.3493 0.9504
-8.8096 8.8662 -2.3493 0.9504
-9.1583 8.5056 -2.3493 0.9504
-9.3271 8.3201 -2.3493 0.9504
-9.4256 8.0741 -2.3328 0.9507
-9.6535 7.9391 -2.3493 0.9504
-9.8109 7.7438 -2.3493 0.9504
-10.1502 7.6862 -2.3931 0.9495
-10.5673 7.6732 -2.4546 0.9482
-11.4990 6.7021 -2.5017 0.9473
-11.8814 5.9980 -2.5017 0.9473
-11.9994 5.7583 -2.5017 0.9473
-12.1126 5.5164 -2.5017 0.9473
-12.3242 5.0259 -2.5017 0.9473
-12.6043 4.2753 -2.5017 0.9473
-12.6875 4.0215 -2.5017 0.9473
-12.8387 3.5091 -2.5017 0.9473
-12.9691 2.9911 -2.5017 0.9473
-13.0266 2.7302 -2.5017 0.9473
-13.1672 1.9415 -2.5017 0.9473
-13.2035 1.6769 -2.5017 0.9473
-13.2345 1.4116 -2.5017 0.9473
-13.2805 0.8794 -2.5017 0.9473
-13.2955 0.6127 -2.5017 0.9473
-13.3051 0.3458 -2.5017 0.9473
-13.3018 -0.4555 -2.5017 0.9473
-13.2224 -1.5207 -2.5017 0.9473
-13.1893 -1.7857 -2.5017 0.9473
-13.0036 -2.8376 -2.5017 0.9473
-12.9440 -3.0980 -2.5017 0.9473
-12.8793 -3.3571 -2.5017 0.9473
-12.6539 -4.1260 -2.5017 0.9473
-12.5686 -4.3791 -2.5017 0.9473
-12.4782 -4.6304 -2.5017 0.9473
-12.1770 -5.3728 -2.5017 0.9473
-12.0667 -5.6161 -2.5017 0.9473
-11.9516 -5.8571 -2.5017 0.9473
-11.7069 -6.3320 -2.5017 0.9473
-11.1615 -7.2504 -2.5017 0.9473
-11.0137 -7.4729 -2.5017 0.9473
-10.8615 -7.6924 -2.5017 0.9473
-10.7050 -7.9088 -2.5017 0.9473
-10.2097 -8.5386 -2.5017 0.9473
-10.0363 -8.7418 -2.5017 0.9473
-9.4921 -9.3298 -2.5017 0.9473
-8.9135 -9.8841 -2.5017 0.9473
7.7391 -8.9538 -2.5017 0.9528
7.9173 -8.7967 -2.5017 0.9528
8.0922 -8.6361 -2.5017 0.9528
8.2639 -8.4719 -2.5017 0.9528
8.7587 -7.9594 -2.5017 0.9528
9.0710 -7.6015 -2.5017 0.9528
9.3687 -7.2314 -2.5017 0.9528
9.5119 -7.0419 -2.5017 0.9528
9.9184 -6.4568 -2.5017 0.9528
10.2889 -5.8483 -2.5017 0.9528
10.4042 -5.6407 -2.5017 0.9528
10.5153 -5.4307 -2.5017 0.9528
10.6222 -5.2186 -2.5017 0.9528
10.9170 -4.5700 -2.5017 0.9528
11.0915 -4.1283 -2.5017 0.9528
11.2483 -3.6799 -2.5017 0.9528
11.3198 -3.4534 -2.5017 0.9528
11.3869 -3.2256 -2.5017 0.9528
11.4493 -2.9964 -2.5017 0.9528
11.5603 -2.5346 -2.5017 0.9528
11.6527 -2.0686 -2.5017 0.9528
11.7263 -1.5994 -2.5017 0.9528
11.7811 -1.1276 -2.5017 0.9528
11.8335 -0.1792 -2.5017 0.9528
11.8312 0.2958 -2.5017 0.9528
11.7420 1.4795 -2.5017 0.9528
11.7100 1.7148 -2.5017 0.9528
11.6732 1.9495 -2.5017 0.9528
11.6317 2.1834 -2.5017 0.9528
11.1331 4.0148 -2.5017 0.9528
11.0503 4.2374 -2.5017 0.9528
10.9631 4.4583 -2.5017 0.9528
10.7753 4.8946 -2.5017 0.9528
10.6749 5.1098 -2.5017 0.9528
10.5702 5.3230 -2.5017 0.9528
10.3481 5.7429 -2.5017 0.9528
10.1094 6.1535 -2.5017 0.9528
9.9838 6.3551 -2.5017 0.9528
9.2950 7.3217 -2.5011 0.9528
9.1352 7.4978 -2.4981 0.9528
8.6981 7.7436 -2.4617 0.9535
8.3632 7.7518 -2.4104 0.9544
7.8413 7.8761 -2.3493 0.9556
7.5189 8.1844 -2.3493 0.9556
7.0128 8.6220 -2.3493 0.9556
6.8384 8.7610 -2.3493 0.9556
6.1138 9.2812 -2.3493 0.9556
5.9264 9.4020 -2.3493 0.9556
5.7365 9.5190 -2.3493 0.9556
5.5443 9.6322 -2.3493 0.9556
5.3499 9.7415 -2.3493 0.9556
5.1533 9.8470 -2.3493 0.9556
4.9547 9.9484 -2.3493 0.9556
4.5515 10.1392 -2.3493 0.9556
4.3471 10.2285 -2.3493 0.9556
3.0870 10.6766 -2.3493 0.9556
2.8721 10.7364 -2.3493 0.9556
2.0019 10.9321 -2.3493 0.9556
1.7821 10.9701 -2.3493 0.9556
1.3405 11.0328 -2.3493 0.9556
1.1188 11.0575 -2.3493 0.9556
0.8967 11.0777 -2.3493 0.9556
0.6742 11.0935 -2.3493 0.9556
0.4515 11.1048 -2.3493 0.9556
0.2285 11.1116 -2.3493 0.9556
-0.2176 11.1118 -2.3493 0.9556
-0.4405 11.1052 -2.3493 0.9556
-0.6633 11.0941 -2.3493 0.9556
-1.1079 11.0586 -2.3493 0.9556
-1.3296 11.0341 -2.3493 0.9556
-1.5508 11.0052 -2.3493 0.9556
-1.7713 10.9719 -2.3493 0.9556
-1.9911 10.9341 -2.3493 0.9556
-1.8110 8.0886 -1.7521 0.9667
-2.6454 10.7945 -2.3493 0.9556
-3.0765 10.6797 -2.3493 0.9556
-3.9229 10.3986 -2.3493 0.9556
-4.1308 10.3178 -2.3493 0.9556
-4.3370 10.2328 -2.3493 0.9556
-4.7442 10.0505 -2.3493 0.9556
-5.1436 9.8521 -2.3493 0.9556
-5.1135 9.3328 -2.2495 0.9574
-5.1160 8.5084 -2.0986 0.9602
-5.9171 9.4079 -2.3493 0.9556
-6.2899 9.1629 -2.3493 0.9556
-6.6525 8.9031 -2.3493 0.9556
-7.0044 8.6290 -2.3493 0.9556
-7.1761 8.4867 -2.3493 0.9556
-7.3450 8.3410 -2.3493 0.9556
-7.5109 8.1919 -2.3493 0.9556
-7.8336 7.8839 -2.3493 0.9556
-8.2841 7.6937 -2.3898 0.9548
-9.4351 7.1446 -2.5017 0.9528
-9.5766 6.9538 -2.5017 0.9528
-9.7142 6.7603 -2.5017 0.9528
-9.8479 6.5640 -2.5017 0.9528
-10.5651 5.3335 -2.5017 0.9528
-10.6700 5.1204 -2.5017 0.9528
-10.8669 4.6881 -2.5017 0.9528
-10.9588 4.4691 -2.5017 0.9528
-11.1293 4.0257 -2.5017 0.9528
-11.2078 3.8016 -2.5017 0.9528
-11.3513 3.3488 -2.5017 0.9528
-11.5833 2.4278 -2.5017 0.9528
-11.6714 1.9610 -2.5017 0.9528
-11.7911 1.0187 -2.5017 0.9528
-11.8091 0.7819 -2.5017 0.9528
-11.8225 0.5448 -2.5017 0.9528
-11.8348 0.0700 -2.5017 0.9528
-11.8338 -0.1676 -2.5017 0.9528
-11.8281 -0.4050 -2.5017 0.9528
-11.8023 -0.8793 -2.5017 0.9528
-11.7823 -1.1160 -2.5017 0.9528
-11.7575 -1.3522 -2.5017 0.9528
-11.6938 -1.8229 -2.5017 0.9528
-11.6548 -2.0572 -2.5017 0.9528
-11.5100 -2.7547 -2.5017 0.9528
-11.4523 -2.9852 -2.5017 0.9528
-11.3901 -3.2144 -2.5017 0.9528
-11.1761 -3.8939 -2.5017 0.9528
-11.0108 -4.3392 -2.5017 0.9528
-10.8278 -4.7776 -2.5017 0.9528
-10.6274 -5.2082 -2.5017 0.9528
-10.5208 -5.4204 -2.5017 0.9528
-10.4099 -5.6305 -2.5017 0.9528
-9.9248 -6.4471 -2.5017 0.9528
-9.7935 -6.6450 -2.5017 0.9528
-9.6581 -6.8402 -2.5017 0.9528
-9.3759 -7.2222 -2.5017 0.9528
-9.2291 -7.4089 -2.5017 0.9528
-8.4404 -8.2961 -2.5017 0.9528
-8.1007 -8.6281 -2.5017 0.9528
-7.9260 -8.7890 -2.5017 0.9528
6.9606 -8.0531 -2.5017 0.9572
7.2781 -7.7673 -2.5017 0.9572
7.4325 -7.6197 -2.5017 0.9572
7.5840 -7.4690 -2.5017 0.9572
7.8775 -7.1587 -2.5017 0.9572
8.2940 -6.6717 -2.5017 0.9572
8.4262 -6.5039 -2.5017 0.9572
8.5550 -6.3335 -2.5017 0.9572
8.8023 -5.9851 -2.5017 0.9572
8.9206 -5.8073 -2.5017 0.9572
9.3576 -5.0732 -2.5017 0.9572
9.6459 -4.5010 -2.5017 0.9572
9.8992 -3.9124 -2.5017 0.9572
10.0482 -3.5120 -2.5017 0.9572
10.1811 -3.1060 -2.5017 0.9572
10.3974 -2.2796 -2.5017 0.9572
10.4410 -2.0705 -2.5017 0.9572
10.5157 -1.6499 -2.5017 0.9572
10.6141 -0.8013 -2.5017 0.9572
10.6431 -0.1612 -2.5017 0.9572
10.6442 0.0524 -2.5017 0.9572
10.6410 0.2660 -2.5017 0.9572
10.6335 0.4795 -2.5017 0.9572
10.6057 0.9058 -2.5017 0.9572
10.5608 1.3307 -2.5017 0.9572
10.5320 1.5423 -2.5017 0.9572
10.4616 1.9637 -2.5017 0.9572
10.3744 2.3819 -2.5017 0.9572
10.3245 2.5896 -2.5017 0.9572
10.2704 2.7963 -2.5017 0.9572
10.1500 3.2062 -2.5017 0.9572
9.8602 4.0098 -2.5017 0.9572
9.7777 4.2068 -2.5017 0.9572
9.5069 4.7876 -2.5017 0.9572
9.0924 5.5345 -2.5017 0.9572
8.8630 5.8949 -2.5017 0.9572
8.7429 6.0715 -2.5017 0.9572
8.3617 6.5866 -2.5017 0.9572
8.2278 6.7531 -2.5017 0.9572
8.0907 6.9168 -2.5017 0.9572
7.9502 7.0778 -2.5017 0.9572
7.4974 7.5307 -2.4975 0.9573
7.3377 7.6722 -2.4951 0.9573
7.1072 7.7363 -2.4690 0.9578
6.8321 7.7431 -2.4269 0.9585
6.5659 7.7495 -2.3871 0.9591
6.1505 7.8797 -2.3493 0.9598
5.9911 8.0015 -2.3493 0.9598
5.6652 8.2355 -2.3493 0.9598
5.4988 8.3475 -2.3493 0.9598
5.3302 8.4562 -2.3493 0.9598
5.1594 8.5614 -2.3493 0.9598
4.8117 8.7616 -2.3493 0.9598
4.4563 8.9476 -2.3493 0.9598
4.0936 9.1192 -2.3493 0.9598
3.9098 9.1995 -2.3493 0.9598
3.7244 9.2761 -2.3493 0.9598
3.5375 9.3490 -2.3493 0.9598
3.3492 9.4181 -2.3493 0.9598
3.1595 9.4834 -2.3493 0.9598
2.9686 9.5449 -2.3493 0.9598
2.7764 9.6026 -2.3493 0.9598
2.1936 9.7522 -2.3493 0.9598
1.8005 9.8324 -2.3493 0.9598
1.6028 9.8666 -2.3493 0.9598
0.6064 9.9775 -2.3493 0.9598
0.2055 9.9938 -2.3493 0.9598
-0.9965 9.9461 -2.3493 0.9598
-1.3948 9.8981 -2.3493 0.9598
-1.5931 9.8681 -2.3493 0.9598
-1.8110 8.0886 -1.9480 0.9665
-2.5736 9.6589 -2.3493 0.9598
-3.5283 9.3525 -2.3493 0.9598
-4.2669 9.0395 -2.3493 0.9598
-4.4475 8.9520 -2.3493 0.9598
-4.6262 8.8610 -2.3493 0.9598
-4.8031 8.7663 -2.3493 0.9598
-4.9780 8.6682 -2.3493 0.9598
-5.1160 8.5084 -2.3333 0.9600
-5.4906 8.3530 -2.3493 0.9598
-5.8214 8.1259 -2.3493 0.9598
-6.1427 7.8858 -2.3493 0.9598
-6.5141 7.7037 -2.3711 0.9594
-7.0480 7.6870 -2.4510 0.9581
-7.7987 7.2428 -2.5014 0.9572
-7.9433 7.0857 -2.5017 0.9572
-8.0839 6.9248 -2.5017 0.9572
-8.2213 6.7612 -2.5017 0.9572
-8.3553 6.5949 -2.5017 0.9572
-8.4859 6.4259 -2.5017 0.9572
-8.6132 6.2543 -2.5017 0.9572
-8.8572 5.9036 -2.5017 0.9572
-9.0870 5.5435 -2.5017 0.9572
-9.1964 5.3600 -2.5017 0.9572
-9.5022 4.7969 -2.5017 0.9572
-9.5966 4.6053 -2.5017 0.9572
-9.7737 4.2165 -2.5017 0.9572
-9.8563 4.0195 -2.5017 0.9572
-9.9350 3.8209 -2.5017 0.9572
-10.0803 3.4192 -2.5017 0.9572
-10.1469 3.2162 -2.5017 0.9572
-10.4597 1.9740 -2.5017 0.9572
-10.5305 1.5527 -2.5017 0.9572
-10.5596 1.3411 -2.5017 0.9572
-10.6433 -0.1507 -2.5017 0.9572
-10.6382 -0.3643 -2.5017 0.9572
-10.6150 -0.7908 -2.5017 0.9572
-10.5970 -1.0037 -2.5017 0.9572
-10.5747 -1.2162 -2.5017 0.9572
-10.5174 -1.6395 -2.5017 0.9572
-10.2443 -2.8910 -2.5017 0.9572
-10.1200 -3.2998 -2.5017 0.9572
-10.0518 -3.5022 -2.5017 0.9572
-9.8228 -4.1006 -2.5017 0.9572
-9.6504 -4.4915 -2.5017 0.9572
-9.4624 -4.8751 -2.5017 0.9572
-9.3626 -5.0640 -2.5017 0.9572
-9.1519 -5.4357 -2.5017 0.9572
-9.0410 -5.6182 -2.5017 0.9572
-8.9264 -5.7985 -2.5017 0.9572
-8.6865 -6.1521 -2.5017 0.9572
-8.5613 -6.3251 -2.5017 0.9572
-8.4327 -6.4956 -2.5017 0.9572
-7.7396 -7.3077 -2.5017 0.9572
-7.4401 -7.6124 -2.5017 0.9572
6.4636 -7.1816 -2.5017 0.9609
6.7466 -6.9165 -2.5017 0.9609
6.8840 -6.7797 -2.5017 0.9609
7.1505 -6.4980 -2.5017 0.9609
7.2795 -6.3532 -2.5017 0.9609
7.9900 -5.4328 -2.5017 0.9609
8.3024 -4.9421 -2.5017 0.9609
8.3999 -4.7746 -2.5017 0.9609
8.6719 -4.2605 -2.5017 0.9609
8.7557 -4.0856 -2.5017 0.9609
8.9126 -3.7310 -2.5017 0.9609
8.9857 -3.5513 -2.5017 0.9609
9.1831 -3.0042 -2.5017 0.9609
9.2962 -2.6333 -2.5017 0.9609
9.5733 -1.3058 -2.5017 0.9609
9.6619 0.0476 -2.5017 0.9609
9.6522 0.4353 -2.5017 0.9609
9.6269 0.8222 -2.5017 0.9609
9.6085 1.0153 -2.5017 0.9609
9.5862 1.2078 -2.5017 0.9609
9.5600 1.4000 -2.5017 0.9609
9.3717 2.3506 -2.5017 0.9609
9.3226 2.5382 -2.5017 0.9609
9.2133 2.9103 -2.5017 0.9609
9.1530 3.0946 -2.5017 0.9609
9.0891 3.2776 -2.5017 0.9609
8.7970 3.9959 -2.5017 0.9609
8.5406 4.5180 -2.5017 0.9609
8.4482 4.6885 -2.5017 0.9609
8.1508 5.1883 -2.5017 0.9609
8.0450 5.3508 -2.5017 0.9609
7.9360 5.5112 -2.5017 0.9609
7.8238 5.6694 -2.5017 0.9609
7.7085 5.8252 -2.5017 0.9609
7.4685 6.1298 -2.5017 0.9609
7.3440 6.2785 -2.5017 0.9609
7.0862 6.5681 -2.5017 0.9609
6.8169 6.8472 -2.5017 0.9609
6.6781 6.9826 -2.5017 0.9609
6.5367 7.1152 -2.5017 0.9609
6.3925 7.2450 -2.5017 0.9609
6.0881 7.4851 -2.4982 0.9609
5.7739 7.7115 -2.4943 0.9610
5.5503 7.7314 -2.4642 0.9614
5.3221 7.7366 -2.4313 0.9619
5.0996 7.7416 -2.4002 0.9624
4.6833 7.7713 -2.3493 0.9632
4.5264 7.8637 -2.3493 0.9632
4.0450 8.1219 -2.3493 0.9632
3.7158 8.2776 -2.3493 0.9632
3.5490 8.3505 -2.3493 0.9632
2.8679 8.6082 -2.3493 0.9632
2.6946 8.6640 -2.3493 0.9632
2.5202 8.7164 -2.3493 0.9632
2.3448 8.7652 -2.3493 0.9632
2.1684 8.8105 -2.3493 0.9632
1.6344 8.9250 -2.3493 0.9632
1.4549 8.9560 -2.3493 0.9632
1.2749 8.9834 -2.3493 0.9632
0.5504 9.0567 -2.3493 0.9632
0.3685 9.0659 -2.3493 0.9632
0.1866 9.0715 -2.3493 0.9632
0.0045 9.0734 -2.3493 0.9632
-0.1776 9.0717 -2.3493 0.9632
-1.0855 9.0083 -2.3493 0.9632
-1.6255 8.9266 -2.3493 0.9632
-1.8044 8.8922 -2.3493 0.9632
-1.8110 8.0886 -2.1461 0.9663
-2.6861 8.6667 -2.3493 0.9632
-2.8594 8.6111 -2.3493 0.9632
-3.0317 8.5520 -2.3493 0.9632
-3.5407 8.3540 -2.3493 0.9632
-3.7077 8.2813 -2.3493 0.9632
-3.8731 8.2052 -2.3493 0.9632
-4.0370 8.1259 -2.3493 0.9632
-4.3598 7.9573 -2.3493 0.9632
-4.5186 7.8682 -2.3493 0.9632
-4.8506 7.7122 -2.3589 0.9631
-6.0788 7.4887 -2.4973 0.9609
-6.2328 7.3710 -2.4993 0.9609
-6.3846 7.2504 -2.5014 0.9609
-6.6713 6.9892 -2.5017 0.9609
-7.0797 6.5752 -2.5017 0.9609
-7.4625 6.1372 -2.5017 0.9609
-7.7028 5.8329 -2.5017 0.9609
-7.8183 5.6771 -2.5017 0.9609
-8.4436 4.6968 -2.5017 0.9609
-8.6253 4.3542 -2.5017 0.9609
-8.8717 3.8273 -2.5017 0.9609
-9.0181 3.4683 -2.5017 0.9609
-9.2105 2.9194 -2.5017 0.9609
-9.2672 2.7339 -2.5017 0.9609
-9.3202 2.5474 -2.5017 0.9609
-9.3694 2.3599 -2.5017 0.9609
-9.4149 2.1714 -2.5017 0.9609
-9.5851 1.2173 -2.5017 0.9609
-9.6076 1.0247 -2.5017 0.9609
-9.6262 0.8317 -2.5017 0.9609
-9.6409 0.6384 -2.5017 0.9609
-9.6518 0.4448 -2.5017 0.9609
-9.6588 0.2510 -2.5017 0.9609
-9.6564 -0.3306 -2.5017 0.9609
-9.6478 -0.5244 -2.5017 0.9609
-9.6354 -0.7179 -2.5017 0.9609
-9.6190 -0.9111 -2.5017 0.9609
-9.5467 -1.4882 -2.5017 0.9609
-9.5150 -1.6795 -2.5017 0.9609
-9.4794 -1.8701 -2.5017 0.9609
-9.4399 -2.0599 -2.5017 0.9609
-9.3967 -2.2489 -2.5017 0.9609
-9.3497 -2.4371 -2.5017 0.9609
-9.2989 -2.6242 -2.5017 0.9609
-9.2443 -2.8103 -2.5017 0.9609
-9.1861 -2.9952 -2.5017 0.9609
-9.1241 -3.1790 -2.5017 0.9609
-8.9163 -3.7222 -2.5017 0.9609
-8.7598 -4.0770 -2.5017 0.9609
-8.6762 -4.2520 -2.5017 0.9609
-8.4986 -4.5967 -2.5017 0.9609
-7.7712 -5.7414 -2.5017 0.9609
-7.6544 -5.8962 -2.5017 0.9609
-7.4117 -6.1986 -2.5017 0.9609
-7.1570 -6.4910 -2.5017 0.9609
-6.8907 -6.7730 -2.5017 0.9609
-6.6134 -7.0440 -2.5017 0.9609
5.7787 -6.6857 -2.5017 0.9639
6.0423 -6.4484 -2.5017 0.9639
6.4193 -6.0731 -2.5017 0.9639
6.5399 -5.9431 -2.5017 0.9639
6.7731 -5.6759 -2.5017 0.9639
6.9954 -5.3995 -2.5017 0.9639
7.1024 -5.2581 -2.5017 0.9639
7.2065 -5.1145 -2.5017 0.9639
7.5011 -4.6716 -2.5017 0.9639
7.6826 -4.3668 -2.5017 0.9639
7.9314 -3.8966 -2.5017 0.9639
8.0080 -3.7367 -2.5017 0.9639
8.1515 -3.4123 -2.5017 0.9639
8.2818 -3.0825 -2.5017 0.9639
8.3420 -2.9157 -2.5017 0.9639
8.3989 -2.7477 -2.5017 0.9639
8.5024 -2.4085 -2.5017 0.9639
8.5922 -2.0653 -2.5017 0.9639
8.6319 -1.8925 -2.5017 0.9639
8.7009 -1.5446 -2.5017 0.9639
8.7301 -1.3697 -2.5017 0.9639
8.7780 -1.0183 -2.5017 0.9639
8.7967 -0.8419 -2.5017 0.9639
8.8118 -0.6652 -2.5017 0.9639
8.8279 0.3981 -2.5017 0.9639
8.7676 1.1047 -2.5017 0.9639
8.6852 1.6303 -2.5017 0.9639
8.5714 2.1499 -2.5017 0.9639
8.5265 2.3215 -2.5017 0.9639
8.3714 2.8303 -2.5017 0.9639
8.1175 3.4925 -2.5017 0.9639
7.8113 4.1322 -2.5017 0.9639
7.7268 4.2881 -2.5017 0.9639
7.6392 4.4423 -2.5017 0.9639
7.4547 4.7453 -2.5017 0.9639
7.3580 4.8939 -2.5017 0.9639
7.2583 5.0406 -2.5017 0.9639
7.1557 5.1852 -2.5017 0.9639
7.0502 5.3278 -2.5017 0.9639
6.8307 5.6064 -2.5017 0.9639
6.2348 6.2625 -2.5017 0.9639
6.1078 6.3863 -2.5017 0.9639
5.8467 6.6263 -2.5017 0.9639
5.5760 6.8555 -2.5017 0.9639
5.0081 7.2803 -2.5016 0.9639
4.8579 7.3746 -2.5000 0.9640
4.2403 7.7211 -2.4937 0.9640
3.8492 7.7288 -2.4443 0.9647
3.6592 7.7322 -2.4217 0.9651
3.2889 7.7385 -2.3804 0.9656
3.1082 7.7413 -2.3616 0.9659
2.4645 7.9242 -2.3493 0.9661
2.1445 8.0167 -2.3493 0.9661
1.8211 8.0963 -2.3493 0.9661
1.6583 8.1312 -2.3493 0.9661
1.3307 8.1912 -2.3493 0.9661
1.0009 8.2380 -2.3493 0.9661
0.6695 8.2715 -2.3493 0.9661
0.5034 8.2833 -2.3493 0.9661
0.3371 8.2917 -2.3493 0.9661
0.1706 8.2968 -2.3493 0.9661
0.0041 8.2986 -2.3493 0.9661
-0.1625 8.2970 -2.3493 0.9661
-0.4952 8.2838 -2.3493 0.9661
-0.6614 8.2722 -2.3493 0.9661
-0.8273 8.2572 -2.3493 0.9661
-0.9928 8.2390 -2.3493 0.9661
-1.1579 8.2174 -2.3493 0.9661
-1.4867 8.1643 -2.3493 0.9661
-1.8110 8.0885 -2.3465 0.9661
-2.1367 8.0188 -2.3493 0.9661
-2.4567 7.9266 -2.3493 0.9661
-2.7728 7.8216 -2.3493 0.9661
-3.2702 7.7156 -2.3723 0.9658
-3.4525 7.7113 -2.3918 0.9655
-3.8264 7.7020 -2.4346 0.9649
-4.5439 7.5569 -2.4963 0.9640
-4.6975 7.4687 -2.4978 0.9640
-4.8494 7.3775 -2.4993 0.9640
-4.9996 7.2833 -2.5009 0.9639
-5.5693 6.8611 -2.5017 0.9639
-6.1016 6.3923 -2.5017 0.9639
-6.2286 6.2686 -2.5017 0.9639
-6.3531 6.1424 -2.5017 0.9639
-6.4751 6.0136 -2.5017 0.9639
-6.5945 5.8825 -2.5017 0.9639
-6.7112 5.7490 -2.5017 0.9639
-6.8252 5.6131 -2.5017 0.9639
-6.9365 5.4751 -2.5017 0.9639
-7.1506 5.1923 -2.5017 0.9639
-7.2534 5.0477 -2.5017 0.9639
-7.5440 4.6022 -2.5017 0.9639
-7.6348 4.4499 -2.5017 0.9639
-7.8072 4.1399 -2.5017 0.9639
-7.8887 3.9824 -2.5017 0.9639
-8.0422 3.6626 -2.5017 0.9639
-8.1827 3.3370 -2.5017 0.9639
-8.2480 3.1721 -2.5017 0.9639
-8.3100 3.0059 -2.5017 0.9639
-8.3686 2.8386 -2.5017 0.9639
-8.4239 2.6701 -2.5017 0.9639
-8.4758 2.5005 -2.5017 0.9639
-8.7148 1.4642 -2.5017 0.9639
-8.7424 1.2890 -2.5017 0.9639
-8.7665 1.1134 -2.5017 0.9639
-8.8276 0.4068 -2.5017 0.9639
-8.8340 0.2296 -2.5017 0.9639
-8.8368 0.0522 -2.5017 0.9639
-8.8125 -0.6565 -2.5017 0.9639
-8.7976 -0.8333 -2.5017 0.9639
-8.7024 -1.5361 -2.5017 0.9639
-8.6699 -1.7104 -2.5017 0.9639
-8.5942 -2.0569 -2.5017 0.9639
-8.5048 -2.4001 -2.5017 0.9639
-8.4549 -2.5703 -2.5017 0.9639
-8.4016 -2.7395 -2.5017 0.9639
-8.2849 -3.0744 -2.5017 0.9639
-8.0849 -3.5673 -2.5017 0.9639
-7.8556 -4.0473 -2.5017 0.9639
-7.7728 -4.2041 -2.5017 0.9639
-7.4107 -4.8139 -2.5017 0.9639
-7.2115 -5.1074 -2.5017 0.9639
-7.1076 -5.2511 -2.5017 0.9639
-7.0008 -5.3927 -2.5017 0.9639
-6.4253 -6.0668 -2.5017 0.9639
-6.3023 -6.1946 -2.5017 0.9639
-5.9182 -6.5626 -2.5017 0.9639
5.3186 -6.1534 -2.5017 0.9665
6.0193 -5.4700 -2.5017 0.9665
6.2339 -5.2240 -2.5017 0.9665
6.6328 -4.7073 -2.5017 0.9665
6.8163 -4.4374 -2.5017 0.9665
6.9040 -4.2997 -2.5017 0.9665
6.9889 -4.1603 -2.5017 0.9665
7.1502 -3.8765 -2.5017 0.9665
7.2266 -3.7322 -2.5017 0.9665
7.3705 -3.4392 -2.5017 0.9665
7.5026 -3.1407 -2.5017 0.9665
7.5641 -2.9895 -2.5017 0.9665
7.6226 -2.8371 -2.5017 0.9665
7.6779 -2.6836 -2.5017 0.9665
7.7303 -2.5290 -2.5017 0.9665
7.8255 -2.2167 -2.5017 0.9665
7.9082 -1.9009 -2.5017 0.9665
8.0082 -1.4217 -2.5017 0.9665
8.0351 -1.2607 -2.5017 0.9665
8.0588 -1.0992 -2.5017 0.9665
8.0792 -0.9372 -2.5017 0.9665
8.0964 -0.7749 -2.5017 0.9665
8.1284 -0.2863 -2.5017 0.9665
8.1325 -0.1232 -2.5017 0.9665
8.1309 0.2033 -2.5017 0.9665
8.1039 0.6921 -2.5017 0.9665
8.0223 1.3398 -2.5017 0.9665
7.9938 1.5005 -2.5017 0.9665
7.9272 1.8200 -2.5017 0.9665
7.8890 1.9787 -2.5017 0.9665
7.7557 2.4499 -2.5017 0.9665
7.7050 2.6050 -2.5017 0.9665
7.5343 3.0639 -2.5017 0.9665
7.3362 3.5117 -2.5017 0.9665
7.2643 3.6582 -2.5017 0.9665
7.1894 3.8032 -2.5017 0.9665
7.1117 3.9467 -2.5017 0.9665
7.0310 4.0887 -2.5017 0.9665
6.9476 4.2289 -2.5017 0.9665
6.7723 4.5043 -2.5017 0.9665
6.6805 4.6393 -2.5017 0.9665
6.3893 5.0329 -2.5017 0.9665
6.1822 5.2852 -2.5017 0.9665
6.0748 5.4082 -2.5017 0.9665
5.8529 5.6476 -2.5017 0.9665
5.7384 5.7639 -2.5017 0.9665
4.6096 6.7010 -2.5017 0.9665
4.3370 6.8806 -2.5017 0.9665
4.0575 7.0491 -2.5017 0.9665
3.9152 7.1291 -2.5017 0.9665
3.6257 7.2799 -2.5015 0.9665
3.4773 7.3478 -2.5003 0.9666
3.1768 7.4749 -2.4981 0.9666
2.5634 7.6940 -2.4944 0.9666
2.3997 7.7158 -2.4853 0.9667
2.2315 7.7178 -2.4711 0.9669
1.4146 7.7250 -2.4156 0.9677
1.0965 7.7266 -2.4004 0.9679
0.7819 7.7276 -2.3890 0.9680
0.1589 7.7274 -2.3773 0.9682
0.0038 7.7270 -2.3767 0.9682
-0.3064 7.7256 -2.3781 0.9682
-0.6175 7.7235 -2.3832 0.9681
-0.7736 7.7222 -2.3871 0.9680
-0.9303 7.7207 -2.3919 0.9680
-1.0877 7.7190 -2.3977 0.9679
-1.4049 7.7152 -2.4121 0.9677
-1.5651 7.7130 -2.4207 0.9676
-1.7264 7.7106 -2.4303 0.9675
-1.8890 7.7080 -2.4410 0.9673
-2.3862 7.6991 -2.4792 0.9668
-2.7102 7.6452 -2.4949 0.9666
-2.8642 7.5920 -2.4958 0.9666
-3.0171 7.5358 -2.4967 0.9666
-3.3197 7.4147 -2.4988 0.9666
-3.6178 7.2821 -2.5010 0.9665
-3.7642 7.2099 -2.5017 0.9665
-4.0505 7.0531 -2.5017 0.9665
-4.3303 6.8849 -2.5017 0.9665
-4.4676 6.7966 -2.5017 0.9665
-4.6031 6.7056 -2.5017 0.9665
-4.7367 6.6119 -2.5017 0.9665
-5.1260 6.3149 -2.5017 0.9665
-5.3752 6.1041 -2.5017 0.9665
-5.4966 5.9950 -2.5017 0.9665
-5.6158 5.8835 -2.5017 0.9665
-5.8474 5.6534 -2.5017 0.9665
-5.9597 5.5349 -2.5017 0.9665
-6.3843 5.0392 -2.5017 0.9665
-6.4842 4.9101 -2.5017 0.9665
-6.7679 4.5110 -2.5017 0.9665
-6.8570 4.3743 -2.5017 0.9665
-7.0270 4.0956 -2.5017 0.9665
-7.1078 3.9538 -2.5017 0.9665
-7.1857 3.8103 -2.5017 0.9665
-7.4020 3.3711 -2.5017 0.9665
-7.5914 2.9196 -2.5017 0.9665
-7.7024 2.6126 -2.5017 0.9665
-7.7533 2.4575 -2.5017 0.9665
-7.8457 2.1444 -2.5017 0.9665
-7.9254 1.8279 -2.5017 0.9665
-7.9605 1.6685 -2.5017 0.9665
-7.9924 1.5084 -2.5017 0.9665
-8.0210 1.3477 -2.5017 0.9665
-8.1157 0.5374 -2.5017 0.9665
-8.1307 0.2113 -2.5017 0.9665
-8.1215 -0.4414 -2.5017 0.9665
-8.0972 -0.7669 -2.5017 0.9665
-8.0096 -1.4138 -2.5017 0.9665
-7.6806 -2.6760 -2.5017 0.9665
-7.6254 -2.8296 -2.5017 0.9665
-7.4413 -3.2833 -2.5017 0.9665
-7.3036 -3.5793 -2.5017 0.9665
-7.0750 -4.0123 -2.5017 0.9665
-6.9930 -4.1534 -2.5017 0.9665
-6.7304 -4.5667 -2.5017 0.9665
-6.5418 -4.8331 -2.5017 0.9665
-6.3426 -5.0917 -2.5017 0.9665
-6.2391 -5.2179 -2.5017 0.9665
-6.0247 -5.4641 -2.5017 0.9665
-5.9138 -5.5839 -2.5017 0.9665
-5.8006 -5.7014 -2.5017 0.9665
-5.6850 -5.8167 -2.5017 0.9665
-5.5671 -5.9296 -2.5017 0.9665
4.9214 -5.6938 -2.5017 0.9688
5.1459 -5.4918 -2.5017 0.9688
5.4670 -5.1722 -2.5017 0.9688
5.5697 -5.0614 -2.5017 0.9688
5.6702 -4.9486 -2.5017 0.9688
5.9577 -4.5985 -2.5017 0.9688
6.0487 -4.4780 -2.5017 0.9688
6.2235 -4.2317 -2.5017 0.9688
6.3883 -3.9786 -2.5017 0.9688
6.4669 -3.8496 -2.5017 0.9688
6.5429 -3.7190 -2.5017 0.9688
6.6162 -3.5870 -2.5017 0.9688
6.6868 -3.4535 -2.5017 0.9688
6.8200 -3.1824 -2.5017 0.9688
6.8825 -3.0448 -2.5017 0.9688
6.9422 -2.9061 -2.5017 0.9688
6.9991 -2.7662 -2.5017 0.9688
7.1529 -2.3401 -2.5017 0.9688
7.2410 -2.0512 -2.5017 0.9688
7.2807 -1.9054 -2.5017 0.9688
7.3513 -1.6117 -2.5017 0.9688
7.3822 -1.4639 -2.5017 0.9688
7.4569 -1.0171 -2.5017 0.9688
7.5144 -0.4158 -2.5017 0.9688
7.5251 -0.1139 -2.5017 0.9688
7.5258 0.0371 -2.5017 0.9688
7.5183 0.3390 -2.5017 0.9688
7.4986 0.6405 -2.5017 0.9688
7.4843 0.7908 -2.5017 0.9688
7.4669 0.9408 -2.5017 0.9688
7.4465 1.0905 -2.5017 0.9688
7.3674 1.5366 -2.5017 0.9688
7.2998 1.8310 -2.5017 0.9688
7.2205 2.1224 -2.5017 0.9688
7.1295 2.4104 -2.5017 0.9688
7.0270 2.6946 -2.5017 0.9688
6.9715 2.8351 -2.5017 0.9688
6.8522 3.1125 -2.5017 0.9688
6.7217 3.3850 -2.5017 0.9688
6.5805 3.6520 -2.5017 0.9688
6.5059 3.7833 -2.5017 0.9688
6.4286 3.9131 -2.5017 0.9688
6.3488 4.0413 -2.5017 0.9688
6.2664 4.1679 -2.5017 0.9688
6.1815 4.2928 -2.5017 0.9688
6.0942 4.4160 -2.5017 0.9688
5.9121 4.6570 -2.5017 0.9688
5.8174 4.7747 -2.5017 0.9688
5.7204 4.8904 -2.5017 0.9688
5.6211 5.0043 -2.5017 0.9688
5.4158 5.2258 -2.5017 0.9688
5.3098 5.3334 -2.5017 0.9688
5.2017 5.4389 -2.5017 0.9688
5.0915 5.5422 -2.5017 0.9688
4.9793 5.6432 -2.5017 0.9688
4.7488 5.8385 -2.5017 0.9688
4.5107 6.0244 -2.5017 0.9688
4.2654 6.2005 -2.5017 0.9688
4.0131 6.3667 -2.5017 0.9688
3.3551 6.7367 -2.5017 0.9688
3.2193 6.8027 -2.5017 0.9688
2.9437 6.9263 -2.5017 0.9688
2.8041 6.9840 -2.5017 0.9688
2.5216 7.0909 -2.5017 0.9688
1.7981 7.3057 -2.5009 0.9688
1.6507 7.3387 -2.5004 0.9688
1.3544 7.3961 -2.4994 0.9688
1.2055 7.4205 -2.4989 0.9688
0.9065 7.4608 -2.4982 0.9688
0.7565 7.4767 -2.4980 0.9688
0.4558 7.4997 -2.4976 0.9688
0.3052 7.5070 -2.4974 0.9688
0.0037 7.5128 -2.4973 0.9688
-0.1471 7.5114 -2.4973 0.9688
-0.5988 7.4900 -2.4977 0.9688
-0.7491 7.4771 -2.4979 0.9688
-0.8991 7.4613 -2.4981 0.9688
-1.1981 7.4212 -2.4988 0.9688
-1.9374 7.2711 -2.5013 0.9688
-2.0833 7.2319 -2.5017 0.9688
-2.6565 7.0415 -2.5017 0.9688
-3.2126 6.8058 -2.5017 0.9688
-3.3485 6.7400 -2.5017 0.9688
-3.7480 6.5263 -2.5017 0.9688
-3.8782 6.4498 -2.5017 0.9688
-4.0069 6.3707 -2.5017 0.9688
-4.1339 6.2890 -2.5017 0.9688
-4.3829 6.1180 -2.5017 0.9688
-4.5048 6.0288 -2.5017 0.9688
-4.6249 5.9372 -2.5017 0.9688
-5.3046 5.3387 -2.5017 0.9688
-5.4107 5.2312 -2.5017 0.9688
-5.6162 5.0098 -2.5017 0.9688
-6.2624 4.1741 -2.5017 0.9688
-6.4248 3.9194 -2.5017 0.9688
-6.5022 3.7897 -2.5017 0.9688
-6.6490 3.5257 -2.5017 0.9688
-6.7184 3.3916 -2.5017 0.9688
-6.7851 3.2561 -2.5017 0.9688
-6.8491 3.1193 -2.5017 0.9688
-6.9688 2.8419 -2.5017 0.9688
-7.0244 2.7015 -2.5017 0.9688
-7.1271 2.4175 -2.5017 0.9688
-7.2184 2.1295 -2.5017 0.9688
-7.2980 1.8382 -2.5017 0.9688
-7.3335 1.6913 -2.5017 0.9688
-7.3659 1.5438 -2.5017 0.9688
-7.3954 1.3957 -2.5017 0.9688
-7.4219 1.2470 -2.5017 0.9688
-7.5095 0.4972 -2.5017 0.9688
-7.5180 0.3464 -2.5017 0.9688
-7.5252 -0.1066 -2.5017 0.9688
-7.5216 -0.2575 -2.5017 0.9688
-7.4767 -0.8599 -2.5017 0.9688
-7.4579 -1.0097 -2.5017 0.9688
-7.3837 -1.4566 -2.5017 0.9688
-7.3529 -1.6045 -2.5017 0.9688
-7.3193 -1.7518 -2.5017 0.9688
-7.2826 -1.8983 -2.5017 0.9688
-7.2431 -2.0441 -2.5017 0.9688
-7.2006 -2.1890 -2.5017 0.9688
-7.1552 -2.3331 -2.5017 0.9688
-7.0558 -2.6183 -2.5017 0.9688
-7.0019 -2.7594 -2.5017 0.9688
-6.9451 -2.8993 -2.5017 0.9688
-6.8232 -3.1757 -2.5017 0.9688
-6.7581 -3.3120 -2.5017 0.9688
-6.6902 -3.4469 -2.5017 0.9688
-6.6197 -3.5805 -2.5017 0.9688
-6.4707 -3.8432 -2.5017 0.9688
-6.2277 -4.2256 -2.5017 0.9688
-6.0532 -4.4721 -2.5017 0.9688
-5.6751 -4.9431 -2.5017 0.9688
-5.4721 -5.1668 -2.5017 0.9688
-5.2604 -5.3822 -2.5017 0.9688
-5.1513 -5.4867 -2.5017 0.9688
4.5746 -5.2926 -2.5017 0.9707
4.6799 -5.1997 -2.5017 0.9707
4.7833 -5.1047 -2.5017 0.9707
4.8847 -5.0077 -2.5017 0.9707
5.0817 -4.8077 -2.5017 0.9707
5.1772 -4.7047 -2.5017 0.9707
5.2706 -4.5999 -2.5017 0.9707
5.4509 -4.3847 -2.5017 0.9707
5.6225 -4.1624 -2.5017 0.9707
5.7850 -3.9335 -2.5017 0.9707
6.0112 -3.5783 -2.5017 0.9707
6.0817 -3.4569 -2.5017 0.9707
6.1499 -3.3342 -2.5017 0.9707
6.2156 -3.2101 -2.5017 0.9707
6.2787 -3.0847 -2.5017 0.9707
6.6911 -2.0413 -2.5017 0.9707
6.7307 -1.9066 -2.5017 0.9707
6.8619 -1.3608 -2.5017 0.9707
6.9110 -1.0843 -2.5017 0.9707
6.9849 -0.3865 -2.5017 0.9707
6.9912 -0.2463 -2.5017 0.9707
6.9948 -0.1059 -2.5017 0.9707
6.9934 0.1748 -2.5017 0.9707
6.9702 0.5953 -2.5017 0.9707
6.9217 1.0136 -2.5017 0.9707
6.9000 1.1523 -2.5017 0.9707
6.8755 1.2906 -2.5017 0.9707
6.8182 1.5654 -2.5017 0.9707
6.7854 1.7019 -2.5017 0.9707
6.7116 1.9728 -2.5017 0.9707
6.6270 2.2406 -2.5017 0.9707
6.5808 2.3731 -2.5017 0.9707
6.5318 2.5047 -2.5017 0.9707
6.0474 3.5167 -2.5017 0.9707
5.9756 3.6373 -2.5017 0.9707
5.7459 3.9903 -2.5017 0.9707
5.6647 4.1048 -2.5017 0.9707
5.1306 4.7555 -2.5017 0.9707
4.9356 4.9576 -2.5017 0.9707
4.8352 5.0556 -2.5017 0.9707
4.4142 5.4271 -2.5017 0.9707
4.3044 5.5146 -2.5017 0.9707
3.9648 5.7635 -2.5017 0.9707
3.8483 5.8420 -2.5017 0.9707
3.7303 5.9180 -2.5017 0.9707
3.4898 6.0629 -2.5017 0.9707
3.3675 6.1317 -2.5017 0.9707
3.1187 6.2619 -2.5017 0.9707
2.6065 6.4918 -2.5017 0.9707
2.3439 6.5912 -2.5017 0.9707
1.8078 6.7579 -2.5017 0.9707
1.6718 6.7929 -2.5017 0.9707
1.2601 6.8812 -2.5017 0.9707
0.9829 6.9262 -2.5017 0.9707
0.8437 6.9445 -2.5017 0.9707
0.5644 6.9728 -2.5017 0.9707
0.4244 6.9827 -2.5017 0.9707
-0.1369 6.9942 -2.5017 0.9707
-0.6974 6.9607 -2.5017 0.9707
-1.1149 6.9062 -2.5017 0.9707
-1.2533 6.8824 -2.5017 0.9707
-1.6651 6.7945 -2.5017 0.9707
-2.2046 6.6391 -2.5017 0.9707
-2.4693 6.5453 -2.5017 0.9707
-2.6001 6.4944 -2.5017 0.9707
-2.7299 6.4409 -2.5017 0.9707
-3.1125 6.2650 -2.5017 0.9707
-3.3614 6.1351 -2.5017 0.9707
-3.4838 6.0664 -2.5017 0.9707
-3.6049 5.9952 -2.5017 0.9707
-3.8426 5.8458 -2.5017 0.9707
-3.9591 5.7675 -2.5017 0.9707
-4.0740 5.6869 -2.5017 0.9707
-4.1873 5.6040 -2.5017 0.9707
-4.2990 5.5188 -2.5017 0.9707
-4.5169 5.3419 -2.5017 0.9707
-4.8302 5.0604 -2.5017 0.9707
-5.2204 4.6568 -2.5017 0.9707
-5.4031 4.4435 -2.5017 0.9707
-5.5770 4.2231 -2.5017 0.9707
-5.6607 4.1104 -2.5017 0.9707
-5.9720 3.6432 -2.5017 0.9707
-6.1134 3.4006 -2.5017 0.9707
-6.1804 3.2773 -2.5017 0.9707
-6.2450 3.1526 -2.5017 0.9707
-6.3070 3.0266 -2.5017 0.9707
-6.3664 2.8995 -2.5017 0.9707
-6.5784 2.3796 -2.5017 0.9707
-6.6686 2.1137 -2.5017 0.9707
-6.7097 1.9795 -2.5017 0.9707
-6.7481 1.8444 -2.5017 0.9707
-6.7837 1.7086 -2.5017 0.9707
-6.8468 1.4350 -2.5017 0.9707
-6.9208 1.0204 -2.5017 0.9707
-6.9398 0.8814 -2.5017 0.9707
-6.9561 0.7419 -2.5017 0.9707
-6.9696 0.6022 -2.5017 0.9707
-6.9803 0.4622 -2.5017 0.9707
-6.9882 0.3220 -2.5017 0.9707
-6.9932 0.1817 -2.5017 0.9707
-6.9853 -0.3796 -2.5017 0.9707
-6.9763 -0.5197 -2.5017 0.9707
-6.9498 -0.7993 -2.5017 0.9707
-6.8348 -1.4914 -2.5017 0.9707
-6.7694 -1.7645 -2.5017 0.9707
-6.7326 -1.9000 -2.5017 0.9707
-6.6932 -2.0347 -2.5017 0.9707
-6.6510 -2.1686 -2.5017 0.9707
-6.6061 -2.3017 -2.5017 0.9707
