ply
format ascii 1.0
element vertex 1597
property float32 x
property float32 y
property float32 z
property float32 I
end_header
-14.5040 -4.3257 -2.4934 0.9405
-14.4136 -4.6168 -2.4933 0.9405
-14.2153 -5.1934 -2.4932 0.9405
-13.9940 -5.7615 -2.4931 0.9405
-13.7501 -6.3202 -2.4930 0.9405
-13.1962 -7.4060 -2.4929 0.9405
-12.7245 -8.1892 -2.4928 0.9405
-12.0239 -9.1867 -2.4928 0.9405
-11.8365 -9.4270 -2.4928 0.9405
-11.4473 -9.8962 -2.4928 0.9405
-11.2457 -10.1248 -2.4928 0.9405
-11.0395 -10.3493 -2.4928 0.9405
-10.6139 -10.7857 -2.4929 0.9405
-10.3946 -10.9975 -2.4929 0.9405
-9.6834 -11.5715 -2.4857 0.9407
13.2940 1.1680 -2.5084 0.9471
13.2005 1.9689 -2.5086 0.9471
13.1586 2.2345 -2.5087 0.9471
13.0587 2.7628 -2.5088 0.9471
13.0007 3.0253 -2.5089 0.9471
12.7162 4.0623 -2.5092 0.9471
12.4484 4.8231 -2.5093 0.9471
12.3490 5.0729 -2.5093 0.9471
12.2444 5.3207 -2.5094 0.9471
11.9012 6.0508 -2.5095 0.9471
11.7722 6.2867 -2.5085 0.9471
11.1112 6.8266 -2.4512 0.9483
10.7455 6.9038 -2.4007 0.9493
10.2673 7.1968 -2.3567 0.9502
10.1203 7.4021 -2.3567 0.9502
9.9691 7.6045 -2.3567 0.9502
9.8139 7.8038 -2.3567 0.9502
9.4916 8.1927 -2.3567 0.9502
9.3246 8.3821 -2.3567 0.9502
8.8012 8.9298 -2.3567 0.9502
8.0535 9.6087 -2.3565 0.9503
7.2536 10.2251 -2.3564 0.9503
7.0460 10.3689 -2.3563 0.9503
6.8356 10.5085 -2.3563 0.9503
6.6224 10.6438 -2.3562 0.9503
6.4065 10.7748 -2.3562 0.9503
5.7436 11.1412 -2.3560 0.9503
5.5179 11.2543 -2.3559 0.9503
5.2899 11.3629 -2.3559 0.9503
4.8277 11.5660 -2.3557 0.9503
4.5936 11.6605 -2.3557 0.9503
4.3577 11.7503 -2.3556 0.9503
4.1200 11.8353 -2.3555 0.9503
3.8806 11.9154 -2.3554 0.9503
3.3973 12.0612 -2.3552 0.9503
3.1536 12.1266 -2.3551 0.9503
1.6681 12.4153 -2.3546 0.9503
1.4176 12.4458 -2.3544 0.9503
0.6633 12.5069 -2.3541 0.9503
-0.4028 8.4329 -1.5869 0.9662
-0.8492 12.4919 -2.3534 0.9503
-1.3515 12.4462 -2.3531 0.9503
-1.8515 12.3803 -2.3529 0.9503
-1.9574 10.2473 -1.9609 0.9584
-2.8922 11.3663 -2.2045 0.9534
-2.7226 9.1417 -1.7929 0.9619
-2.9327 9.1680 -1.8092 0.9616
-3.1385 9.1706 -1.8219 0.9613
-5.6722 11.1458 -2.3507 0.9504
-6.3337 10.7809 -2.3502 0.9504
-7.1791 10.2336 -2.3496 0.9504
-7.7826 9.7795 -2.3492 0.9504
-7.9774 9.6201 -2.3490 0.9504
-8.3574 9.2898 -2.3487 0.9504
-8.7237 8.9446 -2.3484 0.9504
-8.9015 8.7665 -2.3483 0.9504
-9.2462 8.3998 -2.3480 0.9504
-9.5758 8.0196 -2.3477 0.9504
-9.7348 7.8246 -2.3476 0.9504
-9.8898 7.6265 -2.3474 0.9504
-10.0510 7.4328 -2.3496 0.9504
-10.7919 7.3273 -2.4518 0.9483
-11.2758 7.0095 -2.4955 0.9474
-11.4294 6.7897 -2.4988 0.9473
-11.5633 6.5578 -2.4986 0.9473
-11.6924 6.3232 -2.4985 0.9473
-12.0509 5.6046 -2.4981 0.9473
-12.1607 5.3604 -2.4979 0.9473
-12.5499 4.3633 -2.4974 0.9474
-12.6346 4.1095 -2.4973 0.9474
-12.7142 3.8539 -2.4971 0.9474
-12.9806 2.8175 -2.4966 0.9474
-13.1950 1.4978 -2.4961 0.9474
-13.2219 1.2316 -2.4960 0.9474
-13.2435 0.9650 -2.4959 0.9474
-13.2597 0.6980 -2.4958 0.9474
-13.2761 -0.1040 -2.4955 0.9474
-13.2708 -0.3714 -2.4954 0.9474
-13.2602 -0.6386 -2.4953 0.9474
-13.2441 -0.9055 -2.4952 0.9474
-13.2228 -1.1721 -2.4951 0.9474
-13.1960 -1.4381 -2.4950 0.9474
-13.1640 -1.7035 -2.4949 0.9474
-13.1266 -1.9683 -2.4949 0.9474
-13.0839 -2.2322 -2.4948 0.9474
-13.0359 -2.4952 -2.4947 0.9474
-12.9826 -2.7572 -2.4946 0.9474
-12.7914 -3.5360 -2.4945 0.9474
-12.5537 -4.3018 -2.4943 0.9474
-12.4643 -4.5537 -2.4942 0.9474
-12.3698 -4.8037 -2.4942 0.9474
-12.2704 -5.0518 -2.4942 0.9474
-12.1659 -5.2978 -2.4941 0.9474
-12.0566 -5.5417 -2.4941 0.9474
-11.9423 -5.7834 -2.4941 0.9474
-11.4376 -6.7255 -2.4940 0.9474
-11.1574 -7.1806 -2.4939 0.9474
-11.0104 -7.4039 -2.4939 0.9474
-10.2101 -8.4734 -2.4939 0.9474
-10.0374 -8.6774 -2.4939 0.9474
-9.8607 -8.8778 -2.4939 0.9474
-9.4952 -9.2679 -2.4940 0.9474
-8.9184 -9.8247 -2.4940 0.9474
-8.7188 -10.0025 -2.4941 0.9474
11.7344 1.7502 -2.5079 0.9527
11.6971 1.9863 -2.5079 0.9527
11.6550 2.2215 -2.5080 0.9526
11.6082 2.4559 -2.5081 0.9526
11.5567 2.6893 -2.5081 0.9526
11.3739 3.3825 -2.5083 0.9526
10.9771 4.5094 -2.5085 0.9526
10.8842 4.7296 -2.5085 0.9526
10.7868 4.9480 -2.5086 0.9526
10.6851 5.1643 -2.5086 0.9526
10.3540 5.8004 -2.5087 0.9526
10.2352 6.0078 -2.5087 0.9526
9.9850 6.4152 -2.5087 0.9526
9.8520 6.6139 -2.5083 0.9526
9.5567 6.9899 -2.5028 0.9527
8.7329 7.2360 -2.3973 0.9547
8.4441 7.2885 -2.3579 0.9554
8.2886 7.4509 -2.3559 0.9555
7.8234 7.9377 -2.3558 0.9555
7.6618 8.0936 -2.3558 0.9555
7.3295 8.3954 -2.3558 0.9555
6.8088 8.8224 -2.3557 0.9555
6.6296 8.9577 -2.3556 0.9555
6.0762 9.3412 -2.3555 0.9555
5.5006 9.6905 -2.3554 0.9555
4.4979 10.1932 -2.3551 0.9555
4.2916 10.2815 -2.3550 0.9555
3.6624 10.5210 -2.3548 0.9555
3.4497 10.5923 -2.3547 0.9555
3.2355 10.6592 -2.3547 0.9555
3.0201 10.7219 -2.3546 0.9555
2.8034 10.7802 -2.3545 0.9555
2.5856 10.8341 -2.3544 0.9555
1.4829 11.0371 -2.3540 0.9555
1.2602 11.0642 -2.3539 0.9555
0.5897 11.1187 -2.3536 0.9555
0.3656 11.1279 -2.3535 0.9555
-0.3071 11.1282 -2.3532 0.9555
-0.3995 8.3620 -1.7696 0.9664
-0.9785 11.0878 -2.3528 0.9555
-1.8582 10.9171 -2.3408 0.9557
-1.9530 10.2246 -2.2003 0.9583
-2.5291 9.1627 -2.0092 0.9619
-2.7296 9.1653 -2.0215 0.9617
-2.9327 9.1679 -2.0346 0.9614
-3.3473 9.1732 -2.0641 0.9609
-3.5593 9.1760 -2.0804 0.9606
-3.7748 9.1788 -2.0979 0.9602
-4.2116 9.1721 -2.1334 0.9596
-4.8430 10.0105 -2.3506 0.9556
-5.2417 9.8062 -2.3504 0.9556
-5.6318 9.5861 -2.3501 0.9556
-5.8234 9.4702 -2.3500 0.9556
-6.0126 9.3504 -2.3499 0.9556
-6.1994 9.2269 -2.3497 0.9556
-6.3836 9.0996 -2.3496 0.9556
-6.7442 8.8342 -2.3493 0.9556
-7.4317 8.2608 -2.3488 0.9556
-7.5961 8.1090 -2.3487 0.9556
-7.9157 7.7956 -2.3484 0.9556
-8.6577 7.5526 -2.4285 0.9541
-8.9754 7.5167 -2.4747 0.9533
-9.5070 7.0305 -2.4994 0.9528
-9.6477 6.8383 -2.4996 0.9528
-9.7829 6.6423 -2.4995 0.9528
-10.1646 6.0383 -2.4991 0.9528
-10.2836 5.8321 -2.4990 0.9528
-10.6155 5.1996 -2.4986 0.9528
-10.9085 4.5483 -2.4982 0.9528
-11.0818 4.1049 -2.4980 0.9528
-11.3741 3.1990 -2.4975 0.9528
-11.4357 2.9692 -2.4974 0.9528
-11.4927 2.7381 -2.4973 0.9528
-11.5450 2.5059 -2.4972 0.9528
-11.5927 2.2728 -2.4971 0.9529
-11.6356 2.0387 -2.4970 0.9529
-11.7361 1.3321 -2.4967 0.9529
-11.7601 1.0955 -2.4966 0.9529
-11.7793 0.8583 -2.4965 0.9529
-11.7938 0.6209 -2.4964 0.9529
-11.8035 0.3832 -2.4963 0.9529
-11.8085 -0.0925 -2.4962 0.9529
-11.8039 -0.3304 -2.4961 0.9529
-11.7612 -1.0425 -2.4958 0.9529
-11.7375 -1.2791 -2.4958 0.9529
-11.7090 -1.5153 -2.4957 0.9529
-11.6758 -1.7508 -2.4956 0.9529
-11.5952 -2.2195 -2.4955 0.9529
-11.5479 -2.4525 -2.4954 0.9529
-11.4392 -2.9155 -2.4953 0.9529
-11.3779 -3.1452 -2.4953 0.9529
-11.3120 -3.3737 -2.4952 0.9529
-11.0870 -4.0505 -2.4951 0.9529
-10.8217 -4.7125 -2.4950 0.9529
-10.7244 -4.9294 -2.4949 0.9529
-10.6228 -5.1444 -2.4949 0.9529
-10.5169 -5.3572 -2.4949 0.9529
-9.7939 -6.5859 -2.4948 0.9529
-9.6593 -6.7818 -2.4948 0.9529
-9.5207 -6.9749 -2.4948 0.9529
-9.2321 -7.3528 -2.4948 0.9529
-9.0821 -7.5372 -2.4948 0.9529
-8.6104 -8.0721 -2.4948 0.9529
-8.2784 -8.4124 -2.4948 0.9529
-8.1074 -8.5775 -2.4949 0.9529
-7.7555 -8.8973 -2.4949 0.9529
10.6263 0.9336 -2.5071 0.9571
10.5806 1.3609 -2.5072 0.9571
10.5178 1.7860 -2.5073 0.9571
10.4799 1.9975 -2.5074 0.9571
10.4378 2.2083 -2.5074 0.9571
10.3408 2.6270 -2.5075 0.9571
10.2860 2.8348 -2.5076 0.9571
10.2270 3.0415 -2.5076 0.9571
9.8701 4.0546 -2.5078 0.9571
9.7866 4.2527 -2.5078 0.9571
9.6076 4.6435 -2.5079 0.9571
9.4129 5.0268 -2.5079 0.9571
9.2029 5.4019 -2.5080 0.9571
9.0923 5.5862 -2.5080 0.9571
8.7384 6.1252 -2.5080 0.9571
8.6133 6.2999 -2.5080 0.9571
8.4847 6.4722 -2.5080 0.9571
8.2171 6.8086 -2.5080 0.9571
8.0720 6.9673 -2.5061 0.9571
7.7708 7.2736 -2.5015 0.9572
7.3056 7.4124 -2.4460 0.9581
7.0490 7.4462 -2.4098 0.9587
6.1222 7.9328 -2.3550 0.9597
5.7976 8.1727 -2.3550 0.9597
5.6317 8.2877 -2.3549 0.9597
5.4635 8.3992 -2.3549 0.9597
5.2931 8.5075 -2.3549 0.9597
4.4105 8.9956 -2.3546 0.9597
4.2283 9.0824 -2.3546 0.9597
1.9306 9.8271 -2.3538 0.9597
1.5331 9.8962 -2.3536 0.9597
1.1332 9.9492 -2.3534 0.9597
0.9326 9.9697 -2.3533 0.9597
0.1271 10.0109 -2.3530 0.9597
-0.2762 10.0071 -2.3528 0.9597
-0.3991 8.3536 -1.9655 0.9662
-1.0805 9.9507 -2.3524 0.9597
-1.2807 9.9265 -2.3523 0.9597
-1.4803 9.8982 -2.3522 0.9597
-2.5008 9.0603 -2.2090 0.9621
-2.6971 9.0560 -2.2207 0.9619
-2.8977 9.0585 -2.2352 0.9617
-3.1011 9.0612 -2.2508 0.9614
-3.5169 9.0665 -2.2855 0.9608
-3.9464 9.0720 -2.3251 0.9602
-4.3556 9.0029 -2.3505 0.9597
-4.8906 8.7221 -2.3502 0.9597
-5.0651 8.6214 -2.3500 0.9597
-5.5756 8.2985 -2.3497 0.9598
-5.7414 8.1841 -2.3496 0.9598
-6.0657 7.9455 -2.3493 0.9598
-6.4155 7.7365 -2.3621 0.9595
-6.6633 7.7137 -2.3956 0.9590
-6.9182 7.6900 -2.4311 0.9584
-7.1807 7.6655 -2.4685 0.9578
-7.5677 7.4529 -2.4963 0.9573
-8.2917 6.6647 -2.5002 0.9572
-8.4239 6.4960 -2.5001 0.9572
-8.6778 6.1509 -2.4999 0.9572
-8.7996 5.9746 -2.4997 0.9572
-8.9177 5.7958 -2.4996 0.9572
-9.0322 5.6148 -2.4995 0.9572
-9.1430 5.4315 -2.4994 0.9572
-9.4530 4.8687 -2.4990 0.9572
-9.5488 4.6771 -2.4989 0.9573
-9.6406 4.4836 -2.4988 0.9573
-9.8125 4.0913 -2.4986 0.9573
-10.1082 3.2877 -2.4982 0.9573
-10.1720 3.0833 -2.4981 0.9573
-10.3384 2.4631 -2.4978 0.9573
-10.5015 1.6227 -2.4974 0.9573
-10.5792 0.9855 -2.4971 0.9573
-10.5965 0.7722 -2.4970 0.9573
-10.6096 0.5585 -2.4969 0.9573
-10.6184 0.3447 -2.4969 0.9573
-10.6228 0.1308 -2.4968 0.9573
-10.6230 -0.0832 -2.4967 0.9573
-10.5976 -0.7246 -2.4965 0.9573
-10.5806 -0.9378 -2.4964 0.9573
-10.5337 -1.3632 -2.4963 0.9573
-10.4697 -1.7862 -2.4962 0.9573
-10.3888 -2.2063 -2.4961 0.9573
-10.3421 -2.4151 -2.4960 0.9573
-10.2911 -2.6229 -2.4960 0.9573
-10.2360 -2.8296 -2.4959 0.9573
-10.1133 -3.2394 -2.4958 0.9573
-9.8988 -3.8441 -2.4957 0.9573
-9.6482 -4.4347 -2.4956 0.9573
-9.3625 -5.0092 -2.4955 0.9573
-8.8111 -5.9250 -2.4955 0.9573
-8.6900 -6.1012 -2.4955 0.9573
-8.3056 -6.6149 -2.4955 0.9573
-8.1707 -6.7809 -2.4955 0.9573
-7.8910 -7.1045 -2.4955 0.9573
-7.2938 -7.7168 -2.4955 0.9573
-7.1370 -7.8622 -2.4956 0.9573
-6.8146 -8.1434 -2.4956 0.9573
9.6586 0.6528 -2.5065 0.9608
9.5756 1.4283 -2.5067 0.9608
9.5451 1.6209 -2.5068 0.9608
9.5108 1.8128 -2.5068 0.9608
9.3347 2.5726 -2.5070 0.9608
9.2238 2.9466 -2.5071 0.9608
9.1627 3.1318 -2.5072 0.9608
8.9572 3.6796 -2.5073 0.9608
8.8814 3.8593 -2.5073 0.9608
8.7189 4.2140 -2.5073 0.9608
7.9302 5.5586 -2.5074 0.9608
7.5800 6.0274 -2.5074 0.9608
7.3311 6.3278 -2.5074 0.9608
7.0702 6.6179 -2.5074 0.9608
6.7978 6.8972 -2.5074 0.9608
6.5090 7.1592 -2.5052 0.9608
6.3587 7.2835 -2.5034 0.9608
6.0515 7.5229 -2.4998 0.9609
5.8311 7.5555 -2.4711 0.9613
5.1819 7.6257 -2.3872 0.9626
4.9747 7.6478 -2.3622 0.9630
4.8036 7.7206 -2.3543 0.9631
4.6471 7.8157 -2.3543 0.9631
4.3283 7.9962 -2.3542 0.9631
4.1663 8.0816 -2.3542 0.9631
3.8373 8.2425 -2.3541 0.9631
3.6704 8.3180 -2.3540 0.9631
3.5020 8.3900 -2.3540 0.9631
3.3323 8.4587 -2.3539 0.9631
2.9887 8.5856 -2.3538 0.9631
2.8151 8.6438 -2.3537 0.9631
2.4646 8.7497 -2.3536 0.9631
1.9315 8.8818 -2.3534 0.9631
1.5721 8.9519 -2.3533 0.9631
1.3914 8.9814 -2.3532 0.9631
1.0285 9.0296 -2.3530 0.9631
0.8464 9.0482 -2.3530 0.9631
0.6639 9.0631 -2.3529 0.9631
0.4812 9.0743 -2.3528 0.9631
-0.0677 9.0858 -2.3525 0.9632
-0.2507 9.0823 -2.3525 0.9632
-0.3987 8.3451 -2.1632 0.9661
-0.6162 9.0641 -2.3523 0.9632
-0.7986 9.0495 -2.3522 0.9632
-1.3435 8.9837 -2.3519 0.9632
-1.7041 8.9216 -2.3517 0.9632
-1.8834 8.8851 -2.3516 0.9632
-2.2395 8.8013 -2.3514 0.9632
-2.4163 8.7540 -2.3513 0.9632
-2.9402 8.5910 -2.3510 0.9632
-3.1125 8.5297 -2.3509 0.9632
-4.1171 8.0900 -2.3503 0.9632
-4.4392 7.9170 -2.3501 0.9632
-5.8487 7.6611 -2.4956 0.9610
-6.6041 7.0500 -2.5012 0.9609
-6.7444 6.9152 -2.5010 0.9609
-7.0169 6.6374 -2.5008 0.9609
-7.1488 6.4944 -2.5007 0.9609
-7.2778 6.3488 -2.5006 0.9609
-7.6469 5.8969 -2.5002 0.9609
-8.1993 5.0970 -2.4997 0.9609
-8.3000 4.9306 -2.4996 0.9609
-8.8317 3.8930 -2.4990 0.9609
-8.9079 3.7142 -2.4989 0.9609
-9.1766 2.9847 -2.4985 0.9609
-9.3856 2.2361 -2.4981 0.9609
-9.4285 2.0465 -2.4980 0.9609
-9.5613 1.2808 -2.4977 0.9609
-9.6045 0.8947 -2.4975 0.9609
-9.6203 0.7010 -2.4975 0.9609
-9.6322 0.5071 -2.4974 0.9609
-9.6401 0.3129 -2.4973 0.9609
-9.6444 -0.0756 -2.4972 0.9609
-9.6060 -0.8515 -2.4969 0.9609
-9.5635 -1.2376 -2.4968 0.9609
-9.4707 -1.8128 -2.4966 0.9609
-9.2933 -2.5690 -2.4964 0.9609
-9.1208 -3.1254 -2.4963 0.9609
-9.0559 -3.3084 -2.4963 0.9609
-8.7598 -4.0264 -2.4962 0.9609
-8.6768 -4.2020 -2.4962 0.9609
-8.3102 -4.8866 -2.4961 0.9609
-7.7767 -5.6972 -2.4960 0.9610
-7.6603 -5.8527 -2.4960 0.9610
-7.5409 -6.0058 -2.4960 0.9610
-7.2929 -6.3047 -2.4960 0.9610
-7.1645 -6.4504 -2.4961 0.9609
-7.0331 -6.5934 -2.4961 0.9609
-6.8989 -6.7337 -2.4961 0.9609
-6.7619 -6.8713 -2.4961 0.9609
-6.6222 -7.0062 -2.4961 0.9609
-6.1871 -7.3936 -2.4962 0.9609
8.8188 0.7748 -2.5061 0.9639
8.7564 1.3061 -2.5063 0.9639
8.7285 1.4822 -2.5064 0.9639
8.6971 1.6577 -2.5064 0.9639
8.6235 2.0067 -2.5065 0.9639
8.5815 2.1801 -2.5065 0.9639
8.4346 2.6945 -2.5067 0.9639
8.3194 3.0321 -2.5067 0.9639
8.1908 3.3648 -2.5068 0.9639
8.1214 3.5291 -2.5068 0.9639
8.0487 3.6920 -2.5068 0.9639
7.9728 3.8534 -2.5069 0.9639
7.8937 4.0133 -2.5069 0.9639
7.6370 4.4827 -2.5069 0.9639
7.5452 4.6357 -2.5069 0.9639
7.4503 4.7867 -2.5069 0.9639
7.3524 4.9358 -2.5069 0.9639
7.2515 5.0829 -2.5070 0.9639
7.0409 5.3709 -2.5070 0.9639
6.9313 5.5116 -2.5070 0.9639
6.7037 5.7863 -2.5069 0.9639
6.2161 6.3070 -2.5069 0.9639
5.8238 6.6707 -2.5069 0.9639
5.6882 6.7866 -2.5068 0.9639
5.2677 7.1175 -2.5067 0.9639
4.8207 7.4110 -2.5028 0.9639
4.6679 7.5025 -2.5014 0.9639
4.5134 7.5909 -2.5001 0.9640
4.3532 7.6690 -2.4964 0.9640
4.1603 7.6858 -2.4741 0.9643
3.9706 7.7020 -2.4531 0.9646
3.7840 7.7178 -2.4333 0.9649
3.2403 7.7629 -2.3814 0.9656
2.2537 8.0013 -2.3533 0.9660
2.0921 8.0449 -2.3532 0.9660
1.9296 8.0852 -2.3531 0.9660
1.6023 8.1559 -2.3530 0.9660
1.4376 8.1862 -2.3529 0.9660
1.2724 8.2133 -2.3529 0.9660
1.1067 8.2370 -2.3528 0.9660
0.6072 8.2881 -2.3526 0.9660
0.4401 8.2983 -2.3525 0.9660
0.2728 8.3053 -2.3524 0.9660
-0.3965 8.2991 -2.3521 0.9660
-0.5635 8.2892 -2.3520 0.9661
-1.0630 8.2391 -2.3518 0.9661
-1.3939 8.1891 -2.3516 0.9661
-1.5585 8.1590 -2.3515 0.9661
-1.8857 8.0890 -2.3513 0.9661
-2.0481 8.0491 -2.3512 0.9661
-2.2097 8.0059 -2.3512 0.9661
-2.8755 7.8803 -2.3747 0.9657
-3.6034 7.8476 -2.4446 0.9647
-4.1559 7.7749 -2.4957 0.9640
-4.4701 7.6087 -2.4982 0.9640
-4.6248 7.5209 -2.4995 0.9640
-4.7778 7.4301 -2.5008 0.9639
-5.0756 7.2351 -2.5019 0.9639
-5.3624 7.0242 -2.5017 0.9639
-5.7761 6.6867 -2.5014 0.9639
-6.1686 6.3248 -2.5011 0.9639
-6.2945 6.1990 -2.5010 0.9639
-6.4178 6.0707 -2.5009 0.9639
-6.5385 5.9400 -2.5008 0.9639
-6.6566 5.8069 -2.5007 0.9639
-6.7719 5.6714 -2.5006 0.9639
-6.8845 5.5336 -2.5005 0.9639
-6.9943 5.3936 -2.5004 0.9639
-7.1012 5.2514 -2.5003 0.9639
-7.3064 4.9608 -2.5001 0.9640
-7.4045 4.8124 -2.5000 0.9640
-7.5917 4.5099 -2.4998 0.9640
-7.6807 4.3559 -2.4997 0.9640
-7.7666 4.2001 -2.4996 0.9640
-7.8493 4.0427 -2.4995 0.9640
-8.0052 3.7230 -2.4993 0.9640
-8.0782 3.5609 -2.4992 0.9640
-8.2777 3.0662 -2.4989 0.9640
-8.3939 2.7301 -2.4988 0.9640
-8.4469 2.5604 -2.4987 0.9640
-8.4964 2.3897 -2.4986 0.9640
-8.5425 2.2180 -2.4985 0.9640
-8.5852 2.0454 -2.4984 0.9640
-8.6601 1.6979 -2.4983 0.9640
-8.6922 1.5230 -2.4982 0.9640
-8.7856 0.8184 -2.4979 0.9640
-8.8000 0.6412 -2.4978 0.9640
-8.8109 0.4638 -2.4978 0.9640
-8.8182 0.2863 -2.4977 0.9640
-8.8220 0.1086 -2.4976 0.9640
-8.8118 -0.4243 -2.4974 0.9640
-8.7871 -0.7789 -2.4973 0.9640
-8.6281 -1.8324 -2.4970 0.9640
-8.5893 -2.0058 -2.4970 0.9640
-8.4521 -2.5208 -2.4969 0.9640
-8.3994 -2.6904 -2.4968 0.9640
-8.3434 -2.8590 -2.4968 0.9640
-8.2841 -3.0264 -2.4968 0.9640
-8.2213 -3.1927 -2.4967 0.9640
-8.0859 -3.5211 -2.4967 0.9640
-8.0132 -3.6832 -2.4966 0.9640
-7.9374 -3.8439 -2.4966 0.9640
-7.8583 -4.0029 -2.4966 0.9640
-7.7760 -4.1604 -2.4966 0.9640
-7.4157 -4.7726 -2.4965 0.9640
-7.1139 -5.2117 -2.4965 0.9640
-6.5539 -5.9006 -2.4965 0.9640
-6.3110 -6.1599 -2.4966 0.9640
-6.0578 -6.4092 -2.4966 0.9640
8.1281 0.5494 -2.5057 0.9665
8.0997 0.8763 -2.5058 0.9665
8.0806 1.0394 -2.5059 0.9665
8.0582 1.2019 -2.5059 0.9665
8.0325 1.3640 -2.5060 0.9665
8.0035 1.5255 -2.5060 0.9665
7.9713 1.6865 -2.5061 0.9665
7.9358 1.8467 -2.5061 0.9665
7.7619 2.4796 -2.5063 0.9665
7.6559 2.7903 -2.5063 0.9665
7.4737 3.2476 -2.5064 0.9665
7.4068 3.3976 -2.5064 0.9665
7.3369 3.5461 -2.5064 0.9665
7.2641 3.6932 -2.5065 0.9665
6.8561 4.4049 -2.5065 0.9665
6.7660 4.5421 -2.5065 0.9665
6.6731 4.6775 -2.5065 0.9665
6.5776 4.8110 -2.5065 0.9665
6.4794 4.9425 -2.5065 0.9665
6.3785 5.0720 -2.5065 0.9665
6.2750 5.1995 -2.5065 0.9665
6.1690 5.3248 -2.5065 0.9665
5.9495 5.5689 -2.5065 0.9665
5.8361 5.6876 -2.5065 0.9665
5.4819 6.0296 -2.5065 0.9665
5.2345 6.2453 -2.5064 0.9665
4.8476 6.5499 -2.5063 0.9665
4.5798 6.7397 -2.5063 0.9665
4.3045 6.9185 -2.5062 0.9665
4.1642 7.0037 -2.5062 0.9665
3.8787 7.1655 -2.5061 0.9665
3.5857 7.3134 -2.5053 0.9665
3.1338 7.5078 -2.5023 0.9665
2.6718 7.6753 -2.4997 0.9666
2.5159 7.7251 -2.4989 0.9666
2.0290 7.8023 -2.4797 0.9668
1.5379 7.8282 -2.4538 0.9672
1.2145 7.8396 -2.4401 0.9673
0.8942 7.8502 -2.4302 0.9675
0.7348 7.8553 -2.4267 0.9675
0.5758 7.8601 -2.4241 0.9676
0.2585 7.8692 -2.4217 0.9676
0.1000 7.8735 -2.4219 0.9676
-0.0587 7.8748 -2.4222 0.9676
-0.2174 7.8759 -2.4234 0.9676
-0.5356 7.8777 -2.4286 0.9675
-0.6953 7.8783 -2.4326 0.9674
-1.0165 7.8790 -2.4435 0.9673
-1.1783 7.8791 -2.4504 0.9672
-1.3411 7.8790 -2.4583 0.9671
-1.6691 7.8740 -2.4757 0.9669
-2.0012 7.8645 -2.4960 0.9666
-2.4743 7.7350 -2.4979 0.9666
-2.7855 7.6336 -2.4994 0.9666
-2.9396 7.5784 -2.5002 0.9666
-3.8355 7.1754 -2.5025 0.9665
-3.9790 7.0964 -2.5024 0.9665
-4.1210 7.0145 -2.5023 0.9665
-4.2613 6.9298 -2.5022 0.9665
-4.3999 6.8424 -2.5021 0.9665
-4.5366 6.7521 -2.5020 0.9665
-4.6715 6.6591 -2.5019 0.9665
-5.0646 6.3640 -2.5016 0.9665
-5.1915 6.2605 -2.5015 0.9665
-5.4390 6.0458 -2.5013 0.9665
-5.5595 5.9349 -2.5012 0.9665
-5.6777 5.8214 -2.5011 0.9665
-5.7936 5.7057 -2.5011 0.9665
-5.9071 5.5876 -2.5010 0.9665
-6.0182 5.4673 -2.5009 0.9665
-6.1269 5.3448 -2.5008 0.9665
-6.2331 5.2201 -2.5007 0.9665
-6.4378 4.9644 -2.5005 0.9666
-6.6320 4.7008 -2.5003 0.9666
-6.7251 4.5661 -2.5002 0.9666
-6.8154 4.4295 -2.5001 0.9666
-6.9030 4.2912 -2.5000 0.9666
-7.0697 4.0094 -2.4998 0.9666
-7.1488 3.8660 -2.4998 0.9666
-7.2250 3.7212 -2.4997 0.9666
-7.5612 2.9753 -2.4992 0.9666
-7.6194 2.8223 -2.4992 0.9666
-7.7752 2.3568 -2.4989 0.9666
-7.8208 2.1996 -2.4988 0.9666
-7.8633 2.0416 -2.4988 0.9666
-7.9026 1.8828 -2.4987 0.9666
-7.9715 1.5629 -2.4985 0.9666
-8.0276 1.2405 -2.4984 0.9666
-8.0507 1.0785 -2.4983 0.9666
-8.1005 0.5903 -2.4981 0.9666
-8.1208 0.1000 -2.4980 0.9666
-8.1209 -0.0636 -2.4979 0.9666
-8.0888 -0.7170 -2.4977 0.9666
-8.0725 -0.8797 -2.4976 0.9666
-8.0530 -1.0421 -2.4976 0.9666
-8.0042 -1.3656 -2.4975 0.9666
-7.9749 -1.5265 -2.4974 0.9666
-7.9424 -1.6868 -2.4974 0.9666
-7.8678 -2.0052 -2.4973 0.9666
-7.8257 -2.1633 -2.4973 0.9666
-7.7804 -2.3204 -2.4972 0.9666
-7.7320 -2.4767 -2.4972 0.9666
-7.4434 -3.2413 -2.4971 0.9666
-7.3765 -3.3906 -2.4971 0.9666
-7.2339 -3.6848 -2.4970 0.9666
-7.1581 -3.8298 -2.4970 0.9666
-7.0795 -3.9731 -2.4970 0.9666
-6.9980 -4.1149 -2.4970 0.9666
-6.9137 -4.2550 -2.4970 0.9666
-6.6440 -4.6648 -2.4969 0.9666
-6.4507 -4.9286 -2.4969 0.9666
-6.1413 -5.3092 -2.4969 0.9666
-6.0332 -5.4318 -2.4970 0.9666
-5.8096 -5.6704 -2.4970 0.9666
-5.6942 -5.7863 -2.4970 0.9666
7.4554 1.1120 -2.5056 0.9687
7.1812 2.2941 -2.5059 0.9687
7.0298 2.7237 -2.5060 0.9687
6.9145 3.0046 -2.5061 0.9687
6.7880 3.2808 -2.5061 0.9687
6.7206 3.4168 -2.5061 0.9687
6.6504 3.5515 -2.5061 0.9687
6.5776 3.6848 -2.5061 0.9687
6.3431 4.0754 -2.5062 0.9687
6.1738 4.3275 -2.5062 0.9687
5.9946 4.5727 -2.5062 0.9687
5.9012 4.6925 -2.5062 0.9687
5.8055 4.8104 -2.5062 0.9687
5.7074 4.9264 -2.5062 0.9687
5.6070 5.0403 -2.5062 0.9687
5.5044 5.1522 -2.5062 0.9687
5.3994 5.2620 -2.5061 0.9687
5.2923 5.3697 -2.5061 0.9687
5.1831 5.4751 -2.5061 0.9687
5.0717 5.5784 -2.5061 0.9687
4.9583 5.6794 -2.5061 0.9687
4.8429 5.7781 -2.5061 0.9687
4.3619 6.1489 -2.5060 0.9687
4.2371 6.2354 -2.5060 0.9687
4.1106 6.3194 -2.5059 0.9687
3.9825 6.4008 -2.5059 0.9687
3.5885 6.6294 -2.5058 0.9687
3.4542 6.7003 -2.5057 0.9687
3.3185 6.7684 -2.5057 0.9687
2.6209 7.0671 -2.5055 0.9687
2.4780 7.1183 -2.5054 0.9687
2.3340 7.1667 -2.5054 0.9687
2.1892 7.2121 -2.5053 0.9687
1.7495 7.3306 -2.5052 0.9687
1.6014 7.3642 -2.5051 0.9687
1.4526 7.3937 -2.5047 0.9687
1.3031 7.4202 -2.5043 0.9687
1.1532 7.4438 -2.5039 0.9687
1.0029 7.4645 -2.5035 0.9688
0.8522 7.4823 -2.5032 0.9688
0.5501 7.5092 -2.5028 0.9688
0.0956 7.5277 -2.5025 0.9688
-0.2077 7.5253 -2.5024 0.9688
-0.3592 7.5197 -2.5025 0.9688
-0.5106 7.5113 -2.5026 0.9688
-0.6619 7.4999 -2.5027 0.9688
-0.8129 7.4856 -2.5029 0.9688
-0.9636 7.4684 -2.5031 0.9688
-1.1139 7.4483 -2.5034 0.9688
-1.5619 7.3681 -2.5036 0.9688
-1.7099 7.3350 -2.5036 0.9688
-2.0038 7.2597 -2.5034 0.9688
-2.2944 7.1726 -2.5032 0.9688
-2.4383 7.1247 -2.5031 0.9688
-2.8639 6.9637 -2.5029 0.9688
-3.1418 6.8422 -2.5027 0.9688
-3.4146 6.7097 -2.5025 0.9688
-3.5489 6.6393 -2.5024 0.9688
-3.9430 6.4121 -2.5022 0.9688
-4.1977 6.2477 -2.5020 0.9688
-4.5669 5.9821 -2.5017 0.9688
-4.9193 5.6948 -2.5015 0.9688
-5.2537 5.3867 -2.5012 0.9688
-5.4660 5.1704 -2.5010 0.9688
-5.9571 4.5938 -2.5006 0.9688
-6.0483 4.4728 -2.5005 0.9688
-6.1369 4.3499 -2.5004 0.9688
-6.3067 4.0989 -2.5002 0.9688
-6.4662 3.8413 -2.5001 0.9688
-6.5421 3.7101 -2.5000 0.9688
-6.6153 3.5775 -2.4999 0.9688
-6.7536 3.3080 -2.4997 0.9688
-6.8809 3.0331 -2.4996 0.9688
-6.9403 2.8938 -2.4995 0.9688
-6.9970 2.7533 -2.4994 0.9688
-7.0508 2.6117 -2.4994 0.9688
-7.1018 2.4691 -2.4993 0.9688
-7.1499 2.3255 -2.4992 0.9688
-7.1951 2.1810 -2.4991 0.9688
-7.3130 1.7423 -2.4989 0.9688
-7.4502 0.9980 -2.4986 0.9688
-7.4839 0.6971 -2.4985 0.9688
-7.5119 0.2439 -2.4983 0.9688
-7.5151 0.0925 -2.4982 0.9688
-7.5124 -0.2102 -2.4981 0.9688
-7.4855 -0.6635 -2.4980 0.9688
-7.4314 -1.1143 -2.4978 0.9688
-7.4073 -1.2637 -2.4978 0.9688
-7.3802 -1.4127 -2.4978 0.9688
-7.3502 -1.5610 -2.4977 0.9688
-7.3171 -1.7087 -2.4977 0.9688
-7.2811 -1.8557 -2.4976 0.9688
-7.2003 -2.1474 -2.4976 0.9688
-7.1555 -2.2920 -2.4975 0.9688
-7.1078 -2.4356 -2.4975 0.9688
-7.0572 -2.5783 -2.4975 0.9688
-7.0037 -2.7198 -2.4975 0.9688
-6.9475 -2.8603 -2.4974 0.9688
-6.8884 -2.9997 -2.4974 0.9688
-6.6945 -3.4101 -2.4974 0.9688
-6.6244 -3.5442 -2.4973 0.9688
-6.5517 -3.6769 -2.4973 0.9688
-6.4762 -3.8081 -2.4973 0.9688
-6.3982 -3.9378 -2.4973 0.9688
-6.3176 -4.0659 -2.4973 0.9688
-6.1142 -4.2928 -2.4833 0.9690
-6.0605 -4.4399 -2.4973 0.9688
-5.9698 -4.5611 -2.4973 0.9688
-5.8767 -4.6804 -2.4973 0.9688
-5.4810 -5.1383 -2.4973 0.9688
-5.1607 -5.4600 -2.4974 0.9688
-5.0497 -5.5629 -2.4974 0.9688
-4.9367 -5.6635 -2.4974 0.9688
-4.8217 -5.7618 -2.4974 0.9688
6.9894 0.4724 -2.5052 0.9707
6.9786 0.6131 -2.5052 0.9707
6.9485 0.8937 -2.5053 0.9707
6.8822 1.3118 -2.5054 0.9707
6.8240 1.5880 -2.5055 0.9707
6.7546 1.8616 -2.5056 0.9707
6.6301 2.2662 -2.5057 0.9707
6.4813 2.6625 -2.5057 0.9707
6.4264 2.7926 -2.5057 0.9707
6.3689 2.9215 -2.5058 0.9707
6.3088 3.0492 -2.5058 0.9707
6.2462 3.1757 -2.5058 0.9707
6.1810 3.3009 -2.5058 0.9707
6.0431 3.5472 -2.5058 0.9707
5.9705 3.6682 -2.5058 0.9707
5.8179 3.9057 -2.5059 0.9707
5.6559 4.1368 -2.5059 0.9707
5.3957 4.4708 -2.5059 0.9707
5.3046 4.5786 -2.5059 0.9707
5.2112 4.6845 -2.5059 0.9707
5.1158 4.7885 -2.5058 0.9707
5.0183 4.8906 -2.5058 0.9707
4.9187 4.9906 -2.5058 0.9707
4.8172 5.0887 -2.5058 0.9707
4.7137 5.1846 -2.5058 0.9707
4.3919 5.4597 -2.5057 0.9707
4.2810 5.5470 -2.5057 0.9707
4.1684 5.6321 -2.5057 0.9707
4.0540 5.7149 -2.5057 0.9707
3.9381 5.7953 -2.5057 0.9707
3.8205 5.8734 -2.5056 0.9707
3.7014 5.9491 -2.5056 0.9707
3.5807 6.0223 -2.5056 0.9707
3.4587 6.0932 -2.5055 0.9707
3.3352 6.1615 -2.5055 0.9707
3.2104 6.2274 -2.5055 0.9707
3.0843 6.2907 -2.5054 0.9707
2.5678 6.5181 -2.5053 0.9707
2.4359 6.5684 -2.5052 0.9707
2.1693 6.6609 -2.5051 0.9707
2.0347 6.7031 -2.5051 0.9707
1.8992 6.7426 -2.5050 0.9707
1.6260 6.8133 -2.5049 0.9707
1.4884 6.8446 -2.5049 0.9707
1.3502 6.8730 -2.5048 0.9707
1.0723 6.9215 -2.5047 0.9707
0.0889 7.0023 -2.5043 0.9707
-0.0522 7.0025 -2.5042 0.9707
-0.4749 6.9860 -2.5040 0.9707
-0.8959 6.9440 -2.5038 0.9707
-1.0355 6.9243 -2.5037 0.9707
-1.3135 6.8766 -2.5036 0.9707
-1.5893 6.8177 -2.5034 0.9707
-1.7263 6.7841 -2.5033 0.9707
-1.9980 6.7086 -2.5032 0.9707
-2.1326 6.6668 -2.5031 0.9707
-2.2664 6.6223 -2.5030 0.9707
-2.3993 6.5751 -2.5030 0.9707
-2.5311 6.5252 -2.5029 0.9707
-2.6619 6.4727 -2.5028 0.9707
-3.0477 6.2996 -2.5026 0.9707
-3.1739 6.2367 -2.5025 0.9707
-3.2987 6.1713 -2.5024 0.9707
-3.4223 6.1034 -2.5023 0.9707
-3.7843 5.8850 -2.5021 0.9707
-3.9019 5.8074 -2.5020 0.9707
-4.1323 5.6451 -2.5018 0.9707
-4.3561 5.4737 -2.5016 0.9707
-4.4653 5.3847 -2.5016 0.9707
-4.5727 5.2935 -2.5015 0.9707
-4.7819 5.1047 -2.5013 0.9707
-4.8836 5.0072 -2.5012 0.9707
-4.9832 4.9077 -2.5011 0.9707
-5.1765 4.7027 -2.5010 0.9707
-5.2700 4.5973 -2.5009 0.9707
-5.4506 4.3810 -2.5007 0.9707
-5.7046 4.0435 -2.5005 0.9707
-5.8625 3.8102 -2.5003 0.9707
-5.9379 3.6912 -2.5003 0.9707
-6.0108 3.5708 -2.5002 0.9707
-6.0813 3.4488 -2.5001 0.9707
-6.1494 3.3256 -2.5000 0.9707
-6.2149 3.2009 -2.5000 0.9707
-6.2780 3.0750 -2.4999 0.9707
-6.3963 2.8195 -2.4997 0.9707
-6.4516 2.6900 -2.4997 0.9707
-6.5043 2.5594 -2.4996 0.9707
-6.6018 2.2953 -2.4995 0.9707
-6.6885 2.0274 -2.4993 0.9707
-6.7278 1.8922 -2.4992 0.9707
-6.7644 1.7563 -2.4992 0.9707
-6.7982 1.6197 -2.4991 0.9707
-6.8831 1.2060 -2.4989 0.9708
-6.9058 1.0671 -2.4989 0.9708
-6.9257 0.9278 -2.4988 0.9708
-6.9429 0.7881 -2.4988 0.9708
-6.9686 0.5078 -2.4986 0.9708
-6.9832 0.2267 -2.4985 0.9708
-6.9862 0.0860 -2.4985 0.9708
-6.9699 -0.4765 -2.4983 0.9708
-6.9587 -0.6168 -2.4982 0.9708
-6.9280 -0.8965 -2.4982 0.9708
-6.8329 -1.4511 -2.4980 0.9708
-6.7688 -1.7251 -2.4979 0.9708
-6.7326 -1.8611 -2.4979 0.9708
-6.6520 -2.1307 -2.4978 0.9708
-6.6076 -2.2642 -2.4978 0.9708
-6.5606 -2.3968 -2.4978 0.9708
-6.5110 -2.5285 -2.4978 0.9708
-6.4587 -2.6591 -2.4977 0.9708
-6.3462 -2.9170 -2.4977 0.9708
-6.2235 -3.1702 -2.4977 0.9708
-6.0206 -3.5402 -2.4976 0.9708
-5.8731 -3.7798 -2.4976 0.9708
-5.7161 -4.0132 -2.4976 0.9708
-5.5498 -4.2402 -2.4976 0.9708
-5.2836 -4.5677 -2.4976 0.9708
-5.1905 -4.6731 -2.4976 0.9708
-4.9981 -4.8785 -2.4976 0.9708
-4.8989 -4.9782 -2.4976 0.9708
-4.5894 -5.2650 -2.4977 0.9708
6.5217 0.4408 -2.5049 0.9724
6.5116 0.5721 -2.5050 0.9724
6.4655 0.9644 -2.5051 0.9724
6.4216 1.2240 -2.5052 0.9724
6.3026 1.7370 -2.5053 0.9724
6.2276 1.9894 -2.5054 0.9724
6.1864 2.1145 -2.5054 0.9724
6.0963 2.3620 -2.5054 0.9724
6.0476 2.4843 -2.5055 0.9724
5.9427 2.7259 -2.5055 0.9724
5.8281 2.9631 -2.5055 0.9724
5.7041 3.1955 -2.5056 0.9724
5.5708 3.4226 -2.5056 0.9724
4.9495 4.2721 -2.5056 0.9724
4.7734 4.4680 -2.5056 0.9724
4.6824 4.5632 -2.5056 0.9724
4.4948 4.7481 -2.5055 0.9724
4.1997 5.0108 -2.5055 0.9724
4.0979 5.0943 -2.5055 0.9724
3.9945 5.1758 -2.5055 0.9724
3.8894 5.2552 -2.5054 0.9724
3.3411 5.6193 -2.5053 0.9724
3.2272 5.6854 -2.5053 0.9724
3.1120 5.7492 -2.5052 0.9724
2.7590 5.9264 -2.5051 0.9724
2.6390 5.9807 -2.5051 0.9724
2.5180 6.0325 -2.5051 0.9724
2.0242 6.2152 -2.5049 0.9724
1.8985 6.2546 -2.5049 0.9724
1.7721 6.2914 -2.5048 0.9724
1.6450 6.3257 -2.5048 0.9724
1.5172 6.3575 -2.5047 0.9724
1.2599 6.4132 -2.5046 0.9724
1.0005 6.4584 -2.5045 0.9724
0.8702 6.4771 -2.5045 0.9724
0.7396 6.4932 -2.5044 0.9724
0.4774 6.5174 -2.5043 0.9724
0.2145 6.5310 -2.5042 0.9724
0.0830 6.5339 -2.5041 0.9724
-0.4432 6.5187 -2.5039 0.9724
-0.7053 6.4952 -2.5037 0.9724
-0.9663 6.4612 -2.5036 0.9724
-1.0962 6.4403 -2.5035 0.9724
-1.2257 6.4167 -2.5034 0.9724
-1.3546 6.3905 -2.5034 0.9724
-1.6108 6.3304 -2.5032 0.9724
-2.1149 6.1795 -2.5029 0.9724
-2.3619 6.0890 -2.5028 0.9724
-2.4840 6.0400 -2.5027 0.9724
-2.7251 5.9347 -2.5026 0.9724
-3.1935 5.6954 -2.5023 0.9724
-3.5313 5.4916 -2.5020 0.9724
-3.6411 5.4192 -2.5020 0.9724
-3.9614 5.1889 -2.5017 0.9724
-4.1669 5.0249 -2.5016 0.9724
-4.2671 4.9398 -2.5015 0.9724
-4.9179 4.2901 -2.5010 0.9724
-5.0032 4.1901 -2.5009 0.9724
-5.0864 4.0884 -2.5008 0.9724
-5.3236 3.7734 -2.5006 0.9724
-5.3983 3.6653 -2.5005 0.9724
-5.4709 3.5557 -2.5004 0.9724
-5.5413 3.4446 -2.5004 0.9724
-5.6752 3.2185 -2.5002 0.9724
-5.7999 2.9871 -2.5001 0.9724
-5.9151 2.7510 -2.4999 0.9724
-6.0208 2.5104 -2.4998 0.9724
-6.1167 2.2657 -2.4997 0.9724
-6.1610 2.1420 -2.4996 0.9724
-6.2027 2.0174 -2.4995 0.9724
-6.2419 1.8920 -2.4995 0.9724
-6.2786 1.7659 -2.4994 0.9724
-6.3127 1.6390 -2.4994 0.9724
-6.3733 1.3834 -2.4992 0.9724
-6.3997 1.2547 -2.4992 0.9725
-6.4448 0.9959 -2.4991 0.9725
-6.4634 0.8658 -2.4990 0.9725
-6.4794 0.7355 -2.4989 0.9725
-6.5035 0.4739 -2.4988 0.9725
-6.5198 0.0803 -2.4987 0.9725
-6.5200 -0.0511 -2.4986 0.9725
-6.4943 -0.5756 -2.4985 0.9725
-6.4656 -0.8367 -2.4984 0.9725
-6.4030 -1.2256 -2.4983 0.9725
-6.3769 -1.3543 -2.4982 0.9725
-6.3483 -1.4825 -2.4982 0.9725
-6.2833 -1.7369 -2.4982 0.9725
-6.1667 -2.1131 -2.4981 0.9725
-6.1228 -2.2369 -2.4981 0.9725
-6.0765 -2.3597 -2.4980 0.9725
-5.9764 -2.6025 -2.4980 0.9725
-5.9227 -2.7223 -2.4980 0.9725
-5.8667 -2.8411 -2.4980 0.9725
-5.8082 -2.9586 -2.4979 0.9725
-5.6843 -3.1901 -2.4979 0.9725
-5.3346 -3.7454 -2.4979 0.9725
-5.2581 -3.8521 -2.4979 0.9725
-5.0987 -4.0608 -2.4979 0.9725
-5.0159 -4.1627 -2.4979 0.9725
-4.9310 -4.2628 -2.4979 0.9725
-4.8442 -4.3613 -2.4979 0.9725
-4.5720 -4.6460 -2.4979 0.9725
-4.1833 -4.9990 -2.4980 0.9725
6.0966 0.5356 -2.5048 0.9739
6.0846 0.6583 -2.5048 0.9739
6.0702 0.7808 -2.5049 0.9739
6.0533 0.9029 -2.5049 0.9739
6.0122 1.1460 -2.5050 0.9739
5.9880 1.2669 -2.5050 0.9739
5.9614 1.3872 -2.5050 0.9739
5.9323 1.5070 -2.5051 0.9739
5.9008 1.6262 -2.5051 0.9739
5.8669 1.7448 -2.5051 0.9739
5.7920 1.9797 -2.5052 0.9739
5.7510 2.0960 -2.5052 0.9739
5.6140 2.4395 -2.5052 0.9739
5.5638 2.5521 -2.5053 0.9739
5.5113 2.6637 -2.5053 0.9739
5.3404 2.9917 -2.5053 0.9739
5.2791 3.0987 -2.5053 0.9739
5.0824 3.4119 -2.5053 0.9739
4.9408 3.6138 -2.5053 0.9739
4.8671 3.7126 -2.5053 0.9739
4.4690 4.1831 -2.5053 0.9739
4.3839 4.2723 -2.5053 0.9739
4.1178 4.5292 -2.5053 0.9739
3.8367 4.7695 -2.5052 0.9739
3.7398 4.8458 -2.5052 0.9739
3.6414 4.9201 -2.5052 0.9739
3.4402 5.0627 -2.5052 0.9739
3.2335 5.1970 -2.5051 0.9739
3.0215 5.3229 -2.5051 0.9739
2.6944 5.4955 -2.5050 0.9739
2.5831 5.5486 -2.5049 0.9739
2.4708 5.5994 -2.5049 0.9739
2.3575 5.6479 -2.5049 0.9739
2.2432 5.6942 -2.5048 0.9739
2.0120 5.7798 -2.5047 0.9739
1.8951 5.8190 -2.5047 0.9739
1.7775 5.8559 -2.5047 0.9739
1.6592 5.8904 -2.5046 0.9739
1.4205 5.9522 -2.5045 0.9739
1.3003 5.9796 -2.5045 0.9739
1.1796 6.0044 -2.5044 0.9739
0.9368 6.0468 -2.5043 0.9739
0.6924 6.0794 -2.5042 0.9739
0.5698 6.0920 -2.5042 0.9739
0.4470 6.1021 -2.5041 0.9739
0.2009 6.1149 -2.5040 0.9739
-0.1688 6.1154 -2.5038 0.9739
-0.4149 6.1033 -2.5037 0.9739
-0.5378 6.0936 -2.5037 0.9739
-0.6604 6.0814 -2.5036 0.9739
-0.7827 6.0667 -2.5035 0.9739
-0.9047 6.0496 -2.5035 0.9739
-1.5082 5.9272 -2.5031 0.9739
-1.7456 5.8613 -2.5030 0.9739
-1.9802 5.7859 -2.5029 0.9739
-2.0962 5.7447 -2.5028 0.9739
-2.2115 5.7012 -2.5027 0.9739
-2.3258 5.6553 -2.5027 0.9739
-2.7731 5.4491 -2.5024 0.9739
-3.0969 5.2712 -2.5022 0.9739
-3.3065 5.1420 -2.5020 0.9739
-3.4093 5.0742 -2.5019 0.9739
-3.5107 5.0043 -2.5019 0.9739
-3.6107 4.9325 -2.5018 0.9739
-3.7092 4.8586 -2.5017 0.9739
-3.8062 4.7827 -2.5017 0.9739
-3.9016 4.7050 -2.5016 0.9739
-3.9955 4.6253 -2.5015 0.9739
-4.1783 4.4604 -2.5014 0.9739
-4.2671 4.3752 -2.5013 0.9739
-4.3543 4.2882 -2.5012 0.9739
-4.6848 3.9234 -2.5009 0.9739
-4.8387 3.7313 -2.5008 0.9739
-4.9127 3.6330 -2.5007 0.9739
-5.1228 3.3294 -2.5005 0.9739
-5.3141 3.0137 -2.5003 0.9739
-5.3735 2.9060 -2.5002 0.9739
-5.4308 2.7971 -2.5002 0.9739
-5.4859 2.6871 -2.5001 0.9739
-5.5894 2.4638 -2.5000 0.9739
-5.6378 2.3507 -2.4999 0.9739
-5.8081 1.8891 -2.4997 0.9739
-5.9112 1.5348 -2.4995 0.9739
-5.9407 1.4154 -2.4994 0.9740
-5.9927 1.1749 -2.4993 0.9740
-6.0349 0.9325 -2.4992 0.9740
-6.0523 0.8108 -2.4992 0.9740
-6.0673 0.6887 -2.4991 0.9740
-6.0798 0.5663 -2.4991 0.9740
-6.1026 0.1981 -2.4989 0.9740
-6.1054 -0.0478 -2.4988 0.9740
-6.1031 -0.1708 -2.4988 0.9740
-6.0983 -0.2937 -2.4988 0.9740
-6.0813 -0.5390 -2.4987 0.9740
-6.0691 -0.6614 -2.4986 0.9740
-6.0545 -0.7835 -2.4986 0.9740
-6.0374 -0.9053 -2.4986 0.9740
-5.9959 -1.1477 -2.4985 0.9740
-5.9715 -1.2682 -2.4985 0.9740
-5.9446 -1.3882 -2.4984 0.9740
-5.9154 -1.5076 -2.4984 0.9740
-5.8498 -1.7446 -2.4984 0.9740
-5.7746 -1.9788 -2.4983 0.9740
-5.7335 -2.0947 -2.4983 0.9740
-5.6901 -2.2097 -2.4983 0.9740
-5.5964 -2.4370 -2.4982 0.9740
-5.5462 -2.5493 -2.4982 0.9740
-5.4937 -2.6604 -2.4982 0.9740
-5.4390 -2.7705 -2.4982 0.9740
-5.2616 -3.0939 -2.4982 0.9740
-5.1982 -3.1993 -2.4981 0.9740
-5.1327 -3.3033 -2.4981 0.9740
-4.8502 -3.7057 -2.4981 0.9740
-4.7746 -3.8026 -2.4981 0.9740
-4.6970 -3.8980 -2.4981 0.9740
-4.5362 -4.0840 -2.4981 0.9740
-4.4530 -4.1746 -2.4981 0.9740
-4.1027 -4.5195 -2.4982 0.9740
5.7249 0.5030 -2.5046 0.9752
5.6229 1.1896 -2.5048 0.9752
5.5978 1.3027 -2.5048 0.9752
5.5091 1.6384 -2.5049 0.9752
5.4003 1.9682 -2.5050 0.9752
5.1752 2.5013 -2.5051 0.9752
5.1238 2.6050 -2.5051 0.9752
5.0148 2.8093 -2.5051 0.9752
4.9572 2.9097 -2.5051 0.9752
4.7069 3.2993 -2.5051 0.9752
4.4991 3.5775 -2.5051 0.9752
4.4261 3.6674 -2.5051 0.9752
4.0349 4.0938 -2.5051 0.9752
3.9516 4.1743 -2.5051 0.9752
3.7802 4.3300 -2.5051 0.9752
3.6027 4.4787 -2.5050 0.9752
3.5117 4.5503 -2.5050 0.9752
3.3256 4.6880 -2.5050 0.9752
3.2304 4.7540 -2.5049 0.9752
3.1340 4.8180 -2.5049 0.9752
2.9374 4.9402 -2.5049 0.9752
2.8372 4.9984 -2.5048 0.9752
2.7359 5.0544 -2.5048 0.9752
2.5301 5.1604 -2.5048 0.9752
2.4256 5.2103 -2.5047 0.9752
2.2137 5.3036 -2.5047 0.9752
2.1065 5.3470 -2.5046 0.9752
1.7796 5.4642 -2.5045 0.9752
1.5580 5.5313 -2.5044 0.9752
1.2210 5.6150 -2.5043 0.9752
0.9939 5.6594 -2.5042 0.9752
0.8797 5.6782 -2.5042 0.9752
0.6502 5.7088 -2.5041 0.9752
0.5351 5.7206 -2.5040 0.9752
0.4198 5.7301 -2.5040 0.9752
0.3043 5.7373 -2.5039 0.9752
0.1886 5.7421 -2.5039 0.9752
-0.1585 5.7427 -2.5037 0.9752
-0.6201 5.7108 -2.5035 0.9752
-0.7350 5.6970 -2.5034 0.9752
-0.8496 5.6809 -2.5034 0.9752
-0.9638 5.6625 -2.5033 0.9752
-1.1910 5.6188 -2.5032 0.9752
-1.6392 5.5042 -2.5029 0.9753
-1.7497 5.4699 -2.5029 0.9753
-1.8595 5.4334 -2.5028 0.9753
-1.9685 5.3947 -2.5027 0.9753
-2.0767 5.3538 -2.5027 0.9753
-2.1841 5.3108 -2.5026 0.9753
-2.2906 5.2656 -2.5025 0.9753
-2.3961 5.2182 -2.5025 0.9753
-2.7066 5.0636 -2.5023 0.9753
-2.9082 4.9502 -2.5021 0.9753
-3.1051 4.8288 -2.5020 0.9753
-3.3907 4.6320 -2.5018 0.9753
-3.5744 4.4915 -2.5017 0.9753
-3.8388 4.2671 -2.5015 0.9753
-4.3245 3.7725 -2.5010 0.9753
-4.3995 3.6845 -2.5010 0.9753
-4.6137 3.4118 -2.5008 0.9753
-4.8728 3.0291 -2.5005 0.9753
-4.9906 2.8303 -2.5004 0.9753
-5.1003 2.6268 -2.5003 0.9753
-5.1520 2.5235 -2.5002 0.9753
-5.2492 2.3138 -2.5001 0.9753
-5.2946 2.2076 -2.5000 0.9753
-5.3379 2.1005 -2.5000 0.9753
-5.4179 1.8837 -2.4999 0.9753
-5.4547 1.7741 -2.4998 0.9753
-5.5214 1.5529 -2.4997 0.9753
-5.5515 1.4414 -2.4996 0.9753
-5.6048 1.2166 -2.4995 0.9753
-5.6280 1.1034 -2.4995 0.9753
-5.6490 0.9898 -2.4994 0.9753
-5.6841 0.7614 -2.4993 0.9753
-5.6981 0.6468 -2.4993 0.9753
-5.7265 0.3015 -2.4991 0.9753
-5.7338 0.0706 -2.4991 0.9753
-5.7340 -0.0449 -2.4990 0.9753
-5.7318 -0.1604 -2.4990 0.9753
-5.7273 -0.2758 -2.4989 0.9753
-5.7205 -0.3911 -2.4989 0.9753
-5.7114 -0.5063 -2.4989 0.9753
-5.6518 -0.9643 -2.4987 0.9753
-5.6312 -1.0779 -2.4987 0.9753
-5.6082 -1.1911 -2.4987 0.9753
-5.5831 -1.3038 -2.4986 0.9753
-5.5556 -1.4159 -2.4986 0.9753
-5.5259 -1.5275 -2.4986 0.9753
-5.4939 -1.6385 -2.4986 0.9753
-5.4234 -1.8584 -2.4985 0.9753
-5.3848 -1.9673 -2.4985 0.9753
-5.3441 -2.0753 -2.4985 0.9753
-5.2089 -2.3942 -2.4984 0.9753
-5.1596 -2.4986 -2.4984 0.9753
-5.1081 -2.6020 -2.4984 0.9753
-4.9992 -2.8056 -2.4984 0.9753
-4.8821 -3.0047 -2.4984 0.9753
-4.8206 -3.1024 -2.4984 0.9753
-4.7571 -3.1989 -2.4983 0.9753
-4.6917 -3.2940 -2.4983 0.9753
-4.6244 -3.3879 -2.4983 0.9753
-4.4842 -3.5713 -2.4983 0.9753
-4.4113 -3.6609 -2.4983 0.9753
-4.3367 -3.7491 -2.4984 0.9753
-3.9378 -4.1662 -2.4984 0.9753
-3.8531 -4.2447 -2.4984 0.9753
-3.6791 -4.3964 -2.4984 0.9753
5.3791 0.5820 -2.5045 0.9764
5.3664 0.6902 -2.5045 0.9764
5.3151 1.0131 -2.5046 0.9764
5.2937 1.1200 -2.5046 0.9764
5.2701 1.2264 -2.5046 0.9764
5.2165 1.4377 -2.5047 0.9764
5.1203 1.7501 -2.5048 0.9764
4.9630 2.1567 -2.5048 0.9764
4.7734 2.5492 -2.5049 0.9764
4.7211 2.6448 -2.5049 0.9764
4.5528 2.9251 -2.5049 0.9764
4.4313 3.1061 -2.5049 0.9764
4.0965 3.5359 -2.5049 0.9764
3.7202 3.9299 -2.5049 0.9764
3.2192 4.3496 -2.5048 0.9764
3.1309 4.4135 -2.5048 0.9764
2.6711 4.7057 -2.5047 0.9764
2.5758 4.7585 -2.5046 0.9764
2.4794 4.8094 -2.5046 0.9764
2.3820 4.8583 -2.5046 0.9764
1.9831 5.0340 -2.5045 0.9764
1.7787 5.1097 -2.5044 0.9764
1.6754 5.1444 -2.5044 0.9764
1.3616 5.2359 -2.5042 0.9764
1.0429 5.3083 -2.5041 0.9764
0.7203 5.3613 -2.5040 0.9764
0.6122 5.3746 -2.5039 0.9764
0.2865 5.4015 -2.5038 0.9764
0.0687 5.4085 -2.5037 0.9764
-0.0403 5.4087 -2.5036 0.9764
-0.1492 5.4066 -2.5036 0.9764
-0.4754 5.3874 -2.5034 0.9764
-0.5838 5.3766 -2.5034 0.9764
-0.7999 5.3485 -2.5033 0.9764
-0.9074 5.3312 -2.5032 0.9764
-1.1214 5.2900 -2.5031 0.9764
-1.4387 5.2123 -2.5029 0.9764
-1.6474 5.1499 -2.5028 0.9764
-1.7507 5.1155 -2.5027 0.9764
-2.0563 5.0001 -2.5026 0.9765
-2.2559 4.9130 -2.5024 0.9765
-2.3544 4.8664 -2.5024 0.9765
-2.4519 4.8179 -2.5023 0.9765
-2.8314 4.6045 -2.5020 0.9765
-2.9235 4.5464 -2.5020 0.9765
-3.0144 4.4865 -2.5019 0.9765
-3.2796 4.2959 -2.5017 0.9765
-3.4498 4.1601 -2.5016 0.9765
-3.5328 4.0896 -2.5015 0.9765
-3.6944 3.9438 -2.5014 0.9765
-3.7730 3.8685 -2.5013 0.9765
-3.8501 3.7917 -2.5013 0.9765
-3.9256 3.7133 -2.5012 0.9765
-4.1423 3.4691 -2.5010 0.9765
-4.2113 3.3849 -2.5010 0.9765
-4.4077 3.1242 -2.5008 0.9765
-4.4696 3.0347 -2.5007 0.9765
-4.5297 2.9440 -2.5007 0.9765
-4.5880 2.8521 -2.5006 0.9765
-4.6444 2.7590 -2.5005 0.9765
-4.8977 2.2778 -2.5002 0.9765
-4.9425 2.1787 -2.5002 0.9765
-5.0260 1.9777 -2.5001 0.9765
-5.0647 1.8760 -2.5000 0.9765
-5.1684 1.5666 -2.4999 0.9765
-5.2773 1.1455 -2.4997 0.9765
-5.3190 0.9320 -2.4996 0.9765
-5.3763 0.5008 -2.4994 0.9765
-5.3852 0.3924 -2.4993 0.9765
-5.3919 0.2838 -2.4993 0.9765
-5.3965 0.1752 -2.4993 0.9765
-5.3988 0.0665 -2.4992 0.9765
-5.3970 -0.1510 -2.4991 0.9765
-5.3927 -0.2597 -2.4991 0.9765
-5.3778 -0.4767 -2.4990 0.9765
-5.3670 -0.5849 -2.4990 0.9765
-5.3541 -0.6929 -2.4990 0.9765
-5.3390 -0.8006 -2.4989 0.9765
-5.3217 -0.9079 -2.4989 0.9765
-5.3022 -1.0149 -2.4989 0.9765
-5.2569 -1.2276 -2.4988 0.9765
-5.2311 -1.3332 -2.4988 0.9765
-5.1409 -1.6467 -2.4987 0.9765
-5.0703 -1.8524 -2.4987 0.9765
-5.0319 -1.9541 -2.4987 0.9765
-4.9915 -2.0550 -2.4986 0.9765
-4.7072 -2.6418 -2.4986 0.9765
-4.6530 -2.7361 -2.4986 0.9765
-4.5970 -2.8292 -2.4986 0.9765
-4.5390 -2.9212 -2.4986 0.9765
-4.4177 -3.1016 -2.4985 0.9765
-4.3543 -3.1900 -2.4985 0.9765
-4.2892 -3.2771 -2.4985 0.9765
-4.2223 -3.3628 -2.4985 0.9765
-4.0834 -3.5301 -2.4985 0.9765
-4.0115 -3.6117 -2.4986 0.9765
-3.9380 -3.6917 -2.4986 0.9765
-3.7861 -3.8474 -2.4986 0.9765
5.0857 0.4468 -2.5043 0.9775
5.0758 0.5492 -2.5043 0.9775
5.0637 0.6513 -2.5043 0.9775
5.0496 0.7532 -2.5044 0.9775
4.9951 1.0568 -2.5045 0.9775
4.9728 1.1572 -2.5045 0.9775
4.9486 1.2571 -2.5045 0.9775
4.9223 1.3566 -2.5045 0.9775
4.8940 1.4554 -2.5045 0.9775
4.7611 1.8447 -2.5046 0.9775
4.6411 2.1289 -2.5047 0.9775
4.5973 2.2220 -2.5047 0.9775
4.5042 2.4053 -2.5047 0.9775
4.4036 2.5848 -2.5047 0.9775
4.2960 2.7601 -2.5047 0.9775
4.1215 3.0145 -2.5047 0.9775
4.0599 3.0969 -2.5047 0.9775
3.9319 3.2579 -2.5047 0.9775
3.8654 3.3365 -2.5047 0.9775
3.7975 3.4136 -2.5047 0.9775
3.7279 3.4894 -2.5047 0.9775
3.6569 3.5638 -2.5047 0.9775
3.5843 3.6367 -2.5047 0.9775
3.5103 3.7082 -2.5047 0.9775
3.3581 3.8465 -2.5047 0.9775
3.2004 3.9786 -2.5047 0.9775
3.1196 4.0422 -2.5046 0.9775
2.9543 4.1645 -2.5046 0.9775
2.5204 4.4403 -2.5045 0.9775
2.2476 4.5843 -2.5044 0.9775
2.0611 4.6710 -2.5044 0.9775
1.9666 4.7115 -2.5043 0.9775
1.7752 4.7867 -2.5043 0.9775
1.5809 4.8542 -2.5042 0.9775
1.3841 4.9138 -2.5041 0.9775
1.2848 4.9406 -2.5041 0.9775
1.1850 4.9654 -2.5041 0.9775
0.9840 5.0090 -2.5040 0.9775
0.8829 5.0277 -2.5039 0.9775
0.7815 5.0444 -2.5039 0.9775
0.6797 5.0590 -2.5039 0.9775
0.5777 5.0716 -2.5038 0.9775
0.2703 5.0969 -2.5037 0.9775
0.1676 5.1012 -2.5036 0.9775
0.0648 5.1035 -2.5036 0.9775
-0.0380 5.1037 -2.5035 0.9775
-0.1408 5.1018 -2.5035 0.9775
-0.2435 5.0978 -2.5034 0.9775
-0.3462 5.0918 -2.5034 0.9775
-0.6530 5.0612 -2.5032 0.9775
-0.7548 5.0469 -2.5032 0.9775
-0.8563 5.0306 -2.5031 0.9775
-1.0581 4.9918 -2.5030 0.9775
-1.2583 4.9449 -2.5029 0.9775
-1.5545 4.8596 -2.5027 0.9775
-1.6520 4.8272 -2.5027 0.9775
-1.7489 4.7928 -2.5026 0.9775
-2.2217 4.5922 -2.5023 0.9775
-2.3137 4.5464 -2.5023 0.9775
-2.4948 4.4493 -2.5021 0.9775
-2.7587 4.2902 -2.5020 0.9775
-3.0126 4.1154 -2.5018 0.9775
-3.0948 4.0538 -2.5017 0.9775
-3.1757 3.9906 -2.5017 0.9775
-3.4863 3.7217 -2.5014 0.9775
-3.6332 3.5781 -2.5013 0.9775
-3.7044 3.5041 -2.5012 0.9775
-4.0375 3.1135 -2.5009 0.9775
-4.3296 2.6914 -2.5007 0.9775
-4.3828 2.6036 -2.5006 0.9775
-4.4343 2.5148 -2.5005 0.9775
-4.4839 2.4249 -2.5005 0.9775
-4.6219 2.1495 -2.5003 0.9775
-4.7045 1.9615 -2.5002 0.9775
-4.7430 1.8663 -2.5002 0.9775
-4.8467 1.5764 -2.5000 0.9775
-4.8774 1.4784 -2.5000 0.9775
-4.9061 1.3799 -2.4999 0.9775
-4.9328 1.2807 -2.4999 0.9775
-4.9575 1.1811 -2.4998 0.9776
-4.9802 1.0810 -2.4998 0.9776
-5.0195 0.8795 -2.4997 0.9776
-5.0361 0.7782 -2.4996 0.9776
-5.0632 0.5747 -2.4996 0.9776
-5.0949 0.0627 -2.4994 0.9776
-5.0951 -0.0399 -2.4993 0.9776
-5.0892 -0.2451 -2.4993 0.9776
-5.0832 -0.3475 -2.4992 0.9776
-5.0751 -0.4499 -2.4992 0.9776
-5.0384 -0.7555 -2.4991 0.9776
-4.9834 -1.0584 -2.4990 0.9776
-4.9367 -1.2582 -2.4990 0.9776
-4.9103 -1.3574 -2.4989 0.9776
-4.8819 -1.4560 -2.4989 0.9776
-4.8192 -1.6514 -2.4989 0.9776
-4.6705 -2.0339 -2.4988 0.9776
-4.6286 -2.1275 -2.4988 0.9776
-4.5848 -2.2203 -2.4988 0.9776
-4.5391 -2.3122 -2.4988 0.9776
-4.4423 -2.4931 -2.4988 0.9776
-4.3912 -2.5821 -2.4987 0.9776
-4.2836 -2.7568 -2.4987 0.9776
-4.2272 -2.8425 -2.4987 0.9776
-4.0478 -3.0926 -2.4987 0.9776
-3.9199 -3.2531 -2.4987 0.9776
-3.8536 -3.3314 -2.4987 0.9776
-3.7163 -3.4840 -2.4987 0.9776
-3.6454 -3.5581 -2.4987 0.9776
-3.4992 -3.7021 -2.4988 0.9776
-3.2693 -3.9067 -2.4988 0.9776
4.8159 0.3255 -2.5041 0.9785
4.8085 0.4225 -2.5041 0.9785
4.7743 0.7121 -2.5042 0.9785
4.7591 0.8081 -2.5043 0.9785
4.5986 1.4690 -2.5044 0.9785
4.5357 1.6531 -2.5045 0.9785
4.3881 2.0128 -2.5045 0.9785
4.3466 2.1008 -2.5045 0.9785
4.3035 2.1879 -2.5045 0.9785
4.2119 2.3595 -2.5046 0.9785
4.1635 2.4439 -2.5046 0.9785
4.0084 2.6909 -2.5046 0.9785
3.9533 2.7711 -2.5046 0.9785
3.8967 2.8502 -2.5046 0.9785
3.8385 2.9281 -2.5046 0.9785
3.7788 3.0048 -2.5046 0.9785
3.7175 3.0803 -2.5046 0.9785
3.5904 3.2275 -2.5046 0.9785
3.3189 3.5060 -2.5045 0.9785
2.8719 3.8804 -2.5045 0.9785
2.7932 3.9375 -2.5044 0.9785
2.7133 3.9929 -2.5044 0.9785
2.5502 4.0989 -2.5044 0.9785
2.4671 4.1494 -2.5044 0.9785
2.3830 4.1982 -2.5044 0.9785
2.1251 4.3343 -2.5043 0.9785
2.0373 4.3762 -2.5043 0.9785
1.6784 4.5258 -2.5041 0.9785
1.4947 4.5896 -2.5041 0.9785
1.4020 4.6187 -2.5040 0.9785
1.3086 4.6459 -2.5040 0.9785
1.1204 4.6947 -2.5039 0.9785
1.0256 4.7163 -2.5039 0.9785
0.9304 4.7359 -2.5039 0.9785
0.8348 4.7536 -2.5038 0.9785
0.7389 4.7694 -2.5038 0.9785
0.6426 4.7832 -2.5037 0.9785
0.5462 4.7951 -2.5037 0.9785
0.4495 4.8051 -2.5037 0.9785
0.3526 4.8131 -2.5036 0.9785
0.2556 4.8191 -2.5036 0.9785
0.1584 4.8232 -2.5035 0.9785
-0.1331 4.8237 -2.5034 0.9785
-0.2303 4.8199 -2.5033 0.9785
-0.4242 4.8066 -2.5032 0.9785
-0.6174 4.7854 -2.5032 0.9785
-0.7137 4.7719 -2.5031 0.9785
-0.9052 4.7391 -2.5030 0.9785
-1.1897 4.6755 -2.5028 0.9785
-1.2836 4.6505 -2.5028 0.9785
-1.3770 4.6236 -2.5027 0.9785
-1.5620 4.5642 -2.5026 0.9785
-1.7445 4.4974 -2.5025 0.9785
-1.8347 4.4612 -2.5025 0.9785
-2.1007 4.3420 -2.5023 0.9785
-2.1876 4.2987 -2.5022 0.9785
-2.4431 4.1584 -2.5021 0.9785
-2.6085 4.0565 -2.5020 0.9785
-2.6896 4.0030 -2.5019 0.9785
-2.8485 3.8913 -2.5018 0.9785
-2.9262 3.8330 -2.5017 0.9785
-3.0781 3.7119 -2.5016 0.9785
-3.2250 3.5848 -2.5015 0.9785
-3.3666 3.4518 -2.5014 0.9785
-3.4353 3.3832 -2.5013 0.9785
-3.7577 3.0203 -2.5010 0.9785
-3.8761 2.8664 -2.5009 0.9785
-3.9330 2.7877 -2.5009 0.9785
-3.9882 2.7078 -2.5008 0.9785
-4.1929 2.3779 -2.5006 0.9785
-4.4103 1.9440 -2.5004 0.9785
-4.4484 1.8548 -2.5003 0.9785
-4.4848 1.7648 -2.5003 0.9785
-4.5521 1.5826 -2.5002 0.9785
-4.6119 1.3979 -2.5001 0.9785
-4.6391 1.3047 -2.5000 0.9785
-4.6643 1.2110 -2.5000 0.9785
-4.6877 1.1168 -2.4999 0.9785
-4.7092 1.0222 -2.4999 0.9785
-4.7463 0.8316 -2.4998 0.9785
-4.7620 0.7358 -2.4998 0.9785
-4.7976 0.4469 -2.4996 0.9785
-4.8178 -0.0377 -2.4995 0.9785
-4.8123 -0.2318 -2.4994 0.9785
-4.8066 -0.3286 -2.4994 0.9785
-4.7989 -0.4254 -2.4993 0.9785
-4.7893 -0.5219 -2.4993 0.9785
-4.7489 -0.8102 -2.4992 0.9785
-4.7315 -0.9057 -2.4992 0.9785
-4.6681 -1.1898 -2.4991 0.9785
-4.6163 -1.3768 -2.4991 0.9785
-4.5570 -1.5615 -2.4990 0.9785
-4.5246 -1.6530 -2.4990 0.9785
-4.4904 -1.7438 -2.4990 0.9785
-4.4543 -1.8339 -2.4990 0.9785
-4.3768 -2.0117 -2.4990 0.9785
-4.2006 -2.3575 -2.4989 0.9785
-3.8276 -2.9244 -2.4989 0.9785
-3.7679 -3.0009 -2.4989 0.9785
-3.7067 -3.0762 -2.4989 0.9785
-3.6440 -3.1502 -2.4989 0.9785
-3.5798 -3.2229 -2.4989 0.9785
-3.5142 -3.2944 -2.4989 0.9785
-3.3786 -3.4333 -2.4989 0.9785
-3.3088 -3.5007 -2.4989 0.9785
-3.2376 -3.5666 -2.4989 0.9785
-3.1651 -3.6311 -2.4989 0.9785
4.5346 0.5832 -2.5041 0.9794
4.5220 0.6745 -2.5041 0.9794
4.4912 0.8561 -2.5041 0.9794
4.4731 0.9463 -2.5042 0.9794
4.4079 1.2148 -2.5042 0.9794
4.3555 1.3914 -2.5043 0.9794
4.2960 1.5657 -2.5043 0.9794
4.2636 1.6519 -2.5043 0.9794
4.2295 1.7375 -2.5043 0.9794
4.1936 1.8223 -2.5044 0.9794
4.1561 1.9064 -2.5044 0.9794
4.1169 1.9897 -2.5044 0.9794
3.9892 2.2348 -2.5044 0.9794
3.6356 2.7733 -2.5044 0.9794
3.4615 2.9878 -2.5044 0.9794
3.3383 3.1247 -2.5044 0.9794
3.2747 3.1913 -2.5044 0.9794
3.1435 3.3206 -2.5044 0.9794
3.0759 3.3833 -2.5044 0.9794
3.0072 3.4445 -2.5044 0.9794
2.7201 3.6753 -2.5043 0.9794
2.5698 3.7818 -2.5043 0.9794
2.3367 3.9300 -2.5042 0.9794
1.9296 4.1449 -2.5041 0.9794
1.7611 4.2191 -2.5041 0.9794
1.4157 4.3470 -2.5039 0.9794
1.3279 4.3746 -2.5039 0.9794
1.1506 4.4244 -2.5039 0.9794
0.9714 4.4670 -2.5038 0.9794
0.8812 4.4856 -2.5037 0.9794
0.7907 4.5024 -2.5037 0.9794
0.6998 4.5173 -2.5037 0.9794
0.6087 4.5304 -2.5036 0.9794
0.5173 4.5417 -2.5036 0.9794
0.4257 4.5511 -2.5036 0.9794
0.3340 4.5587 -2.5035 0.9794
0.2421 4.5644 -2.5035 0.9794
-0.2181 4.5653 -2.5033 0.9794
-0.4934 4.5435 -2.5031 0.9794
-0.6759 4.5198 -2.5030 0.9794
-0.9476 4.4704 -2.5029 0.9794
-1.1269 4.4285 -2.5028 0.9794
-1.3922 4.3521 -2.5026 0.9794
-1.4795 4.3231 -2.5026 0.9794
-1.5663 4.2923 -2.5025 0.9794
-1.6524 4.2598 -2.5025 0.9794
-1.7378 4.2256 -2.5024 0.9794
-2.0721 4.0716 -2.5022 0.9794
-2.1536 4.0290 -2.5022 0.9794
-2.2343 3.9847 -2.5021 0.9794
-2.3141 3.9388 -2.5021 0.9794
-2.3929 3.8913 -2.5020 0.9794
-2.5475 3.7916 -2.5019 0.9794
-2.6981 3.6858 -2.5018 0.9794
-2.7717 3.6306 -2.5017 0.9794
-2.8442 3.5740 -2.5017 0.9794
-2.9155 3.5159 -2.5016 0.9794
-3.0547 3.3955 -2.5015 0.9794
-3.1224 3.3332 -2.5015 0.9794
-3.2539 3.2046 -2.5013 0.9794
-3.4413 3.0020 -2.5012 0.9794
-3.5010 2.9320 -2.5011 0.9794
-3.7253 2.6405 -2.5009 0.9794
-3.7777 2.5649 -2.5009 0.9794
-3.8285 2.4882 -2.5008 0.9794
-3.8778 2.4105 -2.5008 0.9794
-3.9254 2.3319 -2.5007 0.9794
-3.9715 2.2523 -2.5007 0.9794
-4.0160 2.1718 -2.5006 0.9794
-4.1001 2.0083 -2.5005 0.9794
-4.1396 1.9252 -2.5005 0.9794
-4.1775 1.8414 -2.5004 0.9794
-4.2136 1.7569 -2.5004 0.9794
-4.2481 1.6716 -2.5003 0.9794
-4.3410 1.4119 -2.5002 0.9794
-4.3942 1.2359 -2.5001 0.9794
-4.4181 1.1471 -2.5001 0.9794
-4.4403 1.0579 -2.5000 0.9794
-4.4606 0.9682 -2.5000 0.9794
-4.4959 0.7877 -2.4999 0.9794
