ply
format ascii 1.0
element vertex 1565
property float32 x
property float32 y
property float32 z
property float32 I
end_header
22.6139 18.8398 -1.4927 0.8888
22.6164 19.6245 -1.5186 0.8870
33.8976 33.1959 -2.4061 0.8269
32.5934 34.5898 -2.4103 0.8267
15.0364 16.6137 -1.1364 0.9142
14.4417 16.6155 -1.1164 0.9156
13.9520 16.7187 -1.1043 0.9165
13.9565 18.1595 -1.1615 0.9124
13.9589 18.9381 -1.1931 0.9101
25.2267 40.7020 -2.4285 0.8255
24.4205 41.2265 -2.4300 0.8254
23.6016 41.7353 -2.4316 0.8253
22.7732 42.2258 -2.4330 0.8252
17.5868 44.7992 -2.4408 0.8247
16.6911 45.1637 -2.4419 0.8246
14.8763 45.8356 -2.4439 0.8245
6.2328 20.6044 -1.0917 0.9174
5.9468 21.1850 -1.1159 0.9156
5.3211 24.5539 -1.2741 0.9043
2.2949 24.6299 -1.2545 0.9057
1.7927 24.5750 -1.2496 0.9060
1.3003 24.6342 -1.2510 0.9059
0.8047 24.6375 -1.2501 0.9060
0.3097 24.6408 -1.2497 0.9060
-0.8721 18.2743 -0.9278 0.9293
-1.6733 24.6540 -1.2532 0.9058
-2.1667 24.5991 -1.2524 0.9058
-3.1746 24.6616 -1.2610 0.9052
-1.8716 8.0496 -0.4191 0.9674
-6.2489 24.6240 -1.2884 0.9033
-6.6580 24.1876 -1.2723 0.9044
-7.3319 24.6870 -1.3060 0.9020
-2.9829 9.3513 -0.4978 0.9615
-3.4110 9.3750 -0.5059 0.9608
-3.6261 9.3757 -0.5098 0.9605
-3.8445 9.3763 -0.5139 0.9602
-4.2927 9.3777 -0.5230 0.9595
-4.5230 9.3784 -0.5280 0.9592
-4.7579 9.3792 -0.5334 0.9588
-5.1583 9.2299 -0.5362 0.9585
-5.1596 8.8119 -0.5179 0.9599
-17.6593 24.2136 -1.5199 0.8869
-18.2911 24.0500 -1.5324 0.8860
-18.9977 23.9646 -1.5509 0.8847
-19.9680 24.1749 -1.5902 0.8820
-14.2942 13.5835 -1.0000 0.9241
-27.3056 23.9362 -1.8415 0.8646
-28.5799 24.0556 -1.8945 0.8610
-17.8219 13.2526 -1.1263 0.9149
-18.5149 13.1989 -1.1531 0.9130
-19.4145 13.2604 -1.1923 0.9101
-23.3267 -23.2329 -2.4140 0.8763
-23.3194 -24.1777 -2.4630 0.8740
-23.1443 -24.9813 -2.4970 0.8723
-22.6808 -25.4893 -2.5017 0.8721
-22.1643 -25.9396 -2.5017 0.8721
-21.1047 -26.8088 -2.5017 0.8721
-20.0112 -27.6347 -2.5017 0.8721
-9.5862 -17.2904 -1.4496 0.9238
-15.9413 -30.1661 -2.5017 0.8721
-15.3323 -30.4801 -2.5017 0.8721
-8.5361 -19.8671 -1.5855 0.9169
-8.9780 -23.4500 -1.8411 0.9042
-7.8449 -28.8817 -2.1944 0.8869
-7.6175 -30.4497 -2.3014 0.8817
-7.1501 -31.2326 -2.3493 0.8794
-6.5215 -31.3699 -2.3493 0.8794
-3.4859 -18.6389 -1.3903 0.9268
-3.4509 -20.7498 -1.5423 0.9191
-0.0773 -18.7467 -1.3746 0.9276
1.0535 -18.7502 -1.3770 0.9274
1.4314 -18.7454 -1.3785 0.9274
1.8108 -18.7466 -1.3809 0.9272
2.5746 -18.7490 -1.3876 0.9269
2.9595 -18.7502 -1.3918 0.9267
3.3470 -18.7514 -1.3966 0.9264
4.1308 -18.7538 -1.4080 0.9259
4.5278 -18.7550 -1.4147 0.9255
4.9288 -18.7563 -1.4219 0.9252
5.7440 -18.7588 -1.4385 0.9243
6.1462 -18.7206 -1.4447 0.9240
6.9806 -18.6934 -1.4631 0.9231
10.2652 -20.8334 -1.7029 0.9111
10.7913 -20.8351 -1.7204 0.9102
16.9713 -27.1762 -2.3493 0.8794
19.7821 -27.7984 -2.5017 0.8721
20.3364 -27.3955 -2.5017 0.8721
21.9491 -26.1212 -2.5016 0.8721
22.9804 -25.2187 -2.5016 0.8721
23.4822 -24.7521 -2.5016 0.8721
24.4572 -23.7891 -2.5016 0.8721
25.3928 -22.7877 -2.5016 0.8721
25.8453 -22.2732 -2.5016 0.8721
26.2874 -21.7496 -2.5016 0.8721
26.7189 -21.2173 -2.5016 0.8721
27.1396 -20.6764 -2.5016 0.8721
27.5494 -20.1272 -2.5016 0.8721
28.5816 -18.3484 -2.4903 0.8726
28.5875 -17.5517 -2.4596 0.8741
30.4000 -15.4531 -2.5004 0.8722
30.7188 -14.8465 -2.5016 0.8721
31.5571 -12.9698 -2.5016 0.8721
31.8112 -12.3334 -2.5016 0.8721
32.0525 -11.6921 -2.5016 0.8721
32.2808 -11.0460 -2.5016 0.8721
32.6983 -9.7408 -2.5016 0.8721
32.8874 -9.0821 -2.5016 0.8721
33.2256 -7.7541 -2.5016 0.8721
33.3746 -7.0853 -2.5016 0.8721
33.5101 -6.4136 -2.5016 0.8721
33.7407 -5.0627 -2.5016 0.8721
33.8355 -4.3841 -2.5016 0.8721
33.9168 -3.7037 -2.5016 0.8721
34.1171 -0.2848 -2.5016 0.8721
34.0300 2.4541 -2.5016 0.8721
33.9738 3.1370 -2.5016 0.8721
33.7233 5.1771 -2.5016 0.8721
33.6125 5.8533 -2.5016 0.8721
33.4881 6.5272 -2.5016 0.8721
33.3503 7.1984 -2.5016 0.8721
33.0400 7.8290 -2.4896 0.8727
30.8547 8.6335 -2.3492 0.8794
30.6751 9.2514 -2.3492 0.8794
30.0624 11.0818 -2.3492 0.8794
29.5931 12.2800 -2.3492 0.8794
29.3405 12.8719 -2.3492 0.8794
29.0761 13.4585 -2.3492 0.8794
27.8794 16.4825 -2.3747 0.8782
27.5457 17.0409 -2.3750 0.8782
22.6071 16.6343 -2.0580 0.8935
22.6093 17.3464 -2.0895 0.8920
10.3915 8.3094 -0.9756 0.9480
23.1802 22.7003 -2.3789 0.8780
22.7234 23.1652 -2.3793 0.8780
13.9520 16.7187 -1.5966 0.9164
13.9542 17.4209 -1.6366 0.9144
13.9565 18.1595 -1.6793 0.9122
16.6219 28.0619 -2.3914 0.8774
5.7433 13.0620 -1.0462 0.9444
5.4584 13.9043 -1.0952 0.9418
5.1274 13.8740 -1.0845 0.9424
5.8911 16.9818 -1.3179 0.9304
6.1049 20.1814 -1.5460 0.9189
5.9468 21.1850 -1.6134 0.9155
6.1991 23.9202 -1.8118 0.9056
5.7156 24.0321 -1.8112 0.9057
5.1964 23.9787 -1.7990 0.9063
4.1747 23.8559 -1.7757 0.9074
2.0402 13.2162 -0.9805 0.9478
2.2321 23.9563 -1.7641 0.9080
-0.8653 18.1326 -1.3310 0.9298
-2.1154 24.0163 -1.7677 0.9078
-3.0833 23.9522 -1.7707 0.9077
-1.9862 13.3125 -0.9869 0.9474
-4.5613 23.9400 -1.7869 0.9069
-1.8716 8.0496 -0.6060 0.9674
-6.6366 24.1096 -1.8335 0.9046
-3.8445 9.3763 -0.7430 0.9602
-4.0569 9.3546 -0.7476 0.9599
-4.2927 9.3777 -0.7562 0.9595
-4.5230 9.3785 -0.7634 0.9591
-4.7579 9.3792 -0.7711 0.9587
-4.9976 9.3799 -0.7793 0.9583
-5.1583 9.2299 -0.7753 0.9585
-5.1596 8.8119 -0.7487 0.9599
-5.2103 8.5022 -0.7311 0.9608
-8.4579 13.1991 -1.1494 0.9391
-8.8383 13.2014 -1.1649 0.9383
-9.2293 13.2039 -1.1812 0.9374
-9.6315 13.2063 -1.1985 0.9365
-10.4271 13.1533 -1.2307 0.9349
-10.9129 13.2121 -1.2565 0.9336
-11.3693 13.2149 -1.2782 0.9325
-11.8420 13.2179 -1.3012 0.9313
-12.4594 13.3573 -1.3393 0.9294
-12.9738 13.3605 -1.3655 0.9280
-15.2337 13.3540 -1.4854 0.9220
-16.2308 13.6614 -1.5555 0.9184
-17.6692 13.6986 -1.6393 0.9142
-19.5878 13.3787 -1.7393 0.9092
-19.5366 -17.2434 -2.5017 0.9006
-18.0898 -18.7556 -2.5017 0.9006
-17.7095 -19.1152 -2.5017 0.9006
-16.5263 -20.1469 -2.5017 0.9006
-16.1183 -20.4747 -2.5017 0.9006
-14.4233 -21.7022 -2.5017 0.9006
-13.5401 -22.2639 -2.5017 0.9006
-13.0903 -22.5313 -2.5017 0.9006
-9.5444 -17.2149 -1.8897 0.9240
-12.1749 -23.0388 -2.5017 0.9006
-8.6252 -18.0403 -1.9197 0.9228
-8.2887 -23.0239 -2.3493 0.9063
-7.8246 -23.1857 -2.3493 0.9063
-7.3574 -23.3381 -2.3493 0.9063
-6.8872 -23.4812 -2.3493 0.9063
-6.4143 -23.6148 -2.3493 0.9063
-4.9806 -23.9581 -2.3493 0.9063
-3.4859 -18.6389 -1.8205 0.9266
-3.0242 -20.7511 -2.0133 0.9192
-1.2083 -18.7432 -1.8032 0.9273
-0.8308 -18.7444 -1.8013 0.9274
-0.4539 -18.7456 -1.8002 0.9274
-0.0773 -18.7467 -1.7998 0.9274
0.2992 -18.7479 -1.8001 0.9274
1.0535 -18.7503 -1.8030 0.9273
1.4211 -18.6104 -1.7919 0.9277
1.7978 -18.6116 -1.7951 0.9276
3.3229 -18.6163 -1.8155 0.9268
4.8933 -18.6212 -1.8484 0.9255
5.2956 -18.6224 -1.8587 0.9252
6.1148 -18.6249 -1.8820 0.9243
4.0605 -11.5779 -1.1780 0.9519
7.3861 -18.6289 -1.9239 0.9226
7.8232 -18.6302 -1.9399 0.9220
8.2678 -18.6316 -1.9569 0.9214
12.1177 -21.2592 -2.3493 0.9063
11.1275 -18.6416 -2.0843 0.9165
13.7846 -20.2181 -2.3493 0.9063
14.1879 -19.9372 -2.3493 0.9063
15.3627 -19.0467 -2.3493 0.9063
15.7421 -18.7343 -2.3493 0.9063
16.1152 -18.4144 -2.3493 0.9063
16.4817 -18.0870 -2.3493 0.9063
19.0399 -17.7897 -2.5016 0.9006
19.7389 -17.0108 -2.5016 0.9006
20.4062 -16.2044 -2.5016 0.9006
20.7275 -15.7913 -2.5016 0.9006
21.0404 -15.3718 -2.5016 0.9006
22.2062 -13.6338 -2.5016 0.9006
23.2286 -11.8077 -2.5016 0.9006
23.4611 -11.3388 -2.5016 0.9006
23.8975 -10.3875 -2.5016 0.9006
24.1013 -9.9055 -2.5016 0.9006
24.6540 -8.4362 -2.5016 0.9006
24.8185 -7.9394 -2.5016 0.9006
25.1173 -6.9364 -2.5016 0.9006
25.4894 -5.4113 -2.5016 0.9006
25.5929 -4.8983 -2.5016 0.9006
26.0469 -0.7408 -2.5016 0.9006
26.0565 -0.2175 -2.5016 0.9006
25.9899 1.8742 -2.5016 0.9006
25.9470 2.3958 -2.5016 0.9006
25.8936 2.9164 -2.5016 0.9006
25.8298 3.4359 -2.5016 0.9006
25.5761 4.9850 -2.5016 0.9006
25.4708 5.4976 -2.5016 0.9006
25.3553 6.0081 -2.5016 0.9006
25.0935 7.0214 -2.5016 0.9006
24.9192 7.5155 -2.4988 0.9007
24.1198 7.8061 -2.4339 0.9031
23.1250 8.0007 -2.3492 0.9063
22.2065 10.2788 -2.3492 0.9063
21.5472 11.5973 -2.3492 0.9063
21.3099 12.0277 -2.3492 0.9063
21.0641 12.4533 -2.3492 0.9063
20.8098 12.8738 -2.3492 0.9063
20.5470 13.2891 -2.3492 0.9063
20.2760 13.6991 -2.3492 0.9063
20.0198 14.1196 -2.3519 0.9062
10.3902 8.3084 -1.2772 0.9479
19.0577 15.8771 -2.3814 0.9051
18.7370 16.2583 -2.3816 0.9051
18.0729 17.0013 -2.3821 0.9051
17.7298 17.3628 -2.3824 0.9051
15.0364 16.6137 -2.1513 0.9139
14.4417 16.6155 -2.1135 0.9153
13.9520 16.7187 -2.0906 0.9162
13.9542 17.4209 -2.1429 0.9142
13.9565 18.1595 -2.1988 0.9121
13.0941 21.1267 -2.3862 0.9049
12.2387 21.6418 -2.3869 0.9049
6.0583 13.0600 -1.3822 0.9438
5.1971 13.2385 -1.3654 0.9445
4.9000 13.2586 -1.3570 0.9448
3.9715 13.1288 -1.3168 0.9464
3.1237 13.1340 -1.2961 0.9472
2.5719 13.1374 -1.2852 0.9476
1.7516 13.0845 -1.2674 0.9483
1.4913 13.1420 -1.2698 0.9482
1.2247 13.1436 -1.2673 0.9483
0.9590 13.1452 -1.2654 0.9484
0.4295 13.1485 -1.2630 0.9485
-0.0988 13.1518 -1.2627 0.9485
-0.3631 13.1534 -1.2633 0.9485
-0.6278 13.1550 -1.2644 0.9485
-0.8930 13.1566 -1.2660 0.9484
-1.1590 13.1583 -1.2682 0.9483
-1.4260 13.1599 -1.2708 0.9482
-1.9553 13.1053 -1.2721 0.9481
-3.1991 9.3743 -0.9509 0.9610
-4.0569 9.3546 -0.9789 0.9599
-4.2927 9.3777 -0.9902 0.9594
-4.9976 9.3799 -1.0204 0.9582
-5.1583 9.2299 -1.0151 0.9584
-5.1596 8.8119 -0.9803 0.9598
-5.2103 8.5022 -0.9573 0.9607
-9.1328 13.6412 -1.5760 0.9362
-9.7175 13.3242 -1.5832 0.9359
-10.0722 13.2435 -1.5974 0.9353
-11.0103 13.3301 -1.6599 0.9329
-11.5689 13.4469 -1.7030 0.9312
-12.9861 13.3730 -1.7896 0.9278
-13.5077 13.3624 -1.8241 0.9265
-14.0472 13.3488 -1.8604 0.9251
-14.4351 13.1759 -1.8763 0.9245
-15.2337 13.3540 -1.9449 0.9218
-16.6115 13.4213 -2.0503 0.9178
-17.6544 13.6871 -2.1446 0.9141
-17.9810 13.3709 -2.1512 0.9139
-15.7898 -13.9364 -2.5017 0.9187
-15.5067 -14.2507 -2.5017 0.9187
-15.2174 -14.5592 -2.5017 0.9187
-14.9220 -14.8620 -2.5017 0.9187
-14.6205 -15.1586 -2.5017 0.9187
-14.0000 -15.7335 -2.5017 0.9187
-13.6811 -16.0115 -2.5017 0.9187
-13.3568 -16.2830 -2.5017 0.9187
-12.0070 -17.3024 -2.5017 0.9187
-11.6571 -17.5400 -2.5017 0.9187
-10.9433 -17.9940 -2.5017 0.9187
-9.5339 -17.1960 -2.3356 0.9239
-9.2405 -17.4860 -2.3493 0.9234
-8.8875 -17.6680 -2.3493 0.9234
-8.1708 -18.0107 -2.3493 0.9234
-7.8074 -18.1711 -2.3493 0.9234
-7.4409 -18.3243 -2.3493 0.9234
-7.0714 -18.4700 -2.3493 0.9234
-5.9464 -18.8623 -2.3493 0.9234
-5.1842 -19.0859 -2.3493 0.9234
-4.7997 -19.1861 -2.3493 0.9234
-4.0254 -19.3634 -2.3493 0.9234
-3.1252 -18.7914 -2.2628 0.9261
-2.3680 -18.9018 -2.2628 0.9261
-1.5749 -18.6012 -2.2175 0.9276
-0.8294 -18.7125 -2.2250 0.9273
-0.4531 -18.7136 -2.2236 0.9274
-0.0772 -18.7148 -2.2231 0.9274
1.0517 -18.7183 -2.2270 0.9273
3.3229 -18.6163 -2.2463 0.9267
4.1010 -18.6187 -2.2647 0.9261
4.4952 -18.6199 -2.2753 0.9257
4.8933 -18.6212 -2.2870 0.9254
5.2956 -18.6224 -2.2998 0.9250
6.1148 -18.6249 -2.3286 0.9241
4.0599 -11.5761 -1.4572 0.9518
7.6571 -18.2348 -2.3493 0.9234
8.0218 -18.0773 -2.3493 0.9234
8.7413 -17.7406 -2.3493 0.9234
10.1368 -16.9819 -2.3493 0.9234
10.4758 -16.7749 -2.3493 0.9234
10.8106 -16.5612 -2.3493 0.9234
11.4669 -16.1136 -2.3493 0.9234
11.7882 -15.8800 -2.3493 0.9234
12.1047 -15.6401 -2.3493 0.9234
13.0246 -14.8829 -2.3493 0.9234
13.3208 -14.6183 -2.3493 0.9234
13.6117 -14.3478 -2.3493 0.9234
13.8971 -14.0716 -2.3493 0.9234
16.2263 -13.4253 -2.5017 0.9187
16.4926 -13.0967 -2.5017 0.9187
16.7523 -12.7628 -2.5017 0.9187
17.2513 -12.0798 -2.5016 0.9187
17.9474 -11.0191 -2.5016 0.9187
18.1651 -10.6564 -2.5016 0.9187
18.5784 -9.9183 -2.5016 0.9187
18.7738 -9.5432 -2.5016 0.9187
18.9617 -9.1643 -2.5016 0.9187
19.1419 -8.7816 -2.5016 0.9187
19.3144 -8.3954 -2.5016 0.9187
19.6360 -7.6130 -2.5016 0.9187
20.3002 -5.6061 -2.5016 0.9187
20.4087 -5.1973 -2.5016 0.9187
20.5132 -4.3549 -2.4910 0.9190
20.7600 -3.5427 -2.5016 0.9187
20.8270 -3.1251 -2.5016 0.9187
20.8855 -2.7062 -2.5016 0.9187
20.9356 -2.2862 -2.5016 0.9187
21.0105 -1.4436 -2.5016 0.9187
21.0353 -1.0214 -2.5016 0.9187
21.0516 -0.5987 -2.5016 0.9187
21.0593 -0.1758 -2.5016 0.9187
21.0586 0.2472 -2.5016 0.9187
21.0494 0.6700 -2.5016 0.9187
20.9709 1.9363 -2.5016 0.9187
20.8762 2.7769 -2.5016 0.9187
20.8162 3.1956 -2.5016 0.9187
20.6711 4.0290 -2.5016 0.9187
20.5860 4.4433 -2.5016 0.9187
20.4926 4.8558 -2.5016 0.9187
20.2811 5.6749 -2.5016 0.9187
20.1630 6.0810 -2.5016 0.9187
20.0368 6.4847 -2.5016 0.9187
19.7603 7.2841 -2.5016 0.9187
19.5657 7.6621 -2.4960 0.9188
18.7725 7.7899 -2.4143 0.9214
18.1334 7.9552 -2.3522 0.9233
17.9477 8.3075 -2.3492 0.9234
17.7772 8.6663 -2.3492 0.9234
17.2231 9.7210 -2.3492 0.9234
17.0244 10.0650 -2.3492 0.9234
16.8188 10.4048 -2.3492 0.9234
16.3875 11.0718 -2.3492 0.9234
16.1618 11.3987 -2.3492 0.9234
15.9296 11.7210 -2.3492 0.9234
15.6910 12.0385 -2.3492 0.9234
10.3889 8.3074 -1.5801 0.9478
15.1949 12.6589 -2.3492 0.9234
14.9376 12.9615 -2.3492 0.9234
14.1300 13.8375 -2.3492 0.9234
13.0807 15.0495 -2.3685 0.9228
12.2276 15.9100 -2.3836 0.9224
11.5958 16.4123 -2.3871 0.9222
11.2651 16.6436 -2.3873 0.9222
10.2458 17.2975 -2.3881 0.9222
9.8975 17.5017 -2.3884 0.9222
9.5450 17.6989 -2.3886 0.9222
6.3792 13.0580 -1.7263 0.9431
5.1971 13.2385 -1.6894 0.9443
4.7565 13.7114 -1.7239 0.9432
4.4545 13.7249 -1.7140 0.9435
3.8479 13.7081 -1.6913 0.9443
3.2720 13.7579 -1.6798 0.9446
2.8721 13.2529 -1.6108 0.9468
2.5949 13.2546 -1.6043 0.9470
2.2892 13.0812 -1.5775 0.9479
1.7516 13.0845 -1.5681 0.9482
1.5046 13.2592 -1.5851 0.9477
0.9957 13.6492 -1.6256 0.9464
0.7283 13.7973 -1.6412 0.9459
0.1710 13.6048 -1.6162 0.9467
-0.1003 13.3461 -1.5854 0.9477
-0.9257 13.6383 -1.6238 0.9464
-1.2108 13.7466 -1.6392 0.9459
-1.4387 13.2774 -1.5864 0.9476
-1.7094 13.2790 -1.5904 0.9475
-1.9553 13.1053 -1.5740 0.9480
-2.2255 13.1069 -1.5792 0.9479
-3.7903 13.7697 -1.6965 0.9441
-4.0495 13.6349 -1.6896 0.9443
-2.9829 9.3513 -1.1660 0.9612
-3.8445 9.3763 -1.2038 0.9600
-4.0569 9.3546 -1.2112 0.9598
-4.2927 9.3777 -1.2251 0.9593
-4.5230 9.3785 -1.2368 0.9589
-4.7579 9.3792 -1.2493 0.9585
-4.9976 9.3799 -1.2625 0.9581
-5.1596 8.8119 -1.2130 0.9597
-5.2103 8.5022 -1.1845 0.9606
-11.9867 13.3794 -2.1338 0.9302
-12.4627 13.3608 -2.1703 0.9290
-12.9773 13.3640 -2.2128 0.9277
-14.8722 13.0370 -2.3493 0.9234
-15.6302 12.1178 -2.3493 0.9234
-15.8704 11.8014 -2.3493 0.9234
-16.1042 11.4804 -2.3493 0.9234
-12.5099 -12.4596 -2.5017 0.9312
-11.7369 -13.1903 -2.5017 0.9312
-10.9213 -13.8731 -2.5017 0.9312
-10.6405 -14.0896 -2.5017 0.9312
-9.7728 -14.7048 -2.5017 0.9312
-9.1498 -15.0449 -2.4950 0.9313
-8.0397 -14.5009 -2.3493 0.9352
-7.7468 -14.6595 -2.3493 0.9352
-7.1519 -14.9587 -2.3493 0.9352
-6.8500 -15.0993 -2.3493 0.9352
-6.5454 -15.2338 -2.3493 0.9352
-6.2382 -15.3622 -2.3493 0.9352
-5.9284 -15.4844 -2.3493 0.9352
-5.3017 -15.7100 -2.3493 0.9352
-4.0239 -16.0848 -2.3493 0.9352
-3.7001 -16.1624 -2.3493 0.9352
-3.3747 -16.2334 -2.3493 0.9352
-3.0480 -16.2979 -2.3493 0.9352
-2.7201 -16.3558 -2.3493 0.9352
-1.3988 -16.5213 -2.3493 0.9352
0.2646 -16.5783 -2.3493 0.9352
0.5975 -16.5697 -2.3493 0.9352
2.2556 -16.4263 -2.3493 0.9352
2.5851 -16.3777 -2.3493 0.9352
4.2139 -16.0360 -2.3493 0.9352
4.5351 -15.9481 -2.3493 0.9352
4.8545 -15.8538 -2.3493 0.9352
5.1719 -15.7531 -2.3493 0.9352
4.0174 -11.4550 -1.7200 0.9521
5.8004 -15.5327 -2.3493 0.9352
6.1111 -15.4131 -2.3493 0.9352
6.4194 -15.2873 -2.3493 0.9352
6.7251 -15.1553 -2.3493 0.9352
7.0282 -15.0171 -2.3493 0.9352
7.9197 -14.5667 -2.3493 0.9352
8.2106 -14.4047 -2.3493 0.9352
8.7825 -14.0633 -2.3493 0.9352
9.8827 -13.3132 -2.3493 0.9352
10.4094 -12.9055 -2.3493 0.9352
10.9192 -12.4771 -2.3493 0.9352
11.1676 -12.2553 -2.3493 0.9352
11.4115 -12.0286 -2.3493 0.9352
11.6507 -11.7970 -2.3493 0.9352
11.8853 -11.5606 -2.3493 0.9352
13.8267 -10.9797 -2.5017 0.9312
14.2565 -10.4156 -2.5017 0.9312
14.4628 -10.1272 -2.5017 0.9312
15.2288 -8.9338 -2.5017 0.9312
15.4052 -8.6262 -2.5017 0.9312
15.5753 -8.3151 -2.5017 0.9312
15.7391 -8.0006 -2.5017 0.9312
15.8966 -7.6829 -2.5017 0.9312
16.0477 -7.3621 -2.5016 0.9312
16.5868 -6.0505 -2.5016 0.9312
16.8164 -5.3796 -2.5016 0.9312
17.0188 -4.6999 -2.5016 0.9312
17.1098 -4.3572 -2.5016 0.9312
17.1939 -4.0127 -2.5016 0.9312
17.3411 -3.3190 -2.5016 0.9312
17.4043 -2.9700 -2.5016 0.9312
17.4604 -2.6199 -2.5016 0.9312
17.5515 -1.9166 -2.5016 0.9312
17.5865 -1.5637 -2.5016 0.9312
17.6487 -0.5019 -2.5016 0.9312
17.6321 0.9160 -2.5016 0.9312
17.6101 1.2699 -2.5016 0.9312
17.5811 1.6234 -2.5016 0.9312
17.5017 2.3281 -2.5016 0.9312
17.4514 2.6791 -2.5016 0.9312
17.3941 3.0290 -2.5016 0.9312
17.3298 3.3777 -2.5016 0.9312
17.1801 4.0709 -2.5016 0.9312
16.7980 5.4365 -2.5016 0.9312
16.6855 5.7728 -2.5016 0.9312
16.3076 6.7670 -2.5016 0.9312
16.1684 7.0932 -2.5016 0.9312
16.0122 7.4116 -2.5000 0.9312
15.8274 7.7157 -2.4948 0.9313
15.1703 7.7762 -2.4154 0.9334
14.5999 7.8580 -2.3492 0.9352
14.2725 8.4380 -2.3492 0.9352
13.7386 9.2822 -2.3492 0.9352
13.3547 9.8264 -2.3492 0.9352
13.1547 10.0926 -2.3492 0.9352
10.2877 8.2264 -1.8664 0.9482
12.7388 10.6127 -2.3492 0.9352
12.3023 11.1157 -2.3492 0.9352
11.8460 11.6008 -2.3492 0.9352
10.6233 12.7299 -2.3493 0.9352
9.5675 13.5414 -2.3493 0.9352
9.0160 13.9147 -2.3493 0.9352
8.7469 14.1127 -2.3525 0.9351
6.0583 13.0600 -2.0399 0.9435
5.7433 13.0620 -2.0217 0.9440
5.1971 13.2385 -2.0151 0.9442
4.7201 13.6064 -2.0406 0.9435
4.3368 13.3621 -1.9905 0.9448
4.0120 13.2628 -1.9633 0.9456
3.4381 13.2664 -1.9418 0.9461
3.1556 13.2681 -1.9324 0.9464
2.8721 13.2529 -1.9214 0.9467
2.5949 13.2546 -1.9137 0.9469
1.7516 13.0845 -1.8705 0.9481
1.5046 13.2592 -1.8907 0.9475
1.2356 13.2609 -1.8871 0.9476
0.7011 13.2811 -1.8844 0.9477
0.4339 13.2828 -1.8830 0.9477
-0.0998 13.2861 -1.8825 0.9477
-0.3787 13.7141 -1.9439 0.9461
-0.9021 13.2910 -1.8875 0.9476
-1.2059 13.6909 -1.9474 0.9460
-1.7094 13.2790 -1.8970 0.9473
-2.2255 13.1069 -1.8837 0.9477
-1.8524 8.7616 -1.2689 0.9645
-1.8716 8.0496 -1.1710 0.9672
-3.3763 13.3042 -1.9448 0.9461
-3.6825 13.3780 -1.9660 0.9455
-4.0569 9.3546 -1.4447 0.9596
-4.2927 9.3777 -1.4613 0.9592
-4.5230 9.3785 -1.4753 0.9588
-4.7579 9.3792 -1.4901 0.9584
-4.9976 9.3799 -1.5059 0.9580
-5.1596 8.8119 -1.4468 0.9596
-5.2103 8.5022 -1.4129 0.9605
-8.8372 13.7908 -2.3208 0.9360
-8.9319 13.3412 -2.2748 0.9372
-9.7175 13.3242 -2.3366 0.9355
-10.0371 13.1973 -2.3493 0.9352
-10.3001 12.9930 -2.3493 0.9352
-10.5590 12.7836 -2.3493 0.9352
-10.8136 12.5689 -2.3493 0.9352
-11.3096 12.1246 -2.3493 0.9352
-11.7874 11.6606 -2.3493 0.9352
-12.0192 11.4215 -2.3493 0.9352
-12.2461 11.1778 -2.3493 0.9352
-9.4484 8.2825 -1.7803 0.9505
-12.8970 10.4201 -2.3493 0.9352
-13.1037 10.1590 -2.3493 0.9352
-13.3050 9.8938 -2.3493 0.9352
-13.6916 9.3516 -2.3493 0.9352
-11.3853 -10.0489 -2.5017 0.9403
-10.3205 -11.1397 -2.5017 0.9403
-10.0947 -11.3447 -2.5017 0.9403
-9.6310 -11.7409 -2.5017 0.9403
-9.3932 -11.9320 -2.5017 0.9403
-9.1517 -12.1182 -2.5017 0.9403
-8.9065 -12.2996 -2.5017 0.9403
-8.6577 -12.4759 -2.5017 0.9403
-8.1497 -12.8136 -2.5017 0.9403
-7.1750 -12.9414 -2.4377 0.9418
-6.6629 -12.6083 -2.3493 0.9438
-6.4083 -12.7396 -2.3493 0.9438
-5.8916 -12.9867 -2.3493 0.9438
-5.3653 -13.2128 -2.3493 0.9438
-4.8304 -13.4176 -2.3493 0.9438
-4.5599 -13.5119 -2.3493 0.9438
-4.0137 -13.6841 -2.3493 0.9438
-3.7380 -13.7619 -2.3493 0.9438
-3.4609 -13.8342 -2.3493 0.9438
-3.1824 -13.9009 -2.3493 0.9438
-2.9025 -13.9621 -2.3493 0.9438
-2.6216 -14.0175 -2.3493 0.9438
-2.0565 -14.1115 -2.3493 0.9438
-1.7727 -14.1499 -2.3493 0.9438
-1.4882 -14.1827 -2.3493 0.9438
-0.9174 -14.2310 -2.3493 0.9438
-0.6315 -14.2466 -2.3493 0.9438
-0.0588 -14.2604 -2.3493 0.9438
0.2276 -14.2587 -2.3493 0.9438
1.0858 -14.2191 -2.3493 0.9438
1.3711 -14.1945 -2.3493 0.9438
1.9400 -14.1279 -2.3493 0.9438
2.5058 -14.0386 -2.3493 0.9438
2.7872 -13.9855 -2.3493 0.9438
3.3466 -13.8623 -2.3493 0.9438
3.6243 -13.7923 -2.3493 0.9438
4.1753 -13.6356 -2.3493 0.9438
5.2561 -13.2565 -2.3493 0.9438
6.3030 -12.7920 -2.3493 0.9438
6.8116 -12.5285 -2.3493 0.9438
7.0618 -12.3892 -2.3493 0.9438
7.5536 -12.0956 -2.3493 0.9438
7.7950 -11.9415 -2.3493 0.9438
8.0333 -11.7825 -2.3493 0.9438
9.7725 -11.1668 -2.4446 0.9416
11.0959 -10.3673 -2.5017 0.9403
11.3019 -10.1424 -2.5017 0.9403
11.5033 -9.9134 -2.5017 0.9403
11.7001 -9.6804 -2.5017 0.9403
12.4392 -8.7102 -2.5017 0.9403
12.6116 -8.4586 -2.5017 0.9403
12.7789 -8.2037 -2.5017 0.9403
12.9411 -7.9454 -2.5017 0.9403
13.0980 -7.6839 -2.5017 0.9403
13.2497 -7.4192 -2.5017 0.9403
13.6724 -6.6079 -2.5017 0.9403
13.8024 -6.3320 -2.5017 0.9403
13.9268 -6.0536 -2.5017 0.9403
14.0455 -5.7726 -2.5017 0.9403
14.1586 -5.4894 -2.5017 0.9403
14.7881 -3.4512 -2.5017 0.9403
14.8545 -3.1536 -2.5017 0.9403
15.0596 -1.9513 -2.5016 0.9403
15.1498 -1.0409 -2.5016 0.9403
15.1677 -0.7365 -2.5016 0.9403
15.1794 -0.4317 -2.5016 0.9403
15.1845 0.1782 -2.5016 0.9403
15.1778 0.4831 -2.5016 0.9403
15.1651 0.7879 -2.5016 0.9403
15.1462 1.0922 -2.5016 0.9403
15.1212 1.3962 -2.5016 0.9403
15.0901 1.6996 -2.5016 0.9403
15.0529 2.0023 -2.5016 0.9403
15.0097 2.3042 -2.5016 0.9403
14.7763 3.5014 -2.5016 0.9403
14.7030 3.7974 -2.5016 0.9403
14.6238 4.0919 -2.5016 0.9403
14.5387 4.3848 -2.5016 0.9403
14.0259 5.8202 -2.5016 0.9403
13.7808 6.3788 -2.5016 0.9403
13.5136 6.9270 -2.5016 0.9403
13.3717 7.1970 -2.5016 0.9403
13.0362 7.7071 -2.4948 0.9405
12.0215 7.7751 -2.3585 0.9436
11.6536 8.2191 -2.3493 0.9438
11.3141 8.6805 -2.3493 0.9438
10.5810 9.5604 -2.3493 0.9438
10.3869 9.7710 -2.3493 0.9438
10.1886 9.9776 -2.3493 0.9438
9.9861 10.1802 -2.3493 0.9438
9.3550 10.7631 -2.3493 0.9438
9.1369 10.9488 -2.3493 0.9438
8.6899 11.3069 -2.3493 0.9438
8.2288 11.6467 -2.3493 0.9438
7.2676 12.2696 -2.3493 0.9438
7.0197 12.4130 -2.3493 0.9438
6.5156 12.6849 -2.3493 0.9438
6.0010 12.9363 -2.3493 0.9438
5.7399 13.0543 -2.3493 0.9438
4.3305 13.3427 -2.3109 0.9447
3.8540 13.7298 -2.3493 0.9438
3.1568 13.2729 -2.2476 0.9462
2.8721 13.2529 -2.2339 0.9465
2.5949 13.2546 -2.2250 0.9467
2.0196 13.0828 -2.1808 0.9477
1.7516 13.0845 -2.1748 0.9479
1.2356 13.2609 -2.1940 0.9474
0.9899 13.5698 -2.2414 0.9463
0.1719 13.6746 -2.2529 0.9461
-1.2026 13.6535 -2.2580 0.9460
-1.4387 13.2774 -2.2001 0.9473
-1.7094 13.2790 -2.2056 0.9472
-1.9553 13.1053 -2.1828 0.9477
-2.2255 13.1069 -2.1901 0.9475
-2.4976 13.1086 -2.1983 0.9473
-1.8524 8.7616 -1.4753 0.9643
-1.8716 8.0496 -1.3615 0.9671
-3.6891 13.4021 -2.2900 0.9452
-2.9829 9.3513 -1.6170 0.9610
-3.6261 9.3757 -1.6560 0.9601
-4.0569 9.3546 -1.6798 0.9595
-4.0501 8.8477 -1.6030 0.9613
-4.5230 9.3785 -1.7153 0.9587
-4.7579 9.3792 -1.7326 0.9583
-4.9976 9.3799 -1.7509 0.9578
-5.1596 8.8119 -1.6822 0.9594
-8.4030 11.5218 -2.3493 0.9438
-8.8589 11.1751 -2.3493 0.9438
-9.0816 10.9949 -2.3493 0.9438
-9.3006 10.8103 -2.3493 0.9438
-9.7272 10.4281 -2.3493 0.9438
-9.9346 10.2306 -2.3493 0.9438
-10.1381 10.0291 -2.3493 0.9438
-10.3375 9.8235 -2.3493 0.9438
-10.5327 9.6139 -2.3493 0.9438
-9.4362 8.2719 -2.0672 0.9504
-9.5770 8.0609 -2.0622 0.9505
-11.4434 8.5095 -2.3493 0.9438
-9.6170 -9.2010 -2.5017 0.9473
-9.0455 -9.7634 -2.5017 0.9473
-8.8475 -9.9431 -2.5017 0.9473
-8.4411 -10.2904 -2.5017 0.9473
-8.2327 -10.4578 -2.5017 0.9473
-8.0211 -10.6211 -2.5017 0.9473
-7.5881 -10.9346 -2.5017 0.9473
-7.1429 -11.2305 -2.5017 0.9473
-6.6861 -11.5083 -2.5017 0.9473
-5.9721 -11.8723 -2.4979 0.9473
-5.0390 -11.7279 -2.3993 0.9494
-4.2336 -11.7599 -2.3493 0.9504
-3.7579 -11.9204 -2.3493 0.9504
-3.2762 -12.0617 -2.3493 0.9504
-2.5440 -12.2371 -2.3493 0.9504
-2.2977 -12.2857 -2.3493 0.9504
-1.8025 -12.3681 -2.3493 0.9504
-1.5537 -12.4018 -2.3493 0.9504
-0.0516 -12.4986 -2.3493 0.9504
0.7012 -12.4790 -2.3493 0.9504
1.9487 -12.3459 -2.3493 0.9504
2.1962 -12.3042 -2.3493 0.9504
2.4429 -12.2576 -2.3493 0.9504
2.6886 -12.2061 -2.3493 0.9504
2.9332 -12.1497 -2.3493 0.9504
3.4187 -12.0221 -2.3493 0.9504
3.8987 -11.8751 -2.3493 0.9504
4.0091 -11.4313 -2.2769 0.9519
4.6067 -11.6187 -2.3493 0.9504
5.2980 -11.3203 -2.3493 0.9504
5.5243 -11.2116 -2.3493 0.9504
5.7986 -11.1955 -2.3698 0.9500
7.2556 -11.1151 -2.4949 0.9474
7.7106 -10.8352 -2.4996 0.9473
7.9331 -10.6868 -2.5017 0.9473
8.1461 -10.5253 -2.5017 0.9473
8.5622 -10.1897 -2.5017 0.9473
8.7651 -10.0157 -2.5017 0.9473
8.9645 -9.8376 -2.5017 0.9473
9.3523 -9.4697 -2.5017 0.9473
9.5406 -9.2800 -2.5017 0.9473
9.7251 -9.0865 -2.5017 0.9473
10.5870 -8.0658 -2.5017 0.9473
10.7469 -7.8515 -2.5017 0.9473
11.2002 -7.1901 -2.5017 0.9473
11.3423 -6.9638 -2.5017 0.9473
11.8646 -6.0311 -2.5017 0.9473
11.9833 -5.7916 -2.5017 0.9473
12.0972 -5.5497 -2.5017 0.9473
12.2062 -5.3057 -2.5017 0.9473
12.5926 -4.3090 -2.5017 0.9473
12.6766 -4.0553 -2.5017 0.9473
12.8292 -3.5429 -2.5017 0.9473
12.8978 -3.2846 -2.5017 0.9473
12.9612 -3.0249 -2.5017 0.9473
13.0193 -2.7640 -2.5017 0.9473
13.1198 -2.2389 -2.5017 0.9473
13.1621 -1.9750 -2.5017 0.9473
13.2571 -1.1788 -2.5017 0.9473
13.3085 0.1562 -2.5017 0.9473
13.3027 0.4235 -2.5017 0.9473
13.2915 0.6905 -2.5017 0.9473
13.1932 1.7549 -2.5017 0.9473
13.0098 2.8080 -2.5017 0.9473
12.8866 3.3282 -2.5017 0.9473
12.8171 3.5864 -2.5017 0.9473
12.7425 3.8430 -2.5017 0.9473
12.5779 4.3517 -2.5017 0.9473
12.2930 5.1012 -2.5017 0.9473
12.0783 5.5907 -2.5017 0.9473
11.9636 5.8321 -2.5017 0.9473
11.8440 6.0712 -2.5017 0.9473
11.7197 6.3079 -2.5017 0.9473
11.1757 7.2280 -2.5017 0.9473
11.0173 7.4436 -2.4992 0.9473
10.8502 7.6525 -2.4956 0.9474
10.1156 7.7609 -2.3965 0.9494
9.6028 8.0001 -2.3493 0.9504
9.4402 8.1913 -2.3493 0.9504
9.2738 8.3793 -2.3493 0.9504
8.7524 8.9225 -2.3493 0.9504
8.1992 9.4334 -2.3493 0.9504
7.4157 10.0610 -2.3493 0.9504
7.2122 10.2079 -2.3493 0.9504
6.7965 10.4892 -2.3493 0.9504
6.5844 10.6236 -2.3493 0.9504
6.3697 10.7537 -2.3493 0.9504
6.1525 10.8795 -2.3493 0.9504
5.9328 11.0008 -2.3493 0.9504
5.4862 11.2302 -2.3493 0.9504
5.0308 11.4415 -2.3493 0.9504
4.3327 11.7237 -2.3493 0.9504
3.8584 11.8882 -2.3493 0.9504
3.3779 12.0335 -2.3493 0.9504
2.8919 12.1595 -2.3493 0.9504
2.6471 12.2151 -2.3493 0.9504
2.4013 12.2658 -2.3493 0.9504
1.6583 12.3882 -2.3493 0.9504
1.4092 12.4190 -2.3493 0.9504
1.1595 12.4448 -2.3493 0.9504
0.6588 12.4813 -2.3493 0.9504
0.4080 12.4920 -2.3493 0.9504
-0.0939 12.4983 -2.3493 0.9504
-0.3449 12.4939 -2.3493 0.9504
-0.5958 12.4845 -2.3493 0.9504
-0.8464 12.4700 -2.3493 0.9504
-1.0967 12.4505 -2.3493 0.9504
-1.3465 12.4259 -2.3493 0.9504
-1.5957 12.3964 -2.3493 0.9504
-2.0923 12.3223 -2.3493 0.9504
-2.3393 12.2778 -2.3493 0.9504
-1.8716 8.0496 -1.5534 0.9669
-3.0744 12.1147 -2.3493 0.9504
-3.3171 12.0505 -2.3493 0.9504
-3.5584 11.9814 -2.3493 0.9504
-2.9829 9.3513 -1.8449 0.9608
-3.8521 8.8823 -1.8198 0.9614
-5.2022 11.3646 -2.3493 0.9504
-4.4787 8.8289 -1.8608 0.9605
-4.7068 8.8341 -1.8814 0.9601
-5.2103 8.5022 -1.8743 0.9602
-6.7434 10.5235 -2.3493 0.9504
-6.9534 10.3860 -2.3493 0.9504
-7.3649 10.0984 -2.3493 0.9504
-7.5662 9.9484 -2.3493 0.9504
-7.9596 9.6365 -2.3493 0.9504
-8.1515 9.4748 -2.3493 0.9504
-8.3402 9.3091 -2.3493 0.9504
-8.5254 9.1398 -2.3493 0.9504
-8.7073 8.9667 -2.3493 0.9504
-8.8856 8.7900 -2.3493 0.9504
-9.0603 8.6098 -2.3493 0.9504
-9.2314 8.4261 -2.3493 0.9504
-9.5623 8.0486 -2.3493 0.9504
-9.9230 7.6931 -2.3600 0.9502
-10.9699 7.4926 -2.4970 0.9474
-8.8731 -7.8316 -2.5017 0.9528
-8.7141 -8.0082 -2.5017 0.9528
-8.5515 -8.1816 -2.5017 0.9528
-8.3854 -8.3517 -2.5017 0.9528
-8.2160 -8.5184 -2.5017 0.9528
-8.0433 -8.6817 -2.5017 0.9528
-7.6882 -8.9977 -2.5017 0.9528
-7.5059 -9.1503 -2.5017 0.9528
-7.3206 -9.2992 -2.5017 0.9528
-7.1324 -9.4443 -2.5017 0.9528
-6.5508 -9.8567 -2.5017 0.9528
-6.1496 -10.1118 -2.5017 0.9528
-5.9453 -10.2333 -2.5017 0.9528
-5.3183 -10.5727 -2.5017 0.9528
-4.6720 -10.8737 -2.5017 0.9528
-4.4527 -10.9654 -2.5017 0.9528
-4.0040 -11.1221 -2.4987 0.9528
-3.7768 -11.1912 -2.4967 0.9529
-3.5489 -11.2572 -2.4950 0.9529
-3.3087 -11.2808 -2.4850 0.9531
-2.8110 -11.2364 -2.4483 0.9537
-2.5702 -11.2269 -2.4345 0.9540
-2.3320 -11.2174 -2.4218 0.9542
-1.6349 -11.2182 -2.3964 0.9547
-0.9498 -11.2188 -2.3799 0.9550
-0.7232 -11.2185 -2.3763 0.9551
-0.2716 -11.2177 -2.3719 0.9552
-0.0463 -11.2170 -2.3711 0.9552
0.8562 -11.2125 -2.3770 0.9551
1.3105 -11.2093 -2.3855 0.9549
1.5390 -11.2074 -2.3912 0.9548
1.7687 -11.2053 -2.3979 0.9547
2.9410 -11.1920 -2.4461 0.9538
3.1817 -11.1887 -2.4588 0.9536
3.4250 -11.1853 -2.4727 0.9533
3.6710 -11.1816 -2.4877 0.9530
3.9059 -11.1372 -2.4948 0.9529
4.3545 -10.9828 -2.4973 0.9528
4.5768 -10.8992 -2.4988 0.9528
5.0166 -10.7191 -2.5017 0.9528
5.4430 -10.5090 -2.5017 0.9528
5.6530 -10.3975 -2.5017 0.9528
5.8607 -10.2819 -2.5017 0.9528
6.0660 -10.1621 -2.5017 0.9528
6.2688 -10.0383 -2.5017 0.9528
6.6669 -9.7784 -2.5017 0.9528
6.8619 -9.6426 -2.5017 0.9528
7.0542 -9.5028 -2.5017 0.9528
7.4301 -9.2119 -2.5017 0.9528
7.6136 -9.0608 -2.5017 0.9528
7.9713 -8.7477 -2.5017 0.9528
8.1454 -8.5859 -2.5017 0.9528
8.3162 -8.4206 -2.5017 0.9528
8.4836 -8.2518 -2.5017 0.9528
8.6476 -8.0798 -2.5017 0.9528
8.8081 -7.9045 -2.5017 0.9528
9.1185 -7.5444 -2.5017 0.9528
9.2681 -7.3598 -2.5017 0.9528
9.4141 -7.1722 -2.5017 0.9528
9.5562 -6.9817 -2.5017 0.9528
9.6945 -6.7883 -2.5017 0.9528
9.8289 -6.5923 -2.5017 0.9528
9.9593 -6.3935 -2.5017 0.9528
10.2080 -5.9884 -2.5017 0.9528
10.4402 -5.5737 -2.5017 0.9528
10.5501 -5.3629 -2.5017 0.9528
10.6556 -5.1499 -2.5017 0.9528
10.7569 -4.9349 -2.5017 0.9528
10.8539 -4.7178 -2.5017 0.9528
10.9464 -4.4989 -2.5017 0.9528
11.0346 -4.2782 -2.5017 0.9528
11.1975 -3.8316 -2.5017 0.9528
11.3423 -3.3789 -2.5017 0.9528
11.4688 -2.9206 -2.5017 0.9528
11.5769 -2.4577 -2.5017 0.9528
11.6662 -1.9908 -2.5017 0.9528
11.7368 -1.5207 -2.5017 0.9528
11.7884 -1.0482 -2.5017 0.9528
11.8070 -0.8112 -2.5017 0.9528
11.8301 -0.3364 -2.5017 0.9528
11.8289 0.3765 -2.5017 0.9528
11.8042 0.8513 -2.5017 0.9528
11.7847 1.0881 -2.5017 0.9528
11.7605 1.3246 -2.5017 0.9528
11.7315 1.5605 -2.5017 0.9528
11.6594 2.0304 -2.5017 0.9528
11.6163 2.2641 -2.5017 0.9528
11.5160 2.7288 -2.5017 0.9528
11.3971 3.1890 -2.5017 0.9528
11.3308 3.4173 -2.5017 0.9528
11.2599 3.6441 -2.5017 0.9528
11.1044 4.0934 -2.5017 0.9528
11.0200 4.3155 -2.5017 0.9528
10.9311 4.5360 -2.5017 0.9528
10.7401 4.9713 -2.5017 0.9528
10.6381 5.1860 -2.5017 0.9528
10.5318 5.3986 -2.5017 0.9528
10.3065 5.8172 -2.5017 0.9528
10.1876 6.0230 -2.5017 0.9528
10.0646 6.2263 -2.5017 0.9528
9.9375 6.4272 -2.5017 0.9528
9.8064 6.6255 -2.5017 0.9528
9.5325 7.0140 -2.5017 0.9528
9.2371 7.3863 -2.5000 0.9528
8.9120 7.7330 -2.4941 0.9529
8.5736 7.7467 -2.4425 0.9539
8.2435 7.7547 -2.3923 0.9548
7.7827 7.9340 -2.3493 0.9556
7.6218 8.0887 -2.3493 0.9556
6.7725 8.8121 -2.3493 0.9556
6.5941 8.9463 -2.3493 0.9556
6.4131 9.0769 -2.3493 0.9556
5.8549 9.4466 -2.3493 0.9556
4.8784 9.9860 -2.3493 0.9556
4.6768 10.0820 -2.3493 0.9556
4.4734 10.1739 -2.3493 0.9556
4.2682 10.2617 -2.3493 0.9556
3.6425 10.5000 -2.3493 0.9556
3.4309 10.5711 -2.3493 0.9556
2.7882 10.7585 -2.3493 0.9556
2.5715 10.8123 -2.3493 0.9556
2.1353 10.9069 -2.3493 0.9556
1.6955 10.9838 -2.3493 0.9556
1.0311 11.0660 -2.3493 0.9556
0.3628 11.1080 -2.3493 0.9556
0.1397 11.1130 -2.3493 0.9556
-0.0835 11.1136 -2.3493 0.9556
-0.5298 11.1013 -2.3493 0.9556
-0.9751 11.0711 -2.3493 0.9556
-1.6400 10.9923 -2.3493 0.9556
-2.2990 10.8736 -2.3493 0.9556
-1.8716 8.0496 -1.7469 0.9668
-2.7338 10.7725 -2.3493 0.9556
-2.9496 10.7154 -2.3493 0.9556
-3.1642 10.6540 -2.3493 0.9556
-4.0090 10.3657 -2.3493 0.9556
-4.2163 10.2831 -2.3493 0.9556
-4.0569 9.3546 -2.1553 0.9592
-4.8279 10.0106 -2.3493 0.9556
-5.0280 9.9116 -2.3493 0.9556
-5.2260 9.8086 -2.3493 0.9556
-5.6157 9.5908 -2.3493 0.9556
-5.2103 8.5022 -2.1078 0.9601
-6.5489 8.9795 -2.3493 0.9556
-6.9042 8.7093 -2.3493 0.9556
-7.0777 8.5689 -2.3493 0.9556
-7.4161 8.2777 -2.3493 0.9556
-7.5809 8.1271 -2.3493 0.9556
-7.7426 7.9733 -2.3493 0.9556
-8.1023 7.6994 -2.3626 0.9553
-8.4241 7.6893 -2.4109 0.9544
-9.1929 7.4274 -2.4982 0.9528
-9.3514 7.2500 -2.5012 0.9528
-9.4970 7.0621 -2.5017 0.9528
-9.7729 6.6750 -2.5017 0.9528
-7.9805 -7.0438 -2.5017 0.9572
-7.0759 -7.9520 -2.5017 0.9572
-6.9147 -8.0926 -2.5017 0.9572
-6.5842 -8.3637 -2.5017 0.9572
-6.4149 -8.4942 -2.5017 0.9572
-6.0686 -8.7450 -2.5017 0.9572
-5.8918 -8.8651 -2.5017 0.9572
-5.5310 -9.0946 -2.5017 0.9572
-5.1613 -9.3093 -2.5017 0.9572
-4.7833 -9.5091 -2.5017 0.9572
-4.2020 -9.7799 -2.5017 0.9572
-4.0048 -9.8623 -2.5017 0.9572
-3.8059 -9.9407 -2.5017 0.9572
-3.2004 -10.1519 -2.5017 0.9572
-2.9959 -10.2141 -2.5017 0.9572
-2.7901 -10.2722 -2.5017 0.9572
-2.5833 -10.3261 -2.5017 0.9572
-2.3754 -10.3759 -2.5017 0.9572
-1.9568 -10.4629 -2.5017 0.9572
-1.5350 -10.5331 -2.5017 0.9572
-1.3232 -10.5618 -2.5017 0.9572
-0.2577 -10.6412 -2.5017 0.9572
-0.0439 -10.6443 -2.5017 0.9572
0.3836 -10.6375 -2.5017 0.9572
0.5971 -10.6276 -2.5017 0.9572
0.8104 -10.6135 -2.5017 0.9572
1.0234 -10.5950 -2.5017 0.9572
1.6596 -10.5142 -2.5017 0.9572
1.8704 -10.4787 -2.5017 0.9572
2.0804 -10.4390 -2.5017 0.9572
2.2897 -10.3952 -2.5017 0.9572
2.7053 -10.2948 -2.5017 0.9572
2.9115 -10.2384 -2.5017 0.9572
3.1165 -10.1779 -2.5017 0.9572
3.3203 -10.1133 -2.5017 0.9572
3.7237 -9.9717 -2.5017 0.9572
3.9232 -9.8949 -2.5017 0.9572
4.7047 -9.5482 -2.5017 0.9572
4.8955 -9.4518 -2.5017 0.9572
5.0843 -9.3516 -2.5017 0.9572
5.2711 -9.2476 -2.5017 0.9572
5.4557 -9.1399 -2.5017 0.9572
5.8184 -8.9134 -2.5017 0.9572
5.9962 -8.7947 -2.5017 0.9572
6.1716 -8.6726 -2.5017 0.9572
6.3445 -8.5468 -2.5017 0.9572
6.6826 -8.2852 -2.5017 0.9572
6.8477 -8.1493 -2.5017 0.9572
7.0100 -8.0101 -2.5017 0.9572
7.1694 -7.8677 -2.5017 0.9572
7.3260 -7.7222 -2.5017 0.9572
7.6302 -7.4217 -2.5017 0.9572
8.3358 -6.6194 -2.5017 0.9572
8.4670 -6.4507 -2.5017 0.9572
8.5949 -6.2793 -2.5017 0.9572
8.7192 -6.1054 -2.5017 0.9572
8.8401 -5.9291 -2.5017 0.9572
9.2874 -5.2005 -2.5017 0.9572
9.5837 -4.6319 -2.5017 0.9572
9.6748 -4.4385 -2.5017 0.9572
9.8452 -4.0463 -2.5017 0.9572
9.9245 -3.8478 -2.5017 0.9572
10.2013 -3.0390 -2.5017 0.9572
10.3151 -2.6268 -2.5017 0.9572
10.4122 -2.2107 -2.5017 0.9572
10.4545 -2.0009 -2.5017 0.9572
10.5265 -1.5795 -2.5017 0.9572
10.5814 -1.1555 -2.5017 0.9572
10.6193 -0.7296 -2.5017 0.9572
10.6318 -0.5162 -2.5017 0.9572
10.6389 0.3387 -2.5017 0.9572
10.6167 0.7656 -2.5017 0.9572
10.5992 0.9787 -2.5017 0.9572
10.5774 1.1913 -2.5017 0.9572
10.5513 1.4035 -2.5017 0.9572
10.4865 1.8261 -2.5017 0.9572
10.4477 2.0363 -2.5017 0.9572
10.4047 2.2457 -2.5017 0.9572
10.3575 2.4543 -2.5017 0.9572
10.1271 3.2775 -2.5017 0.9572
9.9873 3.6816 -2.5017 0.9572
9.8314 4.0797 -2.5017 0.9572
9.6597 4.4712 -2.5017 0.9572
9.3729 5.0448 -2.5017 0.9572
9.2697 5.2320 -2.5017 0.9572
8.9378 5.7807 -2.5017 0.9572
8.8199 5.9590 -2.5017 0.9572
8.6985 6.1349 -2.5017 0.9572
8.5735 6.3084 -2.5017 0.9572
8.4451 6.4793 -2.5017 0.9572
8.3133 6.6476 -2.5017 0.9572
8.0396 6.9761 -2.5017 0.9572
7.4387 7.5833 -2.4966 0.9573
7.2779 7.7238 -2.4942 0.9573
6.7322 7.7455 -2.4119 0.9587
6.2491 7.8016 -2.3493 0.9598
5.9308 8.0463 -2.3493 0.9598
5.7680 8.1638 -2.3493 0.9598
5.6029 8.2780 -2.3493 0.9598
5.4355 8.3888 -2.3493 0.9598
5.2659 8.4963 -2.3493 0.9598
5.0942 8.6003 -2.3493 0.9598
4.9205 8.7009 -2.3493 0.9598
4.5671 8.8915 -2.3493 0.9598
4.2064 9.0677 -2.3493 0.9598
3.8388 9.2293 -2.3493 0.9598
3.0858 9.5076 -2.3493 0.9598
2.5077 9.6762 -2.3493 0.9598
2.1171 9.7691 -2.3493 0.9598
1.9204 9.8096 -2.3493 0.9598
1.5250 9.8789 -2.3493 0.9598
1.1270 9.9321 -2.3493 0.9598
0.9273 9.9528 -2.3493 0.9598
0.7273 9.9694 -2.3493 0.9598
0.3263 9.9905 -2.3493 0.9598
-0.4765 9.9845 -2.3493 0.9598
-0.8771 9.9573 -2.3493 0.9598
-1.6733 9.8548 -2.3493 0.9598
-1.8709 9.8192 -2.3493 0.9598
-2.0677 9.7797 -2.3493 0.9598
-2.4588 9.6887 -2.3493 0.9598
-2.6529 9.6374 -2.3493 0.9598
-2.8459 9.5822 -2.3493 0.9598
-2.9829 9.3513 -2.3069 0.9605
-3.4177 9.3935 -2.3493 0.9598
-3.6057 9.3229 -2.3493 0.9598
-3.9771 9.1706 -2.3493 0.9598
-4.3422 9.0035 -2.3493 0.9598
-4.7003 8.8219 -2.3493 0.9598
-4.8765 8.7257 -2.3493 0.9598
-5.2103 8.5022 -2.3436 0.9599
-5.5610 8.3062 -2.3493 0.9598
-5.7267 8.1929 -2.3493 0.9598
-6.8913 7.6920 -2.4272 0.9585
-7.3959 7.6163 -2.4951 0.9573
-7.5547 7.4734 -2.4975 0.9573
-7.7108 7.3274 -2.5000 0.9572
-8.1436 6.8545 -2.5017 0.9572
-8.5416 6.3517 -2.5017 0.9572
-8.7898 6.0035 -2.5017 0.9572
-6.8458 -6.8183 -2.5017 0.9609
-6.5665 -7.0877 -2.5017 0.9609
-6.4228 -7.2182 -2.5017 0.9609
-6.2766 -7.3457 -2.5017 0.9609
-6.1278 -7.4703 -2.5017 0.9609
-5.9765 -7.5918 -2.5017 0.9609
-5.8229 -7.7103 -2.5017 0.9609
-5.5085 -7.9379 -2.5017 0.9609
-5.1853 -8.1528 -2.5017 0.9609
-5.0206 -8.2552 -2.5017 0.9609
-4.8538 -8.3544 -2.5017 0.9609
-4.5143 -8.5426 -2.5017 0.9609
-3.4547 -9.0233 -2.5017 0.9609
-3.2727 -9.0909 -2.5017 0.9609
-2.7194 -9.2714 -2.5017 0.9609
-2.3449 -9.3732 -2.5017 0.9609
-2.1562 -9.4184 -2.5017 0.9609
-1.7762 -9.4974 -2.5017 0.9609
-1.5851 -9.5311 -2.5017 0.9609
-1.2011 -9.5871 -2.5017 0.9609
-0.0399 -9.6619 -2.5017 0.9609
0.1542 -9.6608 -2.5017 0.9609
0.5420 -9.6468 -2.5017 0.9609
0.9290 -9.6172 -2.5017 0.9609
1.1219 -9.5967 -2.5017 0.9609
1.5064 -9.5439 -2.5017 0.9609
1.6978 -9.5117 -2.5017 0.9609
2.0784 -9.4358 -2.5017 0.9609
2.2675 -9.3922 -2.5017 0.9609
2.6428 -9.2936 -2.5017 0.9609
2.8289 -9.2386 -2.5017 0.9609
3.1976 -9.1175 -2.5017 0.9609
3.9190 -8.8315 -2.5017 0.9609
4.0956 -8.7510 -2.5017 0.9609
4.2705 -8.6670 -2.5017 0.9609
4.6151 -8.4885 -2.5017 0.9609
4.7846 -8.3941 -2.5017 0.9609
4.9522 -8.2964 -2.5017 0.9609
5.7590 -7.7581 -2.5017 0.9609
6.0659 -7.5205 -2.5017 0.9609
6.2157 -7.3972 -2.5017 0.9609
6.5078 -7.1416 -2.5017 0.9609
6.6499 -7.0095 -2.5017 0.9609
6.7893 -6.8745 -2.5017 0.9609
7.0599 -6.5963 -2.5017 0.9609
7.3191 -6.3075 -2.5017 0.9609
7.4443 -6.1593 -2.5017 0.9609
8.2339 -5.0553 -2.5017 0.9609
8.3338 -4.8889 -2.5017 0.9609
8.4303 -4.7206 -2.5017 0.9609
8.5234 -4.5503 -2.5017 0.9609
8.6131 -4.3783 -2.5017 0.9609
8.6992 -4.2044 -2.5017 0.9609
8.7819 -4.0288 -2.5017 0.9609
8.8611 -3.8516 -2.5017 0.9609
9.0086 -3.4927 -2.5017 0.9609
9.1416 -3.1284 -2.5017 0.9609
9.2598 -2.7585 -2.5017 0.9609
9.3631 -2.3844 -2.5017 0.9609
9.4091 -2.1959 -2.5017 0.9609
9.4513 -2.0065 -2.5017 0.9609
9.5550 -1.4337 -2.5017 0.9609
9.5819 -1.2415 -2.5017 0.9609
9.6049 -1.0488 -2.5017 0.9609
9.6506 -0.4686 -2.5017 0.9609
9.6581 -0.2746 -2.5017 0.9609
9.6616 -0.0807 -2.5017 0.9609
9.6571 0.3074 -2.5017 0.9609
9.6489 0.5013 -2.5017 0.9609
9.6369 0.6950 -2.5017 0.9609
9.6210 0.8883 -2.5017 0.9609
9.5187 1.6576 -2.5017 0.9609
9.3550 2.4161 -2.5017 0.9609
9.1309 3.1591 -2.5017 0.9609
9.0656 3.3418 -2.5017 0.9609
8.9967 3.5232 -2.5017 0.9609
8.9241 3.7032 -2.5017 0.9609
8.8480 3.8816 -2.5017 0.9609
8.7682 4.0585 -2.5017 0.9609
8.5982 4.4074 -2.5017 0.9609
8.5079 4.5792 -2.5017 0.9609
8.1130 5.2472 -2.5017 0.9609
8.0060 5.4091 -2.5017 0.9609
7.8957 5.5687 -2.5017 0.9609
7.7823 5.7262 -2.5017 0.9609
7.5461 6.0341 -2.5017 0.9609
7.2977 6.3323 -2.5017 0.9609
7.0375 6.6202 -2.5017 0.9609
6.9031 6.7602 -2.5017 0.9609
6.7659 6.8975 -2.5017 0.9609
6.6261 7.0320 -2.5017 0.9609
6.4835 7.1636 -2.5017 0.9609
6.1850 7.4115 -2.4994 0.9609
5.8732 7.6419 -2.4955 0.9610
5.4639 7.7334 -2.4517 0.9616
4.8021 7.7479 -2.3601 0.9630
4.6241 7.8066 -2.3493 0.9632
4.4664 7.8979 -2.3493 0.9632
4.1456 8.0709 -2.3493 0.9632
3.8182 8.2309 -2.3493 0.9632
3.4846 8.3776 -2.3493 0.9632
3.3156 8.4459 -2.3493 0.9632
3.1453 8.5108 -2.3493 0.9632
2.9738 8.5722 -2.3493 0.9632
2.2762 8.7832 -2.3493 0.9632
1.9217 8.8675 -2.3493 0.9632
1.7432 8.9044 -2.3493 0.9632
1.3842 8.9672 -2.3493 0.9632
1.2039 8.9932 -2.3493 0.9632
0.6601 9.0493 -2.3493 0.9632
0.4783 9.0608 -2.3493 0.9632
0.2962 9.0685 -2.3493 0.9632
-0.0682 9.0731 -2.3493 0.9632
-0.4325 9.0631 -2.3493 0.9632
-0.7961 9.0384 -2.3493 0.9632
-0.9775 9.0206 -2.3493 0.9632
-1.1584 8.9991 -2.3493 0.9632
-1.3389 8.9741 -2.3493 0.9632
-1.5189 8.9454 -2.3493 0.9632
-1.8716 8.0496 -2.1398 0.9664
-2.4080 8.7480 -2.3493 0.9632
-2.9304 8.5871 -2.3493 0.9632
-3.6101 8.3243 -2.3493 0.9632
-4.1048 8.0918 -2.3493 0.9632
-4.2665 8.0077 -2.3493 0.9632
-4.5846 7.8299 -2.3493 0.9632
-4.7410 7.7363 -2.3493 0.9632
-5.1574 7.7034 -2.4003 0.9624
-5.6083 7.6898 -2.4643 0.9614
-6.4473 7.1963 -2.5017 0.9609
-7.0040 6.6557 -2.5017 0.9609
-7.1362 6.5137 -2.5017 0.9609
-7.5155 6.0722 -2.5017 0.9609
-7.6360 5.9200 -2.5017 0.9609
-7.8675 5.6086 -2.5017 0.9609
-6.6254 -5.8477 -2.5017 0.9639
-6.5066 -5.9796 -2.5017 0.9639
-6.1347 -6.3605 -2.5017 0.9639
-5.8744 -6.6018 -2.5017 0.9639
-5.7406 -6.7184 -2.5017 0.9639
-5.6045 -6.8323 -2.5017 0.9639
-5.1829 -7.1574 -2.5017 0.9639
-4.8913 -7.3598 -2.5017 0.9639
-4.5918 -7.5503 -2.5017 0.9639
-4.2849 -7.7286 -2.5017 0.9639
-3.9711 -7.8944 -2.5017 0.9639
-3.6509 -8.0475 -2.5017 0.9639
-3.1596 -8.2528 -2.5017 0.9639
-2.8257 -8.3730 -2.5017 0.9639
-2.4872 -8.4797 -2.5017 0.9639
-2.1446 -8.5727 -2.5017 0.9639
-1.9720 -8.6141 -2.5017 0.9639
-1.2744 -8.7446 -2.5017 0.9639
-1.0985 -8.7684 -2.5017 0.9639
-0.9222 -8.7887 -2.5017 0.9639
-0.7455 -8.8054 -2.5017 0.9639
-0.5685 -8.8186 -2.5017 0.9639
-0.3913 -8.8283 -2.5017 0.9639
0.1410 -8.8358 -2.5017 0.9639
0.6728 -8.8113 -2.5017 0.9639
1.0261 -8.7771 -2.5017 0.9639
1.2022 -8.7548 -2.5017 0.9639
1.5528 -8.6994 -2.5017 0.9639
1.9009 -8.6300 -2.5017 0.9639
2.9245 -8.3389 -2.5017 0.9639
3.0914 -8.2785 -2.5017 0.9639
3.2571 -8.2148 -2.5017 0.9639
3.4214 -8.1477 -2.5017 0.9639
3.7458 -8.0037 -2.5017 0.9639
4.0642 -7.8469 -2.5017 0.9639
4.2210 -7.7636 -2.5017 0.9639
4.5293 -7.5879 -2.5017 0.9639
5.6849 -6.7655 -2.5017 0.9639
5.8197 -6.6500 -2.5017 0.9639
6.2095 -6.2875 -2.5017 0.9639
6.4570 -6.0330 -2.5017 0.9639
6.5769 -5.9021 -2.5017 0.9639
6.8086 -5.6333 -2.5017 0.9639
6.9203 -5.4954 -2.5017 0.9639
7.0293 -5.3553 -2.5017 0.9639
7.1354 -5.2131 -2.5017 0.9639
7.6221 -4.4714 -2.5017 0.9639
7.7104 -4.3175 -2.5017 0.9639
7.9564 -3.8454 -2.5017 0.9639
8.1044 -3.5227 -2.5017 0.9639
8.1735 -3.3593 -2.5017 0.9639
8.3018 -3.0283 -2.5017 0.9639
8.3609 -2.8610 -2.5017 0.9639
8.4167 -2.6925 -2.5017 0.9639
8.6056 -2.0084 -2.5017 0.9639
8.6793 -1.6612 -2.5017 0.9639
8.7109 -1.4865 -2.5017 0.9639
8.7390 -1.3113 -2.5017 0.9639
8.7636 -1.1355 -2.5017 0.9639
8.7847 -0.9593 -2.5017 0.9639
8.8021 -0.7827 -2.5017 0.9639
8.8161 -0.6057 -2.5017 0.9639
8.8265 -0.4286 -2.5017 0.9639
8.8140 0.6356 -2.5017 0.9639
8.7346 1.3409 -2.5017 0.9639
8.6737 1.6906 -2.5017 0.9639
8.6380 1.8644 -2.5017 0.9639
8.5988 2.0375 -2.5017 0.9639
8.4605 2.5516 -2.5017 0.9639
8.3512 2.8893 -2.5017 0.9639
8.1620 3.3869 -2.5017 0.9639
8.0924 3.5502 -2.5017 0.9639
8.0194 3.7120 -2.5017 0.9639
7.9433 3.8723 -2.5017 0.9639
7.7814 4.1881 -2.5017 0.9639
7.5151 4.6491 -2.5017 0.9639
7.4202 4.7991 -2.5017 0.9639
7.1177 5.2372 -2.5017 0.9639
6.9017 5.5188 -2.5017 0.9639
6.7894 5.6563 -2.5017 0.9639
6.6745 5.7915 -2.5017 0.9639
6.5568 5.9244 -2.5017 0.9639
6.4365 6.0549 -2.5017 0.9639
6.0602 6.4315 -2.5017 0.9639
5.9299 6.5519 -2.5017 0.9639
5.7971 6.6696 -2.5017 0.9639
5.6620 6.7847 -2.5017 0.9639
5.3849 7.0066 -2.5017 0.9639
5.2431 7.1134 -2.5017 0.9639
4.8009 7.4093 -2.4994 0.9640
4.6482 7.4996 -2.4978 0.9640
4.4940 7.5870 -2.4963 0.9640
4.1648 7.7226 -2.4839 0.9642
3.7763 7.7301 -2.4355 0.9649
3.5874 7.7335 -2.4134 0.9652
2.7198 7.8402 -2.3493 0.9661
2.5618 7.8932 -2.3493 0.9661
2.4028 7.9431 -2.3493 0.9661
2.2428 7.9897 -2.3493 0.9661
2.0819 8.0332 -2.3493 0.9661
1.9201 8.0734 -2.3493 0.9661
1.5944 8.1440 -2.3493 0.9661
1.4305 8.1743 -2.3493 0.9661
1.2660 8.2014 -2.3493 0.9661
0.9357 8.2456 -2.3493 0.9661
0.4374 8.2870 -2.3493 0.9661
0.1043 8.2979 -2.3493 0.9661
-0.8940 8.2502 -2.3493 0.9661
-1.0595 8.2306 -2.3493 0.9661
-1.2246 8.2077 -2.3493 0.9661
-1.7166 8.1191 -2.3493 0.9661
-2.0413 8.0436 -2.3493 0.9661
-2.2024 8.0010 -2.3493 0.9661
-2.3626 7.9551 -2.3493 0.9661
-2.5219 7.9061 -2.3493 0.9661
-2.6802 7.8538 -2.3493 0.9661
-2.9934 7.7399 -2.3493 0.9661
-3.1646 7.7180 -2.3614 0.9659
-3.5291 7.7095 -2.4003 0.9654
-3.7159 7.7048 -2.4216 0.9651
-4.0998 7.6947 -2.4682 0.9644
-4.4540 7.6068 -2.4954 0.9640
-4.6086 7.5203 -2.4969 0.9640
-4.7615 7.4307 -2.4984 0.9640
-4.9129 7.3381 -2.5000 0.9640
-5.0625 7.2426 -2.5016 0.9639
-5.3495 7.0338 -2.5017 0.9639
-5.6276 6.8133 -2.5017 0.9639
-5.7633 6.6989 -2.5017 0.9639
-5.8967 6.5818 -2.5017 0.9639
-6.1562 6.3397 -2.5017 0.9639
-6.2823 6.2148 -2.5017 0.9639
-6.5268 5.9575 -2.5017 0.9639
-6.7608 5.6906 -2.5017 0.9639
-6.8737 5.5536 -2.5017 0.9639
-7.0912 5.2731 -2.5017 0.9639
-7.1957 5.1296 -2.5017 0.9639
-7.2972 4.9841 -2.5017 0.9639
-6.0980 -5.3822 -2.5017 0.9665
-5.9886 -5.5036 -2.5017 0.9665
-5.8769 -5.6227 -2.5017 0.9665
-5.7628 -5.7396 -2.5017 0.9665
-5.5276 -5.9664 -2.5017 0.9665
-5.2836 -6.1836 -2.5017 0.9665
-5.0310 -6.3908 -2.5017 0.9665
-4.9017 -6.4905 -2.5017 0.9665
-4.6371 -6.6821 -2.5017 0.9665
-4.3650 -6.8629 -2.5017 0.9665
-4.2263 -6.9492 -2.5017 0.9665
-4.0859 -7.0327 -2.5017 0.9665
-3.9438 -7.1133 -2.5017 0.9665
-3.8001 -7.1911 -2.5017 0.9665
-3.3602 -7.4069 -2.5017 0.9665
-3.0601 -7.5358 -2.5017 0.9665
-2.9081 -7.5958 -2.5017 0.9665
-2.7550 -7.6527 -2.5017 0.9665
-2.6007 -7.7064 -2.5017 0.9665
-2.4454 -7.7571 -2.5017 0.9665
-2.2892 -7.8046 -2.5017 0.9665
-1.9739 -7.8903 -2.5017 0.9665
-1.8150 -7.9283 -2.5017 0.9665
-1.6554 -7.9632 -2.5017 0.9665
-1.1729 -8.0484 -2.5017 0.9665
-0.8488 -8.0890 -2.5017 0.9665
-0.6862 -8.1044 -2.5017 0.9665
-0.3602 -8.1254 -2.5017 0.9665
-0.0336 -8.1334 -2.5017 0.9665
0.4563 -8.1206 -2.5017 0.9665
0.6193 -8.1098 -2.5017 0.9665
0.7820 -8.0957 -2.5017 0.9665
0.9444 -8.0784 -2.5017 0.9665
1.1065 -8.0578 -2.5017 0.9665
1.2681 -8.0340 -2.5017 0.9665
1.4292 -8.0069 -2.5017 0.9665
1.7496 -7.9430 -2.5017 0.9665
2.2247 -7.8233 -2.5017 0.9665
2.9978 -7.5608 -2.5017 0.9665
3.2990 -7.4343 -2.5017 0.9665
3.4476 -7.3666 -2.5017 0.9665
3.5949 -7.2959 -2.5017 0.9665
3.7407 -7.2222 -2.5017 0.9665
3.8850 -7.1456 -2.5017 0.9665
4.0277 -7.0662 -2.5017 0.9665
4.1688 -6.9838 -2.5017 0.9665
4.3082 -6.8987 -2.5017 0.9665
4.5817 -6.7201 -2.5017 0.9665
4.7158 -6.6268 -2.5017 0.9665
4.8479 -6.5307 -2.5017 0.9665
4.9781 -6.4320 -2.5017 0.9665
5.3564 -6.1206 -2.5017 0.9665
5.8303 -5.6710 -2.5017 0.9665
6.4697 -4.9290 -2.5017 0.9665
6.7548 -4.5304 -2.5017 0.9665
6.9313 -4.2555 -2.5017 0.9665
7.0153 -4.1155 -2.5017 0.9665
7.2504 -3.6856 -2.5017 0.9665
7.3230 -3.5392 -2.5017 0.9665
7.3926 -3.3914 -2.5017 0.9665
7.4592 -3.2423 -2.5017 0.9665
7.5834 -2.9402 -2.5017 0.9665
7.6409 -2.7873 -2.5017 0.9665
7.7949 -2.3221 -2.5017 0.9665
7.8399 -2.1651 -2.5017 0.9665
7.9206 -1.8485 -2.5017 0.9665
7.9561 -1.6891 -2.5017 0.9665
7.9884 -1.5289 -2.5017 0.9665
8.0660 -1.0451 -2.5017 0.9665
8.0853 -0.8829 -2.5017 0.9665
8.1301 -0.2312 -2.5017 0.9665
8.1331 -0.0679 -2.5017 0.9665
8.1328 0.0954 -2.5017 0.9665
8.1224 0.4220 -2.5017 0.9665
8.1123 0.5850 -2.5017 0.9665
8.0989 0.7478 -2.5017 0.9665
8.0624 1.0724 -2.5017 0.9665
8.0392 1.2341 -2.5017 0.9665
8.0128 1.3953 -2.5017 0.9665
7.9832 1.5560 -2.5017 0.9665
7.9503 1.7160 -2.5017 0.9665
7.9143 1.8753 -2.5017 0.9665
7.8326 2.1916 -2.5017 0.9665
7.7870 2.3485 -2.5017 0.9665
7.7382 2.5044 -2.5017 0.9665
7.6864 2.6593 -2.5017 0.9665
7.6314 2.8131 -2.5017 0.9665
7.5734 2.9658 -2.5017 0.9665
7.5123 3.1173 -2.5017 0.9665
7.3109 3.5640 -2.5017 0.9665
7.1619 3.8547 -2.5017 0.9665
7.0013 4.1392 -2.5017 0.9665
6.9168 4.2790 -2.5017 0.9665
6.8295 4.4171 -2.5017 0.9665
6.7394 4.5533 -2.5017 0.9665
6.6466 4.6878 -2.5017 0.9665
6.2490 5.2060 -2.5017 0.9665
6.0349 5.4528 -2.5017 0.9665
5.9241 5.5729 -2.5017 0.9665
5.6956 5.8063 -2.5017 0.9665
5.3356 6.1387 -2.5017 0.9665
5.2112 6.2446 -2.5017 0.9665
5.0848 6.3480 -2.5017 0.9665
4.8257 6.5471 -2.5017 0.9665
4.6933 6.6427 -2.5017 0.9665
4.2848 6.9132 -2.5017 0.9665
3.7161 7.2348 -2.5017 0.9665
3.4202 7.3730 -2.4999 0.9666
2.8129 7.6112 -2.4958 0.9666
2.5032 7.7127 -2.4941 0.9666
2.3343 7.7166 -2.4797 0.9668
2.0008 7.7203 -2.4530 0.9672
1.3519 7.7254 -2.4123 0.9677
1.1927 7.7262 -2.4046 0.9678
0.7200 7.7277 -2.3872 0.9680
0.2524 7.7276 -2.3781 0.9682
-0.2133 7.7261 -2.3773 0.9682
-0.3687 7.7252 -2.3788 0.9682
-0.6802 7.7230 -2.3846 0.9681
-0.8367 7.7216 -2.3889 0.9680
-0.9938 7.7200 -2.3941 0.9680
-1.1516 7.7183 -2.4003 0.9679
-1.4698 7.7143 -2.4154 0.9677
-1.7925 7.7096 -2.4346 0.9674
-1.9558 7.7069 -2.4456 0.9673
-2.6192 7.6751 -2.4944 0.9666
-3.0800 7.5118 -2.4971 0.9666
-3.5312 7.3220 -2.5003 0.9666
