ply
format ascii 1.0
element vertex 1522
property float32 x
property float32 y
property float32 z
property float32 I
end_header
0.9691 -21.6478 2.8218 0.9163
1.7536 -20.5790 2.6895 0.9201
4.1358 -22.0163 2.9171 0.9136
4.5031 -21.5684 2.8692 0.9150
4.6128 -20.0652 2.6811 0.9203
6.4133 -21.7796 2.9566 0.9125
6.8145 -21.5321 2.9410 0.9129
8.3183 -20.4074 2.8698 0.9149
8.5282 -18.7273 2.6796 0.9203
10.0162 -20.8702 3.0145 0.9108
11.5519 -18.0909 2.7951 0.9171
11.5464 -17.3041 2.7089 0.9195
11.7914 -16.9230 2.6859 0.9202
15.8033 -21.7344 3.4994 0.8973
16.7139 -22.0398 3.6020 0.8944
17.2683 -21.8430 3.6259 0.8938
18.7530 -21.8517 3.7498 0.8903
19.3551 -21.6552 3.7822 0.8894
20.1583 -21.6599 3.8531 0.8875
21.0318 -21.7052 3.9357 0.8852
18.4062 -17.5251 3.3095 0.9026
18.5822 -16.9926 3.2790 0.9034
18.5861 -16.3213 3.2210 0.9050
21.4443 -15.3069 3.4309 0.8992
24.3958 -16.6826 3.8486 0.8876
23.4354 -15.3426 3.6476 0.8932
70.1457 -41.9886 10.6459 0.7191
73.0245 -39.8091 10.8305 0.7150
-5.6387 16.6264 1.8853 0.9318
-6.0154 16.6286 1.8989 0.9313
-6.3978 16.6308 1.9134 0.9308
-7.5832 16.6377 1.9634 0.9291
-7.9927 16.6401 1.9823 0.9284
-8.4454 16.7118 2.0107 0.9274
-8.8901 16.7454 2.0358 0.9266
-9.2726 16.6476 2.0462 0.9262
-14.4960 22.6853 2.8909 0.8974
-15.4727 22.1910 2.9050 0.8969
-16.1492 22.1949 2.9474 0.8955
-18.3072 22.2075 3.0905 0.8907
-11.0136 12.8249 1.8153 0.9343
-11.3453 11.7010 1.7501 0.9365
-11.3506 10.8002 1.6824 0.9389
-11.4765 10.4878 1.6694 0.9394
-13.5576 10.5194 1.8427 0.9333
-17.2879 11.8137 2.2484 0.9192
-16.7274 10.4684 2.1190 0.9237
-78.1932 46.7710 9.7839 0.6931
-78.2055 44.6653 9.6710 0.6961
-78.2176 42.6069 9.5644 0.6988
-78.2294 40.5925 9.4640 0.7015
-78.2523 36.6842 9.2804 0.7063
-78.2634 34.7849 9.1968 0.7085
-78.2851 31.0834 9.0448 0.7126
-78.8051 27.6717 8.9688 0.7146
-78.8154 25.9050 8.9088 0.7162
-80.2415 -21.8967 8.9315 0.7156
-76.6479 -22.5837 8.5804 0.7251
-74.0305 -25.0935 8.3938 0.7302
-81.3649 -31.2854 9.3607 0.7042
-81.3871 -35.1174 9.5184 0.7001
-81.3985 -37.0839 9.6051 0.6978
-80.6995 -38.7461 9.6127 0.6976
-71.2028 -37.7867 8.6558 0.7230
-71.2476 -45.5112 9.0784 0.7117
-75.8889 -52.8952 9.9333 0.6893
-75.7604 -57.4725 10.2113 0.6821
-75.9350 -62.5775 10.5661 0.6731
-41.4275 -37.0394 5.9673 0.7997
-16.4021 -15.2700 2.4064 0.9138
-15.7755 -15.2911 2.3592 0.9154
-16.8067 -16.9602 2.5640 0.9084
-10.8811 -15.9176 2.0705 0.9254
-10.8853 -16.6329 2.1346 0.9231
-10.6378 -17.7780 2.2247 0.9200
-22.3392 -39.0995 4.8355 0.8343
-21.3002 -39.0876 4.7800 0.8360
-20.4027 -39.3040 4.7553 0.8368
-19.3324 -39.1506 4.6886 0.8389
-9.5540 -21.4864 2.5251 0.9097
-8.6170 -21.6919 2.5064 0.9104
-7.7106 -21.9472 2.4979 0.9107
-5.6600 -21.5091 2.3883 0.9144
-5.2240 -21.6116 2.3875 0.9144
-4.7442 -21.5144 2.3658 0.9152
-4.3123 -21.6169 2.3670 0.9151
-3.4698 -21.9719 2.3886 0.9144
-2.1214 -21.9797 2.3712 0.9150
-1.2313 -21.9849 2.3645 0.9152
-0.7788 -21.7375 2.3357 0.9162
-0.3392 -21.6401 2.3240 0.9166
0.9690 -21.6477 2.3269 0.9165
2.3223 -22.0057 2.3761 0.9148
2.7717 -22.0083 2.3820 0.9146
3.2235 -22.0109 2.3888 0.9144
3.6781 -22.0136 2.3966 0.9141
4.5031 -21.5683 2.3660 0.9152
5.4191 -21.5737 2.3886 0.9144
5.9114 -21.6766 2.4127 0.9136
7.4652 -22.0357 2.4983 0.9106
8.4710 -22.0415 2.5356 0.9094
8.9856 -22.0445 2.5563 0.9087
11.7026 -22.0604 2.6816 0.9044
12.2799 -22.0638 2.7115 0.9034
14.0955 -22.0744 2.8124 0.9000
14.4305 -21.6263 2.7918 0.9007
15.8032 -21.7343 2.8856 0.8975
16.7519 -22.0899 2.9770 0.8945
19.3550 -21.6551 3.1188 0.8897
23.2403 -22.1278 3.4459 0.8789
19.2037 -17.5609 2.7943 0.9006
19.2077 -16.8671 2.7449 0.9023
19.2116 -16.1972 2.6983 0.9039
19.2027 -15.5391 2.6526 0.9054
51.2706 -39.8077 6.9702 0.7702
53.6868 -39.9774 7.1877 0.7639
21.4442 -15.3068 2.8292 0.8994
25.0135 -17.1049 3.2540 0.8852
24.5509 -15.3757 3.1107 0.8900
71.0715 -38.7444 8.6921 0.7221
41.0203 -11.6895 4.5802 0.8423
-5.2672 16.6243 1.4762 0.9324
-5.9974 16.5786 1.4924 0.9317
-6.3785 16.5808 1.5039 0.9312
-7.1596 16.5853 1.5292 0.9300
-8.8369 16.6451 1.5953 0.9271
-9.2726 16.6476 1.6131 0.9264
-13.2367 22.6781 2.2228 0.9000
-14.4960 22.6854 2.2790 0.8976
-14.8152 22.1872 2.2584 0.8984
-16.1493 22.1950 2.3236 0.8957
-17.5649 22.2033 2.3966 0.8926
-18.3072 22.2076 2.4364 0.8909
-11.5517 12.9160 1.4669 0.9328
-11.6489 11.0841 1.3612 0.9375
-11.7902 10.7746 1.3521 0.9379
-11.9543 10.4907 1.3464 0.9381
-12.4692 10.5058 1.3803 0.9366
-17.9298 11.7298 1.8138 0.9176
-17.3463 10.3756 1.7111 0.9221
-79.2031 45.2350 7.7212 0.6934
-79.2153 43.1503 7.6361 0.6962
-79.2389 39.1118 7.4804 0.7014
-79.2504 37.1522 7.4094 0.7037
-78.2642 34.7853 7.2502 0.7091
-78.2752 32.9191 7.1883 0.7111
-78.2859 31.0838 7.1304 0.7131
-85.6529 26.2536 7.5837 0.6979
-76.3426 -25.8772 6.8238 0.7235
-79.6207 -30.6147 7.2212 0.7100
-73.2668 -37.0108 6.9487 0.7193
-71.1903 -37.7800 6.8225 0.7236
-73.2787 -40.8001 7.1000 0.7141
-73.0009 -44.5874 7.2412 0.7094
-71.2349 -45.5030 7.1555 0.7123
-73.3175 -48.9394 7.4622 0.7020
-73.1851 -51.0106 7.5517 0.6990
-75.4696 -57.2519 8.0190 0.6837
-17.0746 -15.2660 1.9389 0.9122
-17.0510 -15.8742 1.9721 0.9107
-17.2577 -17.4152 2.0755 0.9063
-13.4532 -15.3250 1.7263 0.9214
-11.9013 -15.3335 1.6431 0.9250
-8.9826 -12.0671 1.2735 0.9414
-11.5075 -16.1271 1.6771 0.9235
-12.7714 -21.3436 2.1055 0.9050
-12.6433 -23.2016 2.2368 0.8994
-19.3323 -39.1504 3.6962 0.8392
-17.7331 -37.8110 3.5353 0.8457
-9.5540 -21.4863 1.9906 0.9099
-9.0836 -21.5891 1.9828 0.9103
-8.1162 -21.6947 1.9608 0.9112
-7.1364 -21.7004 1.9338 0.9124
-6.6562 -21.7032 1.9217 0.9129
-6.1817 -21.7060 1.9105 0.9134
-4.7441 -21.5143 1.8650 0.9154
-4.2923 -21.5170 1.8574 0.9157
-3.3988 -21.5222 1.8445 0.9162
-2.5162 -21.5273 1.8348 0.9167
-1.6414 -21.5324 1.8281 0.9170
-0.7716 -21.5375 1.8244 0.9171
-0.3377 -21.5400 1.8237 0.9172
0.9646 -21.5476 1.8259 0.9171
2.2748 -21.5553 1.8348 0.9167
2.7150 -21.5578 1.8393 0.9165
3.1575 -21.5604 1.8446 0.9162
3.6028 -21.5630 1.8507 0.9160
4.0512 -21.5656 1.8575 0.9157
4.5031 -21.5683 1.8652 0.9154
5.4191 -21.5736 1.8830 0.9146
5.9114 -21.6765 1.9020 0.9138
7.3803 -21.7851 1.9471 0.9118
8.3747 -21.7909 1.9762 0.9105
10.3676 -21.6025 2.0284 0.9083
12.8705 -22.0671 2.1626 0.9025
14.0954 -22.0743 2.2171 0.9002
14.4304 -21.6262 2.2009 0.9009
15.0710 -21.6300 2.2317 0.8996
15.8031 -21.7342 2.2748 0.8977
16.7518 -22.0898 2.3469 0.8947
18.2050 -22.0983 2.4237 0.8914
18.9685 -22.1027 2.4656 0.8897
19.3549 -21.6550 2.4586 0.8899
24.1492 -22.0834 2.7702 0.8769
20.1521 -15.6466 2.1598 0.9027
20.6327 -15.3639 2.1777 0.9019
21.4441 -15.3068 2.2303 0.8996
25.9682 -17.0007 2.6275 0.8829
25.6122 -15.3315 2.5273 0.8871
69.6395 -39.8032 6.7902 0.7247
71.0161 -38.7141 6.8470 0.7228
76.2293 -39.5863 7.2713 0.7084
-4.9006 16.6222 1.0746 0.9329
-5.2673 16.6244 1.0814 0.9325
-5.6388 16.6265 1.0887 0.9321
-6.0155 16.6287 1.0965 0.9316
-7.1812 16.6355 1.1236 0.9300
-7.5832 16.6378 1.1338 0.9293
-8.8369 16.6452 1.1686 0.9273
-13.2368 22.6781 1.6283 0.9001
-13.8586 22.6818 1.6483 0.8990
-14.4961 22.6855 1.6694 0.8977
-14.8153 22.1873 1.6544 0.8986
-15.4728 22.1912 1.6776 0.8973
-16.1493 22.1951 1.7021 0.8958
-17.5650 22.2034 1.7556 0.8927
-19.8701 22.2168 1.8483 0.8874
-20.6947 22.2216 1.8830 0.8854
-14.1468 12.9282 1.1884 0.9261
-14.3925 12.6304 1.1874 0.9261
-14.3954 12.1287 1.1673 0.9273
-14.3884 11.1639 1.1293 0.9296
-14.4745 10.7710 1.1188 0.9302
-18.2050 12.4404 1.3673 0.9154
-18.4228 12.0524 1.3652 0.9156
-18.1819 10.8754 1.3138 0.9186
-79.2039 45.2355 5.6560 0.6938
-78.2760 32.9194 5.2657 0.7115
-78.2867 31.0841 5.2233 0.7135
-81.0957 28.4761 5.3298 0.7086
-83.0687 27.3029 5.4222 0.7044
-75.0183 -28.8450 4.9839 0.7246
-74.5764 -30.4126 4.9943 0.7241
-73.2229 -31.5946 4.9452 0.7264
-73.0871 -33.2973 4.9803 0.7248
-72.5823 -34.8488 4.9927 0.7242
-71.1778 -37.7734 4.9968 0.7240
-17.7777 -15.2618 1.4529 0.9104
-18.2445 -16.9852 1.5457 0.9049
-15.7759 -15.2915 1.3624 0.9157
-14.5183 -15.2532 1.3058 0.9191
-14.0065 -15.3217 1.2873 0.9202
-13.4531 -15.3250 1.2645 0.9215
-12.9187 -15.3280 1.2431 0.9228
-12.4020 -15.3311 1.2228 0.9240
-13.1596 -16.9547 1.3309 0.9176
-12.4629 -17.4660 1.3305 0.9176
-13.9635 -21.3366 1.5812 0.9029
-12.7713 -21.3435 1.5424 0.9051
-12.6461 -22.1340 1.5808 0.9029
-12.6524 -23.2182 1.6397 0.8995
-12.6592 -24.3869 1.7038 0.8957
-12.6745 -27.0249 1.8510 0.8873
-9.5540 -21.4862 1.4581 0.9101
-9.0415 -21.4892 1.4457 0.9108
-8.0229 -21.4452 1.4198 0.9123
-7.5352 -21.4480 1.4097 0.9129
-7.0543 -21.4508 1.4003 0.9135
-6.1106 -21.4563 1.3834 0.9145
-4.7441 -21.5143 1.3662 0.9155
-2.5103 -21.4773 1.3409 0.9170
-2.0732 -21.4798 1.3382 0.9171
-1.2033 -21.4849 1.3344 0.9174
-0.7698 -21.4874 1.3333 0.9174
0.5301 -21.5450 1.3364 0.9173
0.9646 -21.5476 1.3375 0.9172
1.3967 -21.5001 1.3360 0.9173
2.2695 -21.5052 1.3409 0.9170
2.7087 -21.5077 1.3442 0.9168
3.5944 -21.5129 1.3525 0.9163
4.5031 -21.5682 1.3663 0.9155
4.9589 -21.5708 1.3725 0.9151
8.2976 -21.5903 1.4343 0.9115
8.8017 -21.5933 1.4460 0.9108
9.3143 -21.5963 1.4584 0.9100
13.1995 -21.6189 1.5707 0.9035
14.4303 -21.6261 1.6122 0.9011
15.0709 -21.6299 1.6347 0.8997
15.7300 -21.6337 1.6586 0.8983
17.1092 -21.6418 1.7107 0.8953
17.8324 -21.6460 1.7391 0.8937
22.9759 -21.8760 1.9673 0.8806
23.9285 -21.8816 2.0107 0.8781
24.8099 -21.7867 2.0475 0.8761
20.7701 -16.8075 1.6568 0.8985
20.7740 -16.1295 1.6309 0.9000
20.7779 -15.4721 1.6064 0.9014
21.4439 -15.3067 1.6338 0.8998
22.5010 -15.3868 1.6903 0.8965
26.2396 -16.4333 1.9199 0.8833
26.8561 -16.0758 1.9409 0.8821
71.0701 -38.7436 5.0194 0.7230
75.7985 -39.3626 5.2963 0.7101
77.5387 -38.3042 5.3629 0.7071
-4.9301 16.7225 0.6875 0.9326
-5.2673 16.6244 0.6876 0.9326
-6.0880 16.8292 0.7057 0.9309
-6.4750 16.8315 0.7111 0.9304
-7.2678 16.8361 0.7231 0.9292
-7.6747 16.8385 0.7297 0.9286
-8.8902 16.7455 0.7476 0.9269
-9.2727 16.6478 0.7514 0.9266
-13.2369 22.6782 1.0354 0.9002
-13.8587 22.6819 1.0481 0.8991
-14.4962 22.6856 1.0615 0.8978
-15.4857 23.1914 1.0996 0.8944
-16.1730 23.1954 1.1150 0.8930
-18.3599 23.2082 1.1669 0.8883
-19.1358 23.2127 1.1862 0.8865
-19.5067 22.7148 1.1806 0.8870
-20.7693 23.2222 1.2285 0.8827
-23.4578 23.2379 1.3020 0.8762
-24.3215 23.1421 1.3238 0.8742
-25.4411 23.2495 1.3590 0.8711
-15.0205 12.1467 0.7617 0.9256
-15.0233 11.6566 0.7498 0.9267
-15.0261 11.1815 0.7385 0.9278
-15.0288 10.7201 0.7279 0.9288
-15.3812 10.5108 0.7346 0.9281
-18.9216 12.3786 0.8916 0.9135
-19.0994 11.4242 0.8776 0.9148
-18.4056 10.5119 0.8358 0.9187
-34.8163 18.9652 1.5633 0.8532
-34.8215 18.0686 1.5469 0.8547
-34.8266 17.1902 1.5314 0.8560
-34.8317 16.3289 1.5169 0.8573
-79.2633 35.2293 3.4202 0.7066
-34.8415 14.6528 1.4904 0.8596
-34.8509 13.0316 1.4671 0.8616
-34.8555 12.2392 1.4567 0.8625
-35.0890 11.5330 1.4564 0.8626
-37.7691 11.5767 1.5577 0.8537
-87.1275 -29.5329 3.6275 0.6919
-80.0323 -28.9371 3.3557 0.7113
-79.5856 -30.6012 3.3621 0.7108
-71.1727 -30.7100 3.0565 0.7332
-71.1475 -32.4137 3.0828 0.7313
-73.2551 -37.0049 3.2361 0.7200
-73.2784 -42.7552 3.3453 0.7120
-33.2265 -21.2242 1.5546 0.8540
-31.8090 -21.2325 1.5080 0.8580
-30.4735 -21.2403 1.4647 0.8618
-29.2121 -21.2476 1.4243 0.8654
-26.8847 -21.2612 1.3515 0.8718
-18.5142 -15.2575 0.9460 0.9084
-19.2626 -16.5366 1.0010 0.9034
-15.7762 -15.2917 0.8663 0.9158
-15.1882 -15.3268 0.8508 0.9172
-15.1842 -15.9528 0.8684 0.9156
-15.1880 -16.6142 0.8876 0.9138
-14.9803 -17.0647 0.8954 0.9131
-14.8688 -17.6418 0.9097 0.9118
-17.2446 -21.3174 1.0812 0.8960
-16.5489 -21.3214 1.0642 0.8976
-8.9791 -12.0624 0.5929 0.9416
-13.9635 -21.3365 1.0055 0.9030
-13.3599 -21.3400 0.9928 0.9041
-12.7713 -21.3434 0.9808 0.9052
-12.6463 -22.1344 1.0052 0.9030
-12.6526 -23.2187 1.0427 0.8996
-12.6594 -24.3873 1.0835 0.8958
-9.5539 -21.4861 0.9272 0.9102
-9.0415 -21.4891 0.9193 0.9109
-8.5376 -21.4921 0.9119 0.9116
-7.5527 -21.4978 0.8985 0.9128
-7.0707 -21.5006 0.8925 0.9134
-6.5949 -21.5034 0.8869 0.9139
-5.6599 -21.5088 0.8770 0.9148
-5.1998 -21.5115 0.8726 0.9152
-4.7441 -21.5142 0.8687 0.9156
-4.2923 -21.5168 0.8651 0.9159
-0.7716 -21.5374 0.8498 0.9173
0.0961 -21.5424 0.8495 0.9174
1.3999 -21.5500 0.8515 0.9172
1.8366 -21.5526 0.8529 0.9171
2.7150 -21.5577 0.8568 0.9167
3.1575 -21.5603 0.8592 0.9165
4.0511 -21.5655 0.8652 0.9159
4.5030 -21.5681 0.8688 0.9156
5.4190 -21.5735 0.8771 0.9148
11.4630 -21.6087 0.9645 0.9067
12.0285 -21.6120 0.9753 0.9057
13.1994 -21.6188 0.9988 0.9036
13.8068 -21.6224 1.0116 0.9024
14.4303 -21.6260 1.0251 0.9012
15.0709 -21.6298 1.0395 0.8998
15.7300 -21.6336 1.0547 0.8985
16.4089 -21.6376 1.0708 0.8970
17.1091 -21.6417 1.0878 0.8954
19.3547 -21.6548 1.1452 0.8902
20.1579 -21.6595 1.1667 0.8883
21.8094 -21.6191 1.2109 0.8843
23.6532 -21.6299 1.2638 0.8796
47.4193 -38.3725 2.4053 0.7833
23.8168 -17.7350 1.1709 0.8879
24.5685 -15.3867 1.1431 0.8904
28.0149 -16.7694 1.2874 0.8775
27.6956 -15.8297 1.2579 0.8801
71.0146 -38.7134 3.1892 0.7234
75.6719 -39.2968 3.3622 0.7108
77.4954 -38.2828 3.4082 0.7075
-4.9301 16.7225 0.2945 0.9326
-5.7645 16.9974 0.3032 0.9307
-6.1497 16.9996 0.3054 0.9302
-6.5405 17.0019 0.3077 0.9297
-7.7524 17.0090 0.3157 0.9279
-8.4461 16.7132 0.3163 0.9278
-13.8587 22.6820 0.4490 0.8991
-15.4858 23.1915 0.4711 0.8944
-16.1731 23.1955 0.4777 0.8930
-18.3600 23.2083 0.4999 0.8884
-19.1359 23.2128 0.5082 0.8866
-19.5068 22.7149 0.5058 0.8871
-21.6313 23.2274 0.5361 0.8808
-22.5265 23.2326 0.5466 0.8786
-23.4579 23.2380 0.5578 0.8763
-26.5003 23.2558 0.5956 0.8684
-27.6098 23.2623 0.6098 0.8655
-15.6427 12.6499 0.3398 0.9227
-15.6486 11.6447 0.3295 0.9249
-15.6514 11.1642 0.3247 0.9260
-15.6541 10.6973 0.3203 0.9270
-34.8058 20.8190 0.6851 0.8502
-19.2453 10.4833 0.3702 0.9161
-34.8270 17.1904 0.6561 0.8561
-78.2667 34.7863 1.4468 0.7099
-34.8418 14.6529 0.6385 0.8597
-34.8513 13.0318 0.6285 0.8617
-34.8559 12.2394 0.6240 0.8626
-37.7696 11.5768 0.6673 0.8538
-52.9148 13.9149 0.9242 0.8034
-52.9107 12.7806 0.9195 0.8043
-58.6946 11.6988 1.0110 0.7871
-65.6665 11.7189 1.1267 0.7658
-74.7511 11.7924 1.2783 0.7388
-80.0331 -28.9374 1.4376 0.7114
-77.3136 -29.7276 1.3992 0.7179
-71.9512 -31.0459 1.3237 0.7309
-72.0741 -32.8358 1.3379 0.7284
-72.0884 -34.6117 1.3508 0.7262
-70.2832 -39.1323 1.3588 0.7248
-70.2942 -41.0140 1.3747 0.7221
-34.7349 -21.2153 0.6875 0.8497
-31.8088 -21.2324 0.6460 0.8581
-29.2119 -21.2475 0.6102 0.8654
-20.4845 -15.5397 0.4343 0.9023
-19.2872 -15.2529 0.4154 0.9063
-20.3163 -17.4411 0.4523 0.8984
-16.4551 -15.3194 0.3798 0.9140
-15.7703 -15.2860 0.3710 0.9159
-15.8132 -16.6137 0.3874 0.9123
-15.8172 -17.3025 0.3960 0.9105
-16.5488 -21.3213 0.4559 0.8976
-15.2194 -21.3291 0.4426 0.9005
-13.9634 -21.3364 0.4307 0.9030
-12.7712 -21.3433 0.4201 0.9053
-12.6466 -22.1348 0.4306 0.9030
-12.6529 -23.2192 0.4467 0.8996
-12.6597 -24.3879 0.4642 0.8959
-12.6751 -27.0261 0.5042 0.8874
-9.5539 -21.4861 0.3972 0.9102
-8.6168 -21.6915 0.3943 0.9109
-7.7280 -21.9967 0.3938 0.9109
-7.2348 -21.9996 0.3912 0.9115
-5.6599 -21.5088 0.3757 0.9149
-5.2240 -21.6113 0.3756 0.9149
-3.8440 -21.5194 0.3693 0.9163
-2.9838 -21.7244 0.3704 0.9160
-2.5395 -21.7270 0.3695 0.9162
-2.0973 -21.7296 0.3688 0.9164
-1.6567 -21.7321 0.3682 0.9165
-1.2173 -21.7347 0.3677 0.9166
-0.7787 -21.7372 0.3674 0.9167
-0.3392 -21.6398 0.3656 0.9171
0.0961 -21.5423 0.3639 0.9174
0.5301 -21.5449 0.3640 0.9174
0.9646 -21.5474 0.3643 0.9173
3.1575 -21.5602 0.3681 0.9165
4.9588 -21.5707 0.3739 0.9153
5.4190 -21.5734 0.3757 0.9149
5.8840 -21.5761 0.3778 0.9144
6.8302 -21.5816 0.3824 0.9134
7.3123 -21.5844 0.3850 0.9129
8.2975 -21.5902 0.3907 0.9116
8.8016 -21.5931 0.3939 0.9109
9.8360 -21.5991 0.4009 0.9094
10.3675 -21.6022 0.4047 0.9086
10.9096 -21.6054 0.4088 0.9077
12.0285 -21.6119 0.4178 0.9058
12.6070 -21.6153 0.4227 0.9047
13.1994 -21.6188 0.4279 0.9036
15.0708 -21.6297 0.4453 0.8999
16.5612 -21.8384 0.4630 0.8962
17.9978 -21.8468 0.4781 0.8929
19.3546 -21.6547 0.4906 0.8903
20.1578 -21.6594 0.4998 0.8884
21.0304 -21.7038 0.5105 0.8861
24.8097 -21.7865 0.5577 0.8763
52.9869 -39.4563 1.1160 0.7677
24.7629 -16.2117 0.5000 0.8883
24.7670 -15.5111 0.4936 0.8897
28.7899 -17.2333 0.5668 0.8744
28.2159 -15.3819 0.5429 0.8794
70.5008 -36.6114 1.3419 0.7277
80.2577 -39.6474 1.5121 0.6990
-6.5714 17.0821 -0.1030 0.9294
-7.7889 17.0892 -0.1057 0.9276
-8.4463 16.7135 -0.1054 0.9278
-8.8903 16.7457 -0.1067 0.9270
-13.8588 22.6821 -0.1497 0.8991
-19.5069 22.7150 -0.1686 0.8871
-20.7695 23.2225 -0.1754 0.8828
-21.6314 23.2275 -0.1787 0.8808
-22.5266 23.2327 -0.1822 0.8786
-24.3221 23.1427 -0.1890 0.8743
-26.5005 23.2559 -0.1985 0.8685
-27.6100 23.2624 -0.2033 0.8655
-28.7745 23.2692 -0.2083 0.8624
-16.2681 12.6224 -0.1159 0.9209
-16.2711 12.1079 -0.1142 0.9221
-16.2740 11.6084 -0.1125 0.9232
-16.2768 11.1228 -0.1110 0.9242
-34.7163 19.8274 -0.2251 0.8522
-34.8222 18.0689 -0.2209 0.8548
-34.8324 16.3292 -0.2166 0.8574
-34.8023 14.6363 -0.2126 0.8598
-34.8006 13.8178 -0.2108 0.8609
-35.0897 11.5333 -0.2080 0.8626
-37.7700 11.5769 -0.2224 0.8538
-40.5633 11.5449 -0.2374 0.8448
-52.6921 13.8564 -0.3067 0.8042
-58.6956 11.6990 -0.3370 0.7871
-74.7528 11.7926 -0.4261 0.7388
-86.1721 11.8211 -0.4897 0.7062
-77.0845 -16.1071 -0.4434 0.7298
-71.4796 -17.9674 -0.4149 0.7447
-68.9356 -20.3114 -0.4046 0.7502
-68.6148 -21.7276 -0.4052 0.7498
-68.2861 -23.1464 -0.4059 0.7495
-67.6187 -25.9999 -0.4079 0.7484
-67.5444 -27.5449 -0.4107 0.7469
-67.6481 -30.8194 -0.4185 0.7428
-67.8449 -32.5743 -0.4237 0.7400
-67.5410 -37.6055 -0.4352 0.7340
-67.6998 -39.5002 -0.4413 0.7309
-34.7346 -21.2152 -0.2292 0.8498
-31.8086 -21.2322 -0.2153 0.8581
-29.2118 -21.2474 -0.2034 0.8655
-28.0176 -21.2543 -0.1980 0.8688
-24.7801 -21.2732 -0.1839 0.8775
-17.1298 -15.3154 -0.1294 0.9122
-16.4551 -15.3193 -0.1266 0.9140
-16.4345 -15.9298 -0.1289 0.9125
-16.4383 -16.5884 -0.1315 0.9108
-19.4753 -21.3042 -0.1625 0.8910
-18.7059 -21.3087 -0.1596 0.8928
-17.9629 -21.3130 -0.1569 0.8945
-16.5488 -21.3212 -0.1520 0.8977
-8.9752 -12.0572 -0.0846 0.9416
-15.2193 -21.3290 -0.1475 0.9005
-13.9634 -21.3363 -0.1436 0.9030
-12.7711 -21.3433 -0.1400 0.9053
-12.6468 -22.1352 -0.1435 0.9031
-9.5539 -21.4860 -0.1324 0.9102
-9.0834 -21.5887 -0.1319 0.9106
-7.7105 -21.9467 -0.1310 0.9111
-7.2183 -21.9496 -0.1301 0.9117
-6.2527 -21.9552 -0.1285 0.9127
-3.8440 -21.5193 -0.1231 0.9163
-3.4698 -21.9715 -0.1252 0.9149
-3.0181 -21.9741 -0.1249 0.9151
-2.1214 -21.9793 -0.1243 0.9155
-1.6757 -21.9819 -0.1241 0.9156
1.4162 -21.8000 -0.1230 0.9163
2.1703 -25.4693 -0.1439 0.9028
2.6882 -25.4724 -0.1442 0.9026
3.7313 -25.4785 -0.1450 0.9021
4.2575 -25.4817 -0.1455 0.9018
4.9588 -21.5706 -0.1246 0.9153
5.4190 -21.5733 -0.1252 0.9149
5.8840 -21.5760 -0.1259 0.9144
6.4279 -21.8292 -0.1281 0.9130
8.0718 -25.5049 -0.1506 0.8985
8.6417 -25.5084 -0.1516 0.8979
9.2196 -25.5120 -0.1527 0.8972
9.7020 -25.2446 -0.1523 0.8975
10.3675 -21.6022 -0.1349 0.9086
10.9095 -21.6053 -0.1363 0.9077
14.7023 -25.2078 -0.1643 0.8898
13.9477 -21.8430 -0.1459 0.9015
14.4900 -21.7156 -0.1470 0.9008
15.8028 -21.7339 -0.1513 0.8981
17.4664 -22.0936 -0.1586 0.8935
18.2047 -22.0979 -0.1612 0.8918
18.9681 -22.1023 -0.1640 0.8900
19.3545 -21.6546 -0.1635 0.8903
23.2397 -22.1272 -0.1807 0.8795
24.1482 -22.0825 -0.1842 0.8773
46.7847 -39.4440 -0.3445 0.7829
50.0035 -38.8239 -0.3564 0.7763
52.9867 -39.4561 -0.3719 0.7678
51.1541 -36.5138 -0.3538 0.7777
25.6966 -16.8229 -0.1729 0.8844
26.9575 -15.4079 -0.1748 0.8832
73.8910 -36.5022 -0.4640 0.7192
48.3222 -11.6890 -0.2799 0.8197
49.8467 8.3201 -0.2845 0.8170
-4.9302 16.7226 -0.4909 0.9326
-5.2673 16.6246 -0.4910 0.9326
-5.7918 17.0776 -0.5078 0.9304
-6.1787 17.0799 -0.5114 0.9299
-6.5714 17.0822 -0.5154 0.9294
-6.9704 17.0845 -0.5196 0.9288
-7.7890 17.0893 -0.5288 0.9276
-8.4465 16.7139 -0.5273 0.9278
-13.8588 22.6821 -0.7485 0.8991
-15.4859 23.1917 -0.7852 0.8944
-16.1732 23.1957 -0.7962 0.8930
-17.6087 23.2041 -0.8202 0.8900
-20.7696 23.2225 -0.8773 0.8828
-21.5076 23.0946 -0.8886 0.8814
-22.3977 23.0998 -0.9060 0.8792
-23.3237 23.1052 -0.9244 0.8769
-24.2455 23.0698 -0.9424 0.8747
-23.3265 21.3171 -0.8898 0.8812
-24.8432 20.9313 -0.9147 0.8781
-26.9841 20.9369 -0.9617 0.8723
-16.8936 12.5711 -0.5929 0.9192
-16.8966 12.0525 -0.5844 0.9203
-16.8996 11.5483 -0.5763 0.9214
-16.9024 11.0577 -0.5687 0.9224
-16.8563 10.5489 -0.5601 0.9235
-17.5941 10.5239 -0.5773 0.9212
-34.8174 18.9658 -1.1164 0.8533
-34.8328 16.3294 -1.0832 0.8573
-36.0614 16.0278 -1.1112 0.8539
-34.7896 14.6310 -1.0627 0.8598
-34.6762 12.1763 -1.0349 0.8632
-37.7705 11.5771 -1.1124 0.8538
-63.9336 11.4096 -1.8287 0.7711
-74.7546 11.7929 -2.1310 0.7387
-86.9225 4.8539 -2.4514 0.7058
-87.4846 3.1199 -2.4649 0.7045
-87.5384 1.3579 -2.4652 0.7045
-87.4043 -5.6924 -2.4663 0.7043
-87.2837 -7.4521 -2.4667 0.7043
-87.1276 -9.2092 -2.4670 0.7043
-86.9368 -10.9632 -2.4673 0.7042
-86.7111 -12.7134 -2.4677 0.7042
-76.5468 -15.9948 -2.2019 0.7313
-70.9815 -17.8422 -2.0609 0.7461
-68.5886 -20.2091 -2.0134 0.7512
-68.1659 -21.5855 -2.0133 0.7512
-67.0747 -27.3533 -2.0397 0.7484
-67.0883 -28.9476 -2.0574 0.7465
-67.1162 -32.2244 -2.0964 0.7424
-67.1756 -39.1944 -2.1899 0.7326
-33.2259 -21.2238 -1.1102 0.8540
-31.8084 -21.2321 -1.0769 0.8581
-30.4729 -21.2399 -1.0459 0.8619
-26.8842 -21.2608 -0.9651 0.8718
-25.8067 -21.2671 -0.9416 0.8748
-17.1254 -15.3114 -0.6468 0.9122
-17.3736 -16.1745 -0.6684 0.9094
-17.3776 -16.8439 -0.6815 0.9077
-17.3816 -17.5403 -0.6953 0.9059
-20.2732 -21.2994 -0.8280 0.8890
-19.4753 -21.3041 -0.8128 0.8909
-18.7058 -21.3086 -0.7984 0.8927
-17.9629 -21.3129 -0.7848 0.8945
-17.2444 -21.3171 -0.7721 0.8961
-14.5828 -21.3326 -0.7276 0.9018
-13.9633 -21.3362 -0.7180 0.9030
-13.3598 -21.3397 -0.7089 0.9042
-12.7711 -21.3432 -0.7004 0.9053
-12.6471 -22.1356 -0.7179 0.9030
-12.6534 -23.2201 -0.7446 0.8996
-12.6602 -24.3888 -0.7738 0.8959
-12.6676 -25.6535 -0.8056 0.8918
-12.6756 -27.0273 -0.8406 0.8874
-9.5538 -21.4859 -0.6621 0.9102
-9.0834 -21.5887 -0.6595 0.9105
-8.6168 -21.6914 -0.6572 0.9108
-8.2094 -21.9438 -0.6597 0.9105
-7.7104 -21.9467 -0.6550 0.9111
-6.7326 -21.9524 -0.6466 0.9122
-5.2239 -21.6112 -0.6260 0.9149
-4.7441 -21.5140 -0.6203 0.9156
-4.3122 -21.6165 -0.6207 0.9156
-3.4698 -21.9714 -0.6263 0.9148
-2.5687 -21.9767 -0.6230 0.9153
-2.1214 -21.9793 -0.6218 0.9154
-1.2312 -21.9845 -0.6200 0.9157
-0.7788 -21.7371 -0.6125 0.9166
0.0961 -21.5422 -0.6066 0.9174
0.5301 -21.5447 -0.6068 0.9174
1.4162 -21.7999 -0.6151 0.9163
2.6972 -25.5574 -0.7236 0.9023
3.2191 -25.5605 -0.7254 0.9020
4.0981 -21.8155 -0.6250 0.9150
4.5217 -21.6574 -0.6230 0.9153
5.4190 -21.5732 -0.6263 0.9148
8.6701 -25.5922 -0.7609 0.8975
8.1812 -22.6386 -0.6778 0.9082
8.8990 -21.8321 -0.6639 0.9100
10.3674 -21.6021 -0.6747 0.9086
11.5959 -21.8592 -0.6968 0.9057
14.2619 -25.6248 -0.8258 0.8893
13.2209 -22.6679 -0.7389 0.9003
13.9477 -21.8430 -0.7297 0.9015
14.4900 -21.7155 -0.7351 0.9008
15.0707 -21.6295 -0.7423 0.8999
17.4663 -22.0935 -0.7930 0.8934
21.0299 -21.7032 -0.8510 0.8861
22.3164 -22.1218 -0.8848 0.8818
23.2396 -22.1271 -0.9036 0.8795
24.1481 -22.0824 -0.9214 0.8773
43.7781 -36.9092 -1.6123 0.7952
47.4238 -36.8210 -1.6906 0.7864
50.0121 -37.2411 -1.7558 0.7792
51.1536 -36.5134 -1.7697 0.7776
26.9416 -17.6380 -0.9067 0.8791
26.6263 -15.9382 -0.8738 0.8832
26.9444 -15.4003 -0.8739 0.8832
70.2265 -36.4690 -2.2282 0.7286
76.7378 -36.0048 -2.3868 0.7123
77.4492 -34.4535 -2.3868 0.7123
78.1285 -32.8875 -2.3869 0.7123
78.7756 -31.3080 -2.3869 0.7123
79.9726 -28.1111 -2.3869 0.7123
80.5217 -26.4949 -2.3869 0.7123
86.2942 -26.4809 -2.5417 0.6968
86.8084 -24.7377 -2.5416 0.6968
88.1344 -19.4497 -2.5414 0.6969
88.8369 -15.8838 -2.5411 0.6969
89.3928 -12.2926 -2.5408 0.6969
89.8017 -8.6823 -2.5404 0.6970
89.9041 -6.8682 -2.5389 0.6971
86.5102 -3.1134 -2.4375 0.7072
84.6819 -1.3413 -2.3848 0.7126
80.9582 1.9786 -2.2803 0.7232
84.5789 3.7723 -2.3839 0.7126
84.4750 5.4738 -2.3836 0.7127
84.4786 8.9013 -2.3919 0.7118
49.8462 8.3200 -1.4230 0.8169
46.5423 8.7353 -1.3334 0.8274
83.9824 17.5195 -2.4157 0.7094
83.7690 19.2423 -2.4202 0.7090
83.5398 20.9698 -2.4253 0.7085
-4.9302 16.7227 -0.8842 0.9326
-6.1787 17.0800 -0.9211 0.9298
-7.3761 17.0870 -0.9438 0.9282
-8.4466 16.7142 -0.9497 0.9277
-8.8903 16.7458 -0.9615 0.9269
-9.2729 16.6480 -0.9664 0.9265
-13.2371 22.6786 -1.3317 0.9002
-15.8232 22.6937 -1.4030 0.8951
-17.2277 22.7019 -1.4453 0.8921
-18.7219 22.7107 -1.4927 0.8888
-19.5071 22.7153 -1.5185 0.8870
-20.3201 22.7200 -1.5458 0.8851
-22.0392 22.7301 -1.6056 0.8809
-23.8999 22.7409 -1.6731 0.8762
-23.3268 21.3174 -1.6026 0.8811
-25.8435 20.8990 -1.6856 0.8754
-26.9434 20.9054 -1.7295 0.8723
-17.8305 12.7186 -1.1107 0.9160
-17.8336 12.1866 -1.0954 0.9171
-34.8178 18.9660 -2.0107 0.8532
-34.8281 17.1909 -1.9697 0.8559
-34.8331 16.3296 -1.9510 0.8572
-35.0904 11.5335 -1.8732 0.8625
-37.7709 11.5772 -2.0035 0.8537
-44.4164 11.6801 -2.3291 0.8320
-44.8525 9.8828 -2.3292 0.8320
-45.0435 8.9779 -2.3293 0.8320
-48.7791 3.7104 -2.4809 0.8221
-48.9219 0.7589 -2.4813 0.8220
-48.9301 -0.2264 -2.4815 0.8220
-48.9188 -1.2116 -2.4816 0.8220
-48.8369 -3.1806 -2.4820 0.8220
-48.6766 -5.1450 -2.4823 0.8220
-48.5669 -6.1246 -2.4825 0.8220
-48.2890 -8.0763 -2.4830 0.8219
-47.7263 -10.9799 -2.4836 0.8219
-46.9906 -13.8454 -2.4844 0.8218
-46.7073 -14.7903 -2.4846 0.8218
-24.1902 -9.3013 -1.3143 0.9014
-24.0627 -10.3827 -1.3291 0.9004
-17.6469 -9.8254 -1.0243 0.9223
-30.2719 -19.3369 -1.8217 0.8660
-31.8082 -21.2320 -1.9395 0.8580
-28.0173 -21.2541 -1.7835 0.8686
-17.9946 -15.4480 -1.2027 0.9094
-18.0023 -16.7598 -1.2474 0.9062
-17.9936 -17.4410 -1.2709 0.9045
-18.9141 -19.8716 -1.3913 0.8959
-19.4752 -21.3040 -1.4638 0.8908
-18.7058 -21.3085 -1.4380 0.8926
-17.2443 -21.3170 -1.3905 0.8960
-8.9713 -12.0519 -0.7620 0.9416
-15.2192 -21.3288 -1.3288 0.9004
-13.9633 -21.3361 -1.2932 0.9029
-12.6473 -22.1361 -1.2929 0.9029
-12.6536 -23.2205 -1.3411 0.8995
-12.6605 -24.3894 -1.3936 0.8958
-12.6759 -27.0279 -1.5140 0.8873
-8.6167 -21.6913 -1.1837 0.9108
-7.7104 -21.9466 -1.1797 0.9110
-5.6598 -21.5085 -1.1279 0.9148
-5.2239 -21.6111 -1.1276 0.9148
-4.3122 -21.6164 -1.1179 0.9155
-3.8440 -21.5191 -1.1086 0.9162
-3.4698 -21.9713 -1.1281 0.9148
-2.5687 -21.9766 -1.1221 0.9152
-1.6757 -21.9818 -1.1180 0.9155
-0.7787 -21.7370 -1.1031 0.9166
-0.3392 -21.6396 -1.0976 0.9170
0.0961 -21.5421 -1.0925 0.9173
0.5301 -21.5446 -1.0930 0.9173
0.9646 -21.5472 -1.0938 0.9172
2.1776 -25.5543 -1.3007 0.9024
2.6971 -25.5573 -1.3033 0.9022
3.2971 -22.5132 -1.1539 0.9129
4.0981 -21.8154 -1.1257 0.9149
8.0984 -25.5888 -1.3612 0.8981
8.1508 -22.5544 -1.2162 0.9084
8.3225 -21.6551 -1.1765 0.9113
9.8359 -21.5989 -1.2036 0.9093
10.9095 -21.6052 -1.2275 0.9076
14.2619 -25.6247 -1.4873 0.8892
13.1509 -22.5479 -1.3238 0.9007
13.1701 -21.5707 -1.2817 0.9037
15.0706 -21.6294 -1.3369 0.8998
22.9753 -21.8755 -1.6088 0.8807
35.7113 -30.1080 -2.3688 0.8294
36.3123 -29.3846 -2.3690 0.8294
37.4700 -27.9017 -2.3692 0.8294
38.5666 -26.3730 -2.3695 0.8293
41.4722 -21.5368 -2.3699 0.8293
42.3072 -19.8502 -2.3700 0.8293
42.6988 -18.9946 -2.3700 0.8293
43.0731 -18.1313 -2.3701 0.8293
43.7684 -16.3824 -2.3701 0.8293
48.5833 -10.7215 -2.5231 0.8193
49.1467 -7.7696 -2.5234 0.8193
49.4158 -5.7841 -2.5232 0.8193
49.5202 -4.7877 -2.5231 0.8193
49.6042 -3.7895 -2.5230 0.8193
49.7113 -1.7891 -2.5227 0.8194
49.7372 0.2138 -2.5224 0.8194
49.6816 2.2158 -2.5221 0.8194
49.3274 6.2041 -2.5213 0.8195
49.1884 7.1955 -2.5211 0.8195
45.8745 8.6099 -2.3671 0.8295
45.2580 11.3605 -2.3664 0.8295
-5.7748 17.0277 -1.3184 0.9304
-6.1606 17.0299 -1.3279 0.9299
-6.8810 16.8653 -1.3356 0.9295
-7.6748 16.8388 -1.3568 0.9285
-9.2729 16.6481 -1.3972 0.9264
-13.6750 22.3812 -1.9231 0.9001
-15.1508 22.6899 -2.0005 0.8963
-15.8233 22.6938 -2.0285 0.8950
-17.2278 22.7020 -2.0896 0.8920
-18.7220 22.7108 -2.1581 0.8887
-20.3202 22.7201 -2.2350 0.8849
-21.1635 22.7250 -2.2769 0.8829
-23.3930 22.2586 -2.3676 0.8785
-24.2303 21.2637 -2.3637 0.8787
-25.0246 20.2368 -2.3597 0.8789
-25.4051 19.7119 -2.3577 0.8790
-25.7745 19.1797 -2.3557 0.8791
-18.4563 12.6122 -1.6390 0.9142
-18.4625 11.5543 -1.5969 0.9164
-18.4654 11.0450 -1.5776 0.9173
-19.3806 10.5571 -1.6182 0.9153
-28.8384 13.5193 -2.3353 0.8801
-29.1045 12.9357 -2.3353 0.8801
-29.3589 12.3470 -2.3353 0.8801
-29.8320 11.1549 -2.3353 0.8801
-30.0506 10.5520 -2.3353 0.8801
-30.2570 9.9449 -2.3353 0.8801
-30.4514 9.3337 -2.3353 0.8801
-33.6054 4.6100 -2.4871 0.8728
-33.6924 3.9325 -2.4872 0.8728
-33.7658 3.2534 -2.4872 0.8728
-33.8255 2.5730 -2.4873 0.8728
-33.9041 1.2091 -2.4875 0.8728
-33.9229 0.5262 -2.4876 0.8728
-33.8613 -2.2053 -2.4880 0.8728
-33.8117 -2.8867 -2.4882 0.8728
-33.7486 -3.5672 -2.4883 0.8727
-33.6717 -4.2462 -2.4884 0.8727
-32.9268 -8.2766 -2.4894 0.8727
-32.3740 -10.2516 -2.4899 0.8727
-25.0381 -9.0530 -1.9522 0.8987
-18.9952 -9.1201 -1.5450 0.9190
-17.2748 -10.5510 -1.4842 0.9220
-26.9048 -17.1861 -2.3408 0.8798
-26.5559 -17.7260 -2.3411 0.8798
-26.1962 -18.2590 -2.3413 0.8798
-25.8258 -18.7846 -2.3415 0.8798
-25.0537 -19.8132 -2.3420 0.8798
-21.8563 -21.1851 -2.2318 0.8851
-20.9984 -21.1901 -2.1874 0.8872
-20.1738 -21.1949 -2.1455 0.8893
-18.6141 -21.2040 -2.0688 0.8930
-16.5606 -19.6491 -1.8842 0.9021
-17.3286 -21.4213 -2.0202 0.8954
-16.6295 -21.4253 -1.9886 0.8969
-8.9698 -12.0498 -1.1014 0.9415
-14.0703 -19.7187 -1.7762 0.9074
-13.3597 -21.3396 -1.8460 0.9040
-12.7710 -21.3430 -1.8237 0.9051
-12.6475 -22.1365 -1.8693 0.9028
-12.6539 -23.2210 -1.9390 0.8994
-12.7668 -24.5942 -2.0318 0.8948
-12.5700 -26.8021 -2.1706 0.8880
-9.5538 -21.4858 -1.7241 0.9100
-9.0414 -21.4887 -1.7094 0.9107
-8.5374 -21.4917 -1.6956 0.9114
-6.1247 -21.5058 -1.6395 0.9142
-5.6598 -21.5085 -1.6307 0.9147
-4.7440 -21.5138 -1.6153 0.9154
-3.4303 -21.7215 -1.6124 0.9156
-2.9837 -21.7241 -1.6078 0.9158
-2.5395 -21.7267 -1.6039 0.9160
-2.0973 -21.7292 -1.6006 0.9162
-1.6566 -21.7318 -1.5980 0.9163
-0.7787 -21.7369 -1.5948 0.9165
0.0961 -21.5420 -1.5795 0.9172
0.5301 -21.5446 -1.5802 0.9172
0.9645 -21.5471 -1.5815 0.9171
2.1776 -25.5542 -1.8805 0.9023
2.6971 -25.5572 -1.8843 0.9021
3.2191 -25.5603 -1.8889 0.9018
3.1564 -21.5527 -1.5971 0.9163
3.5947 -21.5148 -1.5994 0.9162
4.9588 -21.5704 -1.6228 0.9151
5.8839 -21.5758 -1.6398 0.9142
6.4131 -21.7789 -1.6647 0.9130
8.0983 -25.5887 -1.9679 0.8979
8.6700 -25.5921 -1.9812 0.8973
8.2790 -21.5421 -1.6922 0.9116
9.4006 -21.7963 -1.7405 0.9092
9.8358 -21.5988 -1.7401 0.9092
13.1700 -21.5706 -1.8531 0.9036
15.0006 -21.5289 -1.9239 0.9001
17.1087 -21.6412 -2.0228 0.8953
17.8319 -21.6454 -2.0563 0.8936
18.5366 -21.5995 -2.0870 0.8921
19.3093 -21.6040 -2.1246 0.8903
20.1575 -21.6590 -2.1694 0.8881
21.8088 -21.6186 -2.2516 0.8841
22.7110 -21.6238 -2.2993 0.8818
23.7076 -21.6796 -2.3555 0.8791
24.6372 -20.7715 -2.3628 0.8788
25.0514 -20.2720 -2.3629 0.8788
25.8492 -19.2484 -2.3631 0.8787
26.2324 -18.7247 -2.3632 0.8787
26.6049 -18.1933 -2.3632 0.8787
26.9667 -17.6544 -2.3633 0.8787
27.3173 -17.1083 -2.3634 0.8787
19.4970 -11.6707 -1.6661 0.9129
28.6076 -14.8561 -2.3635 0.8787
28.9013 -14.2773 -2.3636 0.8787
29.1833 -13.6926 -2.3636 0.8787
29.7113 -12.5067 -2.3636 0.8787
30.1910 -11.3004 -2.3637 0.8787
31.7153 -11.1482 -2.4649 0.8739
32.8170 -10.0705 -2.5170 0.8714
33.3640 -8.0706 -2.5169 0.8714
34.0028 -4.6758 -2.5166 0.8714
34.1615 -3.3027 -2.5165 0.8714
34.2200 -2.6143 -2.5164 0.8714
34.2772 1.5287 -2.5158 0.8714
34.1172 3.5948 -2.5154 0.8715
33.9409 4.9650 -2.5151 0.8715
33.7094 6.3267 -2.5148 0.8715
31.2334 7.8401 -2.3611 0.8788
31.0670 8.4668 -2.3610 0.8788
-5.2674 16.6248 -1.6743 0.9323
-6.0156 16.6292 -1.6977 0.9314
-6.3980 16.6314 -1.7108 0.9309
-7.1814 16.6359 -1.7396 0.9298
-7.9930 16.6407 -1.7723 0.9285
-9.2729 16.6482 -1.8295 0.9263
-12.8582 21.0445 -2.3677 0.9057
-13.2729 20.7713 -2.3665 0.9057
-14.0843 20.1998 -2.3641 0.9058
-14.4807 19.9018 -2.3629 0.9058
-14.8706 19.5958 -2.3617 0.9059
-15.2539 19.2820 -2.3604 0.9059
-15.6304 18.9605 -2.3591 0.9060
-16.0000 18.6315 -2.3578 0.9060
-16.7179 17.9515 -2.3550 0.9061
-17.0659 17.6008 -2.3537 0.9062
-17.4064 17.2433 -2.3522 0.9062
-18.9917 15.3581 -2.3449 0.9065
-19.2845 14.9629 -2.3433 0.9066
-19.8449 14.1555 -2.3402 0.9067
-19.0728 11.9363 -2.1601 0.9136
-19.0915 10.9037 -2.1107 0.9154
-21.6223 11.2196 -2.3387 0.9068
-21.8436 10.7819 -2.3386 0.9068
-22.0560 10.3398 -2.3386 0.9068
-22.2596 9.8935 -2.3386 0.9068
-22.4542 9.4433 -2.3386 0.9068
-22.6397 8.9892 -2.3386 0.9068
-22.8161 8.5315 -2.3386 0.9068
-23.2673 7.6475 -2.3513 0.9063
-24.7320 7.5806 -2.4834 0.9013
-24.9487 7.1008 -2.4903 0.9010
-25.0868 6.5970 -2.4903 0.9010
-25.4402 5.0706 -2.4904 0.9010
-25.8235 2.4882 -2.4907 0.9010
-25.8690 1.9678 -2.4907 0.9010
-25.9428 0.4024 -2.4909 0.9010
-25.9464 -0.1200 -2.4910 0.9010
-25.9223 -1.1646 -2.4912 0.9010
-25.8564 -2.2075 -2.4914 0.9010
-25.7487 -3.2471 -2.4916 0.9010
-25.6792 -3.7650 -2.4917 0.9010
-25.5091 -4.7963 -2.4919 0.9010
-25.2978 -5.8200 -2.4922 0.9009
-25.0456 -6.8346 -2.4924 0.9009
-24.9043 -7.3378 -2.4926 0.9009
-24.5914 -8.3355 -2.4928 0.9009
-24.2388 -9.3200 -2.4931 0.9009
-24.0477 -9.8067 -2.4933 0.9009
-19.9597 -9.0933 -2.1057 0.9156
-17.1599 -10.0122 -1.9074 0.9233
-17.2495 -11.0185 -1.9651 0.9210
-20.0232 -13.9563 -2.3432 0.9066
-19.7396 -14.3577 -2.3434 0.9066
-19.4480 -14.7534 -2.3436 0.9066
-19.1056 -15.1092 -2.3385 0.9068
-18.5263 -15.9044 -2.3441 0.9065
-18.2038 -16.2756 -2.3443 0.9065
-17.8738 -16.6402 -2.3445 0.9065
-17.5367 -16.9981 -2.3447 0.9065
-9.2846 -9.3694 -1.2664 0.9484
-8.5755 -9.3808 -1.2202 0.9502
-8.2381 -9.3844 -1.1988 0.9511
-7.6070 -9.4036 -1.1612 0.9526
-7.2005 -9.6730 -1.1577 0.9527
-7.0962 -9.9449 -1.1729 0.9521
-7.0387 -10.2966 -1.1974 0.9511
-13.3867 -20.4552 -2.3470 0.9064
-12.9733 -20.7224 -2.3472 0.9064
-12.5546 -20.9813 -2.3474 0.9064
-11.7018 -21.4738 -2.3478 0.9064
-10.3869 -22.1472 -2.3485 0.9064
-8.0227 -21.4446 -2.1981 0.9121
-7.5350 -21.4475 -2.1824 0.9127
-7.0541 -21.4503 -2.1678 0.9133
-4.7440 -21.5137 -2.1150 0.9153
-1.6414 -21.5318 -2.0732 0.9169
-0.3376 -21.5394 -2.0681 0.9171
0.0961 -21.5420 -2.0682 0.9171
2.5735 -24.3862 -2.3542 0.9062
4.0605 -21.6151 -2.1115 0.9154
4.5134 -21.6177 -2.1202 0.9151
4.9357 -21.4702 -2.1150 0.9153
5.8566 -21.4756 -2.1371 0.9144
8.1504 -22.5532 -2.3023 0.9081
9.3357 -21.6458 -2.2631 0.9096
10.3192 -21.5016 -2.2897 0.9086
11.4893 -21.6584 -2.3538 0.9062
12.7985 -20.9621 -2.3579 0.9060
14.4467 -19.8688 -2.3584 0.9060
14.8446 -19.5748 -2.3586 0.9060
15.6222 -18.9631 -2.3588 0.9060
16.0016 -18.6456 -2.3589 0.9060
16.7408 -17.9878 -2.3591 0.9060
17.1002 -17.6478 -2.3592 0.9060
17.4529 -17.3006 -2.3593 0.9060
17.7983 -16.9463 -2.3594 0.9060
18.1366 -16.5851 -2.3595 0.9060
18.4675 -16.2171 -2.3595 0.9060
18.7909 -15.8425 -2.3596 0.9060
19.4146 -15.0740 -2.3598 0.9060
19.7148 -14.6804 -2.3598 0.9059
20.0068 -14.2809 -2.3599 0.9059
20.2908 -13.8754 -2.3599 0.9059
20.5665 -13.4644 -2.3600 0.9059
20.8339 -13.0478 -2.3600 0.9059
21.3431 -12.1988 -2.3601 0.9059
21.8175 -11.3299 -2.3602 0.9059
22.5791 -11.1541 -2.4178 0.9038
24.1289 -10.1568 -2.5134 0.9001
24.3286 -9.6690 -2.5134 0.9001
25.4449 -6.1550 -2.5133 0.9001
25.5634 -5.6414 -2.5133 0.9001
25.6714 -5.1255 -2.5132 0.9002
25.7690 -4.6074 -2.5132 0.9002
25.8561 -4.0876 -2.5131 0.9002
25.9327 -3.5660 -2.5131 0.9002
26.0541 -2.5190 -2.5130 0.9002
26.1331 -1.4679 -2.5129 0.9002
26.1694 -0.4145 -2.5127 0.9002
26.1716 0.1125 -2.5126 0.9002
26.1632 0.6394 -2.5125 0.9002
26.1441 1.1660 -2.5125 0.9002
26.0230 2.7420 -2.5122 0.9002
25.9614 3.2653 -2.5121 0.9002
25.8066 4.3075 -2.5118 0.9002
25.7134 4.8260 -2.5117 0.9002
-4.9007 16.6227 -2.0586 0.9326
-5.9975 16.5791 -2.0943 0.9314
-7.1598 16.5859 -2.1459 0.9298
-7.9690 16.5906 -2.1863 0.9285
-8.4107 16.6432 -2.2151 0.9276
-9.2730 16.6482 -2.2636 0.9261
-9.9934 17.1214 -2.3549 0.9232
-10.3323 16.9104 -2.3540 0.9233
-11.3208 16.2363 -2.3512 0.9234
-12.5688 15.2466 -2.3471 0.9235
-12.8674 14.9837 -2.3461 0.9235
-13.1604 14.7148 -2.3450 0.9236
-13.4478 14.4400 -2.3439 0.9236
-13.7292 14.1596 -2.3428 0.9236
-14.0048 13.8736 -2.3417 0.9237
-14.2795 13.5870 -2.3414 0.9237
-14.5497 13.2964 -2.3413 0.9237
-14.8141 13.0004 -2.3412 0.9237
-15.0725 12.6991 -2.3412 0.9237
-15.3247 12.3927 -2.3411 0.9237
-15.5708 12.0814 -2.3410 0.9237
-15.8105 11.7652 -2.3410 0.9237
-16.0439 11.4442 -2.3409 0.9237
-16.4910 10.7886 -2.3409 0.9237
-16.7047 10.4542 -2.3408 0.9237
-16.9116 10.1156 -2.3408 0.9237
-17.6698 8.7217 -2.3407 0.9237
-18.0064 8.0031 -2.3407 0.9237
-18.1979 7.6533 -2.3450 0.9236
-19.6317 7.3408 -2.4897 0.9190
-19.9339 6.5519 -2.4925 0.9190
-20.3969 4.9269 -2.4925 0.9189
-20.5791 4.1018 -2.4926 0.9189
-20.7281 3.2700 -2.4927 0.9189
-20.8437 2.4329 -2.4927 0.9189
-20.9255 1.5917 -2.4928 0.9189
-20.9735 0.7480 -2.4929 0.9189
-20.9848 0.3255 -2.4930 0.9189
-20.9877 -0.0971 -2.4931 0.9189
-20.9679 -0.9420 -2.4932 0.9189
-20.9453 -1.3641 -2.4933 0.9189
-20.9143 -1.7856 -2.4934 0.9189
-20.8747 -2.2064 -2.4934 0.9189
-20.8268 -2.6264 -2.4935 0.9189
-20.7057 -3.4630 -2.4937 0.9189
-20.2568 -5.5278 -2.4942 0.9189
-20.0196 -6.3394 -2.4944 0.9189
-19.1153 -8.7086 -2.4952 0.9189
-18.7512 -9.4722 -2.4954 0.9189
-18.1482 -10.5888 -2.4959 0.9188
-16.9105 -11.2878 -2.4151 0.9214
-15.2346 -12.5547 -2.3450 0.9236
-9.4797 -9.1885 -1.5682 0.9482
-8.7520 -9.1950 -1.5079 0.9502
-8.4076 -9.1971 -1.4802 0.9510
-8.0993 -9.2262 -1.4583 0.9518
-7.5089 -9.2823 -1.4182 0.9530
-7.2358 -9.3225 -1.4018 0.9536
-6.4911 -9.4956 -1.3663 0.9547
-6.3061 -10.0728 -1.4116 0.9533
-9.1081 -17.5459 -2.3483 0.9235
-8.0340 -18.0678 -2.3488 0.9234
-7.6691 -18.2273 -2.3490 0.9234
-6.9301 -18.5241 -2.3493 0.9234
-6.1796 -18.7909 -2.3497 0.9234
-5.8004 -18.9129 -2.3499 0.9234
-5.4188 -19.0273 -2.3500 0.9234
-5.0350 -19.1340 -2.3502 0.9234
-4.6490 -19.2329 -2.3504 0.9234
-3.4802 -19.4829 -2.3509 0.9234
-3.0874 -19.5504 -2.3511 0.9234
0.4871 -19.7995 -2.3526 0.9233
2.0792 -19.7016 -2.3533 0.9233
2.8711 -19.6045 -2.3536 0.9233
3.6585 -19.4756 -2.3539 0.9233
4.0502 -19.3992 -2.3540 0.9233
4.4403 -19.3149 -2.3542 0.9233
4.8286 -19.2228 -2.3543 0.9233
5.2150 -19.1228 -2.3545 0.9233
5.9814 -18.8997 -2.3548 0.9233
6.3611 -18.7765 -2.3549 0.9232
6.7383 -18.6457 -2.3550 0.9232
7.1127 -18.5073 -2.3552 0.9232
7.4843 -18.3614 -2.3553 0.9232
8.2184 -18.0471 -2.3556 0.9232
8.9393 -17.7034 -2.3558 0.9232
9.6458 -17.3309 -2.3560 0.9232
9.9933 -17.1340 -2.3562 0.9232
10.6760 -16.7193 -2.3564 0.9232
11.0110 -16.5017 -2.3565 0.9232
11.3415 -16.2774 -2.3566 0.9232
11.6675 -16.0464 -2.3567 0.9232
12.6164 -15.3146 -2.3570 0.9232
13.5195 -14.5265 -2.3572 0.9232
14.3732 -13.6851 -2.3574 0.9232
14.6462 -13.3933 -2.3575 0.9232
15.1744 -12.7935 -2.3576 0.9232
15.4293 -12.4857 -2.3577 0.9232
15.6780 -12.1728 -2.3578 0.9232
15.9202 -11.8549 -2.3578 0.9232
16.1560 -11.5321 -2.3579 0.9232
16.3853 -11.2047 -2.3579 0.9232
18.1181 -10.8453 -2.5083 0.9185
18.9531 -9.3628 -2.5111 0.9184
19.1379 -8.9794 -2.5111 0.9184
19.3149 -8.5922 -2.5111 0.9184
19.4841 -8.2017 -2.5111 0.9184
19.6454 -7.8077 -2.5111 0.9184
19.7986 -7.4106 -2.5111 0.9184
19.9438 -7.0104 -2.5111 0.9184
20.2098 -6.2017 -2.5111 0.9184
20.3304 -5.7935 -2.5111 0.9184
20.4428 -5.3829 -2.5111 0.9184
20.5469 -4.9702 -2.5111 0.9184
20.7299 -4.1389 -2.5110 0.9184
20.8088 -3.7205 -2.5110 0.9184
20.9411 -2.8796 -2.5109 0.9184
21.0756 -1.6100 -2.5108 0.9184
21.1033 -1.1853 -2.5107 0.9184
21.1224 -0.7602 -2.5107 0.9184
21.1329 -0.3347 -2.5106 0.9184
21.1348 0.0909 -2.5105 0.9184
21.1281 0.5164 -2.5105 0.9184
21.1128 0.9417 -2.5104 0.9184
20.9659 2.6370 -2.5101 0.9184
20.6827 4.3147 -2.5097 0.9184
20.5908 4.7300 -2.5096 0.9184
-4.6958 15.9276 -2.3528 0.9351
-5.0145 15.8265 -2.3523 0.9351
-6.2658 15.3576 -2.3501 0.9352
-6.5721 15.2244 -2.3495 0.9352
-6.8755 15.0850 -2.3489 0.9352
-7.1758 14.9395 -2.3483 0.9352
-7.4731 14.7877 -2.3476 0.9353
-8.0576 14.4663 -2.3462 0.9353
-8.3447 14.2967 -2.3455 0.9353
-8.6282 14.1213 -2.3448 0.9353
-8.9078 13.9402 -2.3440 0.9354
-9.1845 13.7547 -2.3434 0.9354
-9.7302 13.3729 -2.3433 0.9354
-10.2600 12.9694 -2.3431 0.9354
-10.7732 12.5450 -2.3430 0.9354
-11.0233 12.3252 -2.3429 0.9354
-11.2689 12.1004 -2.3428 0.9354
-8.5370 8.4570 -1.7026 0.9526
-8.9026 8.4709 -1.7412 0.9516
-9.2573 8.4599 -1.7769 0.9506
-12.4264 10.9050 -2.3425 0.9354
-12.6432 10.6524 -2.3425 0.9354
-12.8549 10.3955 -2.3424 0.9354
-13.2625 9.8691 -2.3423 0.9354
-13.6486 9.3268 -2.3423 0.9354
-14.5161 7.9072 -2.3421 0.9354
-15.4650 7.6335 -2.4436 0.9327
-16.0847 7.1490 -2.4940 0.9314
-16.2253 6.8237 -2.4940 0.9314
-16.4868 6.1648 -2.4940 0.9314
-16.6076 5.8316 -2.4940 0.9314
-16.8290 5.1583 -2.4940 0.9314
-16.9295 4.8184 -2.4940 0.9314
-17.0232 4.4766 -2.4940 0.9314
-17.1100 4.1330 -2.4940 0.9314
-17.3288 3.0925 -2.4941 0.9314
-17.3878 2.7430 -2.4941 0.9314
-17.4397 2.3924 -2.4942 0.9314
-17.4846 2.0408 -2.4942 0.9314
-17.5224 1.6883 -2.4942 0.9314
-17.5531 1.3352 -2.4943 0.9314
-17.5933 0.6274 -2.4944 0.9313
-17.6002 -0.4359 -2.4945 0.9313
-17.5883 -0.7902 -2.4946 0.9313
-17.5693 -1.1442 -2.4947 0.9313
-17.4222 -2.5544 -2.4949 0.9313
-17.3678 -2.9048 -2.4950 0.9313
-17.3063 -3.2540 -2.4951 0.9313
-17.2378 -3.6019 -2.4952 0.9313
-17.1624 -3.9484 -2.4953 0.9313
-16.9907 -4.6365 -2.4954 0.9313
-15.8827 -7.6257 -2.4963 0.9313
-15.7266 -7.9443 -2.4965 0.9313
-15.5642 -8.2598 -2.4966 0.9313
-15.3955 -8.5719 -2.4967 0.9313
-15.2205 -8.8805 -2.4968 0.9313
-15.0393 -9.1856 -2.4969 0.9313
-14.8520 -9.4871 -2.4971 0.9313
-13.1392 -11.2798 -2.4536 0.9324
-9.8585 -9.1781 -1.9085 0.9470
-9.0817 -9.1646 -1.8281 0.9492
-8.7218 -9.1633 -1.7924 0.9502
-8.3792 -9.1660 -1.7596 0.9511
-8.0535 -9.1740 -1.7297 0.9519
-7.7389 -9.1822 -1.7015 0.9526
-7.4271 -9.1812 -1.6732 0.9534
-7.1255 -9.1805 -1.6466 0.9541
-6.4179 -9.3886 -1.6114 0.9551
-6.3154 -9.6501 -1.6341 0.9545
-6.2515 -9.9856 -1.6693 0.9535
-7.9305 -14.5531 -2.3483 0.9352
-7.6364 -14.7108 -2.3485 0.9352
-7.0388 -15.0082 -2.3488 0.9352
-6.7356 -15.1479 -2.3489 0.9352
-6.4296 -15.2813 -2.3491 0.9352
-6.1210 -15.4087 -2.3492 0.9352
-5.8099 -15.5298 -2.3493 0.9352
-5.1806 -15.7531 -2.3496 0.9352
-4.8626 -15.8552 -2.3498 0.9352
-3.2454 -16.2687 -2.3505 0.9352
-0.2602 -16.5964 -2.3518 0.9351
0.0741 -16.5992 -2.3520 0.9351
0.4083 -16.5953 -2.3521 0.9351
0.7424 -16.5847 -2.3522 0.9351
1.7426 -16.5125 -2.3526 0.9351
2.0749 -16.4750 -2.3528 0.9351
2.4063 -16.4308 -2.3529 0.9351
2.7368 -16.3799 -2.3530 0.9351
3.3944 -16.2582 -2.3533 0.9351
4.3705 -16.0261 -2.3537 0.9351
4.6925 -15.9357 -2.3538 0.9351
5.3308 -15.7354 -2.3540 0.9351
5.9606 -15.5095 -2.3542 0.9351
6.2720 -15.3871 -2.3543 0.9351
6.5808 -15.2584 -2.3545 0.9351
7.1905 -14.9824 -2.3547 0.9351
7.4910 -14.8352 -2.3548 0.9351
8.3740 -14.3577 -2.3551 0.9351
8.6618 -14.1867 -2.3552 0.9351
9.7766 -13.4458 -2.3555 0.9350
10.0456 -13.2467 -2.3556 0.9350
10.5715 -12.8324 -2.3557 0.9350
10.8281 -12.6173 -2.3558 0.9350
11.3280 -12.1718 -2.3560 0.9350
11.5711 -11.9416 -2.3560 0.9350
12.2719 -11.2221 -2.3562 0.9350
13.7271 -11.1082 -2.5020 0.9311
14.2044 -10.5771 -2.5093 0.9310
14.8177 -9.7008 -2.5094 0.9309
15.0102 -9.4006 -2.5095 0.9309
15.1967 -9.0966 -2.5095 0.9309
15.5509 -8.4775 -2.5095 0.9309
15.7186 -8.1627 -2.5096 0.9309
15.8799 -7.8446 -2.5096 0.9309
16.1830 -7.1990 -2.5096 0.9309
16.4598 -6.5417 -2.5096 0.9309
16.8247 -5.5360 -2.5096 0.9309
16.9327 -5.1961 -2.5096 0.9309
17.0338 -4.8541 -2.5096 0.9309
17.1280 -4.5101 -2.5096 0.9309
17.2152 -4.1643 -2.5096 0.9309
17.3687 -3.4677 -2.5095 0.9309
17.4938 -2.7656 -2.5095 0.9309
17.5457 -2.4127 -2.5094 0.9309
17.5905 -2.0590 -2.5094 0.9309
17.6586 -1.3490 -2.5093 0.9310
17.6818 -0.9932 -2.5093 0.9310
17.6979 -0.6369 -2.5092 0.9310
17.7029 0.4327 -2.5091 0.9310
17.6902 0.7890 -2.5090 0.9310
17.6089 1.8554 -2.5088 0.9310
17.5675 2.2095 -2.5087 0.9310
17.3306 3.6154 -2.5084 0.9310
17.1698 4.3099 -2.5082 0.9310
-4.3004 13.5727 -2.3455 0.9439
-4.8429 13.3874 -2.3453 0.9439
-5.1113 13.2866 -2.3452 0.9439
-5.3776 13.1805 -2.3451 0.9439
-5.6416 13.0690 -2.3450 0.9439
-6.1628 12.8303 -2.3448 0.9439
-6.6739 12.5709 -2.3447 0.9439
-7.1741 12.2911 -2.3445 0.9439
-7.4198 12.1438 -2.3444 0.9439
-7.6626 11.9915 -2.3443 0.9439
-8.1387 11.6725 -2.3442 0.9439
-9.0504 10.9786 -2.3439 0.9440
-9.2694 10.7938 -2.3439 0.9440
-9.4846 10.6048 -2.3438 0.9440
-9.6959 10.4114 -2.3437 0.9440
-9.1888 8.3973 -2.0506 0.9508
-10.6921 9.3831 -2.3435 0.9440
-10.8787 9.1657 -2.3434 0.9440
-11.0608 8.9446 -2.3434 0.9440
-11.2385 8.7200 -2.3434 0.9440
-11.4116 8.4918 -2.3433 0.9440
-11.5801 8.2602 -2.3433 0.9440
-11.7439 8.0252 -2.3433 0.9440
-11.9030 7.7871 -2.3432 0.9440
-12.2198 7.6475 -2.3748 0.9432
-12.7617 7.6334 -2.4497 0.9415
-13.1238 7.4954 -2.4898 0.9406
-13.4437 6.9758 -2.4951 0.9404
-13.8402 6.1514 -2.4951 0.9404
-13.9612 5.8715 -2.4951 0.9404
-14.0765 5.5892 -2.4951 0.9404
-14.1862 5.3046 -2.4951 0.9404
-14.2901 5.0179 -2.4951 0.9404
-14.3883 4.7292 -2.4951 0.9404
-14.6477 3.8519 -2.4951 0.9404
-14.9106 2.6610 -2.4952 0.9404
-15.0060 2.0585 -2.4952 0.9404
-15.0446 1.7560 -2.4953 0.9404
-15.0771 1.4527 -2.4953 0.9404
-15.1035 1.1489 -2.4953 0.9404
-15.1460 0.2349 -2.4954 0.9404
-15.1480 -0.0701 -2.4955 0.9404
-15.1438 -0.3751 -2.4955 0.9404
-15.1170 -0.9845 -2.4956 0.9404
-15.0945 -1.2887 -2.4957 0.9404
-14.9903 -2.1978 -2.4959 0.9404
-14.8904 -2.7997 -2.4960 0.9404
-14.6955 -3.6939 -2.4962 0.9404
-14.5358 -4.2829 -2.4964 0.9404
-14.4471 -4.5748 -2.4965 0.9404
-14.2521 -5.1531 -2.4966 0.9404
-14.1460 -5.4392 -2.4967 0.9404
-13.9166 -6.0048 -2.4969 0.9404
-13.7933 -6.2840 -2.4970 0.9404
-13.6645 -6.5607 -2.4971 0.9404
-13.2451 -7.3746 -2.4974 0.9404
-13.0945 -7.6401 -2.4975 0.9404
-12.9385 -7.9026 -2.4976 0.9404
-12.7773 -8.1618 -2.4977 0.9404
-12.6110 -8.4178 -2.4978 0.9404
-12.2629 -8.9195 -2.4981 0.9404
-11.8949 -9.4069 -2.4983 0.9404
-11.7037 -9.6449 -2.4984 0.9404
-11.5076 -9.8791 -2.4985 0.9404
-10.2531 -9.1670 -2.2657 0.9458
-8.7265 -9.1682 -2.0852 0.9500
-8.3814 -9.1684 -2.0464 0.9509
-7.7405 -9.1841 -1.9787 0.9525
-7.2094 -9.2885 -1.9370 0.9535
-6.2496 -9.5495 -1.8801 0.9548
-6.1839 -9.8777 -1.9198 0.9539
-6.2018 -10.3645 -1.9898 0.9522
-7.0716 -12.3772 -2.3483 0.9438
-6.8213 -12.5177 -2.3485 0.9438
-6.5683 -12.6532 -2.3486 0.9438
-6.3125 -12.7836 -2.3487 0.9438
-6.0541 -12.9088 -2.3488 0.9438
-5.5301 -13.1435 -2.3491 0.9438
-5.2646 -13.2529 -2.3492 0.9438
-4.9970 -13.3569 -2.3494 0.9438
-4.7273 -13.4556 -2.3495 0.9438
-4.4556 -13.5487 -2.3496 0.9438
-4.1822 -13.6364 -2.3497 0.9438
-3.3518 -13.8663 -2.3501 0.9438
-1.9416 -14.1368 -2.3507 0.9438
-1.3710 -14.2050 -2.3510 0.9438
-0.7981 -14.2501 -2.3512 0.9438
0.0637 -14.2745 -2.3516 0.9438
0.3511 -14.2710 -2.3517 0.9438
0.6384 -14.2618 -2.3518 0.9438
1.2122 -14.2260 -2.3521 0.9438
1.4985 -14.1994 -2.3522 0.9438
2.0692 -14.1289 -2.3524 0.9438
3.1998 -13.9192 -2.3528 0.9437
3.4796 -13.8525 -2.3529 0.9437
4.0349 -13.7024 -2.3532 0.9437
4.8554 -13.4355 -2.3535 0.9437
5.3928 -13.2302 -2.3536 0.9437
5.9216 -13.0034 -2.3538 0.9437
6.1824 -12.8820 -2.3539 0.9437
6.6966 -12.6236 -2.3541 0.9437
7.6916 -12.0455 -2.3544 0.9437
7.9328 -11.8886 -2.3545 0.9437
8.1709 -11.7268 -2.3546 0.9437
9.5697 -11.1510 -2.4207 0.9422
9.9589 -11.1424 -2.4619 0.9412
11.0256 -10.4978 -2.5080 0.9401
11.4397 -10.0458 -2.5081 0.9401
11.6399 -9.8136 -2.5081 0.9401
11.8354 -9.5774 -2.5082 0.9401
12.0260 -9.3373 -2.5082 0.9401
12.5684 -8.5946 -2.5083 0.9401
12.7390 -8.3399 -2.5083 0.9401
13.0648 -7.8204 -2.5084 0.9401
13.2197 -7.5558 -2.5084 0.9401
13.3693 -7.2882 -2.5084 0.9401
13.6520 -6.7441 -2.5085 0.9401
13.7851 -6.4679 -2.5085 0.9401
14.0345 -5.9077 -2.5085 0.9401
14.2610 -5.3378 -2.5085 0.9401
14.6441 -4.1731 -2.5085 0.9401
14.7251 -3.8774 -2.5085 0.9401
14.8001 -3.5801 -2.5085 0.9401
15.0396 -2.3776 -2.5084 0.9401
15.0843 -2.0743 -2.5084 0.9401
15.1552 -1.4652 -2.5083 0.9401
15.1814 -1.1598 -2.5083 0.9401
15.2245 0.0654 -2.5081 0.9401
15.1918 0.9844 -2.5079 0.9402
15.1392 1.5952 -2.5078 0.9402
15.1036 1.8996 -2.5078 0.9402
15.0619 2.2033 -2.5077 0.9402
15.0141 2.5061 -2.5076 0.9402
14.9602 2.8078 -2.5076 0.9402
14.8341 3.4076 -2.5074 0.9402
14.7621 3.7055 -2.5073 0.9402
14.6840 4.0019 -2.5073 0.9402
-4.0085 11.8195 -2.3459 0.9505
-4.2455 11.7360 -2.3458 0.9505
-4.9458 11.4571 -2.3456 0.9505
-5.1753 11.3548 -2.3455 0.9505
-5.4027 11.2479 -2.3454 0.9505
