ply
format ascii 1.0
element vertex 1557
property float32 x
property float32 y
property float32 z
property float32 I
end_header
71.5196 -42.7223 -2.3458 0.7165
72.4397 -41.3166 -2.3482 0.7163
70.2429 -34.6224 -2.2051 0.7310
63.2182 -26.5464 -1.9307 0.7600
62.4776 -24.7681 -1.8924 0.7642
68.2952 -23.9410 -2.0378 0.7486
68.1434 -19.3573 -1.9947 0.7532
84.6416 -18.6065 -2.4402 0.7070
61.5738 -12.2417 -1.7677 0.7779
61.8995 -9.7351 -1.7644 0.7782
54.5096 -6.3369 -1.5452 0.8028
52.6220 -5.0462 -1.4885 0.8093
51.4446 -3.8901 -1.4527 0.8135
49.9848 -2.7691 -1.4096 0.8185
48.1965 -1.6977 -1.3580 0.8245
36.8285 -0.5555 -1.0371 0.8630
55.0050 2.4939 -1.5504 0.8023
55.0509 5.8407 -1.5588 0.8013
54.9816 9.2169 -1.5698 0.8000
45.0474 8.4871 -1.2908 0.8324
44.8360 9.3856 -1.2898 0.8325
41.4156 10.4258 -1.2026 0.8429
41.1798 11.2525 -1.2020 0.8430
54.6160 17.3147 -1.6133 0.7951
54.5255 18.5019 -1.6213 0.7942
54.5654 19.7489 -1.6340 0.7928
54.3540 23.4725 -1.6671 0.7891
42.3156 19.2934 -1.3095 0.8302
26.1019 13.8613 -0.8322 0.8885
24.2359 13.5027 -0.7812 0.8949
23.6637 13.8153 -0.7716 0.8961
23.1520 14.1490 -0.7640 0.8971
23.9158 15.9723 -0.8098 0.8913
23.9274 16.6862 -0.8214 0.8898
8.6051 7.6969 -0.3251 0.9549
8.5096 7.9254 -0.3275 0.9545
8.5831 8.3228 -0.3366 0.9533
8.6027 8.6846 -0.3442 0.9523
8.5734 9.0107 -0.3502 0.9514
6.8020 9.1405 -0.3208 0.9554
6.4966 9.1073 -0.3150 0.9562
6.2664 9.1695 -0.3127 0.9565
5.2265 8.3506 -0.2774 0.9613
5.2985 8.8573 -0.2906 0.9595
5.2744 9.2339 -0.2994 0.9583
5.5854 31.2692 -0.8944 0.8806
2.1344 38.0912 -1.0742 0.8584
-21.1795 92.1776 -2.6632 0.6849
-20.6794 75.8674 -2.2142 0.7300
-20.2648 64.0624 -1.8920 0.7642
-3.0109 8.3354 -0.2496 0.9652
-19.7025 48.3588 -1.4704 0.8114
-14.2780 31.3680 -0.9704 0.8712
-14.8639 30.9855 -0.9677 0.8715
-5.0450 9.9958 -0.3153 0.9562
-5.1945 9.7966 -0.3122 0.9566
-5.7348 9.8372 -0.3206 0.9555
-26.1958 42.9253 -1.4160 0.8177
-27.1440 42.5296 -1.4207 0.8172
-27.0263 37.1880 -1.2945 0.8320
-26.9732 35.5861 -1.2573 0.8364
-26.6787 33.7635 -1.2117 0.8418
-26.8235 32.5767 -1.1882 0.8446
-27.0616 31.5496 -1.1704 0.8468
-26.7623 29.9587 -1.1311 0.8515
-26.5833 -15.5650 -1.5622 0.8839
-25.4097 -15.5730 -1.5114 0.8875
-23.2330 -15.5590 -1.4181 0.8941
-22.0365 -15.4092 -1.3637 0.8979
-21.1072 -15.4011 -1.3251 0.9006
-18.5219 -15.3100 -1.2187 0.9082
-17.8545 -15.3737 -1.1949 0.9099
-14.4255 -15.1998 -1.0627 0.9195
-12.7845 -15.2129 -1.0078 0.9235
-11.2203 -15.1177 -0.9548 0.9274
-9.4779 -15.1860 -0.9078 0.9308
-9.0454 -15.1644 -0.8955 0.9317
-7.8002 -15.0766 -0.8609 0.9343
-6.6220 -14.9467 -0.8291 0.9366
-6.3006 -15.0312 -0.8266 0.9368
-5.9588 -15.0590 -0.8213 0.9372
-5.5471 -14.8876 -0.8057 0.9384
-4.8802 -14.9057 -0.7954 0.9391
-4.2421 -14.9695 -0.7891 0.9396
-3.9447 -15.0702 -0.7900 0.9395
-3.3111 -15.1078 -0.7844 0.9399
-2.9427 -14.8505 -0.7678 0.9412
-2.3442 -14.9670 -0.7683 0.9411
-1.7206 -14.8830 -0.7598 0.9418
-1.4299 -15.0113 -0.7647 0.9414
-0.8258 -15.0786 -0.7658 0.9413
0.0848 -14.9281 -0.7571 0.9420
0.6827 -14.8493 -0.7539 0.9422
0.9768 -14.7624 -0.7503 0.9425
1.2987 -15.0286 -0.7650 0.9414
1.6022 -15.0110 -0.7656 0.9413
1.8752 -14.7484 -0.7540 0.9422
2.7690 -14.6458 -0.7559 0.9420
3.0949 -14.7382 -0.7637 0.9415
3.7086 -14.6927 -0.7685 0.9411
4.7418 -14.9243 -0.7942 0.9392
5.3169 -14.6613 -0.7909 0.9394
5.6521 -14.6582 -0.7967 0.9390
6.0213 -14.7256 -0.8068 0.9383
6.7166 -14.7066 -0.8199 0.9373
9.2517 -19.2236 -1.0819 0.9181
10.1793 -19.1391 -1.0994 0.9168
11.2836 -18.4371 -1.0962 0.9171
12.1464 -18.9781 -1.1427 0.9137
12.5603 -18.7811 -1.1458 0.9135
12.6371 -18.0967 -1.1194 0.9154
13.1236 -17.2686 -1.1000 0.9168
13.6505 -16.5356 -1.0874 0.9177
13.8391 -16.0930 -1.0764 0.9185
16.1202 -15.9481 -1.1500 0.9132
17.9587 -16.3904 -1.2331 0.9072
19.6077 -17.1849 -1.3223 0.9008
21.1154 -17.7677 -1.3995 0.8954
22.6974 -18.3313 -1.4796 0.8897
38.1763 -26.0539 -2.3440 0.8310
44.2940 -21.8323 -2.5044 0.8205
44.7457 -20.9462 -2.5056 0.8205
46.3737 -17.3122 -2.5103 0.8202
46.7349 -16.3830 -2.5115 0.8201
47.4010 -14.5023 -2.5139 0.8199
47.9910 -12.5944 -2.5162 0.8198
48.2573 -11.6313 -2.5174 0.8197
48.7169 -9.6856 -2.5190 0.8196
46.4299 -5.3976 -2.3705 0.8293
46.5498 -4.4639 -2.3716 0.8292
46.6507 -3.5275 -2.3726 0.8291
46.7326 -2.5889 -2.3736 0.8291
36.7385 -0.5541 -1.8634 0.8632
40.0690 3.4371 -2.0395 0.8512
39.0841 4.1467 -1.9932 0.8543
35.7698 5.9963 -1.8393 0.8648
34.4814 6.4964 -1.7795 0.8689
32.4107 7.4686 -1.6868 0.8753
31.5085 7.9318 -1.6478 0.8780
30.4984 8.3338 -1.6034 0.8811
29.5410 8.7149 -1.5620 0.8839
28.4873 9.0312 -1.5156 0.8872
26.5141 9.5963 -1.4300 0.8932
25.9593 9.9909 -1.4106 0.8946
24.9826 10.1970 -1.3684 0.8976
24.4510 10.5590 -1.3507 0.8988
23.9163 10.9044 -1.3330 0.9001
16.6963 8.0223 -0.9394 0.9285
21.5615 11.4501 -1.2381 0.9068
24.9236 13.8858 -1.4469 0.8920
23.7946 13.8917 -1.3973 0.8955
23.6415 14.4481 -1.4051 0.8950
23.9815 16.0162 -1.4625 0.8909
23.9131 16.6762 -1.4785 0.8898
31.1936 24.6802 -2.0172 0.8527
28.5825 24.5479 -1.9108 0.8599
8.5733 9.0105 -0.6308 0.9514
22.3174 24.4217 -1.6778 0.8759
21.2686 24.2362 -1.6353 0.8788
20.5152 24.3493 -1.6147 0.8803
7.3668 9.1095 -0.5941 0.9542
7.0803 9.1251 -0.5857 0.9548
6.8018 9.1402 -0.5778 0.9554
6.0082 9.1832 -0.5565 0.9570
5.2264 8.3505 -0.4996 0.9613
13.1522 24.1413 -1.3942 0.8957
12.6054 24.2890 -1.3878 0.8962
10.0665 21.4687 -1.2025 0.9094
9.8404 23.3927 -1.2870 0.9034
11.7852 38.4332 -2.0387 0.8513
10.0977 38.3782 -2.0126 0.8530
9.2694 38.3512 -2.0010 0.8538
7.6303 38.2525 -1.9782 0.8554
14.2015 89.9276 -4.6171 0.6944
5.2496 38.2202 -1.9565 0.8568
4.4648 38.1947 -1.9502 0.8573
8.7433 90.5718 -4.6146 0.6946
1.7541 31.3038 -1.5900 0.8820
1.1307 31.5305 -1.6001 0.8813
-4.0575 90.7596 -4.6074 0.6950
-4.7691 37.8937 -1.9369 0.8582
-6.3192 37.8432 -1.9458 0.8576
-18.5157 88.7318 -4.5969 0.6956
-20.2914 88.3126 -4.5954 0.6956
-7.7671 30.9369 -1.6176 0.8801
-8.4451 30.9828 -1.6286 0.8793
-9.1032 30.9294 -1.6351 0.8789
-17.5000 51.6807 -2.7671 0.8037
-3.0060 8.3220 -0.4487 0.9652
-15.2990 37.5504 -2.0563 0.8501
-14.2525 31.3120 -1.7447 0.8713
-14.8308 30.9165 -1.7390 0.8717
-5.0375 9.9808 -0.5670 0.9562
-5.1874 9.7831 -0.5616 0.9566
-5.3837 9.6776 -0.5616 0.9566
-25.9269 40.6226 -2.4440 0.8245
-26.7123 35.2418 -2.2426 0.8377
-26.6626 33.7432 -2.1810 0.8418
-28.9849 28.7483 -2.0704 0.8492
-24.6612 -15.1143 -2.1208 0.8905
-23.5273 -15.0791 -2.0490 0.8940
-19.6577 -14.9589 -1.8112 0.9057
-19.1028 -15.1534 -1.7878 0.9068
-18.5155 -15.3048 -1.7613 0.9081
-17.8622 -15.3803 -1.7283 0.9098
-15.6113 -15.1762 -1.5964 0.9164
-15.0255 -15.2069 -1.5675 0.9178
-14.3784 -15.1502 -1.5315 0.9196
-13.8179 -15.1594 -1.5040 0.9210
-12.7686 -15.1939 -1.4552 0.9235
-12.1878 -15.1102 -1.4234 0.9251
-11.2426 -15.1478 -1.3832 0.9271
-10.2778 -15.0803 -1.3381 0.9294
-9.8853 -15.1510 -1.3264 0.9300
-8.1229 -14.9550 -1.2478 0.9340
-7.7747 -15.0275 -1.2406 0.9344
-7.3824 -15.0016 -1.2259 0.9351
-5.2811 -15.0957 -1.1726 0.9379
-4.9079 -14.9906 -1.1566 0.9387
-4.5731 -14.9812 -1.1485 0.9391
-3.2637 -14.8916 -1.1178 0.9407
-2.6545 -14.9705 -1.1148 0.9408
-2.3594 -15.0645 -1.1180 0.9407
-2.0205 -14.8500 -1.0989 0.9417
-1.4158 -14.8630 -1.0947 0.9419
-0.5217 -15.0820 -1.1065 0.9413
0.3854 -14.9267 -1.0948 0.9419
1.2787 -14.7966 -1.0890 0.9422
1.8650 -14.6681 -1.0842 0.9424
3.0926 -14.7272 -1.1034 0.9414
3.4416 -14.8920 -1.1207 0.9405
3.7651 -14.9167 -1.1280 0.9402
4.9936 -14.6857 -1.1373 0.9397
6.7120 -14.6966 -1.1846 0.9373
9.2513 -19.2229 -1.5642 0.9180
9.6985 -19.1555 -1.5743 0.9175
10.1796 -19.1396 -1.5895 0.9167
10.6702 -19.1233 -1.6057 0.9159
12.4661 -18.6403 -1.6442 0.9140
12.6336 -18.0916 -1.6179 0.9153
13.3934 -16.9062 -1.5815 0.9171
13.6926 -16.5866 -1.5770 0.9174
14.1258 -15.7726 -1.5525 0.9186
14.3738 -15.4137 -1.5453 0.9189
16.2195 -16.0463 -1.6729 0.9126
17.1506 -16.2977 -1.7347 0.9095
18.2395 -16.6467 -1.8106 0.9057
19.5593 -17.1424 -1.9070 0.9009
21.0059 -17.6755 -2.0129 0.8957
25.2621 -19.5757 -2.3433 0.8797
26.0465 -18.5552 -2.3448 0.8796
26.4234 -18.0331 -2.3456 0.8796
26.7898 -17.5032 -2.3464 0.8795
28.8909 -18.0568 -2.4981 0.8723
30.3061 -15.7037 -2.5027 0.8721
30.6262 -15.0955 -2.5035 0.8720
31.7829 -12.5998 -2.5068 0.8719
32.2854 -11.3177 -2.5085 0.8718
32.5173 -10.6690 -2.5093 0.8717
33.1340 -8.6954 -2.5117 0.8716
33.3130 -8.0293 -2.5125 0.8716
33.4786 -7.3595 -2.5133 0.8716
33.6306 -6.6862 -2.5141 0.8715
33.8937 -5.3305 -2.5157 0.8714
34.2548 -2.5902 -2.5188 0.8713
34.3103 -1.9008 -2.5196 0.8713
34.3696 -0.5184 -2.5203 0.8712
32.2835 1.4637 -2.3695 0.8784
32.2566 2.1139 -2.3702 0.8784
32.2165 2.7635 -2.3709 0.8784
32.1632 3.4124 -2.3715 0.8783
32.0169 4.7067 -2.3728 0.8783
31.8182 5.9947 -2.3740 0.8782
31.5671 7.2742 -2.3752 0.8782
31.4189 7.9093 -2.3756 0.8781
30.6517 8.3757 -2.3298 0.8803
26.3942 9.5529 -2.0581 0.8935
24.3322 10.5077 -1.9433 0.8992
16.3305 8.2552 -1.3417 0.9292
19.9135 11.6259 -1.6907 0.9117
17.7741 11.8706 -1.5672 0.9178
16.0294 12.1659 -1.4755 0.9225
15.4029 12.1867 -1.4401 0.9242
14.8915 12.2774 -1.4151 0.9255
14.4084 12.3746 -1.3926 0.9267
8.5093 7.9251 -0.8526 0.9544
8.5828 8.3225 -0.8766 0.9532
8.6024 8.6842 -0.8963 0.9522
6.8016 9.1399 -0.8354 0.9553
6.4962 9.1068 -0.8202 0.9561
6.2660 9.1690 -0.8143 0.9564
6.0080 9.1830 -0.8046 0.9569
5.2263 8.3503 -0.7223 0.9613
5.2983 8.8569 -0.7567 0.9595
9.6223 20.5214 -1.6619 0.9131
9.6056 21.6069 -1.7338 0.9095
9.6312 24.2498 -1.9131 0.9006
11.9433 31.9303 -2.4996 0.8722
10.9084 31.0546 -2.4134 0.8763
10.0047 32.6266 -2.5022 0.8721
9.3483 32.8296 -2.5028 0.8721
6.7591 30.6549 -2.3017 0.8817
6.1060 30.6107 -2.2887 0.8823
5.4599 30.5671 -2.2767 0.8829
4.4493 32.3935 -2.3975 0.8771
3.2898 34.0787 -2.5103 0.8717
2.6030 34.1361 -2.5102 0.8717
1.7234 30.7558 -2.2586 0.8838
-1.5281 34.1827 -2.5089 0.8718
-3.5853 33.9983 -2.5066 0.8719
-5.6238 33.6785 -2.5036 0.8720
-6.2974 33.5418 -2.5023 0.8721
-7.6339 33.2245 -2.4996 0.8722
-7.8041 31.0845 -2.3499 0.8794
-8.9535 32.8480 -2.4964 0.8724
-3.0012 8.3086 -0.6477 0.9652
-12.7846 31.3792 -2.4844 0.8729
-13.4010 31.0861 -2.4821 0.8730
-14.3999 30.0182 -2.4411 0.8750
-5.1802 9.7697 -0.8108 0.9566
-5.7069 9.7894 -0.8308 0.9556
-17.5004 28.6766 -2.4632 0.8739
-18.0518 28.2837 -2.4602 0.8741
-18.5938 27.8792 -2.4571 0.8742
-19.6493 27.0373 -2.4507 0.8745
-20.6652 26.1531 -2.4440 0.8749
-21.1577 25.6957 -2.4406 0.8750
-21.6395 25.2283 -2.4370 0.8752
-23.0188 23.7689 -2.4261 0.8757
-20.8920 -12.2327 -2.3243 0.9073
-20.6390 -12.6492 -2.3240 0.9073
-19.8310 -13.8669 -2.3232 0.9073
-19.2527 -14.6508 -2.3227 0.9074
-18.8258 -14.9337 -2.3070 0.9080
-17.2880 -14.8859 -2.1902 0.9124
-15.8963 -14.8427 -2.0880 0.9163
-15.2475 -14.8225 -2.0415 0.9181
-14.6267 -14.8032 -1.9979 0.9198
-14.0317 -14.7847 -1.9569 0.9214
-12.3817 -14.7335 -1.8476 0.9256
-11.8712 -14.7177 -1.8153 0.9268
-11.4283 -14.7673 -1.7927 0.9277
-11.1283 -14.9938 -1.7926 0.9277
-10.2790 -15.0822 -1.7523 0.9293
-9.8545 -15.1039 -1.7314 0.9301
-8.9607 -15.0223 -1.6793 0.9321
-8.5868 -15.0772 -1.6658 0.9327
-7.7648 -15.0083 -1.6223 0.9344
-7.3724 -14.9812 -1.6030 0.9351
-7.0200 -15.0211 -1.5918 0.9355
-5.5561 -14.9117 -1.5277 0.9381
-5.2209 -14.9237 -1.5179 0.9384
-4.5488 -14.9016 -1.4958 0.9393
-4.2436 -14.9749 -1.4943 0.9394
-3.9510 -15.0943 -1.4980 0.9392
-3.6071 -15.0074 -1.4818 0.9399
-2.0194 -14.8422 -1.4381 0.9416
-1.4162 -14.8675 -1.4338 0.9418
-0.8171 -14.9202 -1.4346 0.9417
-0.5126 -14.8173 -1.4234 0.9422
1.2761 -14.7666 -1.4229 0.9422
1.5753 -14.7589 -1.4250 0.9421
2.4733 -14.6967 -1.4308 0.9419
3.3940 -14.6859 -1.4471 0.9412
3.7065 -14.6842 -1.4540 0.9410
4.0114 -14.6434 -1.4576 0.9408
4.3428 -14.6867 -1.4703 0.9403
5.6295 -14.5996 -1.5022 0.9391
5.9468 -14.5433 -1.5084 0.9388
6.7364 -14.7498 -1.5567 0.9369
9.1602 -19.0335 -2.0279 0.9186
10.3736 -20.4888 -2.2048 0.9118
10.6540 -20.0316 -2.1782 0.9129
11.4210 -17.8446 -2.0340 0.9184
11.9177 -17.8202 -2.0582 0.9175
13.5292 -16.3886 -2.0402 0.9181
13.7297 -15.9657 -2.0216 0.9189
14.3798 -15.4201 -2.0242 0.9188
15.2635 -15.7210 -2.1036 0.9157
16.2197 -16.0466 -2.1904 0.9124
17.2587 -16.4003 -2.2857 0.9088
18.0215 -16.4477 -2.3424 0.9066
18.9953 -15.3413 -2.3441 0.9065
19.6072 -14.5716 -2.3453 0.9065
21.4900 -14.6662 -2.4978 0.9007
21.7939 -14.2391 -2.4993 0.9007
22.0817 -13.8010 -2.4999 0.9007
23.3861 -11.5269 -2.5031 0.9005
24.0573 -10.1021 -2.5050 0.9005
24.2618 -9.6182 -2.5056 0.9004
24.4566 -9.1301 -2.5062 0.9004
24.6416 -8.6381 -2.5069 0.9004
24.9817 -7.6431 -2.5081 0.9003
25.2816 -6.6347 -2.5093 0.9003
25.4162 -6.1260 -2.5100 0.9003
25.5406 -5.6145 -2.5106 0.9003
25.7583 -4.5842 -2.5118 0.9002
25.9342 -3.5454 -2.5130 0.9002
26.0065 -3.0233 -2.5136 0.9001
26.0681 -2.4998 -2.5141 0.9001
26.1192 -1.9750 -2.5147 0.9001
26.1597 -1.4492 -2.5153 0.9001
26.1895 -0.9226 -2.5159 0.9000
26.2087 -0.3953 -2.5164 0.9000
26.2149 0.6602 -2.5176 0.9000
26.2020 1.1880 -2.5181 0.9000
26.1784 1.7156 -2.5186 0.8999
26.1442 2.2426 -2.5192 0.8999
25.9805 3.2865 -2.5141 0.9001
25.1135 3.6918 -2.4369 0.9030
24.3225 4.0773 -2.3677 0.9057
24.2403 4.5670 -2.3681 0.9056
24.1481 5.0550 -2.3686 0.9056
23.8124 6.5068 -2.3699 0.9056
23.5396 7.4627 -2.3708 0.9055
23.3887 7.9364 -2.3712 0.9055
17.6522 6.3889 -1.8023 0.9273
23.0580 8.8743 -2.3720 0.9055
16.3075 8.2436 -1.7543 0.9292
16.5015 8.7631 -1.7938 0.9277
16.8446 9.3847 -1.8512 0.9254
17.1398 11.9528 -2.0061 0.9195
15.9661 12.1178 -1.9243 0.9226
14.8438 12.2381 -1.8470 0.9256
14.3671 12.3392 -1.8182 0.9267
8.6047 7.6965 -1.1083 0.9547
8.5091 7.9250 -1.1164 0.9543
8.5827 8.3224 -1.1477 0.9531
8.6023 8.6841 -1.1735 0.9521
8.5730 9.0102 -1.1940 0.9513
6.8014 9.1396 -1.0937 0.9553
6.4960 9.1065 -1.0739 0.9560
6.0079 9.1827 -1.0535 0.9569
5.2261 8.3500 -0.9457 0.9612
8.0275 16.2604 -1.7410 0.9297
8.9658 21.3136 -2.2199 0.9113
8.7761 22.0969 -2.2826 0.9089
7.9589 21.2779 -2.1810 0.9128
7.4611 24.3315 -2.4433 0.9028
6.4784 24.6222 -2.4443 0.9028
5.9829 24.7539 -2.4449 0.9027
5.4850 24.8762 -2.4456 0.9027
4.9844 24.9878 -2.4462 0.9027
4.4814 25.0885 -2.4467 0.9027
3.9760 25.1771 -2.4471 0.9026
3.4685 25.2526 -2.4471 0.9026
2.9595 25.3175 -2.4472 0.9026
2.4493 25.3716 -2.4471 0.9026
0.9134 25.4711 -2.4469 0.9027
-2.1603 25.3737 -2.4448 0.9027
-2.6700 25.3187 -2.4442 0.9028
-3.1782 25.2530 -2.4435 0.9028
-4.1894 25.0885 -2.4420 0.9028
-5.1918 24.8803 -2.4401 0.9029
-5.6891 24.7602 -2.4390 0.9029
-6.1835 24.6295 -2.4379 0.9030
-6.6749 24.4883 -2.4368 0.9030
-7.6469 24.1739 -2.4342 0.9031
-8.1272 24.0010 -2.4327 0.9032
-9.0751 23.6245 -2.4297 0.9033
-10.0051 23.2087 -2.4264 0.9034
-10.9151 22.7537 -2.4228 0.9036
-13.9182 20.8687 -2.4082 0.9041
-15.1075 19.9314 -2.4011 0.9044
-15.4896 19.6030 -2.3986 0.9045
-15.8642 19.2669 -2.3961 0.9046
-16.2313 18.9232 -2.3935 0.9047
-17.2850 17.8483 -2.3854 0.9050
-17.6201 17.4763 -2.3826 0.9051
-17.7997 -10.9090 -2.4799 0.9193
-16.7333 -11.7008 -2.4254 0.9210
-16.0102 -11.6820 -2.3542 0.9233
-15.5942 -11.8668 -2.3277 0.9241
-15.1016 -12.4829 -2.3274 0.9241
-14.5849 -13.0787 -2.3270 0.9241
-14.3177 -13.3688 -2.3269 0.9241
-13.7664 -13.9326 -2.3266 0.9241
-13.4825 -14.2062 -2.3265 0.9241
-12.3821 -14.7340 -2.2861 0.9254
-11.8715 -14.7181 -2.2461 0.9267
-11.3784 -14.7028 -2.2084 0.9278
-10.9013 -14.6880 -2.1728 0.9290
-9.9911 -14.6597 -2.1073 0.9310
-9.1328 -14.6330 -2.0490 0.9329
-8.3194 -14.6078 -1.9969 0.9345
-6.0942 -14.5387 -1.8726 0.9385
-5.7487 -14.5280 -1.8559 0.9390
-5.4092 -14.5175 -1.8403 0.9395
-5.0752 -14.5071 -1.8256 0.9400
-4.1261 -14.5600 -1.7976 0.9409
-3.8313 -14.6369 -1.7972 0.9409
-3.2850 -14.9890 -1.8228 0.9401
-2.6390 -14.8828 -1.7955 0.9409
-2.3113 -14.7574 -1.7743 0.9416
-0.8172 -14.9229 -1.7753 0.9416
-0.5168 -14.9401 -1.7757 0.9416
0.0836 -14.7031 -1.7465 0.9425
0.9747 -14.7298 -1.7535 0.9423
1.5725 -14.7327 -1.7600 0.9421
1.8696 -14.7046 -1.7608 0.9420
2.4773 -14.7207 -1.7732 0.9416
4.3375 -14.6686 -1.8170 0.9402
4.5944 -14.4604 -1.8023 0.9407
5.1742 -14.2680 -1.8028 0.9407
5.4679 -14.1804 -1.8053 0.9406
5.7943 -14.1703 -1.8185 0.9402
6.1256 -14.1600 -1.8327 0.9397
6.4622 -14.1496 -1.8478 0.9393
9.2358 -17.3652 -2.3363 0.9238
9.5851 -17.1787 -2.3367 0.9238
10.2724 -16.7848 -2.3376 0.9238
10.6100 -16.5775 -2.3380 0.9238
10.9435 -16.3635 -2.3384 0.9238
11.5975 -15.9156 -2.3392 0.9237
12.2333 -15.4416 -2.3401 0.9237
12.5440 -15.1951 -2.3405 0.9237
12.8497 -14.9424 -2.3410 0.9237
13.4459 -14.4186 -2.3419 0.9237
14.0208 -13.8711 -2.3428 0.9236
14.2999 -13.5887 -2.3433 0.9236
14.5734 -13.3008 -2.3437 0.9236
16.6211 -12.8797 -2.4977 0.9188
17.1329 -12.2052 -2.4988 0.9188
17.3786 -11.8603 -2.4993 0.9187
18.0737 -10.7964 -2.5008 0.9187
18.2911 -10.4325 -2.5013 0.9187
18.5012 -10.0642 -2.5018 0.9187
18.7038 -9.6918 -2.5023 0.9186
18.8990 -9.3152 -2.5028 0.9186
19.0865 -8.9347 -2.5033 0.9186
19.4386 -8.1626 -2.5043 0.9186
19.6029 -7.7712 -2.5049 0.9186
19.7593 -7.3766 -2.5054 0.9186
19.9078 -6.9787 -2.5059 0.9185
20.6282 -4.5346 -2.5089 0.9184
20.7194 -4.1193 -2.5093 0.9184
20.8765 -3.2833 -2.5103 0.9184
20.9423 -2.8630 -2.5108 0.9184
21.0486 -2.0185 -2.5117 0.9184
21.0889 -1.5947 -2.5122 0.9183
21.1206 -1.1701 -2.5127 0.9183
21.1583 -0.3191 -2.5136 0.9183
21.1642 0.1069 -2.5140 0.9183
21.1616 0.5329 -2.5145 0.9183
21.1503 0.9590 -2.5149 0.9183
21.0646 2.2349 -2.5162 0.9182
21.0189 2.6589 -2.5166 0.9182
20.9017 3.5039 -2.5175 0.9182
20.8302 3.9245 -2.5179 0.9182
18.6014 7.1591 -2.3676 0.9229
16.7877 7.2497 -2.1721 0.9290
15.3797 7.7746 -2.0470 0.9329
15.6094 8.6966 -2.1225 0.9306
15.7309 9.1840 -2.1638 0.9293
16.8138 10.7462 -2.3703 0.9228
16.5957 11.0836 -2.3706 0.9228
15.9007 12.0681 -2.3712 0.9227
15.6559 12.3868 -2.3714 0.9227
14.9439 12.3207 -2.3007 0.9249
14.5313 12.4802 -2.2753 0.9257
8.5825 8.3222 -1.4201 0.9530
11.2664 12.8384 -2.0290 0.9335
10.7507 12.7600 -1.9820 0.9350
7.0797 9.1242 -1.3718 0.9545
6.8012 9.1394 -1.3532 0.9551
6.4958 9.1062 -1.3287 0.9559
6.2657 9.1684 -1.3191 0.9563
5.2260 8.3498 -1.1701 0.9611
5.2980 8.8564 -1.2259 0.9593
8.0232 16.2517 -2.1529 0.9296
8.1219 18.2696 -2.3750 0.9226
7.8461 18.6517 -2.4036 0.9217
7.4712 18.8113 -2.4043 0.9217
6.7115 19.1066 -2.4055 0.9217
6.3270 19.2423 -2.4061 0.9216
5.9396 19.3697 -2.4066 0.9216
1.9491 20.1909 -2.4095 0.9215
0.7269 20.2700 -2.4093 0.9215
0.3187 20.2798 -2.4093 0.9215
-0.9055 20.2554 -2.4085 0.9216
-1.3128 20.2295 -2.4080 0.9216
-1.7194 20.1951 -2.4076 0.9216
-2.5297 20.1006 -2.4065 0.9216
-2.9331 20.0406 -2.4059 0.9217
-3.3350 19.9722 -2.4053 0.9217
-3.7353 19.8952 -2.4046 0.9217
-4.1337 19.8097 -2.4038 0.9217
-7.6055 18.6672 -2.3944 0.9220
-5.0148 9.9360 -1.3221 0.9562
-5.1660 9.7428 -1.3099 0.9566
-5.6791 9.7417 -1.3395 0.9556
-10.4474 17.1194 -2.3823 0.9224
-10.7820 16.8934 -2.3806 0.9224
-9.8717 14.8014 -2.1134 0.9308
-11.4358 16.4208 -2.3770 0.9226
-11.7548 16.1745 -2.3751 0.9226
-12.0682 15.9217 -2.3732 0.9227
-12.9741 15.1258 -2.3672 0.9229
-13.5482 14.5653 -2.3629 0.9230
-13.8259 14.2765 -2.3608 0.9231
-15.1261 -8.8566 -2.4836 0.9316
-14.9435 -9.1585 -2.4834 0.9316
-14.5604 -9.7510 -2.4829 0.9317
-14.3601 -10.0414 -2.4828 0.9317
-13.9423 -10.6097 -2.4824 0.9317
-13.7250 -10.8874 -2.4822 0.9317
-13.4969 -11.1564 -2.4811 0.9317
-12.8527 -11.5254 -2.4460 0.9326
-11.8298 -11.5001 -2.3376 0.9355
-11.3209 -11.9285 -2.3301 0.9357
-10.5791 -12.5886 -2.3299 0.9357
-10.3232 -12.7986 -2.3298 0.9357
-9.7992 -13.2030 -2.3297 0.9357
-9.5313 -13.3973 -2.3296 0.9357
-8.4223 -14.1198 -2.3295 0.9357
-8.1364 -14.2865 -2.3295 0.9357
-7.8472 -14.4473 -2.3295 0.9357
-7.5454 -14.5842 -2.3266 0.9358
-6.8051 -14.5612 -2.2774 0.9371
-6.4463 -14.5500 -2.2549 0.9377
-5.4093 -14.5178 -2.1952 0.9393
-5.0753 -14.5075 -2.1777 0.9398
-4.7464 -14.4973 -2.1614 0.9402
-4.1026 -14.4773 -2.1320 0.9410
-3.1665 -14.4482 -2.0957 0.9420
-1.6650 -14.4017 -2.0542 0.9431
-1.3710 -14.3925 -2.0485 0.9433
-1.0785 -14.3835 -2.0437 0.9434
-0.7872 -14.3745 -2.0398 0.9435
0.0815 -14.3475 -2.0329 0.9437
0.6588 -14.3296 -2.0325 0.9437
0.9476 -14.3207 -2.0335 0.9437
1.5266 -14.3027 -2.0381 0.9435
2.6972 -14.2665 -2.0572 0.9430
2.9394 -11.6451 -1.7017 0.9526
4.2048 -14.2198 -2.1010 0.9419
4.5149 -14.2102 -2.1126 0.9415
5.1462 -14.1907 -2.1388 0.9408
5.4680 -14.1807 -2.1535 0.9404
5.7944 -14.1706 -2.1692 0.9400
7.7498 -14.5711 -2.3384 0.9355
8.3324 -14.2515 -2.3391 0.9355
8.9019 -13.9087 -2.3398 0.9355
9.1814 -13.7287 -2.3401 0.9355
9.9979 -13.1556 -2.3412 0.9354
10.2623 -12.9537 -2.3416 0.9354
10.5226 -12.7466 -2.3419 0.9354
11.0306 -12.3166 -2.3427 0.9354
11.4039 -12.2288 -2.3692 0.9347
12.4904 -12.3570 -2.4895 0.9315
12.7629 -12.1282 -2.4946 0.9313
14.1548 -10.5195 -2.4988 0.9312
14.3661 -10.2342 -2.4992 0.9312
14.5717 -9.9446 -2.4996 0.9312
14.7715 -9.6510 -2.5001 0.9312
14.9652 -9.3533 -2.5005 0.9312
15.1531 -9.0517 -2.5009 0.9312
15.3348 -8.7463 -2.5013 0.9312
15.5104 -8.4373 -2.5018 0.9312
16.4308 -6.5137 -2.5043 0.9311
16.5614 -6.1827 -2.5048 0.9311
16.6853 -5.8491 -2.5052 0.9311
16.8025 -5.5130 -2.5056 0.9311
16.9129 -5.1745 -2.5060 0.9310
17.0165 -4.8338 -2.5064 0.9310
17.1132 -4.4911 -2.5069 0.9310
17.3616 -3.4517 -2.5081 0.9310
17.4304 -3.1021 -2.5085 0.9310
17.4921 -2.7510 -2.5089 0.9310
17.5943 -2.0454 -2.5097 0.9309
17.6347 -1.6911 -2.5101 0.9309
17.7128 -0.6240 -2.5113 0.9309
17.7245 -0.2674 -2.5117 0.9309
17.7262 0.4464 -2.5124 0.9309
17.6431 1.8718 -2.5139 0.9308
17.6043 2.2269 -2.5142 0.9308
17.5052 2.9345 -2.5149 0.9308
17.4449 3.2867 -2.5152 0.9308
17.3030 3.9872 -2.5159 0.9308
17.2214 4.3352 -2.5162 0.9308
17.0371 5.0261 -2.5168 0.9308
16.9345 5.3687 -2.5171 0.9307
16.8040 5.7020 -2.5143 0.9308
16.0043 6.1595 -2.4298 0.9331
15.1896 6.9256 -2.3654 0.9348
14.5890 8.1281 -2.3663 0.9348
14.0755 8.9961 -2.3669 0.9347
13.8927 9.2784 -2.3671 0.9347
13.7042 9.5569 -2.3673 0.9347
13.1052 10.3688 -2.3678 0.9347
12.8947 10.6312 -2.3679 0.9347
8.6044 7.6962 -1.6357 0.9544
8.6020 8.6838 -1.7319 0.9518
11.2779 12.3413 -2.3688 0.9347
10.7728 12.7862 -2.3690 0.9347
7.3659 9.1084 -1.6598 0.9538
6.4119 8.9886 -1.5644 0.9564
5.2259 8.3496 -1.3957 0.9610
5.2979 8.8562 -1.4622 0.9592
5.2737 9.2327 -1.5065 0.9580
8.0227 14.7260 -2.3761 0.9345
7.4284 15.0470 -2.3776 0.9345
7.1262 15.1980 -2.3784 0.9344
6.8208 15.3428 -2.3791 0.9344
6.5124 15.4813 -2.3797 0.9344
6.2010 15.6132 -2.3803 0.9344
5.8869 15.7385 -2.3809 0.9344
5.5701 15.8572 -2.3814 0.9344
5.2513 15.9707 -2.3821 0.9343
4.2801 16.2671 -2.3833 0.9343
3.9523 16.3521 -2.3836 0.9343
3.6227 16.4301 -2.3839 0.9343
2.9590 16.5655 -2.3843 0.9343
2.6251 16.6226 -2.3844 0.9343
1.9540 16.7158 -2.3846 0.9343
1.6172 16.7519 -2.3846 0.9343
1.2796 16.7808 -2.3846 0.9343
0.6031 16.8175 -2.3844 0.9343
-0.0743 16.8263 -2.3841 0.9343
-0.4129 16.8197 -2.3839 0.9343
-0.7513 16.8059 -2.3836 0.9343
-1.4267 16.7568 -2.3828 0.9343
-1.7634 16.7217 -2.3824 0.9343
-2.0992 16.6796 -2.3820 0.9343
-3.0999 16.5110 -2.3803 0.9344
-3.4307 16.4409 -2.3797 0.9344
-4.0873 16.2799 -2.3783 0.9344
-4.4127 16.1890 -2.3775 0.9345
-4.7360 16.0914 -2.3767 0.9345
-6.3164 15.5031 -2.3719 0.9346
-6.6241 15.3658 -2.3709 0.9346
-6.9287 15.2221 -2.3697 0.9347
-7.2301 15.0720 -2.3685 0.9347
-5.6652 9.7179 -1.5938 0.9556
-6.5303 10.7008 -1.7762 0.9506
-8.9632 14.0437 -2.3606 0.9349
-9.5113 13.6573 -2.3581 0.9350
-9.7827 13.4610 -2.3578 0.9350
-10.0502 13.2593 -2.3574 0.9350
-10.8269 12.6225 -2.3563 0.9350
-11.0770 12.4000 -2.3559 0.9350
-11.3225 12.1726 -2.3555 0.9350
-12.8658 -7.8852 -2.4859 0.9407
-12.7036 -8.1419 -2.4857 0.9407
-12.3639 -8.6455 -2.4854 0.9407
-11.4293 -9.8413 -2.4847 0.9407
-11.2284 -10.0688 -2.4845 0.9407
-11.0229 -10.2923 -2.4844 0.9407
-10.5988 -10.7268 -2.4842 0.9407
-10.3803 -10.9375 -2.4841 0.9407
-9.9057 -11.3167 -2.4776 0.9409
-9.5629 -11.3794 -2.4487 0.9415
-8.7917 -11.3604 -2.3665 0.9434
-8.2073 -11.5363 -2.3324 0.9442
-7.7361 -11.8570 -2.3323 0.9442
-7.4958 -12.0102 -2.3323 0.9442
-6.7572 -12.4405 -2.3322 0.9442
-6.2510 -12.7025 -2.3323 0.9442
-5.9941 -12.8259 -2.3323 0.9442
-5.4731 -13.0571 -2.3323 0.9442
-4.9433 -13.2673 -2.3324 0.9442
-4.6754 -13.3644 -2.3325 0.9442
-4.1339 -13.5425 -2.3326 0.9442
-2.4727 -13.9452 -2.3331 0.9442
-2.1916 -13.9928 -2.3333 0.9442
-1.9096 -14.0348 -2.3334 0.9442
-1.3433 -14.1018 -2.3336 0.9442
0.3658 -14.1665 -2.3346 0.9442
0.6509 -14.1574 -2.3347 0.9442
1.7881 -14.0637 -2.3355 0.9441
2.6344 -13.9339 -2.3361 0.9441
3.1605 -11.5375 -1.9707 0.9527
4.0231 -13.6054 -2.3373 0.9441
4.5684 -13.4353 -2.3378 0.9441
5.1066 -13.2434 -2.3383 0.9441
6.1581 -12.7957 -2.3394 0.9441
6.4152 -12.6707 -2.3396 0.9441
6.6698 -12.5405 -2.3399 0.9440
7.1709 -12.2649 -2.3405 0.9440
8.1582 -11.6828 -2.3474 0.9439
8.5475 -11.7299 -2.3910 0.9429
9.3750 -11.8338 -2.4871 0.9406
9.8751 -11.4834 -2.4951 0.9404
10.1067 -11.2849 -2.4956 0.9404
10.3332 -11.0807 -2.4960 0.9404
10.7739 -10.6589 -2.4967 0.9404
10.9878 -10.4413 -2.4970 0.9404
11.1973 -10.2194 -2.4974 0.9404
12.3577 -8.8035 -2.4996 0.9403
12.7058 -8.3014 -2.5003 0.9403
12.8722 -8.0451 -2.5007 0.9403
13.0334 -7.7855 -2.5010 0.9403
13.4855 -6.9878 -2.5021 0.9403
13.7599 -6.4412 -2.5029 0.9403
13.8888 -6.1639 -2.5032 0.9403
14.2417 -5.3167 -2.5043 0.9402
14.5429 -4.4494 -2.5054 0.9402
14.7144 -3.8616 -2.5061 0.9402
14.9270 -2.9677 -2.5072 0.9402
15.0386 -2.3652 -2.5079 0.9402
15.0852 -2.0623 -2.5082 0.9401
15.1257 -1.7584 -2.5086 0.9401
15.1601 -1.4538 -2.5089 0.9401
15.2104 -0.8426 -2.5096 0.9401
15.2263 -0.5364 -2.5099 0.9401
15.2395 0.0769 -2.5106 0.9401
15.2280 0.6904 -2.5112 0.9401
15.1641 1.6089 -2.5121 0.9401
15.0447 2.5220 -2.5130 0.9400
14.9926 2.8247 -2.5133 0.9400
14.9344 3.1262 -2.5136 0.9400
14.7997 3.7256 -2.5142 0.9400
14.6409 4.3192 -2.5147 0.9400
14.2517 5.4850 -2.5157 0.9400
14.1398 5.7713 -2.5159 0.9400
14.0220 6.0553 -2.5162 0.9400
13.8778 6.3275 -2.5126 0.9400
12.7648 6.7787 -2.3810 0.9431
12.5351 6.9837 -2.3639 0.9435
12.3929 7.2352 -2.3641 0.9435
12.2457 7.4837 -2.3642 0.9435
12.0934 7.7293 -2.3644 0.9435
11.9362 7.9717 -2.3646 0.9435
11.7741 8.2109 -2.3647 0.9435
11.4355 8.6792 -2.3650 0.9435
8.6043 7.6961 -1.9017 0.9543
10.5083 9.7870 -2.3657 0.9434
10.3097 9.9969 -2.3658 0.9434
8.5725 9.0097 -2.0487 0.9508
9.6886 10.6022 -2.3660 0.9434
9.4736 10.7954 -2.3661 0.9434
6.5447 8.7947 -1.8060 0.9565
6.3458 8.8959 -1.8002 0.9567
6.2653 9.1679 -1.8293 0.9560
5.2258 8.3494 -1.6227 0.9609
5.2736 9.2324 -1.7516 0.9578
6.8725 12.6147 -2.3665 0.9434
6.6171 12.7504 -2.3665 0.9434
6.3591 12.8810 -2.3665 0.9434
6.0985 13.0063 -2.3665 0.9434
5.5699 13.2408 -2.3664 0.9434
5.3022 13.3500 -2.3664 0.9434
3.9334 13.8135 -2.3661 0.9434
3.3740 13.9596 -2.3659 0.9434
3.0927 14.0262 -2.3662 0.9434
2.2409 14.1902 -2.3666 0.9434
1.9549 14.2330 -2.3667 0.9434
0.8038 14.3440 -2.3667 0.9434
0.2257 14.3633 -2.3665 0.9434
-0.9299 14.3292 -2.3656 0.9435
-1.5055 14.2761 -2.3649 0.9435
-1.7922 14.2405 -2.3645 0.9435
-2.3630 14.1513 -2.3636 0.9435
-2.9294 14.0383 -2.3625 0.9435
-3.4911 13.9055 -2.3619 0.9435
-4.0472 13.7508 -2.3614 0.9435
-4.3227 13.6652 -2.3611 0.9436
-4.5964 13.5739 -2.3609 0.9436
-2.9945 8.2900 -1.4520 0.9649
-4.2060 10.9490 -1.9322 0.9536
-4.2409 10.4090 -1.8516 0.9555
-6.1941 12.9123 -2.3593 0.9436
-5.3466 9.6109 -1.8118 0.9564
-7.9392 11.9039 -2.3572 0.9436
-6.1760 8.8681 -1.7803 0.9571
-6.4688 8.9011 -1.8127 0.9564
-8.6398 11.3985 -2.3562 0.9437
-8.8663 11.2208 -2.3559 0.9437
-9.3082 10.8519 -2.3553 0.9437
-9.9420 10.2660 -2.3543 0.9437
-11.2851 -6.9163 -2.4878 0.9476
-11.1429 -7.1417 -2.4877 0.9476
-10.9962 -7.3641 -2.4875 0.9476
-10.8451 -7.5835 -2.4874 0.9476
-10.3660 -8.2229 -2.4870 0.9476
-10.1979 -8.4295 -2.4869 0.9476
-10.0257 -8.6327 -2.4868 0.9476
-9.8495 -8.8323 -2.4866 0.9476
-9.6693 -9.0285 -2.4865 0.9476
-9.2974 -9.4096 -2.4864 0.9476
-9.1058 -9.5945 -2.4863 0.9476
-8.9105 -9.7756 -2.4862 0.9476
-8.5094 -10.1258 -2.4861 0.9476
-8.3036 -10.2947 -2.4860 0.9476
-7.2150 -11.0583 -2.4818 0.9477
-6.7109 -11.2507 -2.4623 0.9481
-6.4029 -11.2427 -2.4319 0.9487
-6.1022 -11.2347 -2.4031 0.9493
-5.2583 -11.2513 -2.3344 0.9507
-4.8012 -11.4541 -2.3344 0.9507
-4.1014 -11.7236 -2.3345 0.9507
-3.1455 -12.0168 -2.3348 0.9507
-2.9030 -12.0781 -2.3349 0.9507
-2.4147 -12.1860 -2.3350 0.9507
-1.1783 -12.3698 -2.3356 0.9507
-0.9291 -12.3916 -2.3357 0.9507
-0.6795 -12.4085 -2.3358 0.9507
-0.4296 -12.4204 -2.3359 0.9507
-0.1796 -12.4272 -2.3361 0.9507
0.0706 -12.4291 -2.3362 0.9507
0.5709 -12.4178 -2.3365 0.9507
0.8208 -12.4046 -2.3367 0.9507
1.8164 -12.3020 -2.3374 0.9506
2.3105 -12.2209 -2.3377 0.9506
2.5562 -12.1729 -2.3379 0.9506
3.5283 -11.9320 -2.3387 0.9506
4.4783 -11.6140 -2.3396 0.9506
7.3773 -11.0309 -2.4943 0.9474
7.8170 -10.7275 -2.4949 0.9474
8.2444 -10.4067 -2.4955 0.9474
8.4532 -10.2398 -2.4958 0.9474
8.6587 -10.0688 -2.4961 0.9474
9.0591 -9.7145 -2.4967 0.9474
9.2540 -9.5313 -2.4970 0.9474
9.4451 -9.3443 -2.4973 0.9474
9.9956 -8.7605 -2.4982 0.9473
10.6732 -7.9321 -2.4995 0.9473
10.8321 -7.7167 -2.4998 0.9473
10.9867 -7.4980 -2.5001 0.9473
11.2825 -7.0515 -2.5008 0.9473
11.4235 -6.8239 -2.5011 0.9473
11.5601 -6.5934 -2.5014 0.9473
11.9416 -5.8860 -2.5024 0.9473
12.0592 -5.6451 -2.5027 0.9472
12.2798 -5.1565 -2.5034 0.9472
12.3827 -4.9089 -2.5037 0.9472
12.4806 -4.6592 -2.5040 0.9472
12.5734 -4.4076 -2.5043 0.9472
12.6612 -4.1542 -2.5046 0.9472
12.8214 -3.6421 -2.5053 0.9472
13.0227 -2.8627 -2.5062 0.9472
13.1766 -2.0723 -2.5071 0.9472
13.2525 -1.5406 -2.5077 0.9471
13.2824 -1.2737 -2.5080 0.9471
13.3260 -0.7382 -2.5086 0.9471
13.3509 0.0674 -2.5095 0.9471
13.3403 0.6048 -2.5100 0.9471
13.3269 0.8734 -2.5103 0.9471
13.3081 1.1416 -2.5106 0.9471
13.2838 1.4094 -2.5108 0.9471
13.2541 1.6766 -2.5111 0.9471
13.1786 2.2092 -2.5116 0.9471
13.1328 2.4743 -2.5119 0.9471
12.9633 3.2633 -2.5126 0.9470
12.6634 4.2970 -2.5135 0.9470
12.5755 4.5514 -2.5137 0.9470
12.2809 5.3034 -2.5144 0.9470
11.8181 6.2759 -2.5151 0.9470
11.3863 6.9585 -2.5082 0.9471
10.6313 7.1002 -2.4029 0.9493
10.3173 7.1950 -2.3642 0.9501
9.5388 8.1924 -2.3634 0.9501
8.6041 7.6959 -2.1698 0.9541
9.0281 8.7543 -2.3637 0.9501
8.8504 8.9346 -2.3638 0.9501
8.5723 9.0095 -2.3375 0.9506
7.9090 9.7801 -2.3641 0.9501
7.5093 10.0909 -2.3642 0.9501
6.8868 10.5261 -2.3643 0.9501
5.5066 9.2051 -2.0161 0.9573
5.2734 9.2322 -1.9984 0.9576
6.0180 11.0462 -2.3644 0.9501
5.7944 11.1650 -2.3644 0.9501
5.5685 11.2794 -2.3644 0.9501
5.1098 11.4941 -2.3643 0.9501
4.8774 11.5945 -2.3643 0.9501
4.6429 11.6902 -2.3643 0.9501
4.4066 11.7811 -2.3642 0.9501
4.1685 11.8671 -2.3642 0.9501
3.9287 11.9484 -2.3641 0.9501
3.4444 12.0962 -2.3640 0.9501
3.2001 12.1627 -2.3639 0.9501
2.9546 12.2242 -2.3638 0.9501
2.4600 12.3324 -2.3637 0.9501
1.7110 12.4568 -2.3634 0.9501
1.2081 12.5143 -2.3631 0.9501
0.9559 12.5354 -2.3630 0.9501
0.7033 12.5514 -2.3629 0.9501
0.1975 12.5681 -2.3626 0.9501
-1.3177 12.4953 -2.3616 0.9501
-1.5688 12.4653 -2.3615 0.9502
-1.8193 12.4303 -2.3613 0.9502
-2.8123 12.2396 -2.3605 0.9502
-3.5449 12.0443 -2.3599 0.9502
-2.8590 8.4432 -1.6755 0.9644
-2.9939 8.2885 -1.6564 0.9648
-4.2036 10.9430 -2.2034 0.9534
-4.2410 10.4093 -2.1127 0.9553
-4.2572 9.8755 -2.0213 0.9572
-4.2859 8.9344 -1.8625 0.9605
-5.1548 8.8424 -1.9238 0.9592
-5.4122 8.8687 -1.9528 0.9586
-5.9253 8.8843 -2.0072 0.9575
-6.1929 8.8924 -2.0368 0.9569
-6.4686 8.9008 -2.0681 0.9562
-7.7682 9.8311 -2.3551 0.9503
-7.9635 9.6716 -2.3548 0.9503
-8.3443 9.3409 -2.3542 0.9503
-8.5296 9.1700 -2.3540 0.9503
-8.7114 8.9953 -2.3537 0.9503
-8.8896 8.8171 -2.3534 0.9503
-10.1634 -5.9508 -2.4895 0.9530
-10.0409 -6.1539 -2.4894 0.9530
-9.7841 -6.5523 -2.4891 0.9530
-9.5114 -6.9401 -2.4888 0.9530
-9.3694 -7.1298 -2.4887 0.9530
-9.2235 -7.3166 -2.4886 0.9530
-8.6038 -8.0336 -2.4882 0.9530
-8.4400 -8.2048 -2.4881 0.9530
-8.2729 -8.3728 -2.4880 0.9530
-8.1025 -8.5374 -2.4880 0.9530
-7.5719 -9.0101 -2.4878 0.9530
-7.3888 -9.1605 -2.4877 0.9530
-7.0139 -9.4502 -2.4876 0.9530
-6.8221 -9.5893 -2.4876 0.9530
-6.0285 -10.1066 -2.4875 0.9530
-5.8238 -10.2259 -2.4875 0.9530
-5.6168 -10.3410 -2.4875 0.9530
-4.5451 -10.8430 -2.4852 0.9531
-3.6384 -11.1131 -2.4718 0.9533
-3.3900 -11.1053 -2.4544 0.9536
-2.9038 -11.0934 -2.4239 0.9542
-2.4287 -11.0816 -2.3980 0.9547
-1.2794 -11.0661 -2.3547 0.9555
-1.0539 -11.0635 -2.3492 0.9556
-0.8295 -11.0637 -2.3452 0.9557
-0.6060 -11.0665 -2.3427 0.9557
-0.3829 -11.0689 -2.3411 0.9557
0.2859 -11.0729 -2.3414 0.9557
0.5092 -11.0755 -2.3436 0.9557
0.7330 -11.0783 -2.3468 0.9556
0.9577 -11.0823 -2.3513 0.9555
1.6388 -11.0988 -2.3715 0.9552
1.8691 -11.1065 -2.3807 0.9550
2.1012 -11.1140 -2.3909 0.9548
2.8122 -11.1414 -2.4289 0.9541
3.7854 -11.1325 -2.4855 0.9531
4.0115 -11.0616 -2.4872 0.9530
4.2364 -10.9865 -2.4890 0.9530
4.6822 -10.8235 -2.4928 0.9529
4.9000 -10.7289 -2.4932 0.9529
5.3289 -10.5250 -2.4937 0.9529
5.5402 -10.4166 -2.4939 0.9529
6.3626 -9.9411 -2.4949 0.9529
6.5620 -9.8120 -2.4951 0.9529
6.9531 -9.5419 -2.4956 0.9529
7.3330 -9.2562 -2.4962 0.9529
7.7013 -8.9555 -2.4967 0.9529
7.8808 -8.7996 -2.4970 0.9529
8.7299 -7.9675 -2.4983 0.9528
8.8895 -7.7911 -2.4986 0.9528
9.1980 -7.4286 -2.4992 0.9528
10.0328 -6.2705 -2.5009 0.9528
10.1582 -6.0680 -2.5012 0.9528
10.3966 -5.6555 -2.5017 0.9528
10.6182 -5.2337 -2.5023 0.9528
10.9185 -4.5848 -2.5032 0.9527
11.0098 -4.3646 -2.5035 0.9527
11.1791 -3.9188 -2.5040 0.9527
11.2570 -3.6934 -2.5043 0.9527
11.3303 -3.4665 -2.5046 0.9527
11.3991 -3.2381 -2.5049 0.9527
11.5227 -2.7773 -2.5054 0.9527
11.6277 -2.3118 -2.5060 0.9527
11.6732 -2.0775 -2.5062 0.9527
11.7499 -1.6063 -2.5068 0.9527
11.7811 -1.3696 -2.5071 0.9527
11.8580 -0.4177 -2.5081 0.9526
11.8652 0.2988 -2.5089 0.9526
11.8458 0.7763 -2.5093 0.9526
11.8073 1.2527 -2.5098 0.9526
11.7808 1.4902 -2.5101 0.9526
11.7134 1.9636 -2.5105 0.9526
11.5766 2.6677 -2.5112 0.9526
11.5215 2.9004 -2.5114 0.9526
11.4617 3.1320 -2.5116 0.9526
11.3973 3.3623 -2.5118 0.9526
11.2545 3.8190 -2.5122 0.9526
11.1762 4.0450 -2.5124 0.9526
11.0934 4.2695 -2.5126 0.9526
11.0060 4.4922 -2.5128 0.9526
10.5024 5.5773 -2.5136 0.9525
10.2707 5.9962 -2.5139 0.9525
9.7536 6.8018 -2.5135 0.9525
9.6044 6.9893 -2.5108 0.9526
8.5730 7.3629 -2.3888 0.9548
7.7033 8.0962 -2.3622 0.9553
7.5390 8.2498 -2.3623 0.9553
6.4908 9.0992 -2.3626 0.9553
6.1195 9.3533 -2.3627 0.9553
5.2255 8.3490 -2.0820 0.9605
5.7381 9.5921 -2.3627 0.9553
5.3474 9.8153 -2.3627 0.9553
4.7452 10.1201 -2.3627 0.9553
4.1256 10.3877 -2.3626 0.9553
3.9156 10.4684 -2.3625 0.9553
2.6254 10.8624 -2.3622 0.9553
2.1859 10.9586 -2.3621 0.9553
1.9649 11.0000 -2.3620 0.9553
1.5204 11.0693 -2.3618 0.9553
1.2972 11.0972 -2.3617 0.9553
1.0735 11.1205 -2.3616 0.9554
0.4003 11.1634 -2.3612 0.9554
0.1755 11.1686 -2.3611 0.9554
-0.4988 11.1570 -2.3607 0.9554
-0.9473 11.1265 -2.3604 0.9554
-1.3942 11.0779 -2.3601 0.9554
-1.6168 11.0468 -2.3599 0.9554
-2.0598 10.9712 -2.3596 0.9554
-2.4994 10.8778 -2.3593 0.9554
-2.9347 10.7667 -2.3589 0.9554
-3.1506 10.7046 -2.3587 0.9554
-2.8201 8.3282 -1.8586 0.9647
-4.1552 10.1987 -2.3279 0.9560
-4.2860 8.9347 -2.0947 0.9603
-4.6907 8.8465 -2.1166 0.9599
-5.1656 8.8609 -2.1681 0.9589
-5.6130 8.7946 -2.2054 0.9582
-5.8623 8.7897 -2.2333 0.9577
-6.6812 8.8146 -2.3380 0.9558
-7.0794 8.5978 -2.3542 0.9555
-7.4181 8.3041 -2.3537 0.9555
-7.9032 7.8387 -2.3529 0.9555
-8.9216 -5.7180 -2.4905 0.9574
-8.8042 -5.8961 -2.4903 0.9574
-8.6833 -6.0719 -2.4902 0.9574
-8.5590 -6.2452 -2.4901 0.9574
-8.4312 -6.4159 -2.4900 0.9574
-8.1655 -6.7495 -2.4898 0.9574
-7.8867 -7.0722 -2.4896 0.9574
-7.5951 -7.3835 -2.4895 0.9574
-7.2914 -7.6827 -2.4893 0.9574
-7.1351 -7.8277 -2.4893 0.9574
-6.8139 -8.1082 -2.4892 0.9574
-6.6492 -8.2436 -2.4891 0.9574
-6.3118 -8.5043 -2.4890 0.9574
-5.6071 -8.9840 -2.4890 0.9574
-5.0546 -9.3060 -2.4889 0.9574
-3.6977 -9.9242 -2.4891 0.9574
-3.4973 -9.9968 -2.4891 0.9574
-3.2954 -10.0654 -2.4892 0.9574
-3.0922 -10.1299 -2.4892 0.9574
-2.8877 -10.1903 -2.4893 0.9574
-2.4754 -10.2988 -2.4894 0.9574
-2.2676 -10.3468 -2.4895 0.9574
-2.0590 -10.3907 -2.4895 0.9574
-1.8495 -10.4303 -2.4896 0.9574
-1.6392 -10.4658 -2.4897 0.9574
-1.4282 -10.4971 -2.4898 0.9574
-1.2167 -10.5241 -2.4899 0.9574
-0.5794 -10.5796 -2.4902 0.9574
-0.1531 -10.5951 -2.4903 0.9574
0.0602 -10.5965 -2.4905 0.9574
0.9126 -10.5599 -2.4911 0.9574
1.1250 -10.5400 -2.4912 0.9574
1.3370 -10.5159 -2.4914 0.9574
1.5485 -10.4875 -2.4915 0.9574
1.9696 -10.4180 -2.4918 0.9574
2.1791 -10.3769 -2.4920 0.9574
2.3877 -10.3316 -2.4922 0.9574
2.8020 -10.2286 -2.4925 0.9574
3.2119 -10.1090 -2.4929 0.9574
4.0158 -9.8209 -2.4937 0.9573
4.2130 -9.7389 -2.4939 0.9573
4.4085 -9.6529 -2.4941 0.9573
4.6023 -9.5630 -2.4943 0.9573
4.7943 -9.4692 -2.4945 0.9573
4.9844 -9.3716 -2.4947 0.9573
5.3585 -9.1650 -2.4951 0.9573
5.9034 -8.8272 -2.4958 0.9573
6.4272 -8.4572 -2.4965 0.9573
6.5968 -8.3269 -2.4967 0.9573
6.7637 -8.1932 -2.4970 0.9573
6.9279 -8.0562 -2.4972 0.9573
7.7061 -7.3229 -2.4984 0.9573
8.2735 -6.6820 -2.4994 0.9572
8.5374 -6.3449 -2.4999 0.9572
8.6643 -6.1723 -2.5002 0.9572
8.9076 -5.8198 -2.5007 0.9572
9.1365 -5.4577 -2.5012 0.9572
9.2454 -5.2732 -2.5015 0.9572
9.4521 -4.8978 -2.5020 0.9572
9.5498 -4.7070 -2.5022 0.9572
9.6436 -4.5143 -2.5025 0.9572
9.7335 -4.3198 -2.5028 0.9572
9.9015 -3.9253 -2.5033 0.9572
9.9795 -3.7255 -2.5035 0.9572
10.1893 -3.1174 -2.5043 0.9572
10.3620 -2.4975 -2.5050 0.9571
10.4112 -2.2887 -2.5053 0.9571
10.4969 -1.8681 -2.5058 0.9571
10.5334 -1.6566 -2.5060 0.9571
10.5656 -1.4444 -2.5063 0.9571
10.5936 -1.2315 -2.5065 0.9571
10.6173 -1.0181 -2.5067 0.9571
10.6366 -0.8043 -2.5070 0.9571
10.6516 -0.5901 -2.5072 0.9571
10.6623 -0.3756 -2.5074 0.9571
10.6707 0.0539 -2.5079 0.9571
10.6685 0.2687 -2.5081 0.9571
10.6509 0.6980 -2.5086 0.9571
10.6160 1.1263 -2.5090 0.9571
10.5920 1.3399 -2.5092 0.9571
10.5638 1.5529 -2.5094 0.9571
10.4080 2.3983 -2.5102 0.9571
10.0476 3.6365 -2.5113 0.9570
9.8944 4.0385 -2.5116 0.9570
9.8117 4.2371 -2.5118 0.9570
9.6344 4.6292 -2.5121 0.9570
9.5398 4.8224 -2.5123 0.9570
9.4414 5.0138 -2.5124 0.9570
9.3390 5.2031 -2.5126 0.9570
9.2329 5.3903 -2.5127 0.9570
9.1230 5.5754 -2.5128 0.9570
9.0094 5.7582 -2.5129 0.9570
8.6467 6.2923 -2.5133 0.9570
8.5186 6.4654 -2.5134 0.9570
8.3871 6.6358 -2.5135 0.9570
7.9634 7.1228 -2.5110 0.9570
6.4731 7.6829 -2.3611 0.9596
6.3172 7.8117 -2.3611 0.9596
5.8345 8.1792 -2.3613 0.9596
5.6688 8.2950 -2.3613 0.9596
5.5007 8.4075 -2.3613 0.9596
5.2254 8.3488 -2.3148 0.9603
4.9833 8.7243 -2.3613 0.9596
4.6281 8.9178 -2.3613 0.9596
4.4477 9.0091 -2.3613 0.9596
4.2654 9.0968 -2.3613 0.9596
4.0814 9.1807 -2.3613 0.9596
3.8957 9.2609 -2.3613 0.9596
3.3296 9.4788 -2.3612 0.9596
3.1380 9.5437 -2.3611 0.9596
2.9452 9.6047 -2.3611 0.9596
2.5561 9.7150 -2.3610 0.9596
2.1629 9.8095 -2.3608 0.9596
1.9650 9.8508 -2.3608 0.9596
1.5668 9.9212 -2.3606 0.9596
1.3667 9.9504 -2.3605 0.9596
0.9650 9.9966 -2.3603 0.9596
0.1578 10.0400 -2.3599 0.9596
-0.0443 10.0406 -2.3598 0.9596
-0.2464 10.0372 -2.3597 0.9596
-0.4484 10.0297 -2.3596 0.9596
-0.6501 10.0181 -2.3594 0.9596
-0.8516 10.0024 -2.3593 0.9596
-1.0527 9.9826 -2.3592 0.9596
-1.2534 9.9588 -2.3590 0.9596
-1.6530 9.8991 -2.3587 0.9596
-2.0498 9.8232 -2.3584 0.9596
-2.4432 9.7314 -2.3581 0.9596
-2.9608 8.1969 -2.0483 0.9648
-3.5963 9.3619 -2.3570 0.9596
-3.9696 9.2081 -2.3566 0.9596
-4.1993 8.7539 -2.2818 0.9609
-6.2095 7.8586 -2.3539 0.9597
-6.3658 7.7312 -2.3537 0.9597
-7.3938 7.6348 -2.4979 0.9573
-7.5523 7.4906 -2.4999 0.9572
-8.3048 -4.8626 -2.4917 0.9610
-8.2048 -5.0285 -2.4916 0.9610
-7.9950 -5.3542 -2.4914 0.9610
-7.8853 -5.5139 -2.4913 0.9610
-7.7724 -5.6712 -2.4912 0.9610
-7.4152 -6.1293 -2.4909 0.9610
-6.7607 -6.8423 -2.4905 0.9610
-6.6215 -6.9769 -2.4905 0.9610
-6.4796 -7.1086 -2.4904 0.9610
-6.0384 -7.4863 -2.4903 0.9610
-5.7320 -7.7230 -2.4902 0.9610
-5.5753 -7.8367 -2.4902 0.9610
-5.2553 -8.0546 -2.4901 0.9610
-4.5903 -8.4512 -2.4901 0.9610
-4.4193 -8.5419 -2.4901 0.9610
-4.2465 -8.6291 -2.4901 0.9610
-3.8957 -8.7931 -2.4901 0.9610
-3.5387 -8.9430 -2.4902 0.9610
-3.3580 -9.0125 -2.4902 0.9610
-3.1760 -9.0784 -2.4903 0.9610
-2.9927 -9.1407 -2.4903 0.9610
-2.2479 -9.3526 -2.4905 0.9610
-1.8698 -9.4360 -2.4906 0.9610
-1.6795 -9.4720 -2.4907 0.9610
-1.4886 -9.5041 -2.4908 0.9610
-1.1049 -9.5570 -2.4910 0.9610
-0.9123 -9.5776 -2.4910 0.9610
-0.1390 -9.6216 -2.4915 0.9610
0.4420 -9.6137 -2.4918 0.9610
0.6354 -9.6034 -2.4919 0.9610
0.8287 -9.5891 -2.4920 0.9610
1.0216 -9.5710 -2.4922 0.9610
1.2141 -9.5490 -2.4923 0.9610
1.4061 -9.5232 -2.4925 0.9610
1.5976 -9.4935 -2.4926 0.9610
1.7885 -9.4599 -2.4927 0.9610
1.9787 -9.4226 -2.4929 0.9610
2.1681 -9.3814 -2.4930 0.9610
2.3566 -9.3365 -2.4932 0.9610
2.5442 -9.2877 -2.4934 0.9610
2.7309 -9.2353 -2.4935 0.9610
2.9164 -9.1790 -2.4937 0.9610
3.1008 -9.1191 -2.4939 0.9610
3.2840 -9.0555 -2.4940 0.9610
3.4658 -8.9882 -2.4942 0.9610
3.6463 -8.9172 -2.4944 0.9610
3.8253 -8.8427 -2.4946 0.9610
4.0028 -8.7645 -2.4948 0.9610
4.1788 -8.6828 -2.4949 0.9610
4.3530 -8.5976 -2.4951 0.9610
4.5256 -8.5089 -2.4953 0.9610
4.6963 -8.4167 -2.4955 0.9610
4.8651 -8.3212 -2.4957 0.9610
5.5205 -7.9055 -2.4965 0.9609
5.6790 -7.7934 -2.4968 0.9609
5.8352 -7.6782 -2.4970 0.9609
5.9891 -7.5598 -2.4972 0.9609
6.1406 -7.4384 -2.4974 0.9609
6.2896 -7.3139 -2.4976 0.9609
6.9958 -6.6478 -2.4987 0.9609
7.2590 -6.3620 -2.4992 0.9609
7.3862 -6.2152 -2.4994 0.9609
7.5106 -6.0658 -2.4996 0.9609
7.8651 -5.6030 -2.5003 0.9609
7.9771 -5.4441 -2.5006 0.9609
8.0858 -5.2829 -2.5008 0.9609
8.3922 -4.7866 -2.5015 0.9609
9.0579 -3.3815 -2.5034 0.9608
9.2480 -2.8294 -2.5040 0.9608
9.4045 -2.2667 -2.5047 0.9608
9.4491 -2.0772 -2.5050 0.9608
9.4898 -1.8867 -2.5052 0.9608
9.5598 -1.5035 -2.5056 0.9608
9.6142 -1.1177 -2.5061 0.9608
9.6356 -0.9240 -2.5063 0.9608
9.6666 -0.5355 -2.5067 0.9608
9.6763 -0.3409 -2.5069 0.9608
9.6838 0.0489 -2.5073 0.9608
9.6816 0.2438 -2.5075 0.9608
9.6336 1.0221 -2.5083 0.9608
9.5566 1.6020 -2.5089 0.9608
9.4857 1.9857 -2.5093 0.9607
9.2978 2.7430 -2.5099 0.9607
9.2413 2.9297 -2.5101 0.9607
9.1810 3.1154 -2.5103 0.9607
9.0494 3.4828 -2.5106 0.9607
8.9029 3.8446 -2.5109 0.9607
8.7419 4.2004 -2.5112 0.9607
8.6560 4.3757 -2.5113 0.9607
8.1746 5.2246 -2.5119 0.9607
7.9583 5.5499 -2.5121 0.9607
7.1017 6.6142 -2.5127 0.9607
6.9674 6.7560 -2.5128 0.9607
6.6901 7.0313 -2.5129 0.9607
5.2416 7.6699 -2.4053 0.9623
4.8362 7.7270 -2.3602 0.9630
4.6797 7.8228 -2.3602 0.9630
4.3610 8.0048 -2.3602 0.9630
4.0353 8.1738 -2.3602 0.9630
3.8699 8.2533 -2.3602 0.9630
3.5345 8.4023 -2.3602 0.9630
3.1934 8.5375 -2.3601 0.9630
2.8471 8.6589 -2.3600 0.9630
2.3192 8.8144 -2.3599 0.9630
2.1412 8.8591 -2.3598 0.9630
1.9624 8.9002 -2.3598 0.9630
1.4216 9.0016 -2.3596 0.9630
1.2400 9.0281 -2.3595 0.9630
1.0580 9.0509 -2.3594 0.9630
0.5098 9.0972 -2.3591 0.9631
-0.0402 9.1102 -2.3588 0.9631
-0.2236 9.1071 -2.3587 0.9631
-0.7727 9.0757 -2.3584 0.9631
-1.1373 9.0363 -2.3581 0.9631
-1.3188 9.0111 -2.3580 0.9631
-1.4999 8.9822 -2.3578 0.9631
-2.2169 8.8303 -2.3573 0.9631
-2.5702 8.7328 -2.3570 0.9631
-2.7453 8.6787 -2.3568 0.9631
-2.8014 8.2729 -2.2615 0.9646
-2.9576 8.1880 -2.2541 0.9647
-3.2634 8.4954 -2.3563 0.9631
-3.4335 8.4273 -2.3561 0.9631
-3.7694 8.2811 -2.3558 0.9631
-3.9350 8.2029 -2.3556 0.9631
-4.0990 8.1214 -2.3554 0.9631
-4.5806 7.8573 -2.3549 0.9631
-5.3898 7.7392 -2.4419 0.9618
-5.6131 7.7236 -2.4721 0.9613
-5.8303 7.6919 -2.4990 0.9609
-5.9878 7.5779 -2.5006 0.9609
-6.4467 7.2167 -2.5055 0.9608
-6.5901 7.0849 -2.5053 0.9608
-7.5067 -4.6007 -2.4925 0.9641
-7.4123 -4.7507 -2.4924 0.9641
-7.1112 -5.1888 -2.4921 0.9641
-7.0051 -5.3307 -2.4920 0.9641
-6.7844 -5.6079 -2.4918 0.9641
-6.6700 -5.7432 -2.4917 0.9641
-6.5528 -5.8761 -2.4917 0.9641
-6.3107 -6.1348 -2.4915 0.9641
-6.0583 -6.3835 -2.4914 0.9641
-5.9285 -6.5040 -2.4914 0.9641
-5.7963 -6.6219 -2.4913 0.9641
-5.5249 -6.8496 -2.4912 0.9641
-5.2445 -7.0663 -2.4912 0.9641
-5.1012 -7.1703 -2.4912 0.9641
-4.9558 -7.2715 -2.4911 0.9641
-4.8084 -7.3697 -2.4911 0.9641
-4.6590 -7.4650 -2.4911 0.9641
-4.5078 -7.5572 -2.4911 0.9641
-4.3548 -7.6464 -2.4911 0.9641
-4.2000 -7.7325 -2.4911 0.9641
-3.8854 -7.8953 -2.4911 0.9641
-3.4018 -8.1156 -2.4911 0.9641
-3.2378 -8.1825 -2.4912 0.9641
-3.0725 -8.2461 -2.4912 0.9641
-2.7382 -8.3633 -2.4913 0.9641
-2.5693 -8.4169 -2.4913 0.9641
-2.0567 -8.5571 -2.4915 0.9641
-1.8841 -8.5970 -2.4915 0.9641
-1.7108 -8.6334 -2.4916 0.9641
-1.5367 -8.6663 -2.4916 0.9641
-1.1867 -8.7217 -2.4918 0.9641
-1.0109 -8.7441 -2.4919 0.9641
-0.6582 -8.7783 -2.4920 0.9641
-0.4814 -8.7900 -2.4921 0.9641
0.4044 -8.7957 -2.4926 0.9641
0.7582 -8.7731 -2.4929 0.9641
1.1108 -8.7363 -2.4931 0.9641
1.4617 -8.6854 -2.4934 0.9640
1.8103 -8.6205 -2.4936 0.9640
1.9835 -8.5828 -2.4938 0.9640
2.1560 -8.5416 -2.4939 0.9640
2.3276 -8.4970 -2.4941 0.9640
2.4983 -8.4489 -2.4942 0.9640
2.6681 -8.3975 -2.4944 0.9640
2.8367 -8.3426 -2.4945 0.9640
3.0043 -8.2843 -2.4947 0.9640
3.3357 -8.1578 -2.4950 0.9640
3.4995 -8.0895 -2.4952 0.9640
3.8228 -7.9431 -2.4955 0.9640
4.2961 -7.6996 -2.4960 0.9640
5.3377 -7.0236 -2.4974 0.9640
5.7533 -6.6902 -2.4980 0.9640
6.0189 -6.4543 -2.4984 0.9640
6.1481 -6.3323 -2.4986 0.9640
6.5206 -5.9512 -2.4992 0.9640
6.7560 -5.6849 -2.4996 0.9640
7.1938 -5.1248 -2.5004 0.9639
7.4919 -4.6825 -2.5011 0.9639
7.6756 -4.3779 -2.5015 0.9639
7.8469 -4.0661 -2.5019 0.9639
7.9279 -3.9076 -2.5021 0.9639
8.0056 -3.7476 -2.5024 0.9639
8.2193 -3.2584 -2.5030 0.9639
8.3452 -2.9254 -2.5034 0.9639
8.4031 -2.7571 -2.5036 0.9639
8.4576 -2.5876 -2.5038 0.9639
8.5087 -2.4170 -2.5041 0.9639
8.5563 -2.2455 -2.5043 0.9639
8.6412 -1.8996 -2.5047 0.9639
8.7121 -1.5505 -2.5051 0.9639
8.7422 -1.3749 -2.5053 0.9639
8.7688 -1.1988 -2.5055 0.9639
8.7919 -1.0221 -2.5057 0.9639
8.8114 -0.8450 -2.5059 0.9639
8.8273 -0.6675 -2.5061 0.9639
8.8484 -0.3117 -2.5065 0.9639
8.8535 -0.1335 -2.5067 0.9639
8.8551 0.0447 -2.5068 0.9639
8.8530 0.2230 -2.5070 0.9639
8.8090 0.9346 -2.5078 0.9638
8.7890 1.1118 -2.5079 0.9638
8.7076 1.6406 -2.5084 0.9638
8.6357 1.9900 -2.5088 0.9638
8.5944 2.1635 -2.5089 0.9638
8.5496 2.3362 -2.5091 0.9638
8.5014 2.5080 -2.5092 0.9638
8.3946 2.8485 -2.5095 0.9638
8.2740 3.1844 -2.5098 0.9638
8.2087 3.3505 -2.5099 0.9638
8.0680 3.6786 -2.5102 0.9638
7.9928 3.8404 -2.5103 0.9638
7.9142 4.0007 -2.5105 0.9638
7.6594 4.4717 -2.5108 0.9638
7.5682 4.6252 -2.5109 0.9638
7.2761 5.0741 -2.5112 0.9638
7.1728 5.2197 -2.5113 0.9638
6.9573 5.5046 -2.5115 0.9638
6.7306 5.7805 -2.5116 0.9638
6.6131 5.9150 -2.5117 0.9638
6.4928 6.0471 -2.5118 0.9638
6.1165 6.4284 -2.5120 0.9638
5.9860 6.5504 -2.5120 0.9638
5.8530 6.6697 -2.5121 0.9638
5.7177 6.7862 -2.5121 0.9638
5.5800 6.9001 -2.5122 0.9638
5.4401 7.0111 -2.5122 0.9638
5.2979 7.1192 -2.5122 0.9638
5.1530 7.2237 -2.5120 0.9638
5.0037 7.3218 -2.5105 0.9638
4.8525 7.4168 -2.5091 0.9638
4.6996 7.5088 -2.5077 0.9638
4.5451 7.5978 -2.5064 0.9639
4.2061 7.7205 -2.4889 0.9641
3.6411 7.7654 -2.4280 0.9650
3.4584 7.7795 -2.4101 0.9652
3.2770 7.7901 -2.3925 0.9655
3.0980 7.8004 -2.3760 0.9657
2.7618 7.8625 -2.3591 0.9659
2.4430 7.9670 -2.3591 0.9660
2.2821 8.0144 -2.3590 0.9660
1.6299 8.1713 -2.3588 0.9660
1.4651 8.2022 -2.3587 0.9660
1.2997 8.2298 -2.3587 0.9660
1.1337 8.2541 -2.3586 0.9660
0.9673 8.2749 -2.3585 0.9660
0.8005 8.2925 -2.3585 0.9660
0.4661 8.3174 -2.3583 0.9660
-0.0368 8.3294 -2.3580 0.9660
-0.2044 8.3266 -2.3579 0.9660
-0.8733 8.2816 -2.3575 0.9660
-1.8642 8.1135 -2.3567 0.9660
-2.0270 8.0738 -2.3566 0.9660
-2.3501 7.9848 -2.3563 0.9660
-2.8372 7.8547 -2.3642 0.9659
-3.0138 7.8457 -2.3793 0.9657
-3.1927 7.8364 -2.3955 0.9654
-3.3741 7.8268 -2.4128 0.9652
-3.5580 7.8169 -2.4314 0.9649
-3.9348 7.7961 -2.4722 0.9643
-4.1279 7.7851 -2.4946 0.9640
-4.2943 7.7193 -2.5007 0.9639
-4.7591 7.4566 -2.5042 0.9639
-5.0597 7.2653 -2.5064 0.9639
-5.2045 7.1614 -2.5062 0.9639
-5.6260 6.8326 -2.5056 0.9639
-6.0266 6.4790 -2.5050 0.9639
-6.2815 6.2302 -2.5046 0.9639
-6.4494 -4.9078 -2.4928 0.9667
-6.3491 -5.0365 -2.4927 0.9667
-6.2463 -5.1631 -2.4926 0.9667
-6.0331 -5.4101 -2.4925 0.9667
-5.8101 -5.6482 -2.4923 0.9667
-5.4583 -5.9882 -2.4922 0.9667
-5.3366 -6.0968 -2.4921 0.9667
-5.2127 -6.2029 -2.4921 0.9667
-4.8286 -6.5059 -2.4920 0.9667
-4.4271 -6.7853 -2.4919 0.9667
-4.2896 -6.8730 -2.4919 0.9667
-4.1504 -6.9579 -2.4919 0.9667
-3.4302 -7.3398 -2.4919 0.9667
-3.1321 -7.4720 -2.4920 0.9667
-2.9810 -7.5336 -2.4920 0.9667
-2.8288 -7.5922 -2.4920 0.9667
-2.6755 -7.6477 -2.4921 0.9667
-1.5751 -7.9487 -2.4924 0.9667
