ply
format ascii 1.0
element vertex 1593
property float32 x
property float32 y
property float32 z
property float32 I
end_header
9.2570 -13.7804 -2.3522 0.9351
9.5324 -13.5930 -2.3524 0.9351
11.1015 -12.3559 -2.3535 0.9351
11.3481 -12.1316 -2.3537 0.9351
11.5902 -11.9025 -2.3539 0.9351
11.8276 -11.6684 -2.3541 0.9351
12.0603 -11.4297 -2.3543 0.9351
12.3425 -11.2358 -2.3649 0.9348
12.8402 -11.2260 -2.4166 0.9334
13.7514 -11.0814 -2.5023 0.9311
13.9965 -10.8230 -2.5069 0.9310
14.2179 -10.5453 -2.5081 0.9310
14.4276 -10.2586 -2.5083 0.9310
14.8297 -9.6729 -2.5087 0.9310
15.2079 -9.0713 -2.5090 0.9310
15.3879 -8.7649 -2.5092 0.9310
15.5616 -8.4550 -2.5093 0.9310
16.0451 -7.5048 -2.5098 0.9309
16.1934 -7.1818 -2.5100 0.9309
16.3353 -6.8558 -2.5101 0.9309
16.8361 -5.5253 -2.5107 0.9309
17.0459 -4.8458 -2.5109 0.9309
17.2283 -4.1584 -2.5112 0.9309
17.3090 -3.8121 -2.5113 0.9309
17.3828 -3.4642 -2.5114 0.9309
17.5619 -2.4124 -2.5117 0.9309
17.6459 -1.7060 -2.5119 0.9309
17.7263 0.4258 -2.5124 0.9309
17.7147 0.7814 -2.5124 0.9309
17.6958 1.1367 -2.5125 0.9309
17.6698 1.4916 -2.5125 0.9309
17.5490 2.5521 -2.5127 0.9309
17.2887 3.9511 -2.5128 0.9309
16.5656 6.3327 -2.5128 0.9309
16.1462 7.3140 -2.5115 0.9309
14.5696 8.0657 -2.3596 0.9349
14.2337 8.6434 -2.3595 0.9349
13.6871 9.4834 -2.3593 0.9349
11.9953 8.6726 -2.0973 0.9420
13.2948 10.0244 -2.3592 0.9349
12.6665 10.8051 -2.3590 0.9350
11.9922 11.5463 -2.3587 0.9350
10.7731 12.6867 -2.3582 0.9350
10.5159 12.8997 -2.3581 0.9350
6.4639 8.2623 -1.4864 0.9585
9.7193 13.5070 -2.3578 0.9350
8.8905 14.0694 -2.3581 0.9350
8.6084 14.2482 -2.3587 0.9350
8.0332 14.5884 -2.3597 0.9349
7.4443 14.9047 -2.3606 0.9349
7.1450 15.0537 -2.3610 0.9349
6.5374 15.3331 -2.3618 0.9349
5.2896 15.8157 -2.3629 0.9348
4.3296 16.1094 -2.3635 0.9348
3.0246 16.4075 -2.3639 0.9348
2.6948 16.4652 -2.3640 0.9348
1.3659 16.6271 -2.3638 0.9348
1.0320 16.6504 -2.3637 0.9348
0.3630 16.6763 -2.3634 0.9348
0.0284 16.6789 -2.3632 0.9348
-0.6407 16.6633 -2.3628 0.9349
-1.6414 16.5884 -2.3619 0.9349
-1.9737 16.5497 -2.3615 0.9349
-2.3050 16.5041 -2.3611 0.9349
-2.6352 16.4517 -2.3607 0.9349
-2.9642 16.3926 -2.3603 0.9349
-3.2919 16.3267 -2.3599 0.9349
-3.6181 16.2540 -2.3594 0.9349
-4.5863 15.9961 -2.3578 0.9350
-5.2218 15.7913 -2.3566 0.9350
-5.5361 15.6792 -2.3560 0.9350
-5.8480 15.5606 -2.3553 0.9350
-6.1572 15.4357 -2.3546 0.9351
-5.9406 12.6268 -1.9772 0.9452
-6.0416 12.1998 -1.9289 0.9465
-5.4290 10.4310 -1.6662 0.9536
-5.5079 9.6194 -1.5706 0.9562
-8.8030 14.0364 -2.3476 0.9353
-9.0794 13.8517 -2.3467 0.9353
-9.3549 13.6658 -2.3465 0.9353
-9.6263 13.4742 -2.3463 0.9353
-9.8939 13.2772 -2.3461 0.9353
-10.4169 12.8674 -2.3457 0.9353
-11.1695 12.2144 -2.3452 0.9353
-11.6487 11.7546 -2.3448 0.9353
-11.8813 11.5176 -2.3446 0.9353
-12.7626 10.5247 -2.3439 0.9354
-13.1726 10.0027 -2.3435 0.9354
-13.5614 9.4648 -2.3432 0.9354
-13.4823 8.2500 -2.2396 0.9381
-14.5941 7.7643 -2.3423 0.9354
-15.1781 7.6883 -2.4107 0.9336
-15.8159 7.6166 -2.4873 0.9315
-16.2859 6.6678 -2.4934 0.9314
-16.5385 6.0084 -2.4932 0.9314
-17.0528 4.3206 -2.4925 0.9314
-17.1352 3.9774 -2.4924 0.9314
-17.3960 2.5902 -2.4920 0.9314
-17.4438 2.2406 -2.4919 0.9314
-17.4846 1.8901 -2.4918 0.9314
-17.5184 1.5388 -2.4917 0.9314
-17.5648 0.8346 -2.4916 0.9314
-3.8141 -13.7107 -2.3445 0.9439
-3.2614 -13.8544 -2.3448 0.9439
-2.9829 -13.9180 -2.3449 0.9439
-2.4224 -14.0283 -2.3452 0.9439
-2.1406 -14.0750 -2.3454 0.9439
-1.8579 -14.1161 -2.3455 0.9439
-1.2902 -14.1813 -2.3459 0.9439
-1.0055 -14.2053 -2.3460 0.9439
0.7082 -14.2293 -2.3470 0.9439
0.9937 -14.2133 -2.3472 0.9439
1.2787 -14.1915 -2.3474 0.9439
1.8474 -14.1309 -2.3477 0.9439
2.1307 -14.0920 -2.3479 0.9439
2.9753 -13.9415 -2.3484 0.9438
3.5328 -13.8129 -2.3488 0.9438
4.0848 -13.6622 -2.3491 0.9438
5.1686 -13.2947 -2.3499 0.9438
6.2197 -12.8414 -2.3506 0.9438
7.2315 -12.3050 -2.3513 0.9438
7.4775 -12.1584 -2.3514 0.9438
7.7205 -12.0068 -2.3516 0.9438
8.1972 -11.6891 -2.3520 0.9438
8.4307 -11.5231 -2.3521 0.9438
9.6834 -11.2226 -2.4419 0.9417
10.3681 -11.0840 -2.5003 0.9403
10.6032 -10.8889 -2.5038 0.9402
10.8296 -10.6838 -2.5061 0.9402
11.0425 -10.4651 -2.5063 0.9402
11.4550 -10.0149 -2.5066 0.9402
11.6544 -9.7837 -2.5068 0.9402
11.8491 -9.5485 -2.5069 0.9402
12.0391 -9.3095 -2.5071 0.9402
12.9149 -8.0592 -2.5079 0.9402
13.0748 -7.7989 -2.5080 0.9401
13.2294 -7.5354 -2.5081 0.9401
13.3786 -7.2689 -2.5083 0.9401
13.6610 -6.7270 -2.5086 0.9401
13.9213 -6.1741 -2.5088 0.9401
14.0431 -5.8939 -2.5089 0.9401
14.4732 -4.7498 -2.5094 0.9401
14.6534 -4.1657 -2.5096 0.9401
14.7347 -3.8710 -2.5097 0.9401
14.8100 -3.5747 -2.5098 0.9401
14.9426 -2.9779 -2.5100 0.9401
15.0512 -2.3761 -2.5102 0.9401
15.1354 -1.7705 -2.5104 0.9401
15.1684 -1.4665 -2.5105 0.9401
15.1952 -1.1619 -2.5105 0.9401
15.2159 -0.8568 -2.5106 0.9401
15.2410 0.0602 -2.5108 0.9401
15.2270 0.6717 -2.5109 0.9401
15.2108 0.9771 -2.5110 0.9401
15.1598 1.5866 -2.5111 0.9401
15.0844 2.1936 -2.5111 0.9401
14.9846 2.7971 -2.5112 0.9401
14.9256 3.0973 -2.5112 0.9401
14.7896 3.6937 -2.5113 0.9401
14.7125 3.9897 -2.5113 0.9401
14.6296 4.2841 -2.5113 0.9401
14.5407 4.5768 -2.5113 0.9401
14.4459 4.8676 -2.5113 0.9401
14.0090 6.0101 -2.5112 0.9401
13.6216 6.8418 -2.5112 0.9401
13.4815 7.1137 -2.5111 0.9401
13.3235 7.3758 -2.5088 0.9401
12.1450 7.7128 -2.3701 0.9433
11.7650 8.1517 -2.3579 0.9436
11.4280 8.6168 -2.3578 0.9436
10.8880 9.2880 -2.3576 0.9436
10.6991 9.5043 -2.3576 0.9436
10.5060 9.7167 -2.3575 0.9436
10.3085 9.9252 -2.3574 0.9436
10.1070 10.1297 -2.3573 0.9436
9.4782 10.7183 -2.3571 0.9436
6.3933 8.1720 -1.7093 0.9588
8.5869 11.4418 -2.3567 0.9437
8.1202 11.7761 -2.3565 0.9437
7.8819 11.9361 -2.3564 0.9437
7.3960 12.2415 -2.3561 0.9437
6.8982 12.5271 -2.3559 0.9437
6.3894 12.7924 -2.3557 0.9437
6.1311 12.9174 -2.3555 0.9437
5.8703 13.0371 -2.3554 0.9437
5.6072 13.1515 -2.3553 0.9437
5.3419 13.2606 -2.3551 0.9437
5.0745 13.3643 -2.3550 0.9437
4.8050 13.4626 -2.3549 0.9437
4.5337 13.5555 -2.3547 0.9437
4.2605 13.6429 -2.3546 0.9437
3.4313 13.8719 -2.3541 0.9437
3.1525 13.9386 -2.3542 0.9437
1.4556 14.2169 -2.3543 0.9437
1.1700 14.2429 -2.3543 0.9437
0.8840 14.2629 -2.3542 0.9437
-1.1209 14.2385 -2.3529 0.9437
-1.6909 14.1786 -2.3523 0.9438
-1.9748 14.1399 -2.3520 0.9438
-2.2578 14.0954 -2.3517 0.9438
-3.1001 13.9271 -2.3505 0.9438
-3.3783 13.8596 -2.3501 0.9438
-3.9311 13.7109 -2.3497 0.9438
-4.4774 13.5401 -2.3494 0.9438
-4.7478 13.4465 -2.3492 0.9438
-5.0162 13.3475 -2.3490 0.9438
-5.6334 12.6254 -2.2775 0.9455
-5.5918 11.8854 -2.1639 0.9481
-5.7874 11.6864 -2.1484 0.9485
-5.5393 9.6743 -1.8365 0.9558
-7.3271 12.2212 -2.3474 0.9439
-7.5703 12.0709 -2.3473 0.9439
-7.8104 11.9157 -2.3471 0.9439
-9.1810 10.8867 -2.3461 0.9439
-10.2218 9.9089 -2.3453 0.9439
-10.6097 9.4896 -2.3450 0.9439
-10.9805 9.0551 -2.3447 0.9439
-11.1592 8.8324 -2.3445 0.9439
-11.3335 8.6061 -2.3444 0.9439
-11.5032 8.3765 -2.3442 0.9439
-11.8286 7.9073 -2.3439 0.9440
-13.0419 7.6251 -2.4888 0.9406
-13.2141 7.3741 -2.4929 0.9405
-13.3721 7.1142 -2.4953 0.9404
-13.5114 6.8441 -2.4951 0.9404
-13.7736 6.2958 -2.4949 0.9405
-14.2313 5.1702 -2.4944 0.9405
-14.4259 4.5946 -2.4941 0.9405
-14.7454 3.4226 -2.4937 0.9405
-14.9702 2.2290 -2.4934 0.9405
-15.0466 1.6265 -2.4932 0.9405
-15.0988 1.0214 -2.4931 0.9405
-15.1158 0.7183 -2.4930 0.9405
-3.1021 -12.0853 -2.3452 0.9505
-2.1236 -12.2979 -2.3457 0.9505
-1.3802 -12.4056 -2.3461 0.9505
-1.1310 -12.4315 -2.3463 0.9505
-0.6314 -12.4684 -2.3466 0.9505
-0.3812 -12.4794 -2.3467 0.9505
1.1209 -12.4396 -2.3476 0.9504
1.3703 -12.4154 -2.3478 0.9504
2.1152 -12.3128 -2.3482 0.9504
2.3620 -12.2687 -2.3484 0.9504
2.8527 -12.1657 -2.3487 0.9504
3.5801 -11.9744 -2.3492 0.9504
3.8199 -11.9010 -2.3493 0.9504
4.0582 -11.8227 -2.3495 0.9504
4.5299 -11.6519 -2.3498 0.9504
4.9944 -11.4623 -2.3501 0.9504
6.2989 -11.2280 -2.4198 0.9490
6.8989 -11.2175 -2.4753 0.9478
7.1848 -11.1736 -2.4969 0.9474
7.4148 -11.0381 -2.4994 0.9473
7.8673 -10.7530 -2.5043 0.9472
8.2934 -10.4300 -2.5047 0.9472
8.9076 -9.9140 -2.5051 0.9472
9.6761 -9.1701 -2.5057 0.9472
9.8587 -8.9747 -2.5059 0.9472
10.0374 -8.7755 -2.5060 0.9472
10.3826 -8.3667 -2.5063 0.9472
10.7111 -7.9443 -2.5066 0.9472
10.8689 -7.7282 -2.5067 0.9472
11.3159 -7.0614 -2.5071 0.9472
11.4559 -6.8333 -2.5072 0.9472
11.5913 -6.6024 -2.5074 0.9472
11.7220 -6.3688 -2.5075 0.9472
11.8480 -6.1326 -2.5076 0.9471
12.1972 -5.4095 -2.5079 0.9471
12.3038 -5.1639 -2.5081 0.9471
12.4055 -4.9162 -2.5082 0.9471
12.7618 -3.9063 -2.5086 0.9471
12.9751 -3.1319 -2.5089 0.9471
13.0358 -2.8710 -2.5089 0.9471
13.0912 -2.6089 -2.5090 0.9471
13.1413 -2.3458 -2.5091 0.9471
13.1862 -2.0817 -2.5092 0.9471
13.2257 -1.8168 -2.5093 0.9471
13.3502 -0.2152 -2.5096 0.9471
13.3521 0.0527 -2.5097 0.9471
13.2808 1.3900 -2.5099 0.9471
13.2505 1.6562 -2.5099 0.9471
13.1273 2.4504 -2.5100 0.9471
12.9563 3.2358 -2.5101 0.9471
12.8888 3.4951 -2.5101 0.9471
12.8162 3.7530 -2.5101 0.9471
12.2725 5.2651 -2.5101 0.9471
12.1643 5.5103 -2.5101 0.9471
11.8104 6.2319 -2.5100 0.9471
11.6829 6.4676 -2.5100 0.9471
11.4137 6.9309 -2.5099 0.9471
11.2721 7.1584 -2.5098 0.9471
10.9495 7.5867 -2.5038 0.9472
10.6413 7.6937 -2.4682 0.9480
10.2187 7.7050 -2.4055 0.9492
9.7003 7.9441 -2.3567 0.9502
9.2041 8.5126 -2.3565 0.9503
8.8546 8.8745 -2.3564 0.9503
6.6514 8.1592 -1.9786 0.9581
7.5232 10.0244 -2.3558 0.9503
7.1144 10.3174 -2.3556 0.9503
6.4799 10.7253 -2.3553 0.9503
5.8222 11.0942 -2.3550 0.9503
5.5981 11.2083 -2.3549 0.9503
5.3719 11.3178 -2.3548 0.9503
5.1434 11.4228 -2.3547 0.9503
4.9130 11.5231 -2.3545 0.9503
4.6805 11.6188 -2.3544 0.9503
4.4462 11.7098 -2.3543 0.9503
4.2102 11.7960 -2.3542 0.9503
3.9724 11.8775 -2.3541 0.9503
3.7331 11.9541 -2.3539 0.9503
3.4923 12.0260 -2.3538 0.9503
3.2501 12.0930 -2.3537 0.9503
3.0067 12.1550 -2.3535 0.9503
2.7620 12.2122 -2.3534 0.9503
1.2748 12.4512 -2.3526 0.9503
1.0247 12.4735 -2.3524 0.9503
0.2723 12.5102 -2.3520 0.9503
-0.2298 12.5095 -2.3517 0.9504
-0.7314 12.4886 -2.3514 0.9504
-1.4811 12.4196 -2.3509 0.9504
-1.9779 12.3485 -2.3506 0.9504
-2.2252 12.3055 -2.3505 0.9504
-2.4715 12.2576 -2.3503 0.9504
-2.7167 12.2047 -2.3502 0.9504
-2.9609 12.1470 -2.3500 0.9504
-3.4454 12.0168 -2.3497 0.9504
-3.6856 11.9445 -2.3495 0.9504
-3.9242 11.8673 -2.3494 0.9504
-4.1160 11.6571 -2.3237 0.9509
-4.3267 11.5127 -2.3117 0.9512
-4.5565 11.4228 -2.3115 0.9512
-4.7844 11.3283 -2.3114 0.9512
-5.0104 11.2293 -2.3112 0.9512
-5.2344 11.1257 -2.3111 0.9512
-5.4185 10.4109 -2.2060 0.9534
-6.1080 10.6675 -2.3105 0.9512
-6.3204 10.5421 -2.3103 0.9512
-7.0540 10.3047 -2.3472 0.9504
-7.6597 9.8598 -2.3468 0.9505
-8.2375 9.3793 -2.3463 0.9505
-8.9609 8.6866 -2.3458 0.9505
-9.3011 8.3191 -2.3455 0.9505
-9.4656 8.1303 -2.3454 0.9505
-9.7831 7.7431 -2.3451 0.9505
-10.5513 7.6833 -2.4533 0.9483
-11.0318 7.3746 -2.4942 0.9474
-11.4652 6.7033 -2.4963 0.9474
-11.5968 6.4716 -2.4962 0.9474
-11.7238 6.2373 -2.4961 0.9474
-11.9635 5.7613 -2.4958 0.9474
-12.1839 5.2762 -2.4956 0.9474
-12.2868 5.0305 -2.4955 0.9474
-12.5656 4.2817 -2.4952 0.9474
-12.6485 4.0285 -2.4951 0.9474
-12.8665 3.2599 -2.4948 0.9474
-12.9860 2.7409 -2.4946 0.9474
-13.0380 2.4797 -2.4946 0.9474
-13.0847 2.2175 -2.4945 0.9474
-13.1261 1.9545 -2.4944 0.9474
-13.1623 1.6906 -2.4943 0.9474
-13.1932 1.4262 -2.4943 0.9474
-13.2188 1.1611 -2.4942 0.9474
-2.6431 -11.2282 -2.4383 0.9539
-2.1724 -11.2317 -2.4182 0.9543
-1.7086 -11.2345 -2.4021 0.9546
-1.2501 -11.2366 -2.3898 0.9548
-0.7955 -11.2379 -2.3814 0.9550
-0.3433 -11.2386 -2.3767 0.9551
0.3335 -11.2384 -2.3766 0.9551
0.7856 -11.2374 -2.3812 0.9550
1.0125 -11.2366 -2.3848 0.9549
1.2401 -11.2357 -2.3894 0.9548
1.4687 -11.2346 -2.3950 0.9547
1.9295 -11.2318 -2.4090 0.9545
2.1620 -11.2301 -2.4174 0.9543
2.6324 -11.2263 -2.4374 0.9540
3.1112 -11.2216 -2.4615 0.9535
3.3543 -11.2190 -2.4752 0.9533
3.6001 -11.2161 -2.4900 0.9530
3.8323 -11.1645 -2.4951 0.9529
4.0578 -11.0915 -2.4965 0.9529
4.5049 -10.9328 -2.4995 0.9528
4.7264 -10.8472 -2.5011 0.9528
5.7940 -10.3280 -2.5032 0.9527
6.0004 -10.2102 -2.5033 0.9527
6.4060 -9.9624 -2.5036 0.9527
6.6049 -9.8324 -2.5038 0.9527
6.8013 -9.6985 -2.5039 0.9527
6.9949 -9.5606 -2.5041 0.9527
7.7406 -8.9710 -2.5046 0.9527
8.4368 -8.3233 -2.5052 0.9527
8.7649 -7.9789 -2.5054 0.9527
8.9236 -7.8018 -2.5055 0.9527
9.2304 -7.4383 -2.5058 0.9527
9.3783 -7.2519 -2.5059 0.9527
9.5223 -7.0626 -2.5060 0.9527
9.7990 -6.6755 -2.5063 0.9527
10.0598 -6.2776 -2.5065 0.9527
10.1842 -6.0748 -2.5066 0.9527
10.3045 -5.8695 -2.5067 0.9527
10.4207 -5.6618 -2.5068 0.9527
10.6404 -5.2396 -2.5071 0.9527
10.7438 -5.0252 -2.5072 0.9527
10.9376 -4.5905 -2.5074 0.9527
11.1952 -3.9246 -2.5076 0.9527
11.3445 -3.4725 -2.5078 0.9527
11.4122 -3.2443 -2.5079 0.9527
11.4754 -3.0148 -2.5080 0.9526
11.5340 -2.7840 -2.5081 0.9526
11.6371 -2.3191 -2.5082 0.9526
11.6816 -2.0852 -2.5083 0.9526
11.8332 -0.9048 -2.5086 0.9526
11.8670 -0.1913 -2.5088 0.9526
11.8687 0.0469 -2.5088 0.9526
11.8576 0.5230 -2.5089 0.9526
11.8274 0.9984 -2.5090 0.9526
11.8052 1.2355 -2.5090 0.9526
11.7464 1.7082 -2.5091 0.9526
11.5720 2.6446 -2.5091 0.9526
11.4566 3.1068 -2.5092 0.9526
11.1707 4.0153 -2.5092 0.9526
10.9088 4.6801 -2.5092 0.9526
10.7121 5.1139 -2.5091 0.9526
10.6073 5.3278 -2.5091 0.9526
10.4981 5.5395 -2.5091 0.9526
10.2672 5.9561 -2.5090 0.9526
9.6183 6.9540 -2.5088 0.9526
9.3253 7.3294 -2.5072 0.9527
8.6634 7.6959 -2.4495 0.9537
8.3309 7.7051 -2.3987 0.9547
7.3815 8.3473 -2.3554 0.9555
6.6876 8.9111 -2.3551 0.9555
6.5073 9.0432 -2.3550 0.9555
6.3243 9.1716 -2.3549 0.9555
5.9508 9.4172 -2.3547 0.9555
5.7604 9.5344 -2.3547 0.9555
5.1758 9.8625 -2.3544 0.9555
4.9766 9.9639 -2.3543 0.9555
4.5724 10.1547 -2.3541 0.9555
3.9527 10.4100 -2.3538 0.9555
3.7429 10.4867 -2.3536 0.9555
3.5315 10.5592 -2.3535 0.9555
3.3188 10.6274 -2.3534 0.9555
3.1048 10.6914 -2.3533 0.9555
2.2371 10.9037 -2.3528 0.9555
2.0178 10.9458 -2.3527 0.9555
1.7976 10.9836 -2.3526 0.9555
1.5768 11.0168 -2.3525 0.9555
0.9110 11.0899 -2.3521 0.9555
0.4653 11.1163 -2.3518 0.9555
0.0189 11.1248 -2.3516 0.9555
-0.4274 11.1154 -2.3513 0.9555
-0.8729 11.0880 -2.3510 0.9555
-1.5381 11.0135 -2.3506 0.9556
-1.9785 10.9416 -2.3503 0.9556
-2.4157 10.8522 -2.3501 0.9556
-2.6328 10.8008 -2.3499 0.9556
-2.8488 10.7452 -2.3498 0.9556
-3.7002 10.4798 -2.3492 0.9556
-3.9096 10.4028 -2.3491 0.9556
-4.1070 10.2959 -2.3431 0.9557
-4.3233 10.2363 -2.3488 0.9556
-5.5195 9.6396 -2.3480 0.9556
-5.7115 9.5264 -2.3479 0.9556
-5.9011 9.4093 -2.3477 0.9556
-6.2731 9.1639 -2.3475 0.9556
-7.1575 8.4872 -2.3468 0.9556
-7.3259 8.3414 -2.3467 0.9556
-7.8132 7.8843 -2.3463 0.9556
-8.5949 7.6875 -2.4375 0.9539
-9.0997 7.5041 -2.4932 0.9529
-9.2590 7.3284 -2.4960 0.9529
-9.4102 7.1457 -2.4976 0.9528
-9.9509 6.3670 -2.4971 0.9528
-10.0762 6.1657 -2.4970 0.9529
-10.1974 5.9621 -2.4969 0.9529
-10.3146 5.7560 -2.4968 0.9529
-10.5363 5.3371 -2.4966 0.9529
-10.6408 5.1244 -2.4965 0.9529
-10.8370 4.6930 -2.4963 0.9529
-10.9285 4.4744 -2.4962 0.9529
-11.0157 4.2541 -2.4961 0.9529
-11.0984 4.0320 -2.4960 0.9529
-11.1767 3.8084 -2.4959 0.9529
-11.2505 3.5833 -2.4958 0.9529
-11.3197 3.3567 -2.4957 0.9529
-11.3844 3.1288 -2.4957 0.9529
-11.5000 2.6693 -2.4955 0.9529
-11.6388 1.9725 -2.4953 0.9529
-11.7355 1.2686 -2.4951 0.9529
-11.7583 1.0328 -2.4950 0.9529
-11.7897 0.5602 -2.4949 0.9529
-2.6428 -10.2959 -2.4982 0.9573
-2.4358 -10.3473 -2.4983 0.9573
-2.2278 -10.3946 -2.4984 0.9573
-2.0189 -10.4377 -2.4986 0.9573
-1.5986 -10.5112 -2.4988 0.9573
-0.9635 -10.5899 -2.4992 0.9572
-0.5379 -10.6211 -2.4994 0.9572
-0.1113 -10.6352 -2.4996 0.9572
0.3155 -10.6321 -2.4999 0.9572
0.5288 -10.6242 -2.5000 0.9572
0.9547 -10.5955 -2.5003 0.9572
1.1672 -10.5748 -2.5004 0.9572
1.3792 -10.5498 -2.5005 0.9572
1.5907 -10.5206 -2.5007 0.9572
2.6371 -10.3110 -2.5013 0.9572
2.8436 -10.2566 -2.5015 0.9572
3.6576 -9.9977 -2.5020 0.9572
3.8577 -9.9228 -2.5021 0.9572
4.0562 -9.8440 -2.5023 0.9572
4.4484 -9.6743 -2.5025 0.9572
4.6418 -9.5836 -2.5027 0.9572
5.2108 -9.2885 -2.5031 0.9572
5.5799 -9.0729 -2.5033 0.9572
5.9400 -8.8426 -2.5036 0.9572
6.4622 -8.4705 -2.5040 0.9572
6.7975 -8.2052 -2.5042 0.9572
6.9611 -8.0676 -2.5043 0.9572
7.1220 -7.9267 -2.5045 0.9572
7.2799 -7.7826 -2.5046 0.9572
7.4350 -7.6353 -2.5047 0.9572
8.1643 -6.8538 -2.5053 0.9571
8.6890 -6.1782 -2.5057 0.9571
8.8116 -6.0029 -2.5058 0.9571
8.9307 -5.8251 -2.5059 0.9571
9.1579 -5.4626 -2.5061 0.9571
9.3705 -5.0912 -2.5063 0.9571
9.4711 -4.9023 -2.5064 0.9571
9.5679 -4.7115 -2.5065 0.9571
9.6609 -4.5187 -2.5066 0.9571
9.7499 -4.3241 -2.5067 0.9571
9.8351 -4.1278 -2.5068 0.9571
10.1357 -3.3263 -2.5071 0.9571
10.2617 -2.9172 -2.5073 0.9571
10.4637 -2.0853 -2.5076 0.9571
10.6399 -0.8136 -2.5079 0.9571
10.6543 -0.5999 -2.5080 0.9571
10.6688 0.2563 -2.5081 0.9571
10.6617 0.4703 -2.5082 0.9571
10.6145 1.1109 -2.5083 0.9571
10.5902 1.3237 -2.5083 0.9571
10.5288 1.7475 -2.5084 0.9571
10.4503 2.1686 -2.5084 0.9571
10.3550 2.5861 -2.5084 0.9571
10.3011 2.7934 -2.5084 0.9571
10.2430 2.9995 -2.5084 0.9571
10.1807 3.2045 -2.5084 0.9571
10.1144 3.4081 -2.5084 0.9571
10.0440 3.6103 -2.5084 0.9571
9.8910 4.0104 -2.5084 0.9571
9.8085 4.2080 -2.5084 0.9571
9.7220 4.4039 -2.5084 0.9571
9.6316 4.5981 -2.5084 0.9571
9.5374 4.7904 -2.5084 0.9571
9.4393 4.9807 -2.5083 0.9571
9.3373 5.1691 -2.5083 0.9571
9.2316 5.3553 -2.5083 0.9571
8.6482 6.2527 -2.5081 0.9571
8.5209 6.4248 -2.5081 0.9571
8.2560 6.7613 -2.5080 0.9571
8.1185 6.9254 -2.5079 0.9571
7.9777 7.0868 -2.5079 0.9571
7.8333 7.2448 -2.5077 0.9571
7.5210 7.5379 -2.5026 0.9572
5.8512 8.1315 -2.3544 0.9597
5.6867 8.2470 -2.3544 0.9597
5.3509 8.4679 -2.3542 0.9597
5.1798 8.5733 -2.3541 0.9597
4.8313 8.7736 -2.3540 0.9597
4.6541 8.8684 -2.3539 0.9597
4.4750 8.9597 -2.3538 0.9597
4.1116 9.1313 -2.3536 0.9597
3.7417 9.2882 -2.3534 0.9597
3.5544 9.3610 -2.3533 0.9597
2.7919 9.6142 -2.3529 0.9597
2.5984 9.6679 -2.3528 0.9597
2.4038 9.7176 -2.3527 0.9597
1.8145 9.8433 -2.3524 0.9597
0.2178 10.0029 -2.3515 0.9597
0.0170 10.0047 -2.3513 0.9597
-0.3844 9.9963 -2.3511 0.9597
-0.5848 9.9861 -2.3510 0.9597
-0.9849 9.9536 -2.3507 0.9597
-1.1844 9.9313 -2.3506 0.9597
-1.3833 9.9050 -2.3505 0.9597
-1.9764 9.8023 -2.3501 0.9597
-2.3679 9.7141 -2.3499 0.9597
-2.5621 9.6641 -2.3498 0.9598
-2.9475 9.5525 -2.3495 0.9598
-3.1384 9.4909 -2.3494 0.9598
-3.3280 9.4256 -2.3493 0.9598
-3.5163 9.3564 -2.3491 0.9598
-3.7031 9.2835 -2.3490 0.9598
-4.4346 8.9548 -2.3485 0.9598
-4.6131 8.8635 -2.3484 0.9598
-4.7898 8.7687 -2.3483 0.9598
-4.9645 8.6704 -2.3481 0.9598
-5.6425 8.2427 -2.3477 0.9598
-5.8065 8.1275 -2.3475 0.9598
-5.9681 8.0089 -2.3474 0.9598
-6.1273 7.8872 -2.3473 0.9598
-6.2840 7.7622 -2.3472 0.9598
-6.4951 7.7017 -2.3678 0.9594
-7.3091 7.6777 -2.4913 0.9574
-7.4685 7.5363 -2.4936 0.9573
-7.9237 7.0872 -2.4985 0.9573
-8.0640 6.9264 -2.4984 0.9573
-8.2010 6.7629 -2.4983 0.9573
-8.3346 6.5967 -2.4981 0.9573
-8.4649 6.4279 -2.4980 0.9573
-8.9515 5.7275 -2.4976 0.9573
-9.2788 5.1780 -2.4973 0.9573
-9.4783 4.8012 -2.4971 0.9573
-9.5724 4.6098 -2.4970 0.9573
-9.7489 4.2218 -2.4968 0.9573
-9.8314 4.0252 -2.4968 0.9573
-9.9098 3.8270 -2.4967 0.9573
-10.2417 2.8147 -2.4963 0.9573
-10.3457 2.4014 -2.4961 0.9573
-10.4332 1.9843 -2.4960 0.9573
-10.5039 1.5640 -2.4959 0.9573
-10.5577 1.1413 -2.4958 0.9573
-10.5946 0.7167 -2.4957 0.9573
-10.6066 0.5040 -2.4956 0.9573
-2.5862 -9.2965 -2.4984 0.9609
-2.2113 -9.3936 -2.4986 0.9609
-2.0224 -9.4364 -2.4987 0.9609
-1.4512 -9.5422 -2.4991 0.9609
-1.0673 -9.5936 -2.4993 0.9609
-0.6816 -9.6296 -2.4995 0.9609
-0.2947 -9.6500 -2.4997 0.9609
-0.1010 -9.6544 -2.4998 0.9609
0.4800 -9.6443 -2.5002 0.9609
1.0595 -9.5994 -2.5005 0.9609
1.2520 -9.5766 -2.5007 0.9609
1.4440 -9.5500 -2.5008 0.9609
1.6353 -9.5196 -2.5009 0.9609
1.8261 -9.4853 -2.5010 0.9609
2.2054 -9.4053 -2.5013 0.9609
2.3938 -9.3596 -2.5014 0.9609
2.5812 -9.3101 -2.5015 0.9609
2.7677 -9.2569 -2.5016 0.9609
2.9530 -9.2000 -2.5017 0.9609
3.3200 -9.0750 -2.5020 0.9609
3.6818 -8.9353 -2.5022 0.9609
4.3872 -8.6130 -2.5027 0.9608
4.5594 -8.5237 -2.5028 0.9608
5.0646 -8.2351 -2.5032 0.9608
5.2291 -8.1322 -2.5033 0.9608
5.3915 -8.0260 -2.5034 0.9608
5.7097 -7.8039 -2.5036 0.9608
5.8654 -7.6882 -2.5038 0.9608
6.0187 -7.5693 -2.5039 0.9608
6.3181 -7.3224 -2.5041 0.9608
6.8861 -6.7934 -2.5045 0.9608
7.2832 -6.3676 -2.5049 0.9608
7.6541 -5.9187 -2.5052 0.9608
7.8860 -5.6072 -2.5054 0.9608
7.9972 -5.4481 -2.5055 0.9608
8.1052 -5.2867 -2.5055 0.9608
8.2100 -5.1232 -2.5056 0.9608
8.3114 -4.9577 -2.5057 0.9608
8.4095 -4.7901 -2.5058 0.9608
8.6834 -4.2759 -2.5061 0.9608
8.9258 -3.7461 -2.5063 0.9608
8.9994 -3.5664 -2.5064 0.9608
9.4559 -2.0825 -2.5070 0.9608
9.6558 -0.7383 -2.5074 0.9608
9.6688 -0.5444 -2.5074 0.9608
9.6780 -0.3503 -2.5074 0.9608
9.6846 0.0382 -2.5075 0.9608
9.6508 0.8147 -2.5077 0.9608
9.6326 1.0081 -2.5077 0.9608
9.6105 1.2012 -2.5077 0.9608
9.5846 1.3938 -2.5077 0.9608
9.5548 1.5859 -2.5077 0.9608
9.5211 1.7773 -2.5078 0.9608
9.4836 1.9680 -2.5078 0.9608
9.4422 2.1579 -2.5078 0.9608
9.3971 2.3469 -2.5078 0.9608
9.3481 2.5350 -2.5078 0.9608
9.2954 2.7221 -2.5078 0.9608
9.1148 3.2763 -2.5078 0.9608
8.9760 3.6394 -2.5078 0.9608
8.7406 4.1727 -2.5078 0.9608
8.6551 4.3473 -2.5078 0.9608
8.4736 4.6909 -2.5077 0.9608
8.2784 5.0270 -2.5077 0.9608
8.1757 5.1921 -2.5076 0.9608
8.0698 5.3550 -2.5076 0.9608
7.9606 5.5157 -2.5076 0.9608
7.4923 6.1359 -2.5074 0.9608
7.3676 6.2849 -2.5074 0.9608
7.1092 6.5752 -2.5073 0.9608
6.9757 6.7163 -2.5072 0.9608
6.7003 6.9905 -2.5071 0.9608
6.4134 7.2525 -2.5067 0.9608
6.2613 7.3735 -2.5046 0.9608
6.1071 7.4915 -2.5025 0.9609
5.7689 7.6869 -2.4884 0.9611
5.3089 7.6991 -2.4214 0.9621
5.0877 7.7046 -2.3906 0.9626
4.7009 7.7806 -2.3537 0.9631
4.5436 7.8732 -2.3536 0.9631
4.2238 8.0486 -2.3535 0.9631
4.0613 8.1314 -2.3534 0.9631
3.7316 8.2873 -2.3532 0.9631
3.5644 8.3602 -2.3531 0.9631
3.3958 8.4297 -2.3530 0.9631
3.2259 8.4958 -2.3529 0.9631
2.5339 8.7257 -2.3526 0.9632
0.9251 9.0355 -2.3517 0.9632
0.7436 9.0519 -2.3516 0.9632
0.5618 9.0646 -2.3515 0.9632
0.1976 9.0790 -2.3513 0.9632
0.0154 9.0807 -2.3512 0.9632
-0.1668 9.0788 -2.3511 0.9632
-0.7125 9.0510 -2.3507 0.9632
-1.0750 9.0143 -2.3505 0.9632
-1.2556 8.9905 -2.3504 0.9632
-1.6152 8.9321 -2.3502 0.9632
-1.7940 8.8974 -2.3501 0.9632
-1.9720 8.8592 -2.3499 0.9632
-2.5011 8.7233 -2.3496 0.9632
-3.0209 8.5558 -2.3493 0.9632
-3.1918 8.4930 -2.3492 0.9632
-4.0255 8.1286 -2.3486 0.9632
-4.1876 8.0458 -2.3485 0.9632
-4.3479 7.9598 -2.3484 0.9632
-4.5066 7.8706 -2.3483 0.9632
-4.8326 7.7056 -2.3550 0.9631
-5.2668 7.6938 -2.4141 0.9622
-5.7240 7.6813 -2.4803 0.9612
-6.0638 7.4903 -2.4952 0.9610
-6.2176 7.3727 -2.4971 0.9609
-6.5141 7.1236 -2.4993 0.9609
-6.7941 6.8559 -2.4991 0.9609
-6.9300 6.7179 -2.4990 0.9609
-7.0631 6.5772 -2.4989 0.9609
-7.4451 6.1396 -2.4986 0.9609
-7.8000 5.6799 -2.4983 0.9609
-7.9121 5.5220 -2.4982 0.9609
-8.1267 5.1998 -2.4980 0.9609
-8.3281 4.8692 -2.4978 0.9609
-8.6051 4.3588 -2.4975 0.9609
-8.9257 3.6544 -2.4972 0.9609
-8.9969 3.4745 -2.4971 0.9609
-9.0646 3.2931 -2.4971 0.9609
-9.2455 2.7416 -2.4968 0.9609
-9.2984 2.5555 -2.4968 0.9609
-9.3929 2.1802 -2.4967 0.9609
-9.4346 1.9913 -2.4966 0.9609
-9.5366 1.4200 -2.4964 0.9609
-9.5630 1.2283 -2.4964 0.9609
-9.6190 0.6507 -2.4962 0.9609
-9.6299 0.4576 -2.4962 0.9609
-9.6370 0.2643 -2.4961 0.9609
-2.1946 -8.5497 -2.4988 0.9640
-1.1521 -8.7534 -2.4994 0.9640
-0.9762 -8.7751 -2.4995 0.9640
-0.6234 -8.8079 -2.4997 0.9640
0.0848 -8.8310 -2.5001 0.9640
0.2620 -8.8279 -2.5002 0.9640
0.7927 -8.7973 -2.5005 0.9639
0.9691 -8.7800 -2.5006 0.9639
1.1451 -8.7592 -2.5008 0.9639
1.3206 -8.7348 -2.5009 0.9639
1.6702 -8.6755 -2.5011 0.9639
1.8440 -8.6407 -2.5012 0.9639
2.0171 -8.6023 -2.5013 0.9639
2.1894 -8.5604 -2.5014 0.9639
2.7008 -8.4144 -2.5017 0.9639
2.8692 -8.3588 -2.5019 0.9639
3.0365 -8.3000 -2.5020 0.9639
3.6928 -8.0312 -2.5024 0.9639
3.8534 -7.9558 -2.5025 0.9639
4.0124 -7.8772 -2.5026 0.9639
4.1699 -7.7955 -2.5027 0.9639
4.3256 -7.7106 -2.5028 0.9639
4.6319 -7.5315 -2.5031 0.9639
4.7823 -7.4373 -2.5032 0.9639
4.9308 -7.3402 -2.5033 0.9639
5.2217 -7.1371 -2.5035 0.9639
5.3641 -7.0312 -2.5036 0.9639
5.7781 -6.6965 -2.5039 0.9639
5.9116 -6.5795 -2.5040 0.9639
6.0426 -6.4598 -2.5041 0.9639
6.1713 -6.3375 -2.5042 0.9639
6.2975 -6.2127 -2.5043 0.9639
6.4211 -6.0853 -2.5044 0.9639
6.6606 -5.8233 -2.5046 0.9639
6.7763 -5.6887 -2.5047 0.9639
6.9996 -5.4126 -2.5049 0.9639
7.1071 -5.2713 -2.5050 0.9639
7.6903 -4.3804 -2.5055 0.9639
7.7769 -4.2254 -2.5056 0.9639
7.8604 -4.0686 -2.5056 0.9639
7.9407 -3.9102 -2.5057 0.9639
8.0178 -3.7502 -2.5058 0.9639
8.2936 -3.0956 -2.5061 0.9639
8.3543 -2.9287 -2.5062 0.9639
8.4655 -2.5913 -2.5063 0.9639
8.5631 -2.2496 -2.5064 0.9639
8.7167 -1.5560 -2.5066 0.9639
8.7463 -1.3808 -2.5067 0.9639
8.7725 -1.2050 -2.5067 0.9639
8.8141 -0.8521 -2.5068 0.9639
8.8295 -0.6751 -2.5069 0.9639
8.8415 -0.4978 -2.5069 0.9639
8.8498 -0.3203 -2.5070 0.9639
8.8546 -0.1427 -2.5070 0.9639
8.8558 0.0350 -2.5070 0.9639
8.8534 0.2127 -2.5071 0.9639
8.8380 0.5677 -2.5071 0.9639
8.8249 0.7449 -2.5072 0.9639
8.7643 1.2746 -2.5072 0.9639
8.5928 2.1460 -2.5073 0.9639
8.5481 2.3180 -2.5073 0.9639
8.4482 2.6591 -2.5073 0.9639
8.2729 3.1625 -2.5073 0.9639
7.9926 3.8156 -2.5073 0.9639
7.9144 3.9752 -2.5072 0.9639
7.8330 4.1332 -2.5072 0.9639
7.5699 4.5968 -2.5072 0.9639
7.2794 5.0437 -2.5071 0.9639
7.1767 5.1887 -2.5070 0.9639
7.0710 5.3316 -2.5070 0.9639
6.9625 5.4723 -2.5070 0.9639
6.6203 5.8810 -2.5068 0.9639
6.3788 6.1416 -2.5068 0.9639
6.2542 6.2683 -2.5067 0.9639
6.1270 6.3924 -2.5067 0.9639
5.8654 6.6328 -2.5065 0.9639
5.7310 6.7490 -2.5065 0.9639
5.5943 6.8624 -2.5064 0.9639
5.4553 6.9731 -2.5064 0.9639
5.0238 7.2856 -2.5053 0.9639
4.8734 7.3800 -2.5036 0.9639
4.5675 7.5600 -2.5004 0.9639
4.0363 7.6913 -2.4590 0.9645
3.8436 7.6956 -2.4352 0.9649
3.6545 7.6996 -2.4128 0.9652
3.4687 7.7034 -2.3917 0.9655
3.2859 7.7070 -2.3718 0.9658
2.9502 7.7697 -2.3528 0.9660
2.7935 7.8267 -2.3526 0.9660
2.6358 7.8808 -2.3525 0.9660
2.4770 7.9319 -2.3524 0.9660
2.1566 8.0243 -2.3522 0.9660
1.9951 8.0656 -2.3521 0.9660
1.5061 8.1701 -2.3519 0.9661
1.3418 8.1984 -2.3518 0.9661
0.5138 8.2899 -2.3513 0.9661
-0.3191 8.2979 -2.3508 0.9661
-0.4855 8.2895 -2.3507 0.9661
-0.6517 8.2777 -2.3506 0.9661
-1.1483 8.2224 -2.3503 0.9661
-1.3130 8.1974 -2.3502 0.9661
-1.4772 8.1691 -2.3501 0.9661
-1.6407 8.1374 -2.3500 0.9661
-1.8036 8.1025 -2.3499 0.9661
-1.9657 8.0643 -2.3498 0.9661
-2.4470 7.9304 -2.3495 0.9661
-2.6055 7.8794 -2.3494 0.9661
-2.7629 7.8251 -2.3493 0.9661
-2.9193 7.7678 -2.3492 0.9661
-3.0763 7.7120 -2.3505 0.9661
-3.2536 7.7037 -2.3674 0.9658
-3.6208 7.6960 -2.4078 0.9653
-4.0010 7.6873 -2.4533 0.9646
-4.1965 7.6826 -2.4782 0.9643
-4.5319 7.5589 -2.4950 0.9640
-4.8370 7.3794 -2.4978 0.9640
-4.9870 7.2852 -2.4993 0.9640
-5.1339 7.1860 -2.5001 0.9640
-5.4176 6.9737 -2.4999 0.9640
-5.5562 6.8633 -2.4998 0.9640
-5.9584 6.5158 -2.4995 0.9640
-6.0877 6.3947 -2.4994 0.9640
-6.3388 6.1448 -2.4992 0.9640
-6.4606 6.0161 -2.4991 0.9640
-6.5797 5.8851 -2.4990 0.9640
-6.6962 5.7517 -2.4989 0.9640
-7.3370 4.9047 -2.4984 0.9640
-7.5273 4.6061 -2.4982 0.9640
-7.6180 4.4540 -2.4981 0.9640
-7.8714 3.9872 -2.4979 0.9640
-8.3504 2.8454 -2.4974 0.9640
-8.4574 2.5079 -2.4973 0.9640
-8.6650 1.6480 -2.4970 0.9640
-8.7238 1.2990 -2.4969 0.9640
-8.7480 1.1236 -2.4968 0.9640
-8.7992 0.5953 -2.4967 0.9640
-8.8157 0.2417 -2.4966 0.9640
-2.1775 -7.8274 -2.4990 0.9666
-2.0201 -7.8698 -2.4991 0.9666
-1.7028 -7.9451 -2.4992 0.9666
-1.5431 -7.9779 -2.4993 0.9666
-1.3828 -8.0076 -2.4994 0.9666
-1.2219 -8.0340 -2.4995 0.9666
-1.0604 -8.0572 -2.4996 0.9666
-0.8986 -8.0771 -2.4997 0.9666
-0.7364 -8.0938 -2.4998 0.9666
-0.4111 -8.1175 -2.5000 0.9666
-0.0851 -8.1281 -2.5001 0.9666
0.0780 -8.1284 -2.5002 0.9666
0.7296 -8.0973 -2.5006 0.9665
0.8920 -8.0813 -2.5007 0.9665
1.0540 -8.0621 -2.5008 0.9665
1.2156 -8.0397 -2.5009 0.9665
1.5373 -7.9851 -2.5011 0.9665
1.8566 -7.9176 -2.5013 0.9665
2.0151 -7.8791 -2.5014 0.9665
2.3298 -7.7925 -2.5016 0.9665
2.4858 -7.7445 -2.5017 0.9665
2.6408 -7.6934 -2.5018 0.9665
2.7948 -7.6392 -2.5019 0.9665
2.9476 -7.5819 -2.5021 0.9665
3.0992 -7.5215 -2.5022 0.9665
3.9812 -7.0965 -2.5028 0.9665
4.2630 -6.9316 -2.5030 0.9665
4.4014 -6.8450 -2.5031 0.9665
4.5380 -6.7555 -2.5032 0.9665
4.6729 -6.6634 -2.5033 0.9665
5.0658 -6.3709 -2.5035 0.9665
5.3178 -6.1630 -2.5037 0.9665
5.6796 -5.8326 -2.5040 0.9665
5.7957 -5.7177 -2.5041 0.9665
5.9094 -5.6004 -2.5042 0.9665
6.0208 -5.4809 -2.5043 0.9665
6.2363 -5.2353 -2.5045 0.9665
6.3403 -5.1093 -2.5045 0.9665
6.8213 -4.4493 -2.5050 0.9665
6.9094 -4.3117 -2.5050 0.9665
6.9948 -4.1723 -2.5051 0.9665
7.3786 -3.4512 -2.5055 0.9665
7.4466 -3.3025 -2.5055 0.9665
7.5115 -3.1526 -2.5056 0.9665
7.5735 -3.0013 -2.5057 0.9665
7.6324 -2.8488 -2.5057 0.9665
7.6882 -2.6951 -2.5058 0.9665
7.8369 -2.2279 -2.5060 0.9665
7.8802 -2.0703 -2.5060 0.9665
7.9573 -1.7525 -2.5062 0.9665
7.9910 -1.5925 -2.5062 0.9665
8.0215 -1.4319 -2.5063 0.9665
8.0488 -1.2707 -2.5063 0.9665
8.0728 -1.1089 -2.5063 0.9665
8.1253 -0.6213 -2.5065 0.9665
8.1440 -0.2948 -2.5065 0.9665
8.1494 0.0322 -2.5066 0.9665
8.1473 0.1957 -2.5066 0.9665
8.1418 0.3592 -2.5067 0.9665
8.1330 0.5224 -2.5067 0.9665
8.1210 0.6855 -2.5067 0.9665
8.1057 0.8483 -2.5067 0.9665
8.0652 1.1729 -2.5068 0.9665
8.0401 1.3345 -2.5068 0.9665
8.0118 1.4955 -2.5068 0.9665
7.9454 1.8158 -2.5068 0.9665
7.9074 1.9749 -2.5068 0.9665
7.8662 2.1331 -2.5069 0.9665
7.8218 2.2905 -2.5069 0.9665
7.7236 2.6025 -2.5069 0.9665
7.6699 2.7570 -2.5069 0.9665
7.6130 2.9103 -2.5069 0.9665
7.4901 3.2134 -2.5068 0.9665
7.4240 3.3630 -2.5068 0.9665
7.3550 3.5113 -2.5068 0.9665
7.2831 3.6581 -2.5068 0.9665
7.2081 3.8035 -2.5068 0.9665
7.1303 3.9473 -2.5068 0.9665
7.0496 4.0895 -2.5068 0.9665
6.9661 4.2301 -2.5067 0.9665
6.8798 4.3690 -2.5067 0.9665
6.6042 4.7749 -2.5066 0.9665
6.5070 4.9063 -2.5066 0.9665
6.3048 5.1633 -2.5065 0.9665
6.1998 5.2887 -2.5065 0.9665
6.0923 5.4119 -2.5064 0.9665
5.5191 5.9944 -2.5062 0.9665
5.3976 6.1038 -2.5062 0.9665
5.2740 6.2108 -2.5061 0.9665
5.1482 6.3152 -2.5061 0.9665
4.6248 6.7070 -2.5058 0.9665
4.4892 6.7983 -2.5058 0.9665
3.7852 7.2128 -2.5054 0.9665
3.6384 7.2846 -2.5045 0.9665
3.4898 7.3525 -2.5033 0.9665
3.3400 7.4175 -2.5021 0.9665
3.0370 7.5389 -2.4999 0.9666
2.7299 7.6485 -2.4979 0.9666
2.5700 7.6842 -2.4922 0.9667
2.4005 7.6869 -2.4769 0.9669
2.2330 7.6895 -2.4628 0.9670
2.0673 7.6918 -2.4498 0.9672
1.9032 7.6939 -2.4378 0.9674
1.4193 7.6991 -2.4080 0.9678
1.2603 7.7005 -2.4000 0.9679
1.1023 7.7017 -2.3930 0.9680
0.9452 7.7027 -2.3870 0.9680
0.4775 7.7048 -2.3744 0.9682
0.3225 7.7051 -2.3720 0.9682
0.1677 7.7053 -2.3705 0.9683
-0.1415 7.7051 -2.3703 0.9683
-0.6065 7.7036 -2.3768 0.9682
-0.9185 7.7018 -2.3857 0.9681
-1.0755 7.7006 -2.3915 0.9680
-1.3920 7.6977 -2.4061 0.9678
-1.7127 7.6941 -2.4245 0.9676
-2.0387 7.6898 -2.4469 0.9673
-2.3712 7.6846 -2.4736 0.9669
-2.8541 7.5945 -2.4954 0.9666
-3.1588 7.4791 -2.4972 0.9666
-3.3094 7.4170 -2.4981 0.9666
-3.4590 7.3521 -2.4991 0.9666
-3.6073 7.2842 -2.5002 0.9666
-4.0400 7.0558 -2.5008 0.9665
-4.1806 6.9730 -2.5007 0.9665
-4.3195 6.8874 -2.5006 0.9665
-4.4566 6.7991 -2.5005 0.9666
-4.8570 6.5179 -2.5002 0.9666
-5.1142 6.3173 -2.5000 0.9666
-5.2398 6.2132 -2.4999 0.9666
-5.7202 5.7722 -2.4995 0.9666
-6.3707 5.0424 -2.4990 0.9666
-6.5675 4.7824 -2.4988 0.9666
-6.7536 4.5147 -2.4987 0.9666
-7.0123 4.0999 -2.4984 0.9666
-7.2457 3.6702 -2.4982 0.9666
-7.4527 3.2274 -2.4980 0.9666
-7.5758 2.9256 -2.4979 0.9666
-7.6328 2.7730 -2.4978 0.9666
-7.6867 2.6192 -2.4977 0.9666
-7.7852 2.3086 -2.4976 0.9666
-7.9446 1.6768 -2.4974 0.9666
-7.9765 1.5170 -2.4974 0.9666
-8.0306 1.1957 -2.4973 0.9666
-8.0528 1.0343 -2.4972 0.9666
-8.0876 0.7104 -2.4971 0.9666
-8.1001 0.5480 -2.4971 0.9666
-8.1153 0.2225 -2.4970 0.9666
-1.7229 -7.3189 -2.4993 0.9688
-1.5757 -7.3522 -2.4994 0.9688
-1.4279 -7.3826 -2.4995 0.9688
-1.1307 -7.4344 -2.4997 0.9688
-0.8315 -7.4743 -2.4998 0.9688
-0.0787 -7.5213 -2.5003 0.9688
0.0722 -7.5217 -2.5004 0.9688
0.2231 -7.5190 -2.5005 0.9688
0.3740 -7.5133 -2.5005 0.9688
0.8254 -7.4780 -2.5008 0.9688
0.9753 -7.4602 -2.5009 0.9688
1.2739 -7.4156 -2.5011 0.9688
1.4225 -7.3888 -2.5012 0.9688
1.5705 -7.3591 -2.5013 0.9688
1.7179 -7.3263 -2.5014 0.9688
1.8647 -7.2907 -2.5015 0.9688
2.4436 -7.1188 -2.5018 0.9688
2.7274 -7.0155 -2.5020 0.9688
3.0069 -6.9010 -2.5022 0.9688
3.1449 -6.8395 -2.5023 0.9688
3.4170 -6.7083 -2.5025 0.9688
3.6837 -6.5663 -2.5027 0.9688
4.5679 -5.9875 -2.5033 0.9688
5.0339 -5.6027 -2.5037 0.9687
5.1455 -5.5008 -2.5038 0.9687
5.2550 -5.3966 -2.5038 0.9687
5.4677 -5.1818 -2.5040 0.9687
5.6715 -4.9585 -2.5042 0.9687
5.7701 -4.8439 -2.5043 0.9687
5.9601 -4.6088 -2.5044 0.9687
6.0516 -4.4884 -2.5045 0.9687
6.3928 -3.9892 -2.5048 0.9687
6.6217 -3.5977 -2.5050 0.9687
6.7611 -3.3293 -2.5051 0.9687
6.8267 -3.1931 -2.5052 0.9687
7.0070 -2.7768 -2.5054 0.9687
7.0615 -2.6357 -2.5054 0.9687
7.3279 -1.7687 -2.5058 0.9687
7.3620 -1.6214 -2.5058 0.9687
7.3932 -1.4734 -2.5059 0.9687
7.4214 -1.3248 -2.5059 0.9687
7.4689 -1.0260 -2.5060 0.9687
7.5042 -0.7255 -2.5061 0.9687
7.5174 -0.5748 -2.5061 0.9687
7.5275 -0.4238 -2.5062 0.9687
7.5346 -0.2727 -2.5062 0.9687
7.5387 -0.1215 -2.5062 0.9687
7.5397 0.0298 -2.5063 0.9687
7.5133 0.6342 -2.5064 0.9687
7.3831 1.5321 -2.5065 0.9687
7.3509 1.6799 -2.5065 0.9687
7.2776 1.9735 -2.5065 0.9687
7.2365 2.1191 -2.5065 0.9687
7.0959 2.5507 -2.5065 0.9687
6.9296 2.9729 -2.5065 0.9687
6.8685 3.1113 -2.5065 0.9687
6.8047 3.2485 -2.5064 0.9687
6.7381 3.3844 -2.5064 0.9687
6.5968 3.6520 -2.5064 0.9687
6.5221 3.7836 -2.5064 0.9687
6.2825 4.1690 -2.5063 0.9687
6.0201 4.5392 -2.5062 0.9687
5.8330 4.7770 -2.5062 0.9687
5.7359 4.8930 -2.5061 0.9687
5.6365 5.0070 -2.5061 0.9687
5.4309 5.2290 -2.5060 0.9687
5.3248 5.3368 -2.5060 0.9687
5.2166 5.4425 -2.5059 0.9687
5.1062 5.5459 -2.5059 0.9687
4.9938 5.6472 -2.5058 0.9687
4.8794 5.7461 -2.5058 0.9687
4.7630 5.8428 -2.5057 0.9687
4.6448 5.9370 -2.5057 0.9687
4.4026 6.1183 -2.5056 0.9687
4.0263 6.3717 -2.5054 0.9687
3.8975 6.4510 -2.5053 0.9687
3.7672 6.5278 -2.5053 0.9687
3.5021 6.6733 -2.5052 0.9687
3.3674 6.7421 -2.5051 0.9687
3.2314 6.8081 -2.5050 0.9687
3.0940 6.8714 -2.5050 0.9687
2.8157 6.9896 -2.5048 0.9687
2.5329 7.0965 -2.5047 0.9687
2.3899 7.1457 -2.5046 0.9687
2.2460 7.1920 -2.5045 0.9687
2.1011 7.2353 -2.5044 0.9687
1.9549 7.2739 -2.5037 0.9687
1.8081 7.3096 -2.5030 0.9688
1.6606 7.3425 -2.5023 0.9688
1.5126 7.3726 -2.5018 0.9688
0.9159 7.4645 -2.4999 0.9688
0.6156 7.4933 -2.4992 0.9688
0.4650 7.5033 -2.4989 0.9688
-0.7402 7.4802 -2.4986 0.9688
-0.8902 7.4643 -2.4988 0.9688
-1.1892 7.4241 -2.4993 0.9688
-1.3381 7.3997 -2.4996 0.9688
-1.9284 7.2737 -2.5013 0.9688
-2.2191 7.1920 -2.5019 0.9688
-2.3629 7.1458 -2.5018 0.9688
-2.5057 7.0966 -2.5017 0.9688
-2.7882 6.9899 -2.5015 0.9688
-3.0662 6.8719 -2.5013 0.9688
-3.2033 6.8087 -2.5012 0.9688
-3.3392 6.7428 -2.5011 0.9688
-3.8685 6.4524 -2.5008 0.9688
-3.9970 6.3733 -2.5007 0.9688
-4.1239 6.2916 -2.5006 0.9688
-4.3727 6.1206 -2.5004 0.9688
-4.4945 6.0314 -2.5003 0.9688
-4.6144 5.9398 -2.5002 0.9688
-4.7325 5.8458 -2.5001 0.9688
-4.8487 5.7495 -2.5000 0.9688
-5.0751 5.5499 -2.4999 0.9688
-5.3993 5.2340 -2.4996 0.9688
-5.6045 5.0128 -2.4994 0.9688
-5.7038 4.8992 -2.4994 0.9688
-5.8008 4.7836 -2.4993 0.9688
-6.2498 4.1779 -2.4989 0.9688
-6.3322 4.0516 -2.4988 0.9688
-6.4120 3.9236 -2.4988 0.9688
-6.4893 3.7940 -2.4987 0.9688
-6.5639 3.6630 -2.4986 0.9688
-6.6359 3.5304 -2.4985 0.9688
-6.7052 3.3965 -2.4985 0.9688
-6.8969 2.9867 -2.4983 0.9688
-6.9552 2.8476 -2.4982 0.9688
-7.0635 2.5662 -2.4981 0.9688
-7.1134 2.4239 -2.4980 0.9688
-7.1605 2.2806 -2.4980 0.9688
-7.2046 2.1364 -2.4979 0.9688
-7.2459 1.9914 -2.4979 0.9688
-7.3197 1.6990 -2.4978 0.9688
-7.3522 1.5518 -2.4977 0.9688
-7.4082 1.2555 -2.4976 0.9688
-7.4700 0.8075 -2.4975 0.9688
-7.4845 0.6574 -2.4975 0.9688
-7.4961 0.5071 -2.4974 0.9688
-7.5047 0.3566 -2.4974 0.9688
-1.8731 -6.7334 -2.4994 0.9707
-1.4648 -6.8345 -2.4996 0.9707
-1.3274 -6.8628 -2.4997 0.9707
-1.1895 -6.8882 -2.4997 0.9707
-1.0510 -6.9109 -2.4998 0.9707
-0.4936 -6.9738 -2.5001 0.9707
-0.2134 -6.9885 -2.5003 0.9707
-0.0732 -6.9916 -2.5004 0.9707
0.3476 -6.9840 -2.5006 0.9707
0.4877 -6.9759 -2.5007 0.9707
0.7672 -6.9512 -2.5009 0.9707
1.0456 -6.9153 -2.5011 0.9707
1.3223 -6.8682 -2.5012 0.9707
1.4599 -6.8405 -2.5013 0.9707
1.5969 -6.8101 -2.5014 0.9707
1.7333 -6.7769 -2.5015 0.9707
2.4037 -6.5704 -2.5019 0.9707
2.7950 -6.4146 -2.5022 0.9707
3.4240 -6.1034 -2.5026 0.9707
3.5459 -6.0337 -2.5027 0.9707
3.6664 -5.9615 -2.5028 0.9707
3.7854 -5.8870 -2.5029 0.9707
3.9029 -5.8100 -2.5030 0.9707
4.0188 -5.7307 -2.5030 0.9707
4.2458 -5.5652 -2.5032 0.9707
4.4659 -5.3908 -2.5034 0.9707
4.5733 -5.3003 -2.5035 0.9707
4.6789 -5.2076 -2.5035 0.9707
4.8844 -5.0160 -2.5037 0.9707
4.9842 -4.9171 -2.5038 0.9707
5.1778 -4.7135 -2.5039 0.9707
5.2715 -4.6088 -2.5040 0.9707
5.4525 -4.3938 -2.5042 0.9707
5.5397 -4.2837 -2.5042 0.9707
5.6247 -4.1718 -2.5043 0.9707
5.7074 -4.0582 -2.5044 0.9707
5.7879 -3.9430 -2.5044 0.9707
5.8660 -3.8262 -2.5045 0.9707
6.0151 -3.5879 -2.5046 0.9707
6.2205 -3.2198 -2.5048 0.9707
6.2840 -3.0944 -2.5049 0.9707
6.3450 -2.9678 -2.5050 0.9707
6.5125 -2.5808 -2.5051 0.9707
6.5631 -2.4497 -2.5052 0.9707
6.6111 -2.3176 -2.5052 0.9707
6.6564 -2.1845 -2.5053 0.9707
6.6991 -2.0506 -2.5053 0.9707
6.7390 -1.9158 -2.5054 0.9707
6.8424 -1.5070 -2.5055 0.9707
6.8976 -1.2313 -2.5056 0.9707
6.9210 -1.0926 -2.5057 0.9707
6.9417 -0.9536 -2.5057 0.9707
6.9595 -0.8141 -2.5057 0.9707
6.9962 -0.3939 -2.5058 0.9707
6.9698 0.7295 -2.5061 0.9707
6.9350 1.0085 -2.5061 0.9707
6.8890 1.2859 -2.5061 0.9707
6.8319 1.5613 -2.5061 0.9707
6.7992 1.6981 -2.5061 0.9707
6.6412 2.2378 -2.5062 0.9707
6.4945 2.6333 -2.5061 0.9707
6.4404 2.7630 -2.5061 0.9707
6.3243 3.0192 -2.5061 0.9707
6.1980 3.2705 -2.5061 0.9707
6.0617 3.5165 -2.5061 0.9707
5.8390 3.8747 -2.5060 0.9707
5.6788 4.1058 -2.5059 0.9707
5.5952 4.2188 -2.5059 0.9707
5.5093 4.3302 -2.5059 0.9707
5.4213 4.4398 -2.5059 0.9707
5.3310 4.5476 -2.5058 0.9707
5.2387 4.6536 -2.5058 0.9707
5.1442 4.7577 -2.5058 0.9707
5.0476 4.8599 -2.5057 0.9707
4.9490 4.9601 -2.5057 0.9707
4.8484 5.0583 -2.5056 0.9707
4.7458 5.1545 -2.5056 0.9707
4.6414 5.2486 -2.5056 0.9707
4.3170 5.5180 -2.5054 0.9707
4.2053 5.6034 -2.5054 0.9707
3.6225 5.9958 -2.5051 0.9707
3.5014 6.0671 -2.5050 0.9707
3.2550 6.2025 -2.5049 0.9707
2.6170 6.4965 -2.5046 0.9707
2.4861 6.5475 -2.5045 0.9707
2.3542 6.5959 -2.5045 0.9707
1.6814 6.7975 -2.5041 0.9707
1.5447 6.8297 -2.5040 0.9707
1.2693 6.8857 -2.5039 0.9707
0.8527 6.9490 -2.5036 0.9707
0.5732 6.9771 -2.5035 0.9707
0.4330 6.9870 -2.5034 0.9707
0.1524 6.9983 -2.5032 0.9707
0.0119 6.9997 -2.5032 0.9707
-0.2689 6.9941 -2.5030 0.9707
-0.9680 6.9308 -2.5026 0.9707
-1.2452 6.8859 -2.5024 0.9707
-1.3830 6.8593 -2.5023 0.9707
-1.6570 6.7978 -2.5021 0.9707
-1.9283 6.7254 -2.5020 0.9707
-2.1964 6.6422 -2.5018 0.9707
-2.3291 6.5965 -2.5017 0.9707
-2.7215 6.4438 -2.5014 0.9707
-3.2289 6.2040 -2.5011 0.9707
-3.3526 6.1377 -2.5010 0.9707
-3.7155 5.9243 -2.5007 0.9707
-3.8334 5.8484 -2.5007 0.9707
-4.0647 5.6895 -2.5005 0.9707
-4.1779 5.6066 -2.5004 0.9707
-4.5072 5.3445 -2.5002 0.9707
-4.7177 5.1591 -2.5000 0.9707
-4.8201 5.0632 -2.4999 0.9707
-4.9206 4.9653 -2.4998 0.9707
-5.2099 4.6599 -2.4996 0.9707
-5.3022 4.5543 -2.4995 0.9707
-5.3924 4.4468 -2.4995 0.9707
-5.6496 4.1140 -2.4992 0.9707
-5.8098 3.8838 -2.4991 0.9707
-5.9606 3.6474 -2.4990 0.9708
-6.0325 3.5270 -2.4989 0.9708
-6.1019 3.4051 -2.4988 0.9708
-6.2332 3.1574 -2.4987 0.9708
-6.5664 2.3856 -2.4984 0.9708
-6.6128 2.2533 -2.4983 0.9708
-6.6976 1.9861 -2.4982 0.9708
-6.7717 1.7157 -2.4981 0.9708
-6.8046 1.5795 -2.4981 0.9708
-6.8348 1.4426 -2.4980 0.9708
-6.9579 0.6112 -2.4978 0.9708
-6.9687 0.4714 -2.4978 0.9708
-6.9767 0.3315 -2.4977 0.9708
-1.6217 -6.3178 -2.4996 0.9724
-1.3670 -6.3782 -2.4997 0.9724
-1.1100 -6.4282 -2.4999 0.9724
-0.9809 -6.4494 -2.4999 0.9724
-0.8513 -6.4680 -2.5000 0.9724
-0.5911 -6.4973 -2.5002 0.9724
-0.3300 -6.5162 -2.5003 0.9724
-0.0683 -6.5246 -2.5005 0.9724
0.1935 -6.5225 -2.5006 0.9724
0.3244 -6.5175 -2.5007 0.9724
0.4551 -6.5099 -2.5008 0.9724
0.5857 -6.4996 -2.5009 0.9724
0.7160 -6.4868 -2.5009 0.9724
0.9757 -6.4532 -2.5011 0.9724
1.4902 -6.3550 -2.5014 0.9724
1.7441 -6.2905 -2.5016 0.9724
1.8700 -6.2545 -2.5017 0.9724
1.9952 -6.2159 -2.5018 0.9724
2.3657 -6.0852 -2.5020 0.9724
2.6082 -5.9858 -2.5022 0.9724
2.9638 -5.8186 -2.5024 0.9724
3.5323 -5.4934 -2.5028 0.9724
3.7501 -5.3476 -2.5030 0.9724
3.8567 -5.2714 -2.5030 0.9724
4.3660 -4.8593 -2.5034 0.9724
4.4628 -4.7709 -2.5035 0.9724
4.6509 -4.5883 -2.5036 0.9724
4.7421 -4.4942 -2.5037 0.9724
5.0878 -4.0999 -2.5040 0.9724
5.1691 -3.9971 -2.5041 0.9724
5.3256 -3.7867 -2.5042 0.9724
5.5442 -3.4597 -2.5044 0.9724
5.8043 -3.0044 -2.5046 0.9724
5.8636 -2.8874 -2.5047 0.9724
5.9205 -2.7692 -2.5047 0.9724
5.9750 -2.6499 -2.5048 0.9724
6.0767 -2.4082 -2.5049 0.9724
6.1240 -2.2858 -2.5050 0.9724
6.2508 -1.9133 -2.5051 0.9724
6.3227 -1.6611 -2.5052 0.9724
6.4771 -0.8897 -2.5054 0.9724
6.5077 -0.6292 -2.5055 0.9724
6.5191 -0.4985 -2.5055 0.9724
6.5340 -0.2365 -2.5056 0.9724
6.5375 -0.1054 -2.5056 0.9724
6.5384 0.0258 -2.5057 0.9724
6.5252 0.4192 -2.5057 0.9724
6.5155 0.5500 -2.5057 0.9724
6.4883 0.8110 -2.5058 0.9724
6.4708 0.9410 -2.5058 0.9724
6.4506 1.0707 -2.5058 0.9724
6.4025 1.3286 -2.5058 0.9724
6.3441 1.5844 -2.5058 0.9724
6.3110 1.7114 -2.5059 0.9724
6.2754 1.8377 -2.5059 0.9724
6.1967 2.0880 -2.5059 0.9724
6.0093 2.5781 -2.5058 0.9724
5.7831 3.0515 -2.5058 0.9724
5.7207 3.1669 -2.5058 0.9724
5.6560 3.2811 -2.5058 0.9724
5.5890 3.3939 -2.5058 0.9724
5.3745 3.7239 -2.5057 0.9724
5.2987 3.8309 -2.5057 0.9724
4.9742 4.2432 -2.5056 0.9724
4.8880 4.3421 -2.5055 0.9724
4.7098 4.5346 -2.5055 0.9724
4.2315 4.9832 -2.5053 0.9724
4.1306 5.0670 -2.5052 0.9724
4.0281 5.1487 -2.5052 0.9724
3.4918 5.5258 -2.5049 0.9724
3.3801 5.5946 -2.5049 0.9724
3.2671 5.6612 -2.5048 0.9724
2.9204 5.8471 -2.5047 0.9724
2.6833 5.9593 -2.5045 0.9724
2.5632 6.0118 -2.5045 0.9724
2.4420 6.0618 -2.5044 0.9724
2.3198 6.1095 -2.5043 0.9724
2.1967 6.1546 -2.5043 0.9724
1.8223 6.2751 -2.5041 0.9724
1.5690 6.3428 -2.5039 0.9724
1.3131 6.4003 -2.5038 0.9724
1.1844 6.4252 -2.5037 0.9724
1.0552 6.4475 -2.5037 0.9724
0.9256 6.4672 -2.5036 0.9724
0.7957 6.4843 -2.5035 0.9724
0.5348 6.5106 -2.5034 0.9724
0.4041 6.5198 -2.5033 0.9724
0.2732 6.5264 -2.5032 0.9724
0.1422 6.5304 -2.5031 0.9724
-0.7733 6.4845 -2.5026 0.9724
-0.9032 6.4675 -2.5025 0.9724
-1.1619 6.4256 -2.5023 0.9724
-1.2906 6.4008 -2.5023 0.9724
-1.5462 6.3435 -2.5021 0.9724
-1.9249 6.2383 -2.5019 0.9724
-2.1735 6.1557 -2.5017 0.9724
-2.2965 6.1106 -2.5016 0.9724
-2.4186 6.0631 -2.5015 0.9724
-2.7787 5.9061 -2.5013 0.9724
-3.1287 5.7277 -2.5010 0.9724
-3.2428 5.6635 -2.5010 0.9724
-3.6860 5.3846 -2.5007 0.9724
-3.7932 5.3094 -2.5006 0.9724
-4.1054 5.0711 -2.5003 0.9724
-4.2062 4.9876 -2.5003 0.9724
-4.4026 4.8145 -2.5001 0.9724
-4.9482 4.2501 -2.4997 0.9724
-5.0323 4.1499 -2.4996 0.9724
-5.3482 3.7327 -2.4993 0.9724
-5.4934 3.5149 -2.4992 0.9725
-5.5627 3.4039 -2.4992 0.9725
-5.6297 3.2915 -2.4991 0.9725
-5.6945 3.1778 -2.4990 0.9725
-5.8171 2.9466 -2.4989 0.9725
-5.9304 2.7108 -2.4988 0.9725
-5.9835 2.5912 -2.4987 0.9725
-6.0824 2.3489 -2.4986 0.9725
-6.1281 2.2263 -2.4986 0.9725
-6.2506 1.8535 -2.4984 0.9725
-6.3197 1.6012 -2.4984 0.9725
-6.3787 1.3463 -2.4983 0.9725
-6.4043 1.2180 -2.4982 0.9725
-6.4273 1.0893 -2.4982 0.9725
-6.4810 0.7006 -2.4981 0.9725
-6.4936 0.5704 -2.4981 0.9725
-6.5037 0.4400 -2.4980 0.9725
-6.5111 0.3094 -2.4980 0.9725
-6.5159 0.1787 -2.4980 0.9725
-1.6369 -5.8841 -2.4997 0.9739
-1.3996 -5.9454 -2.4998 0.9739
-1.1600 -5.9971 -2.4999 0.9739
-0.7971 -6.0565 -2.5001 0.9739
-0.6755 -6.0714 -2.5002 0.9739
-0.3090 -6.1016 -2.5004 0.9739
-0.1865 -6.1067 -2.5005 0.9739
0.0586 -6.1096 -2.5006 0.9739
0.1812 -6.1074 -2.5007 0.9739
0.6704 -6.0739 -2.5010 0.9739
0.7922 -6.0594 -2.5011 0.9739
0.9136 -6.0425 -2.5011 0.9739
1.0347 -6.0231 -2.5012 0.9739
1.5145 -5.9215 -2.5015 0.9739
1.6330 -5.8901 -2.5016 0.9739
1.7509 -5.8563 -2.5017 0.9739
1.9846 -5.7817 -2.5018 0.9739
2.2151 -5.6978 -2.5020 0.9739
2.5541 -5.5547 -2.5022 0.9739
2.9916 -5.3327 -2.5025 0.9739
3.0981 -5.2717 -2.5026 0.9739
3.3073 -5.1435 -2.5027 0.9739
3.6111 -4.9356 -2.5030 0.9739
3.8064 -4.7871 -2.5031 0.9739
3.9956 -4.6308 -2.5032 0.9739
4.1785 -4.4670 -2.5034 0.9739
4.2674 -4.3823 -2.5035 0.9739
4.3545 -4.2959 -2.5035 0.9739
4.4400 -4.2078 -2.5036 0.9739
4.6855 -3.9334 -2.5038 0.9739
4.8398 -3.7424 -2.5039 0.9739
4.9140 -3.6447 -2.5040 0.9739
4.9863 -3.5454 -2.5040 0.9739
5.0565 -3.4447 -2.5041 0.9739
5.3169 -3.0285 -2.5043 0.9739
5.3768 -2.9213 -2.5044 0.9739
5.5431 -2.5927 -2.5046 0.9739
5.6429 -2.3683 -2.5047 0.9739
5.7336 -2.1401 -2.5048 0.9739
5.7755 -2.0247 -2.5048 0.9739
5.9498 -1.4361 -2.5050 0.9739
6.0028 -1.1963 -2.5051 0.9739
6.0257 -1.0756 -2.5051 0.9739
6.0797 -0.7112 -2.5052 0.9739
6.1215 0.0242 -2.5054 0.9739
6.1199 0.1470 -2.5054 0.9739
6.1157 0.2698 -2.5055 0.9739
6.1001 0.5149 -2.5055 0.9739
6.0886 0.6372 -2.5055 0.9739
6.0393 1.0024 -2.5056 0.9739
6.0180 1.1234 -2.5056 0.9739
5.9943 1.2439 -2.5056 0.9739
5.9681 1.3639 -2.5056 0.9739
5.9396 1.4834 -2.5056 0.9739
5.8015 1.9549 -2.5056 0.9739
5.7184 2.1860 -2.5056 0.9739
5.5247 2.6375 -2.5056 0.9739
5.4706 2.7478 -2.5056 0.9739
5.4144 2.8570 -2.5055 0.9739
5.2326 3.1775 -2.5055 0.9739
5.1008 3.3848 -2.5055 0.9739
4.9608 3.5867 -2.5054 0.9739
4.8878 3.6854 -2.5054 0.9739
4.8128 3.7827 -2.5054 0.9739
4.6571 3.9727 -2.5053 0.9739
4.5764 4.0653 -2.5053 0.9739
4.4938 4.1563 -2.5053 0.9739
4.1459 4.5029 -2.5051 0.9739
4.0547 4.5851 -2.5051 0.9739
3.8673 4.7440 -2.5050 0.9739
3.7713 4.8205 -2.5050 0.9739
3.5747 4.9678 -2.5049 0.9739
3.2692 5.1736 -2.5047 0.9739
3.0589 5.3004 -2.5046 0.9739
2.9518 5.3605 -2.5046 0.9739
2.8436 5.4186 -2.5045 0.9739
2.6238 5.5281 -2.5044 0.9739
2.2863 5.6755 -2.5042 0.9739
2.0567 5.7624 -2.5041 0.9739
1.9406 5.8024 -2.5041 0.9739
1.8237 5.8400 -2.5040 0.9739
1.5879 5.9082 -2.5039 0.9739
1.4690 5.9387 -2.5038 0.9739
1.3495 5.9668 -2.5037 0.9739
1.2295 5.9925 -2.5037 0.9739
0.9880 6.0367 -2.5035 0.9739
0.7450 6.0712 -2.5034 0.9739
0.2558 6.1106 -2.5031 0.9739
0.1331 6.1144 -2.5031 0.9739
0.0104 6.1157 -2.5030 0.9739
-0.1123 6.1144 -2.5029 0.9739
-0.2350 6.1108 -2.5028 0.9739
-0.3575 6.1046 -2.5028 0.9739
-0.9670 6.0372 -2.5024 0.9739
-1.2084 5.9932 -2.5022 0.9739
-1.8023 5.8412 -2.5019 0.9739
-1.9191 5.8037 -2.5018 0.9739
-2.0351 5.7638 -2.5017 0.9739
-2.1503 5.7216 -2.5016 0.9739
-2.2646 5.6772 -2.5016 0.9739
-2.3780 5.6304 -2.5015 0.9739
-2.9295 5.3631 -2.5011 0.9739
-3.1422 5.2409 -2.5009 0.9739
-3.4515 5.0420 -2.5007 0.9739
-3.5518 4.9715 -2.5007 0.9739
-3.7482 4.8248 -2.5005 0.9739
-3.8441 4.7484 -2.5004 0.9739
-4.2120 4.4244 -2.5002 0.9739
-4.2998 4.3389 -2.5001 0.9739
-4.5527 4.0721 -2.4999 0.9739
-4.6334 3.9798 -2.4998 0.9739
-4.7891 3.7905 -2.4997 0.9739
-4.8640 3.6935 -2.4996 0.9739
-4.9370 3.5951 -2.4996 0.9739
-5.0081 3.4952 -2.4995 0.9739
-5.0771 3.3940 -2.4994 0.9740
-5.2717 3.0821 -2.4993 0.9740
-5.3323 2.9757 -2.4992 0.9740
-5.3908 2.8680 -2.4992 0.9740
-5.5013 2.6493 -2.4990 0.9740
-5.5533 2.5384 -2.4990 0.9740
-5.6030 2.4264 -2.4989 0.9740
-5.6504 2.3134 -2.4989 0.9740
-5.7790 1.9692 -2.4987 0.9740
-5.9179 1.4994 -2.4986 0.9740
-5.9731 1.2607 -2.4985 0.9740
-5.9971 1.1406 -2.4985 0.9740
-6.0187 1.0200 -2.4984 0.9740
-6.0808 0.5341 -2.4983 0.9740
-6.1017 0.1673 -2.4982 0.9740
-1.5373 -5.5260 -2.4998 0.9753
-1.2021 -5.6089 -2.5000 0.9753
-1.0894 -5.6321 -2.5000 0.9753
-0.6344 -5.7019 -2.5003 0.9753
-0.4051 -5.7230 -2.5004 0.9753
-0.2902 -5.7301 -2.5005 0.9753
-0.1752 -5.7350 -2.5006 0.9753
0.1702 -5.7356 -2.5008 0.9753
0.2853 -5.7312 -2.5008 0.9753
0.4002 -5.7245 -2.5009 0.9753
0.5150 -5.7154 -2.5010 0.9753
0.8580 -5.6746 -2.5012 0.9753
1.0850 -5.6359 -2.5013 0.9753
1.4223 -5.5609 -2.5015 0.9753
1.5336 -5.5314 -2.5016 0.9753
1.7544 -5.4657 -2.5018 0.9753
1.8637 -5.4296 -2.5018 0.9753
2.0802 -5.3508 -2.5020 0.9753
2.6060 -5.1162 -2.5023 0.9753
2.7083 -5.0630 -2.5024 0.9753
3.1058 -4.8301 -2.5027 0.9753
