ply
format ascii 1.0
element vertex 1595
property float32 x
property float32 y
property float32 z
property float32 I
end_header
6.4750 4.9422 -2.5054 0.9665
6.3742 5.0713 -2.5054 0.9665
6.1649 5.3233 -2.5053 0.9665
5.9457 5.5666 -2.5052 0.9665
5.8325 5.6849 -2.5051 0.9665
5.3565 6.1346 -2.5049 0.9665
4.9766 6.4459 -2.5048 0.9665
4.8459 6.5445 -2.5047 0.9665
4.5787 6.7337 -2.5046 0.9665
4.3041 6.9119 -2.5044 0.9665
4.1641 6.9969 -2.5044 0.9665
4.0225 7.0790 -2.5043 0.9665
3.8793 7.1582 -2.5042 0.9665
3.7345 7.2346 -2.5042 0.9665
3.4380 7.3732 -2.5023 0.9665
2.9833 7.5569 -2.4989 0.9666
2.8296 7.6122 -2.4979 0.9666
2.5194 7.7140 -2.4960 0.9666
2.3500 7.7179 -2.4815 0.9668
2.1821 7.7200 -2.4675 0.9670
1.8513 7.7237 -2.4429 0.9673
1.6882 7.7252 -2.4322 0.9674
1.5265 7.7266 -2.4225 0.9676
1.3659 7.7278 -2.4137 0.9677
-1.1753 7.4247 -2.4987 0.9688
-1.4732 7.3735 -2.4994 0.9688
-1.9161 7.2753 -2.5008 0.9688
-2.2072 7.1930 -2.5010 0.9688
-2.3513 7.1469 -2.5009 0.9688
-2.4944 7.0980 -2.5009 0.9688
-2.6365 7.0461 -2.5008 0.9688
-2.9174 6.9340 -2.5006 0.9688
-3.0562 6.8737 -2.5005 0.9688
-3.1936 6.8107 -2.5005 0.9688
-3.4646 6.6764 -2.5003 0.9688
-3.5980 6.6052 -2.5002 0.9688
-3.7300 6.5313 -2.5001 0.9688
-3.9893 6.3757 -2.5000 0.9688
-4.1165 6.2940 -2.4999 0.9688
-4.3660 6.1231 -2.4998 0.9688
-4.6083 5.9423 -2.4996 0.9688
-4.7267 5.8483 -2.4995 0.9688
-4.9577 5.6532 -2.4994 0.9688
-5.1807 5.4490 -2.4993 0.9688
-5.2891 5.3436 -2.4992 0.9688
-5.4993 5.1264 -2.4991 0.9688
-5.6011 5.0147 -2.4990 0.9688
-5.8928 4.6676 -2.4988 0.9688
-6.2481 4.1787 -2.4986 0.9688
-6.3307 4.0522 -2.4985 0.9688
-6.5631 3.6629 -2.4984 0.9688
-6.7047 3.3960 -2.4983 0.9688
-6.7715 3.2605 -2.4982 0.9688
-6.9554 2.8462 -2.4981 0.9688
-7.0111 2.7057 -2.4980 0.9688
-7.0639 2.5642 -2.4980 0.9688
-7.1139 2.4216 -2.4980 0.9688
-7.2466 1.9883 -2.4978 0.9688
-7.3205 1.6953 -2.4978 0.9688
-7.3826 1.3996 -2.4977 0.9688
-7.4091 1.2509 -2.4977 0.9688
-7.4327 1.1017 -2.4977 0.9688
-7.4708 0.8020 -2.4976 0.9688
-7.5109 0.1992 -2.4975 0.9688
-7.5128 -0.1029 -2.4975 0.9688
-7.4928 -0.5556 -2.4975 0.9688
-7.4644 -0.8563 -2.4975 0.9688
-7.4456 -1.0062 -2.4975 0.9688
-7.4239 -1.1557 -2.4975 0.9688
-7.3407 -1.6011 -2.4975 0.9688
-7.2705 -1.8949 -2.4975 0.9688
-7.1884 -2.1857 -2.4975 0.9688
-7.1431 -2.3298 -2.4975 0.9688
-6.9898 -2.7562 -2.4975 0.9688
-6.8111 -3.1725 -2.4976 0.9688
-6.5344 -3.7096 -2.4977 0.9688
-6.4586 -3.8403 -2.4977 0.9688
-6.3802 -3.9694 -2.4978 0.9688
-6.2156 -4.2228 -2.4978 0.9688
-6.0410 -4.4694 -2.4979 0.9688
-5.9500 -4.5900 -2.4979 0.9688
-5.8566 -4.7087 -2.4980 0.9688
-5.7609 -4.8256 -2.4980 0.9688
-5.5624 -5.0535 -2.4981 0.9688
-5.3549 -5.2732 -2.4982 0.9688
-5.1388 -5.4844 -2.4983 0.9688
-5.0276 -5.5867 -2.4983 0.9688
-4.7992 -5.7846 -2.4984 0.9688
-4.3193 -6.1519 -2.4986 0.9688
-3.9409 -6.4016 -2.4988 0.9688
-3.8115 -6.4797 -2.4989 0.9688
-3.6806 -6.5552 -2.4989 0.9688
-3.5481 -6.6280 -2.4990 0.9688
-3.4143 -6.6982 -2.4991 0.9688
-3.2790 -6.7656 -2.4991 0.9688
-3.1424 -6.8304 -2.4992 0.9688
-2.8654 -6.9515 -2.4993 0.9688
-2.5838 -7.0615 -2.4995 0.9688
-2.4414 -7.1122 -2.4995 0.9688
-2.2980 -7.1601 -2.4996 0.9688
-2.1536 -7.2050 -2.4997 0.9688
-2.0084 -7.2471 -2.4998 0.9688
-1.7155 -7.3224 -2.4999 0.9688
-1.5680 -7.3556 -2.5000 0.9688
-1.4199 -7.3859 -2.5001 0.9688
-1.2711 -7.4132 -2.5001 0.9688
-0.6716 -7.4923 -2.5005 0.9688
-0.5208 -7.5045 -2.5005 0.9688
-0.3699 -7.5137 -2.5006 0.9688
-0.2187 -7.5198 -2.5007 0.9688
-0.0675 -7.5230 -2.5008 0.9688
0.0837 -7.5230 -2.5009 0.9688
0.3861 -7.5141 -2.5010 0.9688
0.6879 -7.4930 -2.5012 0.9688
0.8385 -7.4779 -2.5013 0.9688
1.1385 -7.4386 -2.5014 0.9688
1.2878 -7.4144 -2.5015 0.9688
1.5850 -7.3571 -2.5017 0.9688
1.7326 -7.3240 -2.5017 0.9688
1.8796 -7.2880 -2.5018 0.9688
2.0258 -7.2489 -2.5019 0.9688
2.1712 -7.2070 -2.5020 0.9688
2.3157 -7.1621 -2.5021 0.9688
2.4593 -7.1143 -2.5022 0.9688
2.6019 -7.0637 -2.5022 0.9688
2.8839 -6.9538 -2.5024 0.9688
3.0233 -6.8947 -2.5025 0.9688
3.1614 -6.8327 -2.5026 0.9688
3.4337 -6.7005 -2.5027 0.9688
3.5678 -6.6303 -2.5028 0.9688
3.8317 -6.4819 -2.5029 0.9688
3.9614 -6.4038 -2.5030 0.9688
4.0894 -6.3230 -2.5031 0.9688
4.3406 -6.1539 -2.5032 0.9688
4.4636 -6.0656 -2.5033 0.9688
4.5847 -5.9748 -2.5034 0.9688
4.8215 -5.7860 -2.5035 0.9688
5.0505 -5.5878 -2.5037 0.9687
5.1619 -5.4853 -2.5037 0.9687
5.2713 -5.3805 -2.5038 0.9687
5.7854 -4.8250 -2.5041 0.9687
6.3249 -4.0943 -2.5045 0.9687
6.4847 -3.8369 -2.5046 0.9687
6.7046 -3.4392 -2.5048 0.9687
6.8377 -3.1670 -2.5048 0.9687
6.9597 -2.8897 -2.5049 0.9687
7.0165 -2.7492 -2.5050 0.9687
7.0705 -2.6076 -2.5050 0.9687
7.1216 -2.4650 -2.5051 0.9687
7.1699 -2.3214 -2.5051 0.9687
7.2152 -2.1768 -2.5051 0.9687
7.2576 -2.0313 -2.5052 0.9687
7.3671 -1.5902 -2.5053 0.9687
7.4714 -0.9933 -2.5054 0.9687
7.5054 -0.6921 -2.5054 0.9687
7.5273 -0.3899 -2.5055 0.9687
7.5337 -0.2384 -2.5055 0.9687
7.5345 0.2161 -2.5055 0.9687
7.5198 0.5188 -2.5056 0.9687
7.4749 0.9712 -2.5056 0.9687
7.4538 1.1213 -2.5056 0.9687
7.4298 1.2709 -2.5056 0.9687
7.3036 1.8637 -2.5056 0.9687
7.2228 2.1558 -2.5055 0.9687
7.1779 2.3005 -2.5055 0.9687
7.1302 2.4443 -2.5055 0.9687
7.0796 2.5872 -2.5055 0.9687
6.8487 3.1475 -2.5054 0.9687
6.7840 3.2845 -2.5054 0.9687
6.7165 3.4202 -2.5054 0.9687
6.6463 3.5545 -2.5054 0.9687
6.5734 3.6874 -2.5053 0.9687
6.3390 4.0768 -2.5053 0.9687
5.9907 4.5726 -2.5051 0.9687
5.7038 4.9252 -2.5050 0.9687
5.6036 5.0387 -2.5050 0.9687
5.5011 5.1503 -2.5049 0.9687
5.3963 5.2597 -2.5049 0.9687
5.2894 5.3671 -2.5048 0.9687
4.9559 5.6758 -2.5047 0.9687
4.8407 5.7742 -2.5046 0.9687
4.7236 5.8702 -2.5046 0.9687
4.4836 6.0551 -2.5045 0.9687
4.2363 6.2302 -2.5043 0.9687
4.1101 6.3139 -2.5043 0.9687
3.7218 6.5497 -2.5041 0.9687
3.3199 6.7616 -2.5039 0.9687
3.1832 6.8268 -2.5038 0.9687
3.0453 6.8892 -2.5038 0.9687
2.7657 7.0057 -2.5036 0.9688
2.3382 7.1591 -2.5034 0.9688
2.1937 7.2044 -2.5034 0.9688
2.0483 7.2469 -2.5033 0.9688
1.9019 7.2853 -2.5029 0.9688
1.6067 7.3521 -2.5016 0.9688
1.4582 7.3812 -2.5010 0.9688
1.3092 7.4075 -2.5005 0.9688
1.1598 7.4309 -2.5000 0.9688
1.0100 7.4514 -2.4995 0.9688
-1.0937 6.9093 -2.5016 0.9707
-1.2324 6.8857 -2.5015 0.9707
-1.5081 6.8302 -2.5014 0.9707
-1.6450 6.7983 -2.5013 0.9707
-1.9169 6.7262 -2.5011 0.9707
-2.0517 6.6861 -2.5010 0.9707
-2.1856 6.6433 -2.5010 0.9707
-2.4508 6.5497 -2.5008 0.9707
-2.8409 6.3895 -2.5006 0.9707
-2.9687 6.3309 -2.5005 0.9707
-3.0952 6.2698 -2.5005 0.9707
-3.2206 6.2061 -2.5004 0.9707
-3.3446 6.1399 -2.5003 0.9707
-3.7083 5.9266 -2.5001 0.9707
-4.1720 5.6089 -2.4998 0.9707
-4.5022 5.3468 -2.4996 0.9707
-4.9166 4.9674 -2.4994 0.9707
-5.0154 4.8674 -2.4993 0.9707
-5.1121 4.7655 -2.4992 0.9707
-5.2067 4.6616 -2.4992 0.9707
-5.3897 4.4483 -2.4991 0.9707
-5.4779 4.3390 -2.4990 0.9708
-5.5639 4.2279 -2.4990 0.9708
-5.6477 4.1151 -2.4989 0.9708
-5.7291 4.0006 -2.4988 0.9708
-5.8083 3.8846 -2.4988 0.9708
-6.0315 3.5271 -2.4986 0.9708
-6.1682 3.2817 -2.4985 0.9708
-6.2328 3.1570 -2.4985 0.9708
-6.3544 2.9038 -2.4984 0.9708
-6.4114 2.7754 -2.4984 0.9708
-6.6571 2.1178 -2.4982 0.9708
-6.8053 1.5760 -2.4980 0.9708
-6.8356 1.4389 -2.4980 0.9708
-6.8630 1.3011 -2.4980 0.9708
-6.9097 1.0242 -2.4979 0.9708
-6.9288 0.8850 -2.4979 0.9708
-6.9824 0.1852 -2.4978 0.9708
-6.9846 0.0448 -2.4978 0.9708
-6.9841 -0.0956 -2.4978 0.9708
-6.9807 -0.2360 -2.4978 0.9708
-6.9655 -0.5165 -2.4978 0.9708
-6.9015 -1.0744 -2.4977 0.9708
-6.8785 -1.2129 -2.4977 0.9708
-6.7221 -1.8971 -2.4978 0.9708
-6.6826 -2.0319 -2.4978 0.9708
-6.5956 -2.2989 -2.4978 0.9708
-6.5481 -2.4310 -2.4978 0.9708
-6.3897 -2.8214 -2.4979 0.9708
-6.3318 -2.9493 -2.4979 0.9708
-6.2713 -3.0760 -2.4979 0.9708
-6.1426 -3.3257 -2.4979 0.9708
-6.0746 -3.4486 -2.4980 0.9708
-6.0041 -3.5700 -2.4980 0.9708
-5.9312 -3.6901 -2.4980 0.9708
-5.6158 -4.1548 -2.4981 0.9708
-5.5312 -4.2669 -2.4982 0.9708
-5.4444 -4.3773 -2.4982 0.9708
-5.3554 -4.4860 -2.4982 0.9708
-5.2642 -4.5928 -2.4983 0.9708
-5.1709 -4.6978 -2.4983 0.9708
-4.9780 -4.9020 -2.4984 0.9708
-4.6737 -5.1935 -2.4985 0.9708
-4.4613 -5.3774 -2.4986 0.9708
-4.2417 -5.5526 -2.4987 0.9708
-4.0153 -5.7188 -2.4988 0.9708
-3.1739 -6.2266 -2.4992 0.9707
-2.9211 -6.3494 -2.4994 0.9707
-2.7930 -6.4070 -2.4994 0.9707
-2.5333 -6.5145 -2.4996 0.9707
-2.4018 -6.5642 -2.4996 0.9707
-2.2695 -6.6114 -2.4997 0.9707
-2.1361 -6.6558 -2.4998 0.9707
-2.0020 -6.6976 -2.4998 0.9707
-1.8669 -6.7367 -2.4999 0.9707
-1.7312 -6.7731 -2.5000 0.9707
-1.5947 -6.8067 -2.5000 0.9707
-1.3199 -6.8657 -2.5002 0.9707
-1.0428 -6.9136 -2.5003 0.9707
-0.7641 -6.9503 -2.5005 0.9707
-0.6243 -6.9645 -2.5005 0.9707
-0.4841 -6.9758 -2.5006 0.9707
-0.3438 -6.9843 -2.5007 0.9707
-0.0627 -6.9929 -2.5008 0.9707
0.0778 -6.9930 -2.5009 0.9707
0.2184 -6.9902 -2.5010 0.9707
0.6395 -6.9650 -2.5012 0.9707
0.7794 -6.9509 -2.5013 0.9707
1.1971 -6.8919 -2.5015 0.9707
1.4733 -6.8387 -2.5017 0.9707
2.5501 -6.5160 -2.5023 0.9707
2.8101 -6.4086 -2.5024 0.9707
2.9385 -6.3510 -2.5025 0.9707
3.1916 -6.2281 -2.5026 0.9707
3.3163 -6.1629 -2.5027 0.9707
3.5615 -6.0249 -2.5028 0.9707
3.6821 -5.9522 -2.5029 0.9707
3.8011 -5.8772 -2.5030 0.9707
3.9186 -5.7997 -2.5030 0.9707
4.1488 -5.6378 -2.5032 0.9707
4.2614 -5.5534 -2.5033 0.9707
4.3723 -5.4668 -2.5033 0.9707
4.4814 -5.3779 -2.5034 0.9707
4.5888 -5.2869 -2.5035 0.9707
4.6943 -5.1937 -2.5035 0.9707
4.8995 -5.0010 -2.5036 0.9707
4.9992 -4.9016 -2.5037 0.9707
5.0968 -4.8003 -2.5038 0.9707
5.1924 -4.6969 -2.5038 0.9707
5.2859 -4.5917 -2.5039 0.9707
5.3773 -4.4846 -2.5039 0.9707
5.5535 -4.2650 -2.5041 0.9707
5.8009 -3.9227 -2.5042 0.9707
5.9541 -3.6865 -2.5043 0.9707
6.0272 -3.5662 -2.5044 0.9707
6.0978 -3.4443 -2.5044 0.9707
6.1659 -3.3211 -2.5045 0.9707
6.2947 -3.0707 -2.5046 0.9707
6.3552 -2.9435 -2.5046 0.9707
6.4686 -2.6858 -2.5047 0.9707
6.5214 -2.5552 -2.5047 0.9707
6.5716 -2.4236 -2.5048 0.9707
6.6191 -2.2911 -2.5048 0.9707
6.6639 -2.1576 -2.5048 0.9707
6.7060 -2.0232 -2.5049 0.9707
6.8472 -1.4780 -2.5050 0.9707
6.8756 -1.3401 -2.5050 0.9707
6.9241 -1.0626 -2.5051 0.9707
6.9441 -0.9232 -2.5051 0.9707
6.9613 -0.7834 -2.5051 0.9707
7.0051 -0.0808 -2.5052 0.9707
7.0053 0.0600 -2.5052 0.9707
6.9779 0.6226 -2.5053 0.9707
6.9640 0.7628 -2.5053 0.9707
6.9054 1.1812 -2.5053 0.9707
6.8803 1.3198 -2.5053 0.9707
6.8216 1.5953 -2.5053 0.9707
6.7882 1.7321 -2.5053 0.9707
6.7130 2.0036 -2.5053 0.9707
6.6270 2.2718 -2.5052 0.9707
6.5302 2.5364 -2.5052 0.9707
6.4779 2.6671 -2.5052 0.9707
6.4229 2.7968 -2.5052 0.9707
6.3052 3.0527 -2.5051 0.9707
6.2425 3.1788 -2.5051 0.9707
6.1095 3.4271 -2.5051 0.9707
6.0393 3.5492 -2.5051 0.9707
5.8916 3.7891 -2.5050 0.9707
5.8142 3.9067 -2.5050 0.9707
5.6523 4.1372 -2.5049 0.9707
5.5679 4.2499 -2.5049 0.9707
5.4813 4.3609 -2.5048 0.9707
4.9162 4.9884 -2.5046 0.9707
4.6063 5.2753 -2.5045 0.9707
4.4992 5.3668 -2.5044 0.9707
4.2796 5.5431 -2.5043 0.9707
4.0532 5.7104 -2.5042 0.9707
3.2115 6.2215 -2.5038 0.9707
3.0857 6.2847 -2.5037 0.9707
2.8305 6.4033 -2.5036 0.9707
2.7011 6.4588 -2.5036 0.9707
2.3067 6.6093 -2.5034 0.9707
2.0390 6.6964 -2.5032 0.9707
1.9039 6.7358 -2.5032 0.9707
1.4943 6.8378 -2.5029 0.9707
1.2181 6.8919 -2.5028 0.9707
1.0793 6.9148 -2.5027 0.9707
0.9400 6.9349 -2.5027 0.9707
0.8004 6.9522 -2.5026 0.9707
-1.0206 6.4475 -2.5016 0.9724
-1.1500 6.4255 -2.5015 0.9724
-1.4073 6.3737 -2.5014 0.9724
-1.5351 6.3440 -2.5013 0.9724
-1.7888 6.2768 -2.5012 0.9724
-1.9146 6.2394 -2.5011 0.9724
-2.0396 6.1995 -2.5010 0.9724
-2.2870 6.1121 -2.5009 0.9724
-2.5307 6.0149 -2.5007 0.9724
-2.6511 5.9626 -2.5007 0.9724
-2.7703 5.9080 -2.5006 0.9724
-2.8885 5.8509 -2.5005 0.9724
-3.0054 5.7915 -2.5005 0.9724
-3.1212 5.7298 -2.5004 0.9724
-3.2357 5.6657 -2.5003 0.9724
-3.4606 5.5308 -2.5002 0.9724
-3.5710 5.4599 -2.5001 0.9724
-3.7874 5.3117 -2.5000 0.9724
-3.8933 5.2344 -2.4999 0.9724
-3.9977 5.1549 -2.4999 0.9724
-4.3985 4.8166 -2.4996 0.9724
-4.4943 4.7271 -2.4996 0.9724
-4.5883 4.6357 -2.4995 0.9724
-4.8591 4.3504 -2.4993 0.9724
-5.1121 4.0493 -2.4992 0.9725
-5.1924 3.9456 -2.4991 0.9725
-5.2706 3.8403 -2.4991 0.9725
-5.3466 3.7335 -2.4990 0.9725
-5.4205 3.6252 -2.4990 0.9725
-5.4922 3.5154 -2.4989 0.9725
-5.5616 3.4042 -2.4989 0.9725
-5.6288 3.2917 -2.4988 0.9725
-5.6938 3.1778 -2.4988 0.9725
-5.7564 3.0626 -2.4987 0.9725
-5.8167 2.9462 -2.4987 0.9725
-5.9303 2.7099 -2.4986 0.9725
-6.1718 2.1009 -2.4984 0.9725
-6.2127 1.9764 -2.4984 0.9725
-6.2511 1.8511 -2.4984 0.9725
-6.3203 1.5982 -2.4983 0.9725
-6.3793 1.3428 -2.4983 0.9725
-6.4050 1.2143 -2.4982 0.9725
-6.4280 1.0853 -2.4982 0.9725
-6.4942 0.5654 -2.4981 0.9725
-6.5042 0.4347 -2.4981 0.9725
-6.5116 0.3038 -2.4981 0.9725
-6.5180 -0.0893 -2.4980 0.9725
-6.5148 -0.2203 -2.4980 0.9725
-6.5091 -0.3512 -2.4980 0.9725
-6.5007 -0.4820 -2.4980 0.9725
-6.4598 -0.8730 -2.4980 0.9725
-6.4409 -1.0027 -2.4980 0.9725
-6.3954 -1.2608 -2.4980 0.9725
-6.1554 -2.1455 -2.4980 0.9725
-6.1111 -2.2688 -2.4981 0.9725
-6.0642 -2.3912 -2.4981 0.9725
-6.0150 -2.5126 -2.4981 0.9725
-5.9092 -2.7525 -2.4981 0.9725
-5.8527 -2.8707 -2.4981 0.9725
-5.7939 -2.9878 -2.4982 0.9725
-5.7327 -3.1037 -2.4982 0.9725
-5.4650 -3.5544 -2.4983 0.9725
-5.0810 -4.0852 -2.4984 0.9725
-4.9128 -4.2862 -2.4985 0.9725
-4.8257 -4.3842 -2.4985 0.9725
-4.7367 -4.4804 -2.4986 0.9725
-4.5529 -4.6673 -2.4987 0.9725
-4.2635 -4.9336 -2.4988 0.9725
-4.1635 -5.0184 -2.4988 0.9725
-3.8536 -5.2605 -2.4990 0.9725
-3.7472 -5.3370 -2.4990 0.9725
-3.4189 -5.5536 -2.4992 0.9725
-3.3066 -5.6213 -2.4992 0.9724
-2.9619 -5.8108 -2.4994 0.9724
-2.8446 -5.8693 -2.4995 0.9724
-2.6064 -5.9792 -2.4996 0.9724
-2.3641 -6.0794 -2.4997 0.9724
-2.1179 -6.1698 -2.4998 0.9724
-1.8682 -6.2503 -2.4999 0.9724
-1.7423 -6.2867 -2.5000 0.9724
-1.6155 -6.3207 -2.5001 0.9724
-1.4882 -6.3520 -2.5001 0.9724
-1.2317 -6.4071 -2.5003 0.9724
-0.9732 -6.4517 -2.5004 0.9724
-0.7131 -6.4860 -2.5005 0.9724
-0.5826 -6.4992 -2.5006 0.9724
-0.4518 -6.5098 -2.5007 0.9724
-0.0586 -6.5257 -2.5009 0.9724
0.2038 -6.5231 -2.5010 0.9724
0.9875 -6.4523 -2.5014 0.9724
1.1171 -6.4313 -2.5015 0.9724
1.3748 -6.3816 -2.5016 0.9724
1.5029 -6.3528 -2.5017 0.9724
1.8832 -6.2512 -2.5019 0.9724
2.0086 -6.2123 -2.5020 0.9724
2.1331 -6.1708 -2.5021 0.9724
2.2568 -6.1268 -2.5021 0.9724
2.3796 -6.0804 -2.5022 0.9724
2.5014 -6.0315 -2.5023 0.9724
2.6223 -5.9802 -2.5023 0.9724
2.7420 -5.9264 -2.5024 0.9724
2.8607 -5.8702 -2.5025 0.9724
3.0945 -5.7508 -2.5026 0.9724
3.3234 -5.6220 -2.5027 0.9724
3.4358 -5.5542 -2.5028 0.9724
3.7647 -5.3375 -2.5030 0.9724
4.0799 -5.1012 -2.5032 0.9724
4.1817 -5.0183 -2.5033 0.9724
4.2819 -4.9333 -2.5033 0.9724
4.6648 -4.5738 -2.5036 0.9724
4.7559 -4.4792 -2.5036 0.9724
4.8451 -4.3828 -2.5037 0.9724
5.1008 -4.0830 -2.5038 0.9724
5.1820 -3.9797 -2.5039 0.9724
5.3380 -3.7683 -2.5040 0.9724
5.4128 -3.6603 -2.5040 0.9724
5.4854 -3.5508 -2.5041 0.9724
5.6239 -3.3275 -2.5042 0.9724
5.6898 -3.2139 -2.5042 0.9724
5.7534 -3.0989 -2.5043 0.9724
5.8735 -2.8652 -2.5044 0.9724
5.9300 -2.7466 -2.5044 0.9724
5.9841 -2.6269 -2.5044 0.9724
6.0358 -2.5061 -2.5045 0.9724
6.0851 -2.3842 -2.5045 0.9724
6.1319 -2.2615 -2.5046 0.9724
6.1762 -2.1378 -2.5046 0.9724
6.2180 -2.0132 -2.5046 0.9724
6.2573 -1.8878 -2.5047 0.9724
6.3283 -1.6348 -2.5047 0.9724
6.3599 -1.5072 -2.5047 0.9724
6.3890 -1.3791 -2.5048 0.9724
6.4155 -1.2504 -2.5048 0.9724
6.4394 -1.1212 -2.5048 0.9724
6.4794 -0.8614 -2.5049 0.9724
6.4955 -0.7310 -2.5049 0.9724
6.5089 -0.6002 -2.5049 0.9724
6.5197 -0.4693 -2.5049 0.9724
6.5334 -0.2068 -2.5050 0.9724
6.5362 -0.0754 -2.5050 0.9724
6.5365 0.0560 -2.5050 0.9724
6.5341 0.1874 -2.5050 0.9724
6.5290 0.3187 -2.5050 0.9724
6.5109 0.5810 -2.5050 0.9724
6.4980 0.7118 -2.5050 0.9724
6.3937 1.3603 -2.5050 0.9724
6.3339 1.6162 -2.5050 0.9724
6.1396 2.2437 -2.5050 0.9724
6.0932 2.3666 -2.5050 0.9724
6.0444 2.4886 -2.5050 0.9724
5.9393 2.7296 -2.5049 0.9724
5.8832 2.8484 -2.5049 0.9724
5.8247 2.9661 -2.5049 0.9724
5.7007 3.1978 -2.5048 0.9724
5.5674 3.4244 -2.5048 0.9724
5.4974 3.5355 -2.5048 0.9724
5.2741 3.8603 -2.5047 0.9724
5.1953 3.9655 -2.5046 0.9724
5.0316 4.1711 -2.5046 0.9724
4.9466 4.2713 -2.5045 0.9724
4.6800 4.5615 -2.5044 0.9724
4.4926 4.7458 -2.5043 0.9724
4.2981 4.9224 -2.5043 0.9724
3.9933 5.1723 -2.5041 0.9724
3.5646 5.4759 -2.5039 0.9724
3.4537 5.5464 -2.5039 0.9724
3.3415 5.6146 -2.5038 0.9724
3.2278 5.6805 -2.5038 0.9724
3.1129 5.7441 -2.5037 0.9724
2.9967 5.8054 -2.5036 0.9724
2.7608 5.9209 -2.5035 0.9724
2.6412 5.9751 -2.5035 0.9724
2.5204 6.0268 -2.5034 0.9724
2.0279 6.2092 -2.5032 0.9724
1.9026 6.2486 -2.5031 0.9724
1.7766 6.2854 -2.5030 0.9724
1.5224 6.3514 -2.5029 0.9724
1.3944 6.3805 -2.5029 0.9724
1.2658 6.4071 -2.5028 0.9724
1.0071 6.4525 -2.5027 0.9724
0.8772 6.4713 -2.5026 0.9724
0.7469 6.4874 -2.5025 0.9724
-1.1975 5.9934 -2.5014 0.9739
-1.5565 5.9099 -2.5012 0.9739
-1.6749 5.8772 -2.5012 0.9739
-1.7927 5.8422 -2.5011 0.9739
-1.9097 5.8048 -2.5010 0.9739
-2.0260 5.7651 -2.5010 0.9739
-2.1414 5.7231 -2.5009 0.9739
-2.3697 5.6321 -2.5008 0.9739
-2.7046 5.4786 -2.5006 0.9739
-2.9225 5.3651 -2.5005 0.9739
-3.0297 5.3051 -2.5004 0.9739
-3.1357 5.2431 -2.5003 0.9739
-3.2404 5.1788 -2.5003 0.9739
-3.4458 5.0441 -2.5002 0.9739
-3.6456 4.9013 -2.5000 0.9739
-3.7433 4.8269 -2.5000 0.9739
-3.8395 4.7506 -2.4999 0.9739
-4.1186 4.5102 -2.4997 0.9739
-4.3827 4.2534 -2.4996 0.9739
-4.4672 4.1643 -2.4995 0.9739
-4.7099 3.8872 -2.4994 0.9740
-4.7870 3.7917 -2.4993 0.9740
-4.9353 3.5961 -2.4992 0.9740
-5.0065 3.4960 -2.4992 0.9740
-5.1428 3.2918 -2.4991 0.9740
-5.2708 3.0823 -2.4990 0.9740
-5.3903 2.8678 -2.4989 0.9740
-5.4468 2.7588 -2.4989 0.9740
-5.5011 2.6487 -2.4988 0.9740
-5.7793 1.9673 -2.4986 0.9740
-5.8177 1.8507 -2.4986 0.9740
-5.8536 1.7334 -2.4986 0.9740
-5.8872 1.6153 -2.4985 0.9740
-5.9184 1.4966 -2.4985 0.9740
-6.0193 1.0163 -2.4984 0.9740
-6.0385 0.8950 -2.4984 0.9740
-6.0695 0.6516 -2.4983 0.9740
-6.0813 0.5294 -2.4983 0.9740
-6.0907 0.4070 -2.4983 0.9740
-6.0976 0.2845 -2.4983 0.9740
-6.1040 0.0391 -2.4983 0.9740
-6.1035 -0.0836 -2.4983 0.9740
-6.0952 -0.3289 -2.4982 0.9740
-6.0770 -0.5737 -2.4982 0.9740
-6.0643 -0.6957 -2.4982 0.9740
-6.0314 -0.9389 -2.4982 0.9740
-6.0113 -1.0600 -2.4982 0.9740
-5.9888 -1.1806 -2.4982 0.9740
-5.8746 -1.6579 -2.4982 0.9740
-5.8401 -1.7757 -2.4982 0.9740
-5.8032 -1.8928 -2.4983 0.9740
-5.6787 -2.2392 -2.4983 0.9740
-5.6325 -2.3529 -2.4983 0.9740
-5.3681 -2.9064 -2.4984 0.9740
-5.3087 -3.0137 -2.4984 0.9740
-5.1833 -3.2248 -2.4985 0.9740
-5.1175 -3.3284 -2.4985 0.9740
-5.0496 -3.4306 -2.4985 0.9740
-4.9077 -3.6309 -2.4986 0.9740
-4.6801 -3.9203 -2.4987 0.9740
-4.5188 -4.1054 -2.4987 0.9740
-4.0843 -4.5385 -2.4989 0.9740
-3.8987 -4.6992 -2.4990 0.9740
-3.8035 -4.7767 -2.4990 0.9740
-3.6085 -4.9259 -2.4991 0.9740
-3.4077 -5.0672 -2.4992 0.9740
-3.0963 -5.2637 -2.4994 0.9740
-2.3276 -5.6468 -2.4997 0.9739
-2.2137 -5.6926 -2.4998 0.9739
-1.9831 -5.7773 -2.4999 0.9739
-1.7494 -5.8526 -2.5000 0.9739
-1.6314 -5.8867 -2.5001 0.9739
-1.5127 -5.9185 -2.5002 0.9739
-1.3935 -5.9478 -2.5002 0.9739
-1.2737 -5.9748 -2.5003 0.9739
-1.1533 -5.9993 -2.5003 0.9739
-1.0325 -6.0215 -2.5004 0.9739
-0.9112 -6.0411 -2.5005 0.9739
-0.7896 -6.0584 -2.5005 0.9739
-0.5455 -6.0856 -2.5007 0.9739
-0.4230 -6.0954 -2.5007 0.9739
-0.1777 -6.1078 -2.5008 0.9739
-0.0548 -6.1103 -2.5009 0.9739
0.0680 -6.1104 -2.5010 0.9739
0.1909 -6.1079 -2.5010 0.9739
0.3136 -6.1030 -2.5011 0.9739
0.4363 -6.0956 -2.5012 0.9739
0.5587 -6.0858 -2.5012 0.9739
0.8030 -6.0587 -2.5014 0.9739
0.9247 -6.0415 -2.5014 0.9739
1.0460 -6.0219 -2.5015 0.9739
1.2873 -5.9753 -2.5016 0.9739
1.4072 -5.9483 -2.5017 0.9739
1.6452 -5.8873 -2.5018 0.9739
1.7633 -5.8532 -2.5019 0.9739
1.9973 -5.7779 -2.5020 0.9739
2.3421 -5.6474 -2.5022 0.9739
2.7885 -5.4415 -2.5025 0.9739
2.8974 -5.3845 -2.5025 0.9739
3.1117 -5.2640 -2.5027 0.9739
3.2170 -5.2005 -2.5027 0.9739
3.3210 -5.1349 -2.5028 0.9739
3.4236 -5.0672 -2.5029 0.9739
3.9153 -4.6985 -2.5032 0.9739
4.0091 -4.6190 -2.5032 0.9739
4.1917 -4.4543 -2.5033 0.9739
4.2805 -4.3692 -2.5034 0.9739
4.4529 -4.1938 -2.5035 0.9739
4.5364 -4.1035 -2.5035 0.9739
4.6181 -4.0115 -2.5036 0.9739
5.0679 -3.4271 -2.5039 0.9739
5.1358 -3.3246 -2.5039 0.9739
5.2655 -3.1155 -2.5040 0.9739
5.3272 -3.0091 -2.5041 0.9739
5.3867 -2.9014 -2.5041 0.9739
5.4440 -2.7926 -2.5041 0.9739
5.4992 -2.6826 -2.5042 0.9739
5.6027 -2.4594 -2.5043 0.9739
5.6511 -2.3463 -2.5043 0.9739
5.6972 -2.2323 -2.5043 0.9739
5.9545 -1.4112 -2.5045 0.9739
6.0814 -0.6844 -2.5047 0.9739
6.0940 -0.5620 -2.5047 0.9739
6.1041 -0.4394 -2.5047 0.9739
6.1117 -0.3165 -2.5047 0.9739
6.1169 -0.1936 -2.5047 0.9739
6.1196 -0.0706 -2.5048 0.9739
6.1198 0.0525 -2.5048 0.9739
6.1175 0.1755 -2.5048 0.9739
6.0837 0.6664 -2.5048 0.9739
6.0520 0.9104 -2.5048 0.9739
6.0105 1.1530 -2.5048 0.9739
5.9861 1.2736 -2.5048 0.9739
5.9593 1.3937 -2.5048 0.9739
5.8984 1.6321 -2.5048 0.9739
5.8644 1.7503 -2.5048 0.9739
5.8280 1.8679 -2.5048 0.9739
5.7893 1.9847 -2.5048 0.9739
5.6590 2.3300 -2.5047 0.9739
5.4534 2.7770 -2.5047 0.9739
5.3964 2.8861 -2.5046 0.9739
5.3373 2.9940 -2.5046 0.9739
5.2760 3.1006 -2.5046 0.9739
5.1470 3.3101 -2.5046 0.9739
5.0793 3.4129 -2.5045 0.9739
5.0096 3.5143 -2.5045 0.9739
4.7885 3.8097 -2.5044 0.9739
4.6313 3.9991 -2.5043 0.9739
4.5500 4.0913 -2.5043 0.9739
4.4667 4.1819 -2.5043 0.9739
4.2949 4.3579 -2.5042 0.9739
4.0242 4.6087 -2.5041 0.9739
3.9306 4.6886 -2.5040 0.9739
3.8355 4.7666 -2.5040 0.9739
3.7388 4.8427 -2.5040 0.9739
3.5410 4.9889 -2.5039 0.9739
3.4399 5.0589 -2.5038 0.9739
3.3375 5.1270 -2.5038 0.9739
3.0222 5.3185 -2.5036 0.9739
2.8058 5.4355 -2.5035 0.9739
2.5849 5.5436 -2.5034 0.9739
2.4729 5.5944 -2.5033 0.9739
2.1310 5.7329 -2.5032 0.9739
2.0153 5.7744 -2.5031 0.9739
1.8987 5.8136 -2.5031 0.9739
1.6634 5.8850 -2.5029 0.9739
1.5447 5.9171 -2.5029 0.9739
1.4254 5.9468 -2.5028 0.9739
1.1852 5.9990 -2.5027 0.9739
-0.8974 5.6694 -2.5016 0.9753
-1.0112 5.6500 -2.5015 0.9753
-1.1246 5.6284 -2.5014 0.9753
-1.3499 5.5784 -2.5013 0.9753
-1.4617 5.5500 -2.5013 0.9753
-1.5729 5.5193 -2.5012 0.9753
-1.6835 5.4865 -2.5011 0.9753
-1.7935 5.4514 -2.5011 0.9753
-2.0110 5.3746 -2.5009 0.9753
-2.1186 5.3330 -2.5009 0.9753
-2.2253 5.2892 -2.5008 0.9753
-2.5400 5.1450 -2.5006 0.9753
-2.6428 5.0928 -2.5006 0.9753
-2.7446 5.0385 -2.5005 0.9753
-2.9448 4.9239 -2.5004 0.9753
-3.0432 4.8636 -2.5004 0.9753
-3.2361 4.7371 -2.5002 0.9753
-3.3306 4.6710 -2.5002 0.9753
-3.6947 4.3879 -2.5000 0.9753
-3.8680 4.2357 -2.4999 0.9753
-3.9523 4.1570 -2.4998 0.9753
-4.0349 4.0766 -2.4998 0.9753
-4.1954 3.9109 -2.4997 0.9753
-4.4233 3.6507 -2.4995 0.9753
-4.5663 3.4698 -2.4994 0.9753
-4.6350 3.3772 -2.4994 0.9753
-4.7019 3.2833 -2.4993 0.9753
-4.9501 2.8948 -2.4992 0.9753
-5.0072 2.7946 -2.4991 0.9753
-5.1664 2.4876 -2.4990 0.9753
-5.3896 1.9564 -2.4988 0.9753
-5.4278 1.8476 -2.4988 0.9753
-5.4637 1.7381 -2.4988 0.9753
-5.5291 1.5170 -2.4987 0.9753
-5.5584 1.4056 -2.4987 0.9753
-5.5855 1.2935 -2.4987 0.9753
-5.6103 1.1810 -2.4986 0.9753
-5.6328 1.0679 -2.4986 0.9753
-5.6531 0.9544 -2.4986 0.9753
-5.6711 0.8406 -2.4986 0.9753
-5.7003 0.6119 -2.4985 0.9753
-5.7202 0.3823 -2.4985 0.9753
-5.7267 0.2672 -2.4985 0.9753
-5.7309 0.1520 -2.4985 0.9753
-5.7323 -0.0785 -2.4985 0.9753
-5.7295 -0.1937 -2.4985 0.9753
-5.7245 -0.3089 -2.4984 0.9753
-5.7171 -0.4239 -2.4984 0.9753
-5.7074 -0.5387 -2.4984 0.9753
-5.6645 -0.8818 -2.4984 0.9753
-5.6245 -1.1088 -2.4984 0.9753
-5.5754 -1.3340 -2.4984 0.9753
-5.4502 -1.7776 -2.4985 0.9753
-5.3332 -2.1030 -2.4985 0.9753
-5.2899 -2.2098 -2.4985 0.9753
-5.2444 -2.3157 -2.4985 0.9753
-5.1472 -2.5247 -2.4985 0.9753
-5.0954 -2.6277 -2.4986 0.9753
-4.9857 -2.8304 -2.4986 0.9753
-4.8680 -3.0286 -2.4986 0.9753
-4.7424 -3.2219 -2.4987 0.9753
-4.3205 -3.7695 -2.4989 0.9753
-4.0856 -4.0232 -2.4990 0.9753
-4.0040 -4.1046 -2.4990 0.9753
-3.9207 -4.1843 -2.4990 0.9753
-3.8358 -4.2624 -2.4991 0.9753
-3.7494 -4.3387 -2.4991 0.9753
-3.6615 -4.4133 -2.4992 0.9753
-3.2953 -4.6935 -2.4993 0.9753
-3.2004 -4.7589 -2.4994 0.9753
-3.1041 -4.8223 -2.4994 0.9753
-2.9078 -4.9434 -2.4995 0.9753
-2.8079 -5.0010 -2.4996 0.9753
-2.7069 -5.0565 -2.4996 0.9753
-2.3973 -5.2108 -2.4998 0.9753
-2.2921 -5.2580 -2.4998 0.9753
-2.1860 -5.3032 -2.4999 0.9753
-1.8624 -5.4256 -2.5000 0.9753
-1.7530 -5.4621 -2.5001 0.9753
-1.6429 -5.4963 -2.5001 0.9753
-1.3087 -5.5858 -2.5003 0.9753
-1.1961 -5.6111 -2.5004 0.9753
-1.0831 -5.6341 -2.5004 0.9753
-0.6270 -5.7035 -2.5006 0.9753
-0.3973 -5.7243 -2.5008 0.9753
-0.2821 -5.7313 -2.5008 0.9753
-0.0515 -5.7383 -2.5009 0.9753
0.1792 -5.7360 -2.5011 0.9753
0.4097 -5.7244 -2.5012 0.9753
0.7541 -5.6898 -2.5014 0.9753
0.8683 -5.6736 -2.5014 0.9753
1.0958 -5.6344 -2.5016 0.9753
1.2089 -5.6114 -2.5016 0.9753
1.3215 -5.5861 -2.5017 0.9753
1.4335 -5.5585 -2.5018 0.9753
1.6559 -5.4966 -2.5019 0.9753
1.7661 -5.4624 -2.5019 0.9753
1.9844 -5.3872 -2.5021 0.9753
2.0923 -5.3464 -2.5021 0.9753
2.3057 -5.2582 -2.5022 0.9753
2.4110 -5.2109 -2.5023 0.9753
2.7209 -5.0565 -2.5025 0.9753
2.8221 -5.0009 -2.5025 0.9753
2.9221 -4.9432 -2.5026 0.9753
3.1186 -4.8220 -2.5027 0.9753
3.3101 -4.6929 -2.5028 0.9753
3.4962 -4.5563 -2.5029 0.9753
3.7648 -4.3375 -2.5031 0.9753
3.8513 -4.2610 -2.5032 0.9753
3.9363 -4.1828 -2.5032 0.9752
4.0196 -4.1029 -2.5033 0.9752
4.1815 -3.9382 -2.5034 0.9752
4.3366 -3.7671 -2.5035 0.9752
4.4116 -3.6792 -2.5035 0.9752
4.6256 -3.4067 -2.5036 0.9752
4.6932 -3.3131 -2.5037 0.9752
4.8846 -3.0244 -2.5038 0.9752
4.9445 -2.9256 -2.5039 0.9752
5.0583 -2.7245 -2.5039 0.9752
5.1639 -2.5191 -2.5040 0.9752
5.3499 -2.0962 -2.5042 0.9752
5.4300 -1.8795 -2.5042 0.9752
5.5013 -1.6597 -2.5043 0.9752
5.5336 -1.5488 -2.5043 0.9752
5.5637 -1.4373 -2.5043 0.9752
5.5915 -1.3251 -2.5044 0.9752
5.6613 -0.9857 -2.5044 0.9752
5.6801 -0.8717 -2.5044 0.9752
5.7106 -0.6426 -2.5045 0.9752
5.7224 -0.5277 -2.5045 0.9752
5.7319 -0.4126 -2.5045 0.9752
5.7391 -0.2972 -2.5045 0.9752
5.7439 -0.1818 -2.5045 0.9752
5.7466 0.0493 -2.5046 0.9752
5.7445 0.1648 -2.5046 0.9752
5.7400 0.2802 -2.5046 0.9752
5.6990 0.7405 -2.5046 0.9752
5.6440 1.0827 -2.5046 0.9752
5.5959 1.3087 -2.5046 0.9752
5.4727 1.7540 -2.5046 0.9752
5.3140 2.1879 -2.5045 0.9752
5.2217 2.3998 -2.5045 0.9752
5.0119 2.8114 -2.5044 0.9752
4.7696 3.2048 -2.5043 0.9752
4.7042 3.3000 -2.5043 0.9752
4.5676 3.4864 -2.5043 0.9752
4.4966 3.5775 -2.5042 0.9752
4.3490 3.7553 -2.5042 0.9752
4.0330 4.0923 -2.5040 0.9752
3.9499 4.1725 -2.5040 0.9752
3.8652 4.2510 -2.5040 0.9752
3.7789 4.3278 -2.5039 0.9752
3.6910 4.4028 -2.5039 0.9752
3.6017 4.4760 -2.5038 0.9752
3.5109 4.5475 -2.5038 0.9752
3.3252 4.6848 -2.5037 0.9752
3.2303 4.7506 -2.5037 0.9752
3.1340 4.8145 -2.5036 0.9752
2.9379 4.9364 -2.5035 0.9752
2.7369 5.0503 -2.5034 0.9752
2.5316 5.1560 -2.5033 0.9752
2.4274 5.2058 -2.5033 0.9752
2.3222 5.2534 -2.5032 0.9752
2.2160 5.2989 -2.5032 0.9752
2.1090 5.3423 -2.5031 0.9753
2.0011 5.3835 -2.5031 0.9753
1.8925 5.4225 -2.5030 0.9753
1.6729 5.4940 -2.5029 0.9753
1.4506 5.5566 -2.5028 0.9753
1.2260 5.6101 -2.5027 0.9753
1.1129 5.6335 -2.5026 0.9753
0.9994 5.6546 -2.5026 0.9753
0.8855 5.6734 -2.5025 0.9753
0.6567 5.7042 -2.5024 0.9753
-0.8450 5.3378 -2.5016 0.9765
-0.9521 5.3196 -2.5015 0.9765
-1.0588 5.2993 -2.5014 0.9765
-1.2709 5.2522 -2.5013 0.9765
-1.4810 5.1966 -2.5012 0.9765
-1.5851 5.1657 -2.5012 0.9765
-1.6886 5.1327 -2.5011 0.9765
-1.8935 5.0604 -2.5010 0.9765
-2.0953 4.9800 -2.5009 0.9765
-2.5842 4.7440 -2.5006 0.9765
-2.8653 4.5793 -2.5004 0.9765
-2.9567 4.5207 -2.5004 0.9765
-3.0469 4.4602 -2.5003 0.9765
-3.2236 4.3339 -2.5002 0.9765
-3.3951 4.2007 -2.5001 0.9765
-3.4788 4.1315 -2.5001 0.9765
-3.5611 4.0606 -2.5000 0.9765
-3.7991 3.8383 -2.4999 0.9765
-3.9502 3.6824 -2.4998 0.9765
-4.0234 3.6022 -2.4997 0.9765
-4.2330 3.3529 -2.4996 0.9765
-4.4272 3.0915 -2.4995 0.9765
-4.6053 2.8188 -2.4993 0.9765
-4.6609 2.7256 -2.4993 0.9765
-4.7147 2.6314 -2.4993 0.9765
-4.7666 2.5360 -2.4992 0.9765
-4.8165 2.4396 -2.4992 0.9765
-4.9546 2.1448 -2.4991 0.9765
-5.0367 1.9438 -2.4990 0.9765
-5.0747 1.8421 -2.4990 0.9765
-5.1107 1.7397 -2.4990 0.9765
-5.1446 1.6366 -2.4989 0.9765
-5.3038 1.0055 -2.4988 0.9765
-5.3399 0.7915 -2.4988 0.9765
-5.3547 0.6840 -2.4987 0.9765
-5.3673 0.5762 -2.4987 0.9765
-5.3778 0.4682 -2.4987 0.9765
-5.3861 0.3600 -2.4987 0.9765
-5.3961 0.1431 -2.4987 0.9765
-5.3979 0.0346 -2.4986 0.9765
-5.3949 -0.1824 -2.4986 0.9765
-5.3901 -0.2908 -2.4986 0.9765
-5.3831 -0.3991 -2.4986 0.9765
-5.3740 -0.5073 -2.4986 0.9765
-5.3627 -0.6152 -2.4986 0.9765
-5.3493 -0.7229 -2.4986 0.9765
-5.3336 -0.8303 -2.4986 0.9765
-5.2497 -1.2561 -2.4986 0.9765
-5.1319 -1.6738 -2.4986 0.9765
-5.0972 -1.7766 -2.4986 0.9765
-5.0217 -1.9801 -2.4987 0.9765
-4.9809 -2.0807 -2.4987 0.9765
-4.9381 -2.1804 -2.4987 0.9765
-4.6945 -2.6651 -2.4988 0.9765
-4.2074 -3.3828 -2.4990 0.9765
-4.1386 -3.4667 -2.4990 0.9765
-4.0681 -3.5493 -2.4990 0.9765
-3.9960 -3.6304 -2.4990 0.9765
-3.4476 -4.1554 -2.4993 0.9765
-3.3634 -4.2240 -2.4993 0.9765
-3.2778 -4.2908 -2.4994 0.9765
-3.1910 -4.3559 -2.4994 0.9765
-3.1028 -4.4192 -2.4994 0.9765
-2.7379 -4.6546 -2.4996 0.9765
-2.6438 -4.7087 -2.4997 0.9765
-2.5487 -4.7610 -2.4997 0.9765
-2.2572 -4.9063 -2.4999 0.9765
-2.0582 -4.9932 -2.5000 0.9765
-1.9575 -5.0337 -2.5000 0.9765
-1.7536 -5.1085 -2.5001 0.9765
-1.6506 -5.1429 -2.5002 0.9765
-1.5469 -5.1751 -2.5002 0.9765
-1.4425 -5.2053 -2.5003 0.9765
-1.3376 -5.2333 -2.5003 0.9765
-1.2322 -5.2593 -2.5004 0.9765
-1.0198 -5.3048 -2.5005 0.9765
-0.9130 -5.3244 -2.5005 0.9765
-0.8057 -5.3417 -2.5006 0.9765
-0.6982 -5.3570 -2.5006 0.9765
-0.5904 -5.3701 -2.5007 0.9765
-0.4823 -5.3810 -2.5008 0.9765
-0.0485 -5.4028 -2.5010 0.9765
0.0601 -5.4028 -2.5010 0.9765
0.2773 -5.3963 -2.5012 0.9765
0.6021 -5.3701 -2.5013 0.9765
0.7100 -5.3571 -2.5014 0.9765
0.8176 -5.3418 -2.5014 0.9765
1.0317 -5.3049 -2.5016 0.9765
1.1382 -5.2832 -2.5016 0.9765
1.2442 -5.2594 -2.5017 0.9765
1.4547 -5.2054 -2.5018 0.9765
1.6628 -5.1429 -2.5019 0.9765
1.7659 -5.1086 -2.5020 0.9765
2.2700 -4.9061 -2.5023 0.9765
2.3682 -4.8596 -2.5023 0.9765
2.4655 -4.8111 -2.5024 0.9765
2.5617 -4.7607 -2.5024 0.9765
2.6570 -4.7083 -2.5025 0.9765
2.8443 -4.5979 -2.5026 0.9765
2.9362 -4.5399 -2.5026 0.9765
3.2917 -4.2897 -2.5029 0.9764
3.3773 -4.2227 -2.5029 0.9764
3.4616 -4.1541 -2.5030 0.9764
3.6259 -4.0117 -2.5031 0.9764
3.7059 -3.9381 -2.5031 0.9764
3.7844 -3.8629 -2.5032 0.9764
3.8614 -3.7861 -2.5032 0.9764
3.9368 -3.7077 -2.5033 0.9764
4.0106 -3.6279 -2.5033 0.9764
4.0828 -3.5466 -2.5033 0.9764
4.2894 -3.2942 -2.5035 0.9764
4.3549 -3.2074 -2.5035 0.9764
4.4185 -3.1192 -2.5036 0.9764
4.4804 -3.0298 -2.5036 0.9764
4.5405 -2.9392 -2.5036 0.9764
4.7097 -2.6602 -2.5038 0.9764
4.8129 -2.4688 -2.5038 0.9764
4.8617 -2.3716 -2.5039 0.9764
4.9084 -2.2734 -2.5039 0.9764
4.9960 -2.0743 -2.5040 0.9764
5.1467 -1.6663 -2.5041 0.9764
5.2882 -1.1415 -2.5042 0.9764
5.3299 -0.9280 -2.5043 0.9764
5.3475 -0.8206 -2.5043 0.9764
5.3763 -0.6050 -2.5043 0.9764
5.4031 -0.2798 -2.5044 0.9764
5.4076 -0.1712 -2.5044 0.9764
5.4040 0.2638 -2.5044 0.9764
5.3503 0.8048 -2.5044 0.9764
5.3330 0.9122 -2.5044 0.9764
5.3136 1.0193 -2.5044 0.9764
5.2683 1.2321 -2.5044 0.9764
5.2425 1.3377 -2.5044 0.9764
5.2145 1.4429 -2.5044 0.9764
5.1844 1.5474 -2.5044 0.9764
5.1180 1.7545 -2.5044 0.9764
5.0817 1.8571 -2.5044 0.9764
5.0029 2.0598 -2.5044 0.9764
4.8695 2.3576 -2.5043 0.9764
4.6643 2.7411 -2.5042 0.9764
4.6082 2.8343 -2.5042 0.9764
4.5502 2.9264 -2.5042 0.9764
4.4904 3.0172 -2.5042 0.9764
4.4288 3.1069 -2.5042 0.9764
4.3654 3.1952 -2.5041 0.9764
4.3002 3.2823 -2.5041 0.9764
4.1647 3.4525 -2.5040 0.9764
4.0225 3.6170 -2.5040 0.9764
3.8737 3.7757 -2.5039 0.9764
3.7187 3.9283 -2.5039 0.9764
3.3909 4.2141 -2.5037 0.9764
3.3054 4.2813 -2.5037 0.9764
3.2186 4.3468 -2.5036 0.9764
3.1306 4.4106 -2.5036 0.9764
2.9506 4.5327 -2.5035 0.9764
2.8589 4.5910 -2.5035 0.9764
2.6719 4.7021 -2.5034 0.9764
2.4806 4.8055 -2.5033 0.9764
2.3834 4.8543 -2.5032 0.9764
2.2853 4.9012 -2.5032 0.9764
2.1863 4.9460 -2.5031 0.9764
2.0864 4.9889 -2.5031 0.9764
1.8841 5.0685 -2.5030 0.9764
1.5750 5.1726 -2.5028 0.9764
1.4707 5.2031 -2.5028 0.9764
1.3657 5.2315 -2.5027 0.9764
1.1543 5.2819 -2.5026 0.9765
0.7262 5.3571 -2.5024 0.9765
-0.7973 5.0371 -2.5016 0.9775
-0.8984 5.0199 -2.5015 0.9775
-0.9991 5.0007 -2.5015 0.9775
-1.0995 4.9795 -2.5014 0.9775
-1.2987 4.9311 -2.5013 0.9775
-1.4958 4.8747 -2.5012 0.9775
-1.5935 4.8435 -2.5011 0.9775
-1.6905 4.8104 -2.5011 0.9775
-2.0713 4.6586 -2.5008 0.9775
-2.1645 4.6159 -2.5008 0.9775
-2.3482 4.5250 -2.5007 0.9775
-2.4386 4.4768 -2.5006 0.9775
-2.5281 4.4268 -2.5006 0.9775
-2.7039 4.3214 -2.5005 0.9775
-2.9593 4.1503 -2.5003 0.9775
-3.2039 3.9641 -2.5002 0.9775
-3.4368 3.7635 -2.5000 0.9775
-3.6573 3.5493 -2.4999 0.9775
-3.7968 3.3993 -2.4998 0.9776
-3.9947 3.1641 -2.4997 0.9776
-4.1185 3.0009 -2.4996 0.9776
-4.2357 2.8328 -2.4995 0.9776
-4.3460 2.6601 -2.4995 0.9776
-4.5907 2.2104 -2.4993 0.9776
-4.6757 2.0240 -2.4992 0.9776
-4.7154 1.9296 -2.4992 0.9776
-4.8230 1.6418 -2.4991 0.9776
-4.9130 1.3480 -2.4990 0.9776
-4.9391 1.2490 -2.4990 0.9776
-4.9852 1.0494 -2.4990 0.9776
-5.0053 0.9489 -2.4989 0.9776
-5.0393 0.7469 -2.4989 0.9776
-5.0751 0.4418 -2.4989 0.9776
-5.0829 0.3397 -2.4988 0.9776
-5.0924 0.1351 -2.4988 0.9776
-5.0941 0.0327 -2.4988 0.9776
-5.0937 -0.0698 -2.4988 0.9776
-5.0912 -0.1721 -2.4988 0.9776
-5.0716 -0.4787 -2.4988 0.9776
-5.0609 -0.5806 -2.4988 0.9776
-5.0335 -0.7836 -2.4988 0.9776
-5.0167 -0.8846 -2.4988 0.9776
-4.9979 -0.9853 -2.4988 0.9776
-4.9542 -1.1854 -2.4988 0.9776
-4.9294 -1.2848 -2.4988 0.9776
-4.9026 -1.3836 -2.4988 0.9776
-4.8430 -1.5796 -2.4988 0.9776
-4.8103 -1.6766 -2.4988 0.9776
-4.7391 -1.8687 -2.4988 0.9776
-4.7006 -1.9636 -2.4988 0.9776
-4.6179 -2.1510 -2.4989 0.9776
-4.5737 -2.2434 -2.4989 0.9776
-4.4799 -2.4255 -2.4989 0.9776
-4.4303 -2.5151 -2.4989 0.9776
-4.3788 -2.6037 -2.4989 0.9776
-4.3257 -2.6912 -2.4990 0.9776
-4.2140 -2.8629 -2.4990 0.9776
-4.0956 -3.0301 -2.4991 0.9776
-4.0339 -3.1119 -2.4991 0.9776
-3.9706 -3.1924 -2.4991 0.9776
-3.8391 -3.3495 -2.4992 0.9776
-3.7015 -3.5012 -2.4992 0.9776
-3.6304 -3.5749 -2.4992 0.9776
-3.4838 -3.7181 -2.4993 0.9776
-3.3316 -3.8552 -2.4994 0.9776
-3.2535 -3.9215 -2.4994 0.9776
-3.0113 -4.1107 -2.4995 0.9776
-2.9281 -4.1704 -2.4996 0.9776
-2.7582 -4.2849 -2.4996 0.9776
-2.6715 -4.3396 -2.4997 0.9776
-2.4950 -4.4436 -2.4998 0.9776
-2.4052 -4.4929 -2.4998 0.9776
-2.3144 -4.5405 -2.4999 0.9776
-2.2227 -4.5862 -2.4999 0.9775
-2.1301 -4.6300 -2.4999 0.9775
-2.0366 -4.6720 -2.5000 0.9775
-1.7514 -4.7865 -2.5001 0.9775
-1.6548 -4.8209 -2.5002 0.9775
-1.4598 -4.8837 -2.5003 0.9775
-1.3613 -4.9121 -2.5003 0.9775
-0.9624 -5.0060 -2.5005 0.9775
-0.7604 -5.0409 -2.5006 0.9775
-0.5571 -5.0676 -2.5007 0.9775
-0.3530 -5.0861 -2.5008 0.9775
-0.2507 -5.0923 -2.5009 0.9775
-0.1482 -5.0964 -2.5010 0.9775
-0.0458 -5.0985 -2.5010 0.9775
0.0568 -5.0985 -2.5011 0.9775
0.1593 -5.0964 -2.5011 0.9775
0.2617 -5.0923 -2.5012 0.9775
0.3640 -5.0861 -2.5012 0.9775
0.4662 -5.0779 -2.5013 0.9775
0.5682 -5.0676 -2.5013 0.9775
0.6700 -5.0552 -2.5014 0.9775
0.7715 -5.0408 -2.5014 0.9775
0.9736 -5.0060 -2.5016 0.9775
1.0740 -4.9855 -2.5016 0.9775
1.1741 -4.9630 -2.5017 0.9775
1.3727 -4.9120 -2.5018 0.9775
1.4712 -4.8835 -2.5018 0.9775
1.5691 -4.8531 -2.5019 0.9775
1.9541 -4.7118 -2.5021 0.9775
2.1420 -4.6296 -2.5022 0.9775
2.3265 -4.5399 -2.5023 0.9775
2.4174 -4.4923 -2.5024 0.9775
2.6839 -4.3387 -2.5025 0.9775
2.9408 -4.1693 -2.5027 0.9775
3.0240 -4.1094 -2.5027 0.9775
3.1061 -4.0479 -2.5028 0.9775
3.1869 -3.9847 -2.5028 0.9775
3.3447 -3.8535 -2.5029 0.9775
3.4215 -3.7855 -2.5030 0.9775
3.4970 -3.7161 -2.5030 0.9775
3.6437 -3.5726 -2.5031 0.9775
3.7845 -3.4234 -2.5032 0.9775
3.8526 -3.3467 -2.5032 0.9775
3.9192 -3.2686 -2.5033 0.9775
4.0476 -3.1085 -2.5034 0.9775
4.1093 -3.0265 -2.5034 0.9775
4.2845 -2.7734 -2.5035 0.9775
4.5415 -2.3296 -2.5037 0.9775
4.7142 -1.9574 -2.5038 0.9775
4.7892 -1.7663 -2.5039 0.9775
4.8238 -1.6697 -2.5039 0.9775
4.8564 -1.5724 -2.5039 0.9775
4.8871 -1.4744 -2.5040 0.9775
4.9672 -1.1772 -2.5040 0.9775
5.0459 -0.7744 -2.5041 0.9775
5.0605 -0.6728 -2.5041 0.9775
5.0835 -0.4688 -2.5042 0.9775
5.0983 -0.2641 -2.5042 0.9775
5.1026 -0.1615 -2.5042 0.9775
5.0992 0.2490 -2.5042 0.9775
5.0932 0.3514 -2.5042 0.9775
5.0627 0.6578 -2.5043 0.9775
5.0485 0.7594 -2.5043 0.9775
5.0322 0.8608 -2.5043 0.9775
4.9935 1.0624 -2.5043 0.9775
4.9204 1.3615 -2.5043 0.9775
4.8920 1.4601 -2.5042 0.9775
4.7207 1.9436 -2.5042 0.9775
4.5949 2.2246 -2.5042 0.9775
4.5492 2.3165 -2.5041 0.9775
4.5017 2.4075 -2.5041 0.9775
4.4523 2.4975 -2.5041 0.9775
4.2936 2.7613 -2.5041 0.9775
4.0577 3.0972 -2.5040 0.9775
3.7956 3.4130 -2.5038 0.9775
3.6553 3.5627 -2.5038 0.9775
3.3570 3.8447 -2.5037 0.9775
3.1190 4.0399 -2.5035 0.9775
2.9540 4.1619 -2.5035 0.9775
2.8697 4.2204 -2.5034 0.9775
2.7842 4.2771 -2.5034 0.9775
2.6977 4.3322 -2.5034 0.9775
2.5212 4.4370 -2.5033 0.9775
2.3407 4.5346 -2.5032 0.9775
2.0630 4.6672 -2.5030 0.9775
1.6813 4.8175 -2.5029 0.9775
1.5841 4.8502 -2.5028 0.9775
1.3878 4.9098 -2.5027 0.9775
0.9888 5.0050 -2.5025 0.9775
0.8879 5.0237 -2.5025 0.9775
0.7867 5.0405 -2.5024 0.9775
0.6852 5.0552 -2.5023 0.9775
-0.7539 4.7627 -2.5016 0.9785
-0.8495 4.7465 -2.5015 0.9785
-1.1340 4.6864 -2.5013 0.9785
-1.3214 4.6368 -2.5012 0.9785
-1.5067 4.5797 -2.5011 0.9785
-1.5984 4.5484 -2.5011 0.9785
-1.9585 4.4050 -2.5009 0.9785
-2.0466 4.3646 -2.5008 0.9785
-2.3904 4.1857 -2.5006 0.9785
-2.5567 4.0861 -2.5005 0.9785
-2.7982 3.9243 -2.5004 0.9785
-2.8765 3.8672 -2.5003 0.9785
-2.9536 3.8085 -2.5003 0.9785
-3.0295 3.7483 -2.5003 0.9785
-3.1776 3.6234 -2.5002 0.9785
-3.2497 3.5587 -2.5001 0.9785
-3.3901 3.4250 -2.5000 0.9785
-3.4582 3.3561 -2.5000 0.9785
-3.6540 3.1414 -2.4999 0.9785
-3.7164 3.0673 -2.4998 0.9785
-3.7772 2.9919 -2.4998 0.9785
-3.8366 2.9153 -2.4997 0.9785
-3.9505 2.7586 -2.4997 0.9785
-4.0051 2.6786 -2.4996 0.9785
-4.1095 2.5154 -2.4996 0.9785
-4.2534 2.2630 -2.4995 0.9785
-4.5908 1.4604 -2.4992 0.9785
-4.6457 1.2747 -2.4992 0.9785
-4.6931 1.0869 -2.4991 0.9785
-4.7329 0.8973 -2.4991 0.9785
-4.7651 0.7063 -2.4990 0.9785
-4.7783 0.6104 -2.4990 0.9785
-4.7896 0.5142 -2.4990 0.9785
-4.7989 0.4178 -2.4990 0.9785
-4.8118 0.2245 -2.4990 0.9785
-4.8165 -0.0660 -2.4989 0.9785
-4.8100 -0.2595 -2.4989 0.9785
-4.8038 -0.3562 -2.4989 0.9785
-4.7956 -0.4527 -2.4989 0.9785
-4.7735 -0.6451 -2.4989 0.9785
-4.7437 -0.8365 -2.4989 0.9785
-4.7063 -1.0265 -2.4989 0.9785
-4.6847 -1.1209 -2.4989 0.9785
-4.6612 -1.2149 -2.4989 0.9785
-4.5795 -1.4937 -2.4989 0.9785
-4.5486 -1.5854 -2.4989 0.9785
-4.5158 -1.6766 -2.4990 0.9785
-4.4066 -1.9457 -2.4990 0.9785
-4.2814 -2.2079 -2.4990 0.9785
-4.2361 -2.2935 -2.4990 0.9785
-4.1892 -2.3782 -2.4991 0.9785
-4.1406 -2.4620 -2.4991 0.9785
-4.0903 -2.5447 -2.4991 0.9785
-4.0383 -2.6265 -2.4991 0.9785
-3.9847 -2.7072 -2.4991 0.9785
-3.9295 -2.7868 -2.4992 0.9785
-3.8728 -2.8652 -2.4992 0.9785
-3.8144 -2.9425 -2.4992 0.9785
-3.7545 -3.0186 -2.4992 0.9785
-3.6931 -3.0935 -2.4993 0.9785
-3.6302 -3.1672 -2.4993 0.9785
-3.4328 -3.3804 -2.4994 0.9785
-3.2942 -3.5157 -2.4994 0.9785
-3.1503 -3.6454 -2.4995 0.9785
-3.0764 -3.7081 -2.4995 0.9785
-2.6080 -4.0517 -2.4997 0.9785
-2.5261 -4.1034 -2.4998 0.9785
-2.4431 -4.1534 -2.4998 0.9785
-2.3592 -4.2017 -2.4999 0.9785
-2.1884 -4.2933 -2.4999 0.9785
-2.0141 -4.3780 -2.5000 0.9785
-1.9257 -4.4177 -2.5001 0.9785
-1.8366 -4.4556 -2.5001 0.9785
-1.7467 -4.4917 -2.5002 0.9785
-1.6560 -4.5259 -2.5002 0.9785
-1.1936 -4.6697 -2.5004 0.9785
-0.5268 -4.7917 -2.5008 0.9785
-0.4304 -4.8014 -2.5008 0.9785
-0.3338 -4.8091 -2.5009 0.9785
-0.0433 -4.8208 -2.5010 0.9785
0.0537 -4.8208 -2.5011 0.9785
0.3442 -4.8091 -2.5012 0.9785
0.5373 -4.7916 -2.5013 0.9785
0.6335 -4.7799 -2.5014 0.9785
0.8252 -4.7508 -2.5015 0.9785
0.9205 -4.7333 -2.5016 0.9785
1.5756 -4.5581 -2.5019 0.9785
1.6670 -4.5256 -2.5020 0.9785
1.9369 -4.4171 -2.5021 0.9785
2.0253 -4.3774 -2.5022 0.9785
2.1997 -4.2926 -2.5023 0.9785
2.3706 -4.2008 -2.5024 0.9785
2.4547 -4.1524 -2.5024 0.9785
2.8593 -3.8855 -2.5027 0.9785
3.1624 -3.6435 -2.5028 0.9785
3.2351 -3.5792 -2.5029 0.9785
3.4451 -3.3779 -2.5030 0.9785
3.6427 -3.1642 -2.5031 0.9785
3.7670 -3.0154 -2.5032 0.9785
3.8853 -2.8616 -2.5033 0.9785
3.9973 -2.7031 -2.5034 0.9785
4.1029 -2.5403 -2.5035 0.9785
4.1532 -2.4574 -2.5035 0.9785
4.4191 -1.9399 -2.5037 0.9785
4.4572 -1.8506 -2.5037 0.9785
4.4936 -1.7607 -2.5037 0.9785
4.6207 -1.3941 -2.5038 0.9785
4.6478 -1.3009 -2.5039 0.9785
4.6731 -1.2072 -2.5039 0.9785
4.6964 -1.1130 -2.5039 0.9785
4.7179 -1.0184 -2.5039 0.9785
4.7551 -0.8279 -2.5040 0.9785
4.7708 -0.7321 -2.5040 0.9785
4.7846 -0.6361 -2.5040 0.9785
4.7965 -0.5398 -2.5040 0.9785
4.8064 -0.4432 -2.5040 0.9785
4.8143 -0.3465 -2.5040 0.9785
4.8249 0.1384 -2.5041 0.9785
4.8155 0.3323 -2.5041 0.9785
4.8078 0.4290 -2.5041 0.9785
4.7982 0.5256 -2.5041 0.9785
4.7732 0.7180 -2.5041 0.9785
4.7213 1.0045 -2.5041 0.9785
4.7001 1.0992 -2.5041 0.9785
4.6771 1.1934 -2.5041 0.9785
4.5966 1.4732 -2.5041 0.9785
4.4254 1.9270 -2.5040 0.9785
4.3858 2.0156 -2.5040 0.9785
4.3443 2.1034 -2.5040 0.9785
4.2562 2.2763 -2.5040 0.9785
4.2096 2.3614 -2.5040 0.9785
4.1612 2.4455 -2.5040 0.9785
4.1112 2.5286 -2.5039 0.9785
4.0595 2.6107 -2.5039 0.9785
4.0061 2.6918 -2.5039 0.9785
3.7768 3.0049 -2.5038 0.9785
3.7156 3.0801 -2.5038 0.9785
3.5887 3.2270 -2.5037 0.9785
3.3177 3.5047 -2.5036 0.9785
3.2465 3.5706 -2.5036 0.9785
3.1740 3.6351 -2.5035 0.9785
3.0253 3.7597 -2.5035 0.9785
2.9490 3.8197 -2.5034 0.9785
2.8716 3.8781 -2.5034 0.9785
2.7930 3.9350 -2.5034 0.9785
2.7133 3.9903 -2.5033 0.9785
2.6325 4.0440 -2.5033 0.9785
2.5506 4.0960 -2.5033 0.9785
2.4677 4.1464 -2.5032 0.9785
2.1265 4.3310 -2.5030 0.9785
1.9506 4.4128 -2.5030 0.9785
1.8615 4.4511 -2.5029 0.9785
1.7716 4.4875 -2.5029 0.9785
1.4978 4.5859 -2.5027 0.9785
1.3121 4.6422 -2.5026 0.9785
1.0299 4.7126 -2.5025 0.9785
0.8396 4.7500 -2.5024 0.9785
0.5517 4.7917 -2.5023 0.9785
-0.8046 4.4958 -2.5015 0.9794
-0.8948 4.4787 -2.5015 0.9794
-1.1631 4.4163 -2.5013 0.9794
-1.2516 4.3919 -2.5013 0.9794
-1.3397 4.3658 -2.5012 0.9794
-1.6003 4.2769 -2.5011 0.9794
-1.7709 4.2089 -2.5010 0.9794
-1.9386 4.1342 -2.5009 0.9794
-2.0212 4.0943 -2.5008 0.9794
-2.2643 3.9648 -2.5007 0.9794
-2.3435 3.9184 -2.5006 0.9794
-2.4990 3.8208 -2.5005 0.9794
-2.5753 3.7698 -2.5005 0.9794
-2.6505 3.7172 -2.5005 0.9794
-2.7977 3.6075 -2.5004 0.9794
-2.8696 3.5504 -2.5003 0.9794
-2.9403 3.4920 -2.5003 0.9794
-3.0782 3.3708 -2.5002 0.9794
-3.1453 3.3082 -2.5002 0.9794
-3.4612 2.9756 -2.5000 0.9794
-3.5779 2.8340 -2.4999 0.9794
-3.6341 2.7614 -2.4998 0.9794
-3.7420 2.6131 -2.4998 0.9794
-3.7938 2.5373 -2.4997 0.9794
-3.8440 2.4604 -2.4997 0.9794
-3.9851 2.2242 -2.4996 0.9794
-4.0290 2.1436 -2.4996 0.9794
-4.0712 2.0621 -2.4995 0.9794
-4.1118 1.9798 -2.4995 0.9794
-4.1507 1.8967 -2.4995 0.9794
-4.1880 1.8129 -2.4995 0.9794
-4.2235 1.7283 -2.4994 0.9794
-4.2574 1.6430 -2.4994 0.9794
-4.2895 1.5571 -2.4994 0.9794
-4.4239 1.1187 -2.4993 0.9794
-4.4455 1.0295 -2.4992 0.9794
-4.4652 0.9399 -2.4992 0.9794
-4.4994 0.7596 -2.4992 0.9794
-4.5262 0.5782 -2.4992 0.9794
-4.5457 0.3957 -2.4991 0.9794
-4.5528 0.3042 -2.4991 0.9794
-4.5613 0.1210 -2.4991 0.9794
-4.5628 0.0293 -2.4991 0.9794
-4.5624 -0.0625 -2.4991 0.9794
-4.5503 -0.3374 -2.4991 0.9794
-4.5426 -0.4288 -2.4991 0.9794
-4.5085 -0.7018 -2.4991 0.9794
-4.4935 -0.7923 -2.4991 0.9794
-4.4375 -1.0618 -2.4991 0.9794
-4.4153 -1.1508 -2.4991 0.9794
-4.3913 -1.2393 -2.4991 0.9794
-4.3379 -1.4148 -2.4991 0.9794
-4.2776 -1.5881 -2.4991 0.9794
-4.2448 -1.6738 -2.4991 0.9794
-4.2103 -1.7588 -2.4991 0.9794
-4.0126 -2.1725 -2.4992 0.9794
-3.9682 -2.2528 -2.4992 0.9794
-3.6684 -2.7140 -2.4993 0.9794
-3.6131 -2.7873 -2.4993 0.9794
-3.5564 -2.8594 -2.4994 0.9794
-3.4387 -3.0001 -2.4994 0.9794
-3.2517 -3.2020 -2.4995 0.9794
-3.1867 -3.2668 -2.4995 0.9794
-3.0528 -3.3923 -2.4996 0.9794
-2.6972 -3.6818 -2.4997 0.9794
-2.6226 -3.7353 -2.4998 0.9794
-2.3928 -3.8868 -2.4999 0.9794
-2.1542 -4.0242 -2.5000 0.9794
-1.3951 -4.3468 -2.5004 0.9794
-0.8619 -4.4836 -2.5006 0.9794
-0.6810 -4.5148 -2.5007 0.9794
-0.5901 -4.5276 -2.5008 0.9794
-0.4990 -4.5387 -2.5008 0.9794
-0.4076 -4.5479 -2.5009 0.9794
-0.3161 -4.5552 -2.5009 0.9794
-0.2245 -4.5608 -2.5010 0.9794
-0.1328 -4.5644 -2.5010 0.9794
-0.0410 -4.5663 -2.5011 0.9794
0.1426 -4.5644 -2.5012 0.9794
0.4175 -4.5478 -2.5013 0.9794
0.6910 -4.5146 -2.5015 0.9794
0.9619 -4.4650 -2.5016 0.9794
1.1407 -4.4229 -2.5017 0.9794
1.2294 -4.3992 -2.5018 0.9794
1.3176 -4.3736 -2.5018 0.9794
1.4053 -4.3464 -2.5019 0.9794
1.5789 -4.2865 -2.5019 0.9794
1.9183 -4.1461 -2.5021 0.9794
2.0013 -4.1068 -2.5022 0.9794
2.0835 -4.0658 -2.5022 0.9794
2.1649 -4.0232 -2.5023 0.9794
2.2454 -3.9789 -2.5023 0.9794
2.3250 -3.9331 -2.5024 0.9794
2.5580 -3.7860 -2.5025 0.9794
2.6336 -3.7339 -2.5026 0.9794
2.7082 -3.6802 -2.5026 0.9794
2.8541 -3.5685 -2.5027 0.9794
3.1317 -3.3279 -2.5029 0.9794
3.1980 -3.2643 -2.5029 0.9794
3.2631 -3.1994 -2.5029 0.9794
3.3892 -3.0657 -2.5030 0.9794
3.5098 -2.9271 -2.5031 0.9794
3.5680 -2.8560 -2.5031 0.9794
3.8369 -2.4837 -2.5033 0.9794
3.9337 -2.3275 -2.5034 0.9794
4.0242 -2.1675 -2.5034 0.9794
4.1477 -1.9211 -2.5035 0.9794
4.1855 -1.8373 -2.5036 0.9794
4.2216 -1.7528 -2.5036 0.9794
4.3490 -1.4081 -2.5037 0.9794
4.3765 -1.3204 -2.5037 0.9794
4.4261 -1.1434 -2.5038 0.9794
4.4871 -0.8745 -2.5038 0.9794
4.5038 -0.7841 -2.5038 0.9794
4.5523 -0.4198 -2.5039 0.9794
4.5655 -0.2365 -2.5039 0.9794
4.5694 -0.1446 -2.5039 0.9794
4.5714 -0.0527 -2.5039 0.9794
4.5715 0.0392 -2.5039 0.9794
4.5698 0.1311 -2.5040 0.9794
4.5609 0.3147 -2.5040 0.9794
4.5537 0.4063 -2.5040 0.9794
4.5337 0.5891 -2.5040 0.9794
4.5209 0.6801 -2.5040 0.9794
4.4899 0.8613 -2.5040 0.9794
4.4517 1.0411 -2.5040 0.9794
4.4298 1.1304 -2.5040 0.9794
4.4062 1.2192 -2.5040 0.9794
4.3536 1.3953 -2.5040 0.9794
4.3247 1.4826 -2.5039 0.9794
4.2274 1.7405 -2.5039 0.9794
4.1540 1.9091 -2.5039 0.9794
4.1147 1.9922 -2.5039 0.9794
4.0738 2.0745 -2.5039 0.9794
4.0312 2.1559 -2.5039 0.9794
3.9413 2.3162 -2.5038 0.9794
3.8939 2.3950 -2.5038 0.9794
3.8449 2.4728 -2.5038 0.9794
3.7944 2.5495 -2.5038 0.9794
3.6337 2.7736 -2.5037 0.9794
3.3990 3.0564 -2.5036 0.9794
3.2733 3.1905 -2.5035 0.9794
3.0063 3.4430 -2.5034 0.9794
2.9364 3.5027 -2.5034 0.9794
2.8654 3.5610 -2.5034 0.9794
2.7932 3.6178 -2.5033 0.9794
2.5699 3.7794 -2.5032 0.9794
2.4934 3.8303 -2.5032 0.9794
2.4158 3.8796 -2.5032 0.9794
2.3373 3.9273 -2.5031 0.9794
2.2578 3.9734 -2.5031 0.9794
2.1775 4.0180 -2.5030 0.9794
2.0962 4.0609 -2.5030 0.9794
2.0141 4.1021 -2.5030 0.9794
1.6780 4.2504 -2.5028 0.9794
1.5921 4.2832 -2.5028 0.9794
1.5057 4.3143 -2.5027 0.9794
1.4186 4.3436 -2.5027 0.9794
1.3310 4.3712 -2.5026 0.9794
1.2428 4.3970 -2.5026 0.9794
0.9755 4.4636 -2.5024 0.9794
0.5225 4.5386 -2.5022 0.9794
-0.7633 4.2650 -2.5015 0.9802
-0.8489 4.2487 -2.5015 0.9802
-0.9341 4.2307 -2.5014 0.9802
-1.3539 4.1152 -2.5012 0.9802
-1.4363 4.0871 -2.5011 0.9802
-1.6800 3.9928 -2.5010 0.9802
-1.8390 3.9219 -2.5009 0.9802
-2.0720 3.8037 -2.5008 0.9802
-2.2974 3.6717 -2.5006 0.9802
-2.3707 3.6247 -2.5006 0.9802
-2.6541 3.4223 -2.5004 0.9802
-2.7223 3.3682 -2.5004 0.9802
-2.8554 3.2559 -2.5003 0.9802
-3.1675 2.9527 -2.5001 0.9802
-3.2262 2.8884 -2.5001 0.9802
-3.2835 2.8229 -2.5000 0.9802
-3.3396 2.7563 -2.5000 0.9802
-3.3943 2.6886 -2.5000 0.9802
-3.5991 2.4071 -2.4998 0.9802
-3.7375 2.1857 -2.4997 0.9802
-3.7806 2.1100 -2.4997 0.9802
-3.8223 2.0336 -2.4997 0.9802
-3.8623 1.9563 -2.4996 0.9802
-3.9008 1.8782 -2.4996 0.9802
-3.9378 1.7994 -2.4996 0.9802
-3.9731 1.7199 -2.4996 0.9802
-4.0068 1.6396 -2.4995 0.9802
-4.0694 1.4772 -2.4995 0.9802
-4.0983 1.3951 -2.4995 0.9802
-4.1254 1.3124 -2.4994 0.9802
-4.1748 1.1455 -2.4994 0.9802
-4.2362 0.8917 -2.4993 0.9802
-4.2532 0.8063 -2.4993 0.9802
-4.2940 0.5485 -2.4993 0.9802
-4.3041 0.4621 -2.4993 0.9802
-4.3125 0.3754 -2.4993 0.9802
-4.3192 0.2886 -2.4992 0.9802
-4.3241 0.2017 -2.4992 0.9802
-4.3287 0.0278 -2.4992 0.9802
-4.3283 -0.0593 -2.4992 0.9802
-4.3169 -0.3201 -2.4992 0.9802
-4.3005 -0.4934 -2.4992 0.9802
-4.2772 -0.6658 -2.4992 0.9802
-4.2629 -0.7517 -2.4992 0.9802
-4.2470 -0.8372 -2.4992 0.9802
-4.2293 -0.9225 -2.4992 0.9802
-4.2099 -1.0073 -2.4992 0.9802
-4.1154 -1.3422 -2.4992 0.9802
-4.0876 -1.4247 -2.4992 0.9802
