ply
format ascii 1.0
element vertex 1594
property float32 x
property float32 y
property float32 z
property float32 I
end_header
9.5051 7.0512 -2.5017 0.9528
9.3613 7.2410 -2.5017 0.9528
9.0436 7.5960 -2.4965 0.9529
8.8472 7.7399 -2.4848 0.9531
8.5053 7.7484 -2.4320 0.9541
8.1773 7.7563 -2.3824 0.9550
7.9081 7.8092 -2.3493 0.9556
7.7494 7.9667 -2.3493 0.9556
7.5875 8.1211 -2.3493 0.9556
7.4226 8.2721 -2.3493 0.9556
6.0008 9.3548 -2.3493 0.9556
5.8114 9.4737 -2.3493 0.9556
5.6196 9.5887 -2.3493 0.9556
5.2292 9.8070 -2.3493 0.9556
4.8304 10.0094 -2.3493 0.9556
4.6281 10.1046 -2.3493 0.9556
4.2178 10.2826 -2.3493 0.9556
4.0100 10.3654 -2.3493 0.9556
3.8007 10.4440 -2.3493 0.9556
3.1637 10.6543 -2.3493 0.9556
2.7325 10.7729 -2.3493 0.9556
2.0776 10.9181 -2.3493 0.9556
1.8575 10.9577 -2.3493 0.9556
1.6366 10.9929 -2.3493 0.9556
1.4151 11.0236 -2.3493 0.9556
1.1930 11.0498 -2.3493 0.9556
0.9704 11.0716 -2.3493 0.9556
0.7475 11.0889 -2.3493 0.9556
0.3008 11.1100 -2.3493 0.9556
-0.1465 11.1131 -2.3493 0.9556
-0.3700 11.1079 -2.3493 0.9556
-0.5935 11.0982 -2.3493 0.9556
-1.2619 11.0422 -2.3493 0.9556
-1.7052 10.9825 -2.3493 0.9556
-1.9258 10.9460 -2.3493 0.9556
-1.8392 9.3478 -2.0138 0.9618
-1.9167 8.0225 -1.7435 0.9668
-3.2301 10.6344 -2.3493 0.9556
-3.4434 10.5672 -2.3493 0.9556
-4.0746 10.3402 -2.3493 0.9556
-4.2818 10.2562 -2.3493 0.9556
-4.1164 9.3276 -2.1551 0.9592
-4.6910 10.0756 -2.3493 0.9556
-4.8928 9.9792 -2.3493 0.9556
-5.1131 9.4469 -2.2706 0.9570
-5.4859 9.6658 -2.3493 0.9556
-5.6793 9.5535 -2.3493 0.9556
-5.8703 9.4373 -2.3493 0.9556
-6.0590 9.3172 -2.3493 0.9556
-6.2453 9.1935 -2.3493 0.9556
-6.7885 8.7999 -2.3493 0.9556
-6.9642 8.6616 -2.3493 0.9556
-8.5427 7.6855 -2.4290 0.9541
-8.8836 7.6745 -2.4815 0.9531
-9.2511 7.3633 -2.4993 0.9528
-9.4064 7.1826 -2.5017 0.9528
-9.5490 6.9919 -2.5017 0.9528
-9.6877 6.7983 -2.5017 0.9528
-9.9534 6.4030 -2.5017 0.9528
-10.0802 6.2015 -2.5017 0.9528
-10.2030 5.9974 -2.5017 0.9528
-10.6521 5.1577 -2.5017 0.9528
-11.0323 4.2845 -2.5017 0.9528
-11.1163 4.0617 -2.5017 0.9528
-11.3411 3.3837 -2.5017 0.9528
-11.4069 3.1548 -2.5017 0.9528
-11.4680 2.9246 -2.5017 0.9528
-11.5246 2.6933 -2.5017 0.9528
-11.6661 1.9931 -2.5017 0.9528
-11.7038 1.7580 -2.5017 0.9528
-11.7368 1.5222 -2.5017 0.9528
-11.7651 1.2857 -2.5017 0.9528
-11.7886 1.0487 -2.5017 0.9528
-11.8073 0.8113 -2.5017 0.9528
-11.8343 -0.1406 -2.5017 0.9528
-11.7847 -1.0916 -2.5017 0.9528
-11.6974 -1.8006 -2.5017 0.9528
-11.6588 -2.0356 -2.5017 0.9528
-11.6154 -2.2697 -2.5017 0.9528
-11.3287 -3.4249 -2.5017 0.9528
-11.1818 -3.8779 -2.5017 0.9528
-11.0167 -4.3246 -2.5017 0.9528
-10.9275 -4.5454 -2.5017 0.9528
-10.8338 -4.7644 -2.5017 0.9528
-10.5266 -5.4093 -2.5017 0.9528
-9.9301 -6.4392 -2.5017 0.9528
-9.6630 -6.8335 -2.5017 0.9528
-9.3802 -7.2167 -2.5017 0.9528
-9.2331 -7.4040 -2.5017 0.9528
-8.9278 -7.7695 -2.5017 0.9528
-8.7696 -7.9475 -2.5017 0.9528
-8.6080 -8.1224 -2.5017 0.9528
-8.1023 -8.6269 -2.5017 0.9528
-7.9270 -8.7881 -2.5017 0.9528
-7.7486 -8.9459 -2.5017 0.9528
-7.3824 -9.2504 -2.5017 0.9528
-6.8109 -9.6789 -2.5017 0.9528
-6.4160 -9.9451 -2.5017 0.9528
-5.5956 -10.4287 -2.5017 0.9528
-5.3847 -10.5392 -2.5017 0.9528
-4.5199 -10.9380 -2.5017 0.9528
-4.2985 -11.0258 -2.5015 0.9528
-4.0723 -11.1006 -2.4993 0.9528
-3.6169 -11.2381 -2.4955 0.9529
-3.3846 -11.2904 -2.4915 0.9530
-3.1294 -11.2580 -2.4699 0.9534
-2.8819 -11.2391 -2.4526 0.9537
10.0784 -3.4250 -2.5017 0.9572
10.2666 -2.8107 -2.5017 0.9572
10.3211 -2.6036 -2.5017 0.9572
10.4175 -2.1862 -2.5017 0.9572
10.4970 -1.7653 -2.5017 0.9572
10.5304 -1.5538 -2.5017 0.9572
10.5844 -1.1288 -2.5017 0.9572
10.6050 -0.9156 -2.5017 0.9572
10.6212 -0.7021 -2.5017 0.9572
10.6332 -0.4883 -2.5017 0.9572
10.6409 -0.2742 -2.5017 0.9572
10.6443 -0.0600 -2.5017 0.9572
10.6285 0.5822 -2.5017 0.9572
10.6146 0.7959 -2.5017 0.9572
10.4810 1.8580 -2.5017 0.9572
10.3498 2.4870 -2.5017 0.9572
10.2977 2.6947 -2.5017 0.9572
10.1809 3.1068 -2.5017 0.9572
10.0477 3.5139 -2.5017 0.9572
9.8174 4.1137 -2.5017 0.9572
9.6440 4.5053 -2.5017 0.9572
9.5514 4.6984 -2.5017 0.9572
9.4549 4.8897 -2.5017 0.9572
9.2505 5.2661 -2.5017 0.9572
9.1427 5.4512 -2.5017 0.9572
8.9160 5.8146 -2.5017 0.9572
8.5489 6.3419 -2.5017 0.9572
8.2869 6.6807 -2.5017 0.9572
8.0114 7.0087 -2.5017 0.9572
7.8687 7.1685 -2.5017 0.9572
7.7209 7.3234 -2.5010 0.9572
7.5644 7.4698 -2.4985 0.9573
6.9454 7.7403 -2.4441 0.9582
6.6749 7.7469 -2.4033 0.9589
5.5653 8.3034 -2.3493 0.9598
5.3971 8.4137 -2.3493 0.9598
5.2267 8.5206 -2.3493 0.9598
5.0542 8.6241 -2.3493 0.9598
4.3445 9.0025 -2.3493 0.9598
3.9788 9.1700 -2.3493 0.9598
3.7935 9.2482 -2.3493 0.9598
3.4183 9.3933 -2.3493 0.9598
3.2286 9.4602 -2.3493 0.9598
2.8454 9.5825 -2.3493 0.9598
2.6520 9.6378 -2.3493 0.9598
2.4576 9.6892 -2.3493 0.9598
2.0658 9.7802 -2.3493 0.9598
1.8686 9.8198 -2.3493 0.9598
1.6706 9.8554 -2.3493 0.9598
1.4720 9.8870 -2.3493 0.9598
1.2728 9.9146 -2.3493 0.9598
0.8728 9.9578 -2.3493 0.9598
0.6723 9.9733 -2.3493 0.9598
0.4715 9.9849 -2.3493 0.9598
0.2705 9.9923 -2.3493 0.9598
0.0694 9.9958 -2.3493 0.9598
-0.5338 9.9818 -2.3493 0.9598
-1.1350 9.9313 -2.3493 0.9598
-1.3346 9.9065 -2.3493 0.9598
-2.1267 9.7671 -2.3493 0.9598
-2.7121 9.6210 -2.3493 0.9598
-3.0970 9.5042 -2.3493 0.9598
-3.2876 9.4399 -2.3493 0.9598
-3.4769 9.3719 -2.3493 0.9598
-3.6647 9.3000 -2.3493 0.9598
-4.2191 9.0620 -2.3493 0.9598
-4.7581 8.7909 -2.3493 0.9598
-4.9340 8.6934 -2.3493 0.9598
-5.2798 8.4879 -2.3493 0.9598
-5.6170 8.2686 -2.3493 0.9598
-6.2636 7.7902 -2.3493 0.9598
-6.9864 7.6889 -2.4416 0.9582
-7.2656 7.6799 -2.4847 0.9575
-7.4523 7.5663 -2.4960 0.9573
-7.6104 7.4221 -2.4984 0.9573
-8.1934 6.7952 -2.5017 0.9572
-8.5884 6.2885 -2.5017 0.9572
-8.7132 6.1144 -2.5017 0.9572
-8.8344 5.9379 -2.5017 0.9572
-8.9521 5.7589 -2.5017 0.9572
-9.0662 5.5776 -2.5017 0.9572
-9.1765 5.3941 -2.5017 0.9572
-9.2832 5.2083 -2.5017 0.9572
-9.3861 5.0205 -2.5017 0.9572
-9.7594 4.2496 -2.5017 0.9572
-9.8429 4.0524 -2.5017 0.9572
-10.0695 3.4512 -2.5017 0.9572
-10.2593 2.8374 -2.5017 0.9572
-10.3144 2.6304 -2.5017 0.9572
-10.3652 2.4224 -2.5017 0.9572
-10.4925 1.7927 -2.5017 0.9572
-10.5561 1.3690 -2.5017 0.9572
-10.6026 0.9432 -2.5017 0.9572
-10.6195 0.7297 -2.5017 0.9572
-10.6320 0.5159 -2.5017 0.9572
-10.6402 0.3019 -2.5017 0.9572
-10.6438 -0.1264 -2.5017 0.9572
-10.6300 -0.5546 -2.5017 0.9572
-10.6167 -0.7684 -2.5017 0.9572
-10.5991 -0.9818 -2.5017 0.9572
-10.5206 -1.6194 -2.5017 0.9572
-10.4469 -2.0414 -2.5017 0.9572
-10.4037 -2.2512 -2.5017 0.9572
-10.3563 -2.4601 -2.5017 0.9572
-10.3047 -2.6679 -2.5017 0.9572
-10.2490 -2.8747 -2.5017 0.9572
-10.1250 -3.2847 -2.5017 0.9572
-9.9084 -3.8896 -2.5017 0.9572
-9.8282 -4.0881 -2.5017 0.9572
-9.7439 -4.2850 -2.5017 0.9572
-9.5636 -4.6736 -2.5017 0.9572
-9.1569 -5.4274 -2.5017 0.9572
-8.5655 -6.3197 -2.5017 0.9572
-8.3043 -6.6592 -2.5017 0.9572
-8.0296 -6.9879 -2.5017 0.9572
-7.8874 -7.1480 -2.5017 0.9572
-7.5934 -7.4596 -2.5017 0.9572
-7.2872 -7.7590 -2.5017 0.9572
-7.1296 -7.9041 -2.5017 0.9572
-6.2997 -8.5802 -2.5017 0.9572
-6.1258 -8.7052 -2.5017 0.9572
-5.7706 -8.9446 -2.5017 0.9572
-5.5894 -9.0589 -2.5017 0.9572
-5.0327 -9.3796 -2.5017 0.9572
-4.8430 -9.4790 -2.5017 0.9572
-4.6513 -9.5745 -2.5017 0.9572
-3.8664 -9.9175 -2.5017 0.9572
-3.6661 -9.9932 -2.5017 0.9572
-3.0566 -10.1962 -2.5017 0.9572
9.2090 -2.9242 -2.5017 0.9609
9.3192 -2.5513 -2.5017 0.9609
9.4142 -2.1743 -2.5017 0.9609
9.4941 -1.7938 -2.5017 0.9609
9.5283 -1.6024 -2.5017 0.9609
9.5850 -1.2178 -2.5017 0.9609
9.6076 -1.0246 -2.5017 0.9609
9.6519 -0.4432 -2.5017 0.9609
9.6589 -0.2489 -2.5017 0.9609
9.6619 -0.0545 -2.5017 0.9609
9.6563 0.3342 -2.5017 0.9609
9.6476 0.5285 -2.5017 0.9609
9.6350 0.7225 -2.5017 0.9609
9.5982 1.1095 -2.5017 0.9609
9.5457 1.4948 -2.5017 0.9609
9.4382 2.0680 -2.5017 0.9609
9.3947 2.2575 -2.5017 0.9609
9.3473 2.4460 -2.5017 0.9609
9.2414 2.8201 -2.5017 0.9609
9.1827 3.0055 -2.5017 0.9609
9.1204 3.1896 -2.5017 0.9609
8.9847 3.5540 -2.5017 0.9609
8.9114 3.7340 -2.5017 0.9609
8.5823 4.4384 -2.5017 0.9609
8.4913 4.6102 -2.5017 0.9609
8.2989 4.9481 -2.5017 0.9609
8.1977 5.1141 -2.5017 0.9609
7.7600 5.7566 -2.5017 0.9609
7.5221 6.0641 -2.5017 0.9609
7.2720 6.3619 -2.5017 0.9609
7.0102 6.6493 -2.5017 0.9609
6.8750 6.7890 -2.5017 0.9609
6.7370 6.9259 -2.5017 0.9609
6.4529 7.1914 -2.5017 0.9609
6.1517 7.4372 -2.4990 0.9609
5.9961 7.5535 -2.4970 0.9609
5.8384 7.6666 -2.4951 0.9610
5.6440 7.7292 -2.4780 0.9612
5.4127 7.7346 -2.4443 0.9617
4.9678 7.7444 -2.3823 0.9627
4.7546 7.7509 -2.3543 0.9631
4.5878 7.8282 -2.3493 0.9632
4.2691 8.0064 -2.3493 0.9632
3.9436 8.1717 -2.3493 0.9632
3.7783 8.2494 -2.3493 0.9632
3.6116 8.3237 -2.3493 0.9632
3.2738 8.4623 -2.3493 0.9632
3.1029 8.5265 -2.3493 0.9632
2.7573 8.6444 -2.3493 0.9632
2.4073 8.7483 -2.3493 0.9632
2.2308 8.7950 -2.3493 0.9632
1.6961 8.9135 -2.3493 0.9632
1.5164 8.9459 -2.3493 0.9632
0.6103 9.0530 -2.3493 0.9632
0.4280 9.0634 -2.3493 0.9632
-0.6667 9.0490 -2.3493 0.9632
-1.0302 9.0148 -2.3493 0.9632
-1.3921 8.9661 -2.3493 0.9632
-1.7517 8.9028 -2.3493 0.9632
-2.4618 8.7332 -2.3493 0.9632
-2.6370 8.6819 -2.3493 0.9632
-2.9842 8.5687 -2.3493 0.9632
-3.1560 8.5070 -2.3493 0.9632
-4.1576 8.0650 -2.3493 0.9632
-4.4787 7.8912 -2.3493 0.9632
-4.6365 7.7994 -2.3493 0.9632
-4.8001 7.7167 -2.3530 0.9631
-5.2316 7.7012 -2.4106 0.9623
-5.8858 7.6298 -2.4950 0.9610
-6.0428 7.5156 -2.4969 0.9609
-6.1977 7.3984 -2.4989 0.9609
-6.4976 7.1510 -2.5017 0.9609
-6.6402 7.0189 -2.5017 0.9609
-7.0515 6.6055 -2.5017 0.9609
-7.1830 6.4623 -2.5017 0.9609
-7.3116 6.3164 -2.5017 0.9609
-7.6794 5.8638 -2.5017 0.9609
-7.7958 5.7081 -2.5017 0.9609
-8.0191 5.3899 -2.5017 0.9609
-8.2295 5.0629 -2.5017 0.9609
-8.4265 4.7277 -2.5017 0.9609
-8.6099 4.3848 -2.5017 0.9609
-8.9346 3.6784 -2.5017 0.9609
-9.0753 3.3160 -2.5017 0.9609
-9.2014 2.9482 -2.5017 0.9609
-9.2588 2.7624 -2.5017 0.9609
-9.3125 2.5756 -2.5017 0.9609
-9.4086 2.1988 -2.5017 0.9609
-9.4510 2.0091 -2.5017 0.9609
-9.5241 1.6272 -2.5017 0.9609
-9.5550 1.4353 -2.5017 0.9609
-9.5819 1.2427 -2.5017 0.9609
-9.6241 0.8562 -2.5017 0.9609
-9.6394 0.6624 -2.5017 0.9609
-9.6508 0.4683 -2.5017 0.9609
-9.6583 0.2740 -2.5017 0.9609
-9.6572 -0.3091 -2.5017 0.9609
-9.6490 -0.5034 -2.5017 0.9609
-9.6369 -0.6974 -2.5017 0.9609
-9.6011 -1.0846 -2.5017 0.9609
-9.4828 -1.8530 -2.5017 0.9609
-9.4006 -2.2330 -2.5017 0.9609
-9.3031 -2.6094 -2.5017 0.9609
-9.1906 -2.9816 -2.5017 0.9609
-9.1288 -3.1659 -2.5017 0.9609
-8.9211 -3.7109 -2.5017 0.9609
-8.7646 -4.0668 -2.5017 0.9609
-8.5939 -4.4161 -2.5017 0.9609
-8.3118 -4.9265 -2.5017 0.9609
-8.1069 -5.2569 -2.5017 0.9609
-7.4148 -6.1950 -2.5017 0.9609
-7.0275 -6.6311 -2.5017 0.9609
-6.4716 -7.1746 -2.5017 0.9609
-5.8738 -7.6717 -2.5017 0.9609
-5.2380 -8.1191 -2.5017 0.9609
-5.0736 -8.2229 -2.5017 0.9609
-4.9071 -8.3233 -2.5017 0.9609
-4.7386 -8.4204 -2.5017 0.9609
-4.5683 -8.5140 -2.5017 0.9609
-4.3960 -8.6042 -2.5017 0.9609
-4.0463 -8.7741 -2.5017 0.9609
-3.5096 -9.0022 -2.5017 0.9609
-3.3278 -9.0710 -2.5017 0.9609
-3.1446 -9.1361 -2.5017 0.9609
-2.9601 -9.1975 -2.5017 0.9609
-2.7745 -9.2552 -2.5017 0.9609
8.4226 -2.6745 -2.5017 0.9639
8.5233 -2.3334 -2.5017 0.9639
8.5686 -2.1615 -2.5017 0.9639
8.6103 -1.9887 -2.5017 0.9639
8.6486 -1.8150 -2.5017 0.9639
8.7423 -1.2899 -2.5017 0.9639
8.8340 -0.2276 -2.5017 0.9639
8.8368 -0.0499 -2.5017 0.9639
8.8361 0.1280 -2.5017 0.9639
8.8317 0.3057 -2.5017 0.9639
8.8122 0.6608 -2.5017 0.9639
8.7785 1.0148 -2.5017 0.9639
8.7563 1.1912 -2.5017 0.9639
8.7306 1.3671 -2.5017 0.9639
8.7013 1.5425 -2.5017 0.9639
8.6322 1.8914 -2.5017 0.9639
8.5924 2.0647 -2.5017 0.9639
8.5024 2.4087 -2.5017 0.9639
8.2175 3.2505 -2.5017 0.9639
8.1504 3.4152 -2.5017 0.9639
8.0064 3.7403 -2.5017 0.9639
7.8494 4.0594 -2.5017 0.9639
7.6798 4.3719 -2.5017 0.9639
7.5902 4.5255 -2.5017 0.9639
7.4020 4.8272 -2.5017 0.9639
7.0973 5.2650 -2.5017 0.9639
6.6510 5.8186 -2.5017 0.9639
6.4115 6.0815 -2.5017 0.9639
6.2879 6.2092 -2.5017 0.9639
6.1617 6.3345 -2.5017 0.9639
6.0330 6.4572 -2.5017 0.9639
5.9018 6.5773 -2.5017 0.9639
5.7683 6.6947 -2.5017 0.9639
5.6324 6.8094 -2.5017 0.9639
5.4943 6.9213 -2.5017 0.9639
5.3539 7.0305 -2.5017 0.9639
5.2114 7.1368 -2.5017 0.9639
5.0667 7.2402 -2.5017 0.9639
4.9179 7.3375 -2.5006 0.9639
4.7663 7.4303 -2.4990 0.9640
4.4581 7.6068 -2.4960 0.9640
4.1183 7.7236 -2.4779 0.9643
3.9227 7.7274 -2.4533 0.9646
3.3572 7.7374 -2.3877 0.9655
3.1750 7.7403 -2.3684 0.9658
2.9972 7.7471 -2.3516 0.9661
2.5218 7.9062 -2.3493 0.9661
2.3623 7.9553 -2.3493 0.9661
2.2017 8.0013 -2.3493 0.9661
1.5513 8.1524 -2.3493 0.9661
0.5581 8.2799 -2.3493 0.9661
-0.2763 8.2941 -2.3493 0.9661
-0.4431 8.2868 -2.3493 0.9661
-0.7762 8.2623 -2.3493 0.9661
-0.9422 8.2450 -2.3493 0.9661
-1.1079 8.2244 -2.3493 0.9661
-1.2732 8.2004 -2.3493 0.9661
-1.4379 8.1731 -2.3493 0.9661
-1.6021 8.1425 -2.3493 0.9661
-1.7656 8.1087 -2.3493 0.9661
-2.0904 8.0311 -2.3493 0.9661
-2.2516 7.9874 -2.3493 0.9661
-2.4118 7.9405 -2.3493 0.9661
-2.5711 7.8903 -2.3493 0.9661
-2.8865 7.7805 -2.3493 0.9661
-3.0442 7.7255 -2.3507 0.9661
-3.2216 7.7167 -2.3673 0.9658
-3.4037 7.7125 -2.3865 0.9656
-3.5887 7.7080 -2.4070 0.9653
-3.7769 7.7033 -2.4288 0.9650
-4.3494 7.6634 -2.4945 0.9640
-4.6596 7.4909 -2.4974 0.9640
-4.9634 7.3064 -2.5005 0.9639
-5.3977 6.9970 -2.5017 0.9639
-5.6748 6.7742 -2.5017 0.9639
-5.8100 6.6586 -2.5017 0.9639
-6.0732 6.4195 -2.5017 0.9639
-6.3265 6.1699 -2.5017 0.9639
-6.4494 6.0414 -2.5017 0.9639
-6.6872 5.7770 -2.5017 0.9639
-6.8021 5.6413 -2.5017 0.9639
-6.9142 5.5033 -2.5017 0.9639
-7.2336 5.0762 -2.5017 0.9639
-7.4320 4.7810 -2.5017 0.9639
-7.7069 4.3240 -2.5017 0.9639
-7.9537 3.8511 -2.5017 0.9639
-8.0296 3.6903 -2.5017 0.9639
-8.1716 3.3643 -2.5017 0.9639
-8.2376 3.1992 -2.5017 0.9639
-8.3003 3.0328 -2.5017 0.9639
-8.3597 2.8652 -2.5017 0.9639
-8.4156 2.6964 -2.5017 0.9639
-8.8023 0.7831 -2.5017 0.9639
-8.8266 0.4283 -2.5017 0.9639
-8.8335 0.2506 -2.5017 0.9639
-8.8367 0.0729 -2.5017 0.9639
-8.8364 -0.1050 -2.5017 0.9639
-8.8325 -0.2827 -2.5017 0.9639
-8.8250 -0.4604 -2.5017 0.9639
-8.7994 -0.8151 -2.5017 0.9639
-8.7812 -0.9919 -2.5017 0.9639
-8.7595 -1.1684 -2.5017 0.9639
-8.7342 -1.3445 -2.5017 0.9639
-8.7053 -1.5199 -2.5017 0.9639
-8.6371 -1.8689 -2.5017 0.9639
-8.5550 -2.2149 -2.5017 0.9639
-8.5087 -2.3866 -2.5017 0.9639
-8.4589 -2.5573 -2.5017 0.9639
-8.4058 -2.7270 -2.5017 0.9639
-8.3492 -2.8955 -2.5017 0.9639
-8.2892 -3.0629 -2.5017 0.9639
-8.0894 -3.5574 -2.5017 0.9639
-8.0161 -3.7195 -2.5017 0.9639
-7.8600 -4.0390 -2.5017 0.9639
-7.7772 -4.1963 -2.5017 0.9639
-7.6911 -4.3520 -2.5017 0.9639
-7.6020 -4.5058 -2.5017 0.9639
-7.5098 -4.6579 -2.5017 0.9639
-7.4146 -4.8080 -2.5017 0.9639
-7.0040 -5.3886 -2.5017 0.9639
-6.7816 -5.6660 -2.5017 0.9639
-6.6662 -5.8013 -2.5017 0.9639
-6.0498 -6.4415 -2.5017 0.9639
-5.9190 -6.5619 -2.5017 0.9639
-5.7857 -6.6797 -2.5017 0.9639
-5.6502 -6.7948 -2.5017 0.9639
-5.5123 -6.9071 -2.5017 0.9639
-5.3722 -7.0166 -2.5017 0.9639
-4.9391 -7.3279 -2.5017 0.9639
-4.7907 -7.4258 -2.5017 0.9639
-4.4881 -7.6125 -2.5017 0.9639
-4.0206 -7.8694 -2.5017 0.9639
-3.7008 -8.0248 -2.5017 0.9639
-3.5386 -8.0976 -2.5017 0.9639
-3.0436 -8.2964 -2.5017 0.9639
-2.8760 -8.3559 -2.5017 0.9639
-2.3667 -8.5142 -2.5017 0.9639
7.6468 -2.7715 -2.5017 0.9665
7.7010 -2.6171 -2.5017 0.9665
7.7521 -2.4616 -2.5017 0.9665
7.8448 -2.1477 -2.5017 0.9665
7.9249 -1.8303 -2.5017 0.9665
7.9601 -1.6705 -2.5017 0.9665
8.0464 -1.1872 -2.5017 0.9665
8.0686 -1.0251 -2.5017 0.9665
8.0876 -0.8626 -2.5017 0.9665
8.1033 -0.6997 -2.5017 0.9665
8.1249 -0.3731 -2.5017 0.9665
8.1308 -0.2095 -2.5017 0.9665
8.1326 0.1178 -2.5017 0.9665
8.1286 0.2814 -2.5017 0.9665
8.1107 0.6082 -2.5017 0.9665
8.0593 1.0964 -2.5017 0.9665
8.0356 1.2583 -2.5017 0.9665
8.0086 1.4197 -2.5017 0.9665
7.9084 1.9003 -2.5017 0.9665
7.8685 2.0590 -2.5017 0.9665
7.8255 2.2169 -2.5017 0.9665
7.7793 2.3739 -2.5017 0.9665
7.7300 2.5300 -2.5017 0.9665
7.6775 2.6850 -2.5017 0.9665
7.5633 2.9917 -2.5017 0.9665
7.4368 3.2936 -2.5017 0.9665
7.2983 3.5901 -2.5017 0.9665
6.9860 4.1653 -2.5017 0.9665
6.9008 4.3050 -2.5017 0.9665
6.6285 4.7135 -2.5017 0.9665
6.4335 4.9763 -2.5017 0.9665
6.3321 5.1047 -2.5017 0.9665
6.2281 5.2311 -2.5017 0.9665
6.0126 5.4775 -2.5017 0.9665
5.9011 5.5973 -2.5017 0.9665
5.7873 5.7149 -2.5017 0.9665
5.6712 5.8302 -2.5017 0.9665
5.5527 5.9432 -2.5017 0.9665
5.1841 6.2673 -2.5017 0.9665
5.0569 6.3704 -2.5017 0.9665
4.9277 6.4708 -2.5017 0.9665
4.3915 6.8460 -2.5017 0.9665
3.8269 7.1770 -2.5017 0.9665
3.5337 7.3225 -2.5008 0.9665
3.3842 7.3887 -2.4996 0.9666
2.7747 7.6246 -2.4956 0.9666
2.2915 7.7171 -2.4760 0.9669
1.9583 7.7207 -2.4499 0.9672
1.7941 7.7222 -2.4384 0.9674
1.1503 7.7264 -2.4027 0.9678
0.9919 7.7271 -2.3962 0.9679
0.5209 7.7279 -2.3823 0.9681
0.2092 7.7276 -2.3777 0.9682
0.0536 7.7271 -2.3768 0.9682
-0.1018 7.7266 -2.3767 0.9682
-0.2574 7.7258 -2.3776 0.9682
-0.4131 7.7249 -2.3794 0.9681
-0.7255 7.7226 -2.3858 0.9681
-0.8824 7.7212 -2.3903 0.9680
-1.0400 7.7196 -2.3958 0.9679
-1.1983 7.7178 -2.4023 0.9678
-1.6791 7.7113 -2.4274 0.9675
-1.8417 7.7088 -2.4378 0.9674
-2.0058 7.7061 -2.4492 0.9672
-2.3388 7.7000 -2.4752 0.9669
-2.5080 7.6967 -2.4898 0.9667
-3.5792 7.3001 -2.5007 0.9665
-4.1562 6.9914 -2.5017 0.9665
-4.2960 6.9064 -2.5017 0.9665
-4.4341 6.8186 -2.5017 0.9665
-4.5704 6.7280 -2.5017 0.9665
-4.7048 6.6346 -2.5017 0.9665
-4.8374 6.5386 -2.5017 0.9665
-4.9680 6.4400 -2.5017 0.9665
-5.0965 6.3387 -2.5017 0.9665
-5.2231 6.2349 -2.5017 0.9665
-5.3474 6.1285 -2.5017 0.9665
-5.4697 6.0197 -2.5017 0.9665
-5.5897 5.9084 -2.5017 0.9665
-5.7074 5.7948 -2.5017 0.9665
-6.0466 5.4399 -2.5017 0.9665
-6.2606 5.1922 -2.5017 0.9665
-6.3638 5.0652 -2.5017 0.9665
-6.6578 4.6721 -2.5017 0.9665
-6.7504 4.5372 -2.5017 0.9665
-6.9275 4.2619 -2.5017 0.9665
-7.0119 4.1216 -2.5017 0.9665
-7.0934 3.9797 -2.5017 0.9665
-7.3206 3.5446 -2.5017 0.9665
-7.4572 3.2471 -2.5017 0.9665
-7.5211 3.0965 -2.5017 0.9665
-7.5819 2.9445 -2.5017 0.9665
-7.6942 2.6371 -2.5017 0.9665
-7.8392 2.1681 -2.5017 0.9665
-7.9558 1.6912 -2.5017 0.9665
-8.0660 1.0461 -2.5017 0.9665
-8.0854 0.8836 -2.5017 0.9665
-8.1015 0.7207 -2.5017 0.9665
-8.1303 0.2307 -2.5017 0.9665
-8.1333 0.0671 -2.5017 0.9665
-8.1330 -0.0966 -2.5017 0.9665
-8.1294 -0.2602 -2.5017 0.9665
-8.1123 -0.5871 -2.5017 0.9665
-8.0989 -0.7502 -2.5017 0.9665
-7.9826 -1.5598 -2.5017 0.9665
-7.9496 -1.7201 -2.5017 0.9665
-7.9133 -1.8797 -2.5017 0.9665
-7.8739 -2.0386 -2.5017 0.9665
-7.7366 -2.5099 -2.5017 0.9665
-7.6845 -2.6650 -2.5017 0.9665
-7.5711 -2.9721 -2.5017 0.9665
-7.4454 -3.2742 -2.5017 0.9665
-7.3780 -3.4234 -2.5017 0.9665
-7.3076 -3.5712 -2.5017 0.9665
-7.2343 -3.7174 -2.5017 0.9665
-7.1580 -3.8622 -2.5017 0.9665
-7.0789 -4.0055 -2.5017 0.9665
-6.8243 -4.4253 -2.5017 0.9665
-6.7339 -4.5617 -2.5017 0.9665
-6.5449 -4.8289 -2.5017 0.9665
-6.1355 -5.3395 -2.5017 0.9665
-6.0268 -5.4619 -2.5017 0.9665
-5.9157 -5.5820 -2.5017 0.9665
-5.6863 -5.8155 -2.5017 0.9665
-5.5682 -5.9287 -2.5017 0.9665
-5.3252 -6.1479 -2.5017 0.9665
-5.2004 -6.2539 -2.5017 0.9665
-5.0735 -6.3572 -2.5017 0.9665
-4.6807 -6.6517 -2.5017 0.9665
-4.5459 -6.7445 -2.5017 0.9665
-4.4093 -6.8346 -2.5017 0.9665
-4.2709 -6.9220 -2.5017 0.9665
-4.1308 -7.0065 -2.5017 0.9665
-3.9890 -7.0882 -2.5017 0.9665
-3.5541 -7.3159 -2.5017 0.9665
-3.2569 -7.4530 -2.5017 0.9665
-3.1062 -7.5170 -2.5017 0.9665
-2.9544 -7.5780 -2.5017 0.9665
-2.8013 -7.6359 -2.5017 0.9665
-2.6471 -7.6907 -2.5017 0.9665
7.0226 -2.7063 -2.5017 0.9688
7.0756 -2.5645 -2.5017 0.9688
7.2174 -2.1329 -2.5017 0.9688
7.3656 -1.5457 -2.5017 0.9688
7.4660 -0.9486 -2.5017 0.9688
7.5096 -0.4964 -2.5017 0.9688
7.5259 -0.0425 -2.5017 0.9688
7.5148 0.4116 -2.5017 0.9688
7.4921 0.7137 -2.5017 0.9688
7.4762 0.8642 -2.5017 0.9688
7.4573 1.0145 -2.5017 0.9688
7.3516 1.6108 -2.5017 0.9688
7.3177 1.7584 -2.5017 0.9688
7.2809 1.9052 -2.5017 0.9688
7.2410 2.0514 -2.5017 0.9688
7.0527 2.6269 -2.5017 0.9688
6.9984 2.7683 -2.5017 0.9688
6.8186 3.1854 -2.5017 0.9688
6.6850 3.4571 -2.5017 0.9688
6.6141 3.5910 -2.5017 0.9688
6.4642 3.8542 -2.5017 0.9688
6.3854 3.9835 -2.5017 0.9688
6.2199 4.2371 -2.5017 0.9688
6.0444 4.4839 -2.5017 0.9688
5.8591 4.7235 -2.5017 0.9688
5.7629 4.8404 -2.5017 0.9688
5.5635 5.0684 -2.5017 0.9688
5.4604 5.1793 -2.5017 0.9688
5.3551 5.2881 -2.5017 0.9688
4.9126 5.7015 -2.5017 0.9688
4.5597 5.9875 -2.5017 0.9688
4.4383 6.0780 -2.5017 0.9688
4.3151 6.1661 -2.5017 0.9688
4.1901 6.2517 -2.5017 0.9688
3.9352 6.4152 -2.5017 0.9688
3.6739 6.5683 -2.5017 0.9688
3.5410 6.6409 -2.5017 0.9688
3.1339 6.8425 -2.5017 0.9688
2.7154 7.0191 -2.5017 0.9688
2.4308 7.1226 -2.5017 0.9688
2.2871 7.1701 -2.5017 0.9688
1.8499 7.2935 -2.5012 0.9688
1.7024 7.3275 -2.5006 0.9688
1.5543 7.3587 -2.5000 0.9688
1.4057 7.3870 -2.4996 0.9688
0.8067 7.4717 -2.4981 0.9688
0.6562 7.4857 -2.4978 0.9688
0.5054 7.4968 -2.4976 0.9688
0.0522 7.5127 -2.4973 0.9688
-0.0990 7.5123 -2.4973 0.9688
-0.2501 7.5089 -2.4974 0.9688
-0.4012 7.5026 -2.4975 0.9688
-0.5521 7.4935 -2.4976 0.9688
-0.7028 7.4814 -2.4978 0.9688
-1.0035 7.4487 -2.4984 0.9688
-1.8954 7.2817 -2.5011 0.9688
-2.0419 7.2437 -2.5017 0.9688
-2.3317 7.1557 -2.5017 0.9688
-2.4752 7.1074 -2.5017 0.9688
-2.6177 7.0561 -2.5017 0.9688
-2.7592 7.0020 -2.5017 0.9688
-3.0386 6.8853 -2.5017 0.9688
-3.1766 6.8228 -2.5017 0.9688
-3.3132 6.7575 -2.5017 0.9688
-3.4485 6.6895 -2.5017 0.9688
-3.7148 6.5453 -2.5017 0.9688
-4.1029 6.3093 -2.5017 0.9688
-4.2290 6.2254 -2.5017 0.9688
-4.3534 6.1391 -2.5017 0.9688
-4.4761 6.0503 -2.5017 0.9688
-4.5969 5.9590 -2.5017 0.9688
-4.7159 5.8653 -2.5017 0.9688
-4.8329 5.7692 -2.5017 0.9688
-5.1722 5.4671 -2.5017 0.9688
-5.5950 5.0336 -2.5017 0.9688
-5.9816 4.5675 -2.5017 0.9688
-6.1605 4.3231 -2.5017 0.9688
-6.2462 4.1983 -2.5017 0.9688
-6.3295 4.0718 -2.5017 0.9688
-6.4101 3.9436 -2.5017 0.9688
-6.5636 3.6825 -2.5017 0.9688
-6.6363 3.5497 -2.5017 0.9688
-6.8384 3.1429 -2.5017 0.9688
-6.9003 3.0046 -2.5017 0.9688
-7.0690 2.5829 -2.5017 0.9688
-7.2119 2.1517 -2.5017 0.9688
-7.2926 1.8598 -2.5017 0.9688
-7.3286 1.7127 -2.5017 0.9688
-7.4425 1.1179 -2.5017 0.9688
-7.4815 0.8176 -2.5017 0.9688
-7.4964 0.6669 -2.5017 0.9688
-7.5083 0.5159 -2.5017 0.9688
-7.5172 0.3648 -2.5017 0.9688
-7.5230 0.2135 -2.5017 0.9688
-7.5255 -0.0894 -2.5017 0.9688
-7.5222 -0.2408 -2.5017 0.9688
-7.5158 -0.3921 -2.5017 0.9688
-7.4940 -0.6942 -2.5017 0.9688
-7.4785 -0.8448 -2.5017 0.9688
-7.4600 -0.9951 -2.5017 0.9688
-7.4384 -1.1450 -2.5017 0.9688
-7.4139 -1.2945 -2.5017 0.9688
-7.3863 -1.4433 -2.5017 0.9688
-7.2464 -2.0325 -2.5017 0.9688
-7.2040 -2.1779 -2.5017 0.9688
-7.1106 -2.4660 -2.5017 0.9688
-7.0595 -2.6086 -2.5017 0.9688
-7.0056 -2.7501 -2.5017 0.9688
-6.9489 -2.8904 -2.5017 0.9688
-6.8269 -3.1677 -2.5017 0.9688
-6.6940 -3.4398 -2.5017 0.9688
-6.5502 -3.7063 -2.5017 0.9688
-6.4743 -3.8374 -2.5017 0.9688
-6.3146 -4.0947 -2.5017 0.9688
-6.1448 -4.3455 -2.5017 0.9688
-5.9650 -4.5892 -2.5017 0.9688
-5.7755 -4.8255 -2.5017 0.9688
-5.5767 -5.0539 -2.5017 0.9688
-5.4739 -5.1651 -2.5017 0.9688
-5.2616 -5.3812 -2.5017 0.9688
-5.1523 -5.4859 -2.5017 0.9688
-5.0409 -5.5885 -2.5017 0.9688
-4.9274 -5.6887 -2.5017 0.9688
-4.8120 -5.7867 -2.5017 0.9688
-4.5752 -5.9757 -2.5017 0.9688
-4.3311 -6.1549 -2.5017 0.9688
-4.2064 -6.2408 -2.5017 0.9688
-3.9519 -6.4050 -2.5017 0.9688
-3.8223 -6.4832 -2.5017 0.9688
-3.6910 -6.5588 -2.5017 0.9688
-3.2886 -6.7695 -2.5017 0.9688
-3.1517 -6.8343 -2.5017 0.9688
-2.5921 -7.0656 -2.5017 0.9688
-2.4494 -7.1163 -2.5017 0.9688
-2.3057 -7.1642 -2.5017 0.9688
6.5277 -2.5156 -2.5017 0.9707
6.5770 -2.3837 -2.5017 0.9707
6.6236 -2.2509 -2.5017 0.9707
6.6676 -2.1172 -2.5017 0.9707
6.7473 -1.8472 -2.5017 0.9707
6.7831 -1.7111 -2.5017 0.9707
6.8162 -1.5743 -2.5017 0.9707
6.8465 -1.4368 -2.5017 0.9707
6.8740 -1.2988 -2.5017 0.9707
6.8988 -1.1602 -2.5017 0.9707
6.9398 -0.8817 -2.5017 0.9707
6.9562 -0.7419 -2.5017 0.9707
6.9955 -0.0395 -2.5017 0.9707
6.9949 0.1013 -2.5017 0.9707
6.9318 0.9430 -2.5017 0.9707
6.8882 1.2211 -2.5017 0.9707
6.8335 1.4973 -2.5017 0.9707
6.7678 1.7710 -2.5017 0.9707
6.7308 1.9068 -2.5017 0.9707
6.6486 2.1761 -2.5017 0.9707
6.5557 2.4418 -2.5017 0.9707
6.3964 2.8328 -2.5017 0.9707
5.8597 3.8214 -2.5017 0.9707
5.7816 3.9385 -2.5017 0.9707
5.6185 4.1679 -2.5017 0.9707
5.5335 4.2801 -2.5017 0.9707
5.4462 4.3906 -2.5017 0.9707
5.0756 4.8143 -2.5017 0.9707
4.9777 4.9154 -2.5017 0.9707
4.7759 5.1117 -2.5017 0.9707
4.5664 5.2997 -2.5017 0.9707
4.4588 5.3905 -2.5017 0.9707
4.2383 5.5655 -2.5017 0.9707
4.1255 5.6497 -2.5017 0.9707
4.0110 5.7316 -2.5017 0.9707
3.7772 5.8883 -2.5017 0.9707
3.5372 6.0355 -2.5017 0.9707
3.1666 6.2379 -2.5017 0.9707
2.7845 6.4176 -2.5017 0.9707
2.5241 6.5244 -2.5017 0.9707
1.9914 6.7062 -2.5017 0.9707
1.8560 6.7449 -2.5017 0.9707
1.7199 6.7809 -2.5017 0.9707
1.5831 6.8141 -2.5017 0.9707
1.4457 6.8446 -2.5017 0.9707
1.3077 6.8723 -2.5017 0.9707
1.0302 6.9194 -2.5017 0.9707
0.8907 6.9387 -2.5017 0.9707
0.6108 6.9689 -2.5017 0.9707
0.4705 6.9798 -2.5017 0.9707
0.3300 6.9879 -2.5017 0.9707
0.1893 6.9931 -2.5017 0.9707
0.0486 6.9955 -2.5017 0.9707
-0.0922 6.9950 -2.5017 0.9707
-0.2329 6.9917 -2.5017 0.9707
-0.3735 6.9857 -2.5017 0.9707
-0.5140 6.9767 -2.5017 0.9707
-0.6543 6.9650 -2.5017 0.9707
-1.0733 6.9128 -2.5017 0.9707
-1.2122 6.8898 -2.5017 0.9707
-1.4884 6.8355 -2.5017 0.9707
-1.6256 6.8041 -2.5017 0.9707
-1.7622 6.7701 -2.5017 0.9707
-1.8980 6.7332 -2.5017 0.9707
-2.1674 6.6514 -2.5017 0.9707
-2.3008 6.6065 -2.5017 0.9707
-2.6952 6.4556 -2.5017 0.9707
-2.9527 6.3420 -2.5017 0.9707
-3.0797 6.2813 -2.5017 0.9707
-3.4530 6.0841 -2.5017 0.9707
-3.6950 5.9402 -2.5017 0.9707
-3.9310 5.7867 -2.5017 0.9707
-4.0467 5.7065 -2.5017 0.9707
-4.2729 5.5390 -2.5017 0.9707
-4.3835 5.4519 -2.5017 0.9707
-4.4924 5.3626 -2.5017 0.9707
-4.5993 5.2712 -2.5017 0.9707
-4.7045 5.1776 -2.5017 0.9707
-4.8077 5.0819 -2.5017 0.9707
-5.0083 4.8843 -2.5017 0.9707
-5.1055 4.7826 -2.5017 0.9707
-5.2007 4.6788 -2.5017 0.9707
-5.2938 4.5733 -2.5017 0.9707
-5.3847 4.4658 -2.5017 0.9707
-5.4735 4.3566 -2.5017 0.9707
-5.9584 3.6657 -2.5017 0.9707
-6.1687 3.2995 -2.5017 0.9707
-6.2338 3.1747 -2.5017 0.9707
-6.4689 2.6632 -2.5017 0.9707
-6.6178 2.2682 -2.5017 0.9707
-6.6620 2.1346 -2.5017 0.9707
-6.7037 2.0001 -2.5017 0.9707
-6.7425 1.8648 -2.5017 0.9707
-6.8121 1.5920 -2.5017 0.9707
-6.8428 1.4546 -2.5017 0.9707
-6.8957 1.1782 -2.5017 0.9707
-6.9792 0.4796 -2.5017 0.9707
-6.9921 -0.2238 -2.5017 0.9707
-6.9862 -0.3645 -2.5017 0.9707
-6.9774 -0.5050 -2.5017 0.9707
-6.9658 -0.6452 -2.5017 0.9707
-6.9514 -0.7853 -2.5017 0.9707
-6.9342 -0.9250 -2.5017 0.9707
-6.9142 -1.0643 -2.5017 0.9707
-6.8914 -1.2032 -2.5017 0.9707
-6.8658 -1.3416 -2.5017 0.9707
-6.8063 -1.6168 -2.5017 0.9707
-6.7724 -1.7534 -2.5017 0.9707
-6.7357 -1.8893 -2.5017 0.9707
-6.6543 -2.1588 -2.5017 0.9707
-6.3458 -2.9445 -2.5017 0.9707
-6.2853 -3.0715 -2.5017 0.9707
-6.2222 -3.1974 -2.5017 0.9707
-6.0885 -3.4451 -2.5017 0.9707
-5.7919 -3.9235 -2.5017 0.9707
-5.7117 -4.0393 -2.5017 0.9707
-5.4576 -4.3765 -2.5017 0.9707
-5.3685 -4.4854 -2.5017 0.9707
-5.0881 -4.8011 -2.5017 0.9707
-4.9905 -4.9025 -2.5017 0.9707
-4.8908 -5.0019 -2.5017 0.9707
-4.7892 -5.0993 -2.5017 0.9707
-4.6856 -5.1946 -2.5017 0.9707
-4.1402 -5.6390 -2.5017 0.9707
-3.9100 -5.8010 -2.5017 0.9707
-3.5529 -6.0263 -2.5017 0.9707
-3.3075 -6.1644 -2.5017 0.9707
-3.1829 -6.2297 -2.5017 0.9707
-2.9296 -6.3527 -2.5017 0.9707
-2.6717 -6.4654 -2.5017 0.9707
-2.0088 -6.7010 -2.5017 0.9707
-1.8736 -6.7401 -2.5017 0.9707
-1.7376 -6.7764 -2.5017 0.9707
6.0914 -2.3475 -2.5017 0.9724
6.1374 -2.2244 -2.5017 0.9724
6.1810 -2.1005 -2.5017 0.9724
6.2220 -1.9757 -2.5017 0.9724
6.2605 -1.8501 -2.5017 0.9724
6.3298 -1.5968 -2.5017 0.9724
6.3607 -1.4691 -2.5017 0.9724
6.3889 -1.3408 -2.5017 0.9724
6.4377 -1.0827 -2.5017 0.9724
6.4761 -0.8228 -2.5017 0.9724
6.5212 -0.2994 -2.5017 0.9724
6.5274 0.0945 -2.5017 0.9724
6.5242 0.2258 -2.5017 0.9724
6.4987 0.6190 -2.5017 0.9724
6.4849 0.7496 -2.5017 0.9724
6.4685 0.8800 -2.5017 0.9724
6.4495 1.0099 -2.5017 0.9724
6.4279 1.1395 -2.5017 0.9724
6.4037 1.2686 -2.5017 0.9724
6.3768 1.3972 -2.5017 0.9724
6.3474 1.5252 -2.5017 0.9724
6.3155 1.6526 -2.5017 0.9724
6.2809 1.7794 -2.5017 0.9724
6.2439 1.9054 -2.5017 0.9724
6.1175 2.2786 -2.5017 0.9724
5.8577 2.8815 -2.5017 0.9724
5.7371 3.1148 -2.5017 0.9724
5.6732 3.2296 -2.5017 0.9724
5.3952 3.6753 -2.5017 0.9724
5.2430 3.8894 -2.5017 0.9724
5.1637 3.9941 -2.5017 0.9724
5.0822 4.0972 -2.5017 0.9724
4.9988 4.1986 -2.5017 0.9724
4.9133 4.2984 -2.5017 0.9724
4.6450 4.5869 -2.5017 0.9724
4.5518 4.6795 -2.5017 0.9724
4.4567 4.7701 -2.5017 0.9724
4.2612 4.9455 -2.5017 0.9724
4.1608 5.0303 -2.5017 0.9724
4.0588 5.1130 -2.5017 0.9724
3.7429 5.3485 -2.5017 0.9724
3.6345 5.4228 -2.5017 0.9724
3.3008 5.6321 -2.5017 0.9724
2.8373 5.8793 -2.5017 0.9724
2.7184 5.9352 -2.5017 0.9724
2.5984 5.9887 -2.5017 0.9724
2.4774 6.0397 -2.5017 0.9724
2.3554 6.0884 -2.5017 0.9724
2.2324 6.1345 -2.5017 0.9724
1.9838 6.2194 -2.5017 0.9724
1.8583 6.2580 -2.5017 0.9724
1.2203 6.4130 -2.5017 0.9724
0.8312 6.4750 -2.5017 0.9724
0.7008 6.4904 -2.5017 0.9724
0.5700 6.5032 -2.5017 0.9724
0.4391 6.5133 -2.5017 0.9724
-0.2173 6.5245 -2.5017 0.9724
-0.3486 6.5188 -2.5017 0.9724
-0.6106 6.4995 -2.5017 0.9724
-0.8716 6.4697 -2.5017 0.9724
-1.1311 6.4294 -2.5017 0.9724
-1.2603 6.4053 -2.5017 0.9724
-1.3889 6.3787 -2.5017 0.9724
-1.6444 6.3176 -2.5017 0.9724
-1.7712 6.2833 -2.5017 0.9724
-2.6357 5.9724 -2.5017 0.9724
-3.1074 5.7411 -2.5017 0.9724
-3.2223 5.6774 -2.5017 0.9724
-3.3358 5.6115 -2.5017 0.9724
-3.6683 5.4000 -2.5017 0.9724
-3.7762 5.3251 -2.5017 0.9724
-3.8826 5.2480 -2.5017 0.9724
-3.9874 5.1688 -2.5017 0.9724
-4.0906 5.0876 -2.5017 0.9724
-4.1921 5.0043 -2.5017 0.9724
-4.4864 4.7422 -2.5017 0.9724
-4.5809 4.6510 -2.5017 0.9724
-4.8531 4.3662 -2.5017 0.9724
-4.9400 4.2676 -2.5017 0.9724
-5.1077 4.0654 -2.5017 0.9724
-5.1885 3.9618 -2.5017 0.9724
-5.2671 3.8566 -2.5017 0.9724
-5.5602 3.4207 -2.5017 0.9724
-5.7564 3.0790 -2.5017 0.9724
-5.8172 2.9625 -2.5017 0.9724
-5.9853 2.6062 -2.5017 0.9724
-6.0365 2.4853 -2.5017 0.9724
-6.1755 2.1166 -2.5017 0.9724
-6.2919 1.7401 -2.5017 0.9724
-6.3568 1.4856 -2.5017 0.9724
-6.4349 1.0994 -2.5017 0.9724
-6.4557 0.9697 -2.5017 0.9724
-6.4739 0.8396 -2.5017 0.9724
-6.5128 0.4475 -2.5017 0.9724
-6.5205 0.3164 -2.5017 0.9724
-6.5255 0.1852 -2.5017 0.9724
-6.5279 0.0538 -2.5017 0.9724
-6.5277 -0.0775 -2.5017 0.9724
-6.5193 -0.3401 -2.5017 0.9724
-6.5111 -0.4712 -2.5017 0.9724
-6.4869 -0.7328 -2.5017 0.9724
-6.4708 -0.8631 -2.5017 0.9724
-6.4521 -0.9932 -2.5017 0.9724
-6.4070 -1.2520 -2.5017 0.9724
-6.3198 -1.6362 -2.5017 0.9724
-6.2856 -1.7630 -2.5017 0.9724
-6.2096 -2.0145 -2.5017 0.9724
-6.1678 -2.1390 -2.5017 0.9724
-5.9758 -2.6280 -2.5017 0.9724
-5.9217 -2.7477 -2.5017 0.9724
-5.8652 -2.8663 -2.5017 0.9724
-5.8064 -2.9837 -2.5017 0.9724
-5.6816 -3.2149 -2.5017 0.9724
-5.6158 -3.3286 -2.5017 0.9724
-5.4048 -3.6613 -2.5017 0.9724
-5.3300 -3.7693 -2.5017 0.9724
-5.2531 -3.8758 -2.5017 0.9724
-4.8373 -4.3838 -2.5017 0.9724
-4.7481 -4.4802 -2.5017 0.9724
-4.6570 -4.5748 -2.5017 0.9724
-4.4691 -4.7585 -2.5017 0.9724
-4.3725 -4.8475 -2.5017 0.9724
-4.1739 -5.0195 -2.5017 0.9724
-4.0721 -5.1024 -2.5017 0.9724
-3.6487 -5.4133 -2.5017 0.9724
-3.4279 -5.5557 -2.5017 0.9724
-3.3154 -5.6236 -2.5017 0.9724
-3.0865 -5.7524 -2.5017 0.9724
-2.8526 -5.8719 -2.5017 0.9724
-2.7339 -5.9281 -2.5017 0.9724
-2.2484 -6.1287 -2.5017 0.9724
-2.1246 -6.1727 -2.5017 0.9724
-2.0000 -6.2142 -2.5017 0.9724
-1.8745 -6.2532 -2.5017 0.9724
5.7874 -1.9668 -2.5017 0.9739
5.8955 -1.6140 -2.5017 0.9739
5.9268 -1.4951 -2.5017 0.9739
6.0062 -1.1348 -2.5017 0.9739
6.0278 -1.0137 -2.5017 0.9739
6.0470 -0.8922 -2.5017 0.9739
6.0637 -0.7704 -2.5017 0.9739
6.0898 -0.5258 -2.5017 0.9739
6.1124 -0.0345 -2.5017 0.9739
6.1119 0.0885 -2.5017 0.9739
6.1033 0.3343 -2.5017 0.9739
6.0954 0.4571 -2.5017 0.9739
6.0721 0.7019 -2.5017 0.9739
6.0567 0.8239 -2.5017 0.9739
6.0186 1.0670 -2.5017 0.9739
5.9960 1.1878 -2.5017 0.9739
5.9708 1.3083 -2.5017 0.9739
5.9134 1.5474 -2.5017 0.9739
5.8810 1.6661 -2.5017 0.9739
5.8463 1.7841 -2.5017 0.9739
5.7698 2.0178 -2.5017 0.9739
5.7281 2.1335 -2.5017 0.9739
5.6840 2.2483 -2.5017 0.9739
5.5380 2.5871 -2.5017 0.9739
5.3718 2.9165 -2.5017 0.9739
5.1199 3.3390 -2.5017 0.9739
4.7587 3.8363 -2.5017 0.9739
4.5186 4.1164 -2.5017 0.9739
4.1730 4.4664 -2.5017 0.9739
4.0823 4.5495 -2.5017 0.9739
3.9899 4.6307 -2.5017 0.9739
3.8959 4.7100 -2.5017 0.9739
3.6047 4.9365 -2.5017 0.9739
3.4032 5.0775 -2.5017 0.9739
3.3003 5.1449 -2.5017 0.9739
3.1961 5.2103 -2.5017 0.9739
3.0907 5.2736 -2.5017 0.9739
2.9839 5.3347 -2.5017 0.9739
2.7669 5.4504 -2.5017 0.9739
2.6566 5.5050 -2.5017 0.9739
2.5453 5.5573 -2.5017 0.9739
2.4330 5.6074 -2.5017 0.9739
2.3197 5.6552 -2.5017 0.9739
2.2054 5.7008 -2.5017 0.9739
1.9743 5.7849 -2.5017 0.9739
1.8575 5.8234 -2.5017 0.9739
1.6217 5.8934 -2.5017 0.9739
1.1426 6.0047 -2.5017 0.9739
1.0216 6.0265 -2.5017 0.9739
0.7783 6.0627 -2.5017 0.9739
0.6561 6.0772 -2.5017 0.9739
0.5337 6.0891 -2.5017 0.9739
0.4111 6.0986 -2.5017 0.9739
0.2883 6.1057 -2.5017 0.9739
0.1654 6.1102 -2.5017 0.9739
0.0424 6.1123 -2.5017 0.9739
-0.0806 6.1120 -2.5017 0.9739
-0.2035 6.1091 -2.5017 0.9739
-0.4491 6.0960 -2.5017 0.9739
-0.5717 6.0857 -2.5017 0.9739
-0.6940 6.0730 -2.5017 0.9739
-0.8161 6.0578 -2.5017 0.9739
-0.9378 6.0401 -2.5017 0.9739
-1.0591 6.0200 -2.5017 0.9739
-1.3005 5.9726 -2.5017 0.9739
-1.4204 5.9452 -2.5017 0.9739
-1.5397 5.9154 -2.5017 0.9739
-1.6584 5.8832 -2.5017 0.9739
-2.1261 5.7308 -2.5017 0.9739
-2.2409 5.6869 -2.5017 0.9739
-2.3549 5.6406 -2.5017 0.9739
-2.4679 5.5921 -2.5017 0.9739
-2.5799 5.5413 -2.5017 0.9739
-2.8008 5.4331 -2.5017 0.9739
-2.9095 5.3756 -2.5017 0.9739
-3.2286 5.1903 -2.5017 0.9739
-3.3323 5.1243 -2.5017 0.9739
-3.5358 4.9861 -2.5017 0.9739
-3.6354 4.9139 -2.5017 0.9739
-4.2008 4.4403 -2.5017 0.9739
-4.4610 4.1788 -2.5017 0.9739
-4.7050 3.9021 -2.5017 0.9739
-4.7825 3.8066 -2.5017 0.9739
-4.8581 3.7096 -2.5017 0.9739
-4.9318 3.6111 -2.5017 0.9739
-5.0035 3.5111 -2.5017 0.9739
-5.0731 3.4098 -2.5017 0.9739
-5.1407 3.3070 -2.5017 0.9739
-5.2062 3.2029 -2.5017 0.9739
-5.5540 2.5526 -2.5017 0.9739
-5.6522 2.3271 -2.5017 0.9739
-5.7823 1.9818 -2.5017 0.9739
-5.9521 1.3910 -2.5017 0.9739
-5.9789 1.2710 -2.5017 0.9739
-6.0447 0.9080 -2.5017 0.9739
-6.0617 0.7862 -2.5017 0.9739
-6.1101 0.1734 -2.5017 0.9739
-6.1121 -0.0726 -2.5017 0.9739
-6.1094 -0.1956 -2.5017 0.9739
-6.1042 -0.3185 -2.5017 0.9739
-6.0966 -0.4412 -2.5017 0.9739
-5.9991 -1.1723 -2.5017 0.9739
-5.9470 -1.4127 -2.5017 0.9739
-5.9174 -1.5320 -2.5017 0.9739
-5.8510 -1.7689 -2.5017 0.9739
-5.8142 -1.8862 -2.5017 0.9739
-5.7751 -2.0028 -2.5017 0.9739
-5.6437 -2.3476 -2.5017 0.9739
-5.5954 -2.4607 -2.5017 0.9739
-5.5447 -2.5727 -2.5017 0.9739
-5.4918 -2.6838 -2.5017 0.9739
-5.1945 -3.2218 -2.5017 0.9739
-5.0607 -3.4282 -2.5017 0.9739
-4.9186 -3.6290 -2.5017 0.9739
-4.6110 -4.0127 -2.5017 0.9739
-4.4458 -4.1950 -2.5017 0.9739
-4.3605 -4.2836 -2.5017 0.9739
-4.0941 -4.5389 -2.5017 0.9739
-3.8128 -4.7776 -2.5017 0.9739
-3.7159 -4.8533 -2.5017 0.9739
-3.5176 -4.9989 -2.5017 0.9739
-3.4164 -5.0687 -2.5017 0.9739
-3.3137 -5.1364 -2.5017 0.9739
-3.2097 -5.2020 -2.5017 0.9739
-3.1044 -5.2655 -2.5017 0.9739
-2.5598 -5.5507 -2.5017 0.9739
-2.4476 -5.6011 -2.5017 0.9739
-2.2203 -5.6950 -2.5017 0.9739
-2.1052 -5.7385 -2.5017 0.9739
-1.8727 -5.8186 -2.5017 0.9739
-1.7552 -5.8551 -2.5017 0.9739
5.3563 -2.0642 -2.5017 0.9753
5.4350 -1.8470 -2.5017 0.9753
5.5049 -1.6268 -2.5017 0.9753
5.5365 -1.5158 -2.5017 0.9753
5.5930 -1.2918 -2.5017 0.9753
5.6179 -1.1790 -2.5017 0.9753
5.6788 -0.8379 -2.5017 0.9753
5.6945 -0.7235 -2.5017 0.9753
5.7277 -0.3786 -2.5017 0.9753
5.7342 -0.2633 -2.5017 0.9753
5.7401 -0.0324 -2.5017 0.9753
5.7368 0.1986 -2.5017 0.9753
5.7144 0.5443 -2.5017 0.9753
5.6878 0.7738 -2.5017 0.9753
5.6308 1.1155 -2.5017 0.9753
5.6072 1.2286 -2.5017 0.9753
5.5532 1.4532 -2.5017 0.9753
5.4184 1.8949 -2.5017 0.9753
5.3792 2.0036 -2.5017 0.9753
5.3378 2.1114 -2.5017 0.9753
5.2942 2.2184 -2.5017 0.9753
5.2007 2.4296 -2.5017 0.9753
5.1508 2.5337 -2.5017 0.9753
5.0987 2.6368 -2.5017 0.9753
5.0447 2.7389 -2.5017 0.9753
4.8702 3.0383 -2.5017 0.9753
4.6781 3.3266 -2.5017 0.9753
4.5405 3.5121 -2.5017 0.9753
4.4689 3.6027 -2.5017 0.9753
4.3203 3.7796 -2.5017 0.9753
4.2434 3.8657 -2.5017 0.9753
4.0844 4.0333 -2.5017 0.9753
3.9188 4.1944 -2.5017 0.9753
3.8337 4.2724 -2.5017 0.9753
3.6587 4.4232 -2.5017 0.9753
3.5689 4.4959 -2.5017 0.9753
3.4777 4.5668 -2.5017 0.9753
3.1959 4.7683 -2.5017 0.9753
3.0993 4.8316 -2.5017 0.9753
2.9024 4.9524 -2.5017 0.9753
2.8022 5.0098 -2.5017 0.9753
2.7008 5.0652 -2.5017 0.9753
2.5984 5.1185 -2.5017 0.9753
2.4949 5.1697 -2.5017 0.9753
2.2848 5.2659 -2.5017 0.9753
2.1784 5.3108 -2.5017 0.9753
2.0711 5.3536 -2.5017 0.9753
1.9630 5.3942 -2.5017 0.9753
1.7444 5.4688 -2.5017 0.9753
1.5229 5.5345 -2.5017 0.9753
1.4113 5.5640 -2.5017 0.9753
0.9594 5.6595 -2.5017 0.9753
0.8453 5.6777 -2.5017 0.9753
0.7309 5.6935 -2.5017 0.9753
0.6162 5.7071 -2.5017 0.9753
0.5012 5.7183 -2.5017 0.9753
0.2708 5.7338 -2.5017 0.9753
0.0399 5.7401 -2.5017 0.9753
-0.0756 5.7397 -2.5017 0.9753
-0.3065 5.7321 -2.5017 0.9753
-0.5369 5.7151 -2.5017 0.9753
-0.6517 5.7031 -2.5017 0.9753
-0.8807 5.6723 -2.5017 0.9753
-0.9946 5.6534 -2.5017 0.9753
-1.1082 5.6322 -2.5017 0.9753
-1.2213 5.6088 -2.5017 0.9753
-1.3339 5.5831 -2.5017 0.9753
-1.4459 5.5551 -2.5017 0.9753
-1.5574 5.5249 -2.5017 0.9753
-1.7785 5.4578 -2.5017 0.9753
-1.8879 5.4209 -2.5017 0.9753
-2.1045 5.3405 -2.5017 0.9753
-2.3176 5.2516 -2.5017 0.9753
-2.5270 5.1541 -2.5017 0.9753
-2.6302 5.1022 -2.5017 0.9753
-2.7323 5.0482 -2.5017 0.9753
-3.0319 4.8742 -2.5017 0.9753
-3.2256 4.7483 -2.5017 0.9753
-3.3205 4.6824 -2.5017 0.9753
-3.4140 4.6146 -2.5017 0.9753
-3.5062 4.5450 -2.5017 0.9753
-3.5969 4.4736 -2.5017 0.9753
-3.6862 4.4003 -2.5017 0.9753
-3.7740 4.3252 -2.5017 0.9753
-3.9449 4.1699 -2.5017 0.9753
-4.0280 4.0897 -2.5017 0.9753
-4.2674 3.8392 -2.5017 0.9753
-4.3438 3.7526 -2.5017 0.9753
-4.4184 3.6644 -2.5017 0.9753
-4.6314 3.3912 -2.5017 0.9753
-4.6987 3.2973 -2.5017 0.9753
-4.7641 3.2021 -2.5017 0.9753
-4.8276 3.1056 -2.5017 0.9753
-4.8891 3.0078 -2.5017 0.9753
-5.0062 2.8087 -2.5017 0.9753
-5.1151 2.6050 -2.5017 0.9753
-5.2158 2.3971 -2.5017 0.9753
-5.2630 2.2917 -2.5017 0.9753
-5.3916 1.9700 -2.5017 0.9753
-5.4302 1.8611 -2.5017 0.9753
-5.4665 1.7515 -2.5017 0.9753
-5.5622 1.4185 -2.5017 0.9753
-5.6148 1.1936 -2.5017 0.9753
-5.6583 0.9667 -2.5017 0.9753
-5.6766 0.8527 -2.5017 0.9753
-5.7063 0.6236 -2.5017 0.9753
-5.7267 0.3935 -2.5017 0.9753
-5.7335 0.2782 -2.5017 0.9753
-5.7401 0.0473 -2.5017 0.9753
-5.7373 -0.1837 -2.5017 0.9753
-5.7325 -0.2991 -2.5017 0.9753
-5.7253 -0.4144 -2.5017 0.9753
-5.7040 -0.6444 -2.5017 0.9753
-5.6899 -0.7590 -2.5017 0.9753
-5.6547 -0.9873 -2.5017 0.9753
-5.6104 -1.2140 -2.5017 0.9753
-5.5849 -1.3266 -2.5017 0.9753
-5.5269 -1.5502 -2.5017 0.9753
-5.4601 -1.7713 -2.5017 0.9753
-5.4234 -1.8809 -2.5017 0.9753
-5.3000 -2.2046 -2.5017 0.9753
-5.2070 -2.4161 -2.5017 0.9753
-5.1574 -2.5203 -2.5017 0.9753
-5.1056 -2.6236 -2.5017 0.9753
-4.9959 -2.8269 -2.5017 0.9753
-4.9380 -2.9268 -2.5017 0.9753
-4.8781 -3.0256 -2.5017 0.9753
-4.6867 -3.3144 -2.5017 0.9753
-4.6191 -3.4080 -2.5017 0.9753
-4.5496 -3.5003 -2.5017 0.9753
-4.4782 -3.5911 -2.5017 0.9753
-4.4051 -3.6805 -2.5017 0.9753
-4.0949 -4.0227 -2.5017 0.9753
-4.0131 -4.1043 -2.5017 0.9753
-3.8448 -4.2624 -2.5017 0.9753
-3.7582 -4.3389 -2.5017 0.9753
-3.6702 -4.4137 -2.5017 0.9753
-3.4896 -4.5577 -2.5017 0.9753
-3.2083 -4.7600 -2.5017 0.9753
-3.1119 -4.8236 -2.5017 0.9753
-3.0142 -4.8852 -2.5017 0.9753
-2.7140 -5.0582 -2.5017 0.9753
-2.5083 -5.1632 -2.5017 0.9753
-2.2985 -5.2600 -2.5017 0.9753
-2.1922 -5.3052 -2.5017 0.9753
-2.0850 -5.3482 -2.5017 0.9753
-1.9770 -5.3891 -2.5017 0.9753
-1.8682 -5.4278 -2.5017 0.9753
-1.6483 -5.4985 -2.5017 0.9753
-1.5373 -5.5306 -2.5017 0.9753
5.0430 -1.9435 -2.5017 0.9765
5.1172 -1.7390 -2.5017 0.9765
5.1511 -1.6357 -2.5017 0.9765
5.2404 -1.3219 -2.5017 0.9765
5.2893 -1.1100 -2.5017 0.9765
5.3106 -1.0034 -2.5017 0.9765
5.3467 -0.7889 -2.5017 0.9765
5.3615 -0.6812 -2.5017 0.9765
5.3845 -0.4649 -2.5017 0.9765
5.3928 -0.3565 -2.5017 0.9765
5.4028 -0.1392 -2.5017 0.9765
5.4045 -0.0305 -2.5017 0.9765
5.4013 0.1870 -2.5017 0.9765
5.3965 0.2956 -2.5017 0.9765
5.3894 0.4041 -2.5017 0.9765
5.3802 0.5125 -2.5017 0.9765
5.3688 0.6206 -2.5017 0.9765
5.3552 0.7285 -2.5017 0.9765
5.3395 0.8361 -2.5017 0.9765
5.3216 0.9434 -2.5017 0.9765
5.1692 1.5774 -2.5017 0.9765
5.1016 1.7841 -2.5017 0.9765
5.0647 1.8864 -2.5017 0.9765
4.9416 2.1885 -2.5017 0.9765
4.7497 2.5787 -2.5017 0.9765
4.5854 2.8606 -2.5017 0.9765
4.4667 3.0428 -2.5017 0.9765
4.3406 3.2200 -2.5017 0.9765
4.2749 3.3067 -2.5017 0.9765
3.9952 3.6397 -2.5017 0.9765
3.9212 3.7193 -2.5017 0.9765
3.7684 3.8741 -2.5017 0.9765
3.6897 3.9491 -2.5017 0.9765
3.5278 4.0944 -2.5017 0.9765
3.3602 4.2330 -2.5017 0.9765
3.2744 4.2997 -2.5017 0.9765
3.1872 4.3647 -2.5017 0.9765
3.0987 4.4280 -2.5017 0.9765
3.0090 4.4894 -2.5017 0.9765
2.9181 4.5491 -2.5017 0.9765
2.5429 4.7690 -2.5017 0.9765
2.4464 4.8192 -2.5017 0.9765
1.7456 5.1149 -2.5017 0.9765
1.6424 5.1490 -2.5017 0.9765
1.5384 5.1810 -2.5017 0.9765
1.4339 5.2109 -2.5017 0.9765
1.3288 5.2387 -2.5017 0.9765
1.1169 5.2879 -2.5017 0.9765
0.7959 5.3456 -2.5017 0.9765
0.5802 5.3733 -2.5017 0.9765
0.4719 5.3839 -2.5017 0.9765
0.2549 5.3985 -2.5017 0.9765
0.1463 5.4026 -2.5017 0.9765
-0.0712 5.4041 -2.5017 0.9765
-0.3971 5.3900 -2.5017 0.9765
-0.5055 5.3809 -2.5017 0.9765
-0.6136 5.3696 -2.5017 0.9765
-0.7216 5.3562 -2.5017 0.9765
-0.8292 5.3406 -2.5017 0.9765
-1.0434 5.3029 -2.5017 0.9765
-1.1499 5.2808 -2.5017 0.9765
-1.2559 5.2566 -2.5017 0.9765
-1.4663 5.2018 -2.5017 0.9765
-1.9814 5.0283 -2.5017 0.9765
-2.0822 4.9874 -2.5017 0.9765
-2.1821 4.9445 -2.5017 0.9765
-2.2811 4.8996 -2.5017 0.9765
-2.4764 4.8038 -2.5017 0.9765
-2.5726 4.7530 -2.5017 0.9765
-2.6677 4.7003 -2.5017 0.9765
-2.7617 4.6457 -2.5017 0.9765
-2.8546 4.5892 -2.5017 0.9765
-2.9464 4.5308 -2.5017 0.9765
-3.1263 4.4086 -2.5017 0.9765
-3.2144 4.3448 -2.5017 0.9765
-3.4706 4.1430 -2.5017 0.9765
-3.5533 4.0723 -2.5017 0.9765
-3.6345 4.0000 -2.5017 0.9765
-3.7142 3.9260 -2.5017 0.9765
-3.7925 3.8505 -2.5017 0.9765
-3.9443 3.6948 -2.5017 0.9765
-4.0179 3.6147 -2.5017 0.9765
-4.2955 3.2799 -2.5017 0.9765
-4.4240 3.1045 -2.5017 0.9765
-4.4855 3.0148 -2.5017 0.9765
-4.7657 2.5491 -2.5017 0.9765
-4.8160 2.4527 -2.5017 0.9765
-4.9108 2.2569 -2.5017 0.9765
-5.0380 1.9566 -2.5017 0.9765
-5.1468 1.6491 -2.5017 0.9765
-5.1790 1.5452 -2.5017 0.9765
-5.2090 1.4407 -2.5017 0.9765
-5.2370 1.3356 -2.5017 0.9765
-5.3080 1.0172 -2.5017 0.9765
-5.3726 0.5871 -2.5017 0.9765
-5.3833 0.4789 -2.5017 0.9765
-5.3919 0.3705 -2.5017 0.9765
-5.3982 0.2619 -2.5017 0.9765
-5.4024 0.1533 -2.5017 0.9765
-5.4044 0.0446 -2.5017 0.9765
-5.4018 -0.1729 -2.5017 0.9765
-5.3972 -0.2816 -2.5017 0.9765
-5.3704 -0.6067 -2.5017 0.9765
-5.3417 -0.8222 -2.5017 0.9765
-5.3240 -0.9296 -2.5017 0.9765
-5.2823 -1.1430 -2.5017 0.9765
-5.2583 -1.2491 -2.5017 0.9765
-5.2037 -1.4596 -2.5017 0.9765
-5.1408 -1.6678 -2.5017 0.9765
-5.0696 -1.8732 -2.5017 0.9765
-5.0308 -1.9749 -2.5017 0.9765
-4.9901 -2.0757 -2.5017 0.9765
-4.9473 -2.1757 -2.5017 0.9765
-4.9025 -2.2748 -2.5017 0.9765
-4.8558 -2.3729 -2.5017 0.9765
-4.8071 -2.4702 -2.5017 0.9765
-4.7564 -2.5664 -2.5017 0.9765
-4.6493 -2.7557 -2.5017 0.9765
-4.5929 -2.8487 -2.5017 0.9765
-4.4746 -3.0312 -2.5017 0.9765
-4.4127 -3.1206 -2.5017 0.9765
-4.3490 -3.2087 -2.5017 0.9765
-4.1475 -3.4652 -2.5017 0.9765
-4.0769 -3.5480 -2.5017 0.9765
-3.9309 -3.7091 -2.5017 0.9765
-3.8554 -3.7875 -2.5017 0.9765
-3.7785 -3.8643 -2.5017 0.9765
-3.6199 -4.0132 -2.5017 0.9765
-3.5385 -4.0852 -2.5017 0.9765
-3.3712 -4.2243 -2.5017 0.9765
-3.0207 -4.4816 -2.5017 0.9765
-2.8379 -4.5995 -2.5017 0.9765
-2.7448 -4.6557 -2.5017 0.9765
-2.6506 -4.7100 -2.5017 0.9765
-2.2633 -4.9078 -2.5017 0.9765
-2.1641 -4.9524 -2.5017 0.9765
-1.7589 -5.1103 -2.5017 0.9765
-1.4474 -5.2071 -2.5017 0.9765
-1.3424 -5.2352 -2.5017 0.9765
4.8288 -1.6410 -2.5017 0.9775
4.8609 -1.5435 -2.5017 0.9775
4.8909 -1.4454 -2.5017 0.9775
4.9190 -1.3467 -2.5017 0.9775
4.9913 -1.0475 -2.5017 0.9775
5.0454 -0.7445 -2.5017 0.9775
5.0713 -0.5409 -2.5017 0.9775
5.0811 -0.4387 -2.5017 0.9775
5.0889 -0.3364 -2.5017 0.9775
5.0947 -0.2339 -2.5017 0.9775
5.0983 -0.1314 -2.5017 0.9775
5.0995 0.0738 -2.5017 0.9775
5.0970 0.1764 -2.5017 0.9775
5.0924 0.2790 -2.5017 0.9775
5.0663 0.5856 -2.5017 0.9775
4.9819 1.0915 -2.5017 0.9775
4.9069 1.3901 -2.5017 0.9775
4.8141 1.6836 -2.5017 0.9775
4.7793 1.7801 -2.5017 0.9775
4.7425 1.8759 -2.5017 0.9775
4.6632 2.0652 -2.5017 0.9775
4.5763 2.2512 -2.5017 0.9775
4.4821 2.4335 -2.5017 0.9775
4.4322 2.5231 -2.5017 0.9775
4.3805 2.6118 -2.5017 0.9775
4.2719 2.7859 -2.5017 0.9775
4.0960 3.0386 -2.5017 0.9775
4.0341 3.1204 -2.5017 0.9775
3.9053 3.2801 -2.5017 0.9775
3.5561 3.6558 -2.5017 0.9775
3.4061 3.7959 -2.5017 0.9775
3.2506 3.9299 -2.5017 0.9775
3.0899 4.0575 -2.5017 0.9775
2.9241 4.1785 -2.5017 0.9775
2.7537 4.2928 -2.5017 0.9775
2.6667 4.3473 -2.5017 0.9775
2.3996 4.5002 -2.5017 0.9775
2.2166 4.5931 -2.5017 0.9775
2.1237 4.6368 -2.5017 0.9775
2.0300 4.6786 -2.5017 0.9775
1.8401 4.7565 -2.5017 0.9775
1.7441 4.7925 -2.5017 0.9775
1.6473 4.8267 -2.5017 0.9775
1.5498 4.8588 -2.5017 0.9775
1.4518 4.8890 -2.5017 0.9775
1.1542 4.9677 -2.5017 0.9775
0.8524 5.0283 -2.5017 0.9775
0.7510 5.0444 -2.5017 0.9775
0.6494 5.0585 -2.5017 0.9775
0.4453 5.0806 -2.5017 0.9775
0.3430 5.0885 -2.5017 0.9775
0.2406 5.0944 -2.5017 0.9775
0.0354 5.0999 -2.5017 0.9775
-0.2723 5.0928 -2.5017 0.9775
-0.4770 5.0777 -2.5017 0.9775
-0.5791 5.0671 -2.5017 0.9775
-0.7825 5.0397 -2.5017 0.9775
-0.8837 5.0229 -2.5017 0.9775
-0.9846 5.0041 -2.5017 0.9775
-1.0851 4.9833 -2.5017 0.9775
-1.2847 4.9356 -2.5017 0.9775
-1.4822 4.8799 -2.5017 0.9775
-1.7739 4.7816 -2.5017 0.9775
-2.0592 4.6659 -2.5017 0.9775
-2.3369 4.5332 -2.5017 0.9775
-2.4276 4.4852 -2.5017 0.9775
-2.6061 4.3839 -2.5017 0.9775
-2.9501 4.1602 -2.5017 0.9775
-3.0332 4.1000 -2.5017 0.9775
-3.2751 3.9095 -2.5017 0.9775
-3.3531 3.8429 -2.5017 0.9775
-3.5788 3.6335 -2.5017 0.9775
-3.6512 3.5608 -2.5017 0.9775
-3.8593 3.3341 -2.5017 0.9775
-3.9257 3.2557 -2.5017 0.9775
-4.1149 3.0130 -2.5017 0.9775
-4.1747 2.9296 -2.5017 0.9775
-4.2328 2.8450 -2.5017 0.9775
-4.2892 2.7592 -2.5017 0.9775
-4.3438 2.6724 -2.5017 0.9775
-4.4478 2.4955 -2.5017 0.9775
-4.4971 2.4055 -2.5017 0.9775
-4.5446 2.3145 -2.5017 0.9775
-4.5903 2.2226 -2.5017 0.9775
-4.6760 2.0361 -2.5017 0.9775
-4.7160 1.9416 -2.5017 0.9775
-4.7541 1.8463 -2.5017 0.9775
-4.8568 1.5562 -2.5017 0.9775
-4.9155 1.3595 -2.5017 0.9775
-5.0089 0.9599 -2.5017 0.9775
-5.0272 0.8589 -2.5017 0.9775
-5.0699 0.5541 -2.5017 0.9775
-5.0800 0.4519 -2.5017 0.9775
-5.0881 0.3496 -2.5017 0.9775
-5.0980 0.1446 -2.5017 0.9775
-5.0999 0.0420 -2.5017 0.9775
-5.0997 -0.0606 -2.5017 0.9775
-5.0931 -0.2657 -2.5017 0.9775
-5.0678 -0.5725 -2.5017 0.9775
-5.0553 -0.6743 -2.5017 0.9775
-5.0407 -0.7759 -2.5017 0.9775
-5.0241 -0.8772 -2.5017 0.9775
-4.9620 -1.1787 -2.5017 0.9775
-4.8818 -1.4759 -2.5017 0.9775
-4.8512 -1.5738 -2.5017 0.9775
-4.8185 -1.6711 -2.5017 0.9775
-4.7839 -1.7677 -2.5017 0.9775
-4.7474 -1.8636 -2.5017 0.9775
-4.6686 -2.0531 -2.5017 0.9775
-4.5822 -2.2393 -2.5017 0.9775
-4.4387 -2.5116 -2.5017 0.9775
-4.3873 -2.6004 -2.5017 0.9775
-4.1640 -2.9447 -2.5017 0.9775
-4.1039 -3.0279 -2.5017 0.9775
-3.9788 -3.1906 -2.5017 0.9775
-3.8472 -3.3481 -2.5017 0.9775
-3.7791 -3.4248 -2.5017 0.9775
-3.7094 -3.5001 -2.5017 0.9775
-3.5656 -3.6466 -2.5017 0.9775
-3.4160 -3.7871 -2.5017 0.9775
-3.1004 -4.0494 -2.5017 0.9775
-3.0183 -4.1110 -2.5017 0.9775
-2.6780 -4.3404 -2.5017 0.9775
-2.5012 -4.4446 -2.5017 0.9775
-2.4113 -4.4940 -2.5017 0.9775
-2.2286 -4.5874 -2.5017 0.9775
-2.0422 -4.6733 -2.5017 0.9775
-1.8525 -4.7517 -2.5017 0.9775
-1.7565 -4.7880 -2.5017 0.9775
-1.5625 -4.8548 -2.5017 0.9775
-1.4645 -4.8853 -2.5017 0.9775
-1.3659 -4.9138 -2.5017 0.9775
-1.2667 -4.9402 -2.5017 0.9775
