ply
format ascii 1.0
element vertex 1535
property float32 x
property float32 y
property float32 z
property float32 I
end_header
78.5029 -28.2929 5.1744 0.7158
95.0528 -25.8333 6.1081 0.6738
86.5417 15.5371 5.4523 0.7030
55.5552 13.4806 3.5450 0.7952
53.9070 15.4034 3.4766 0.7988
54.5016 19.2016 3.5833 0.7933
56.0706 21.0329 3.7135 0.7866
74.8674 35.1928 5.1299 0.7178
70.0809 36.4573 4.8986 0.7286
41.8673 25.1023 3.0271 0.8223
40.5183 25.4165 2.9660 0.8256
40.3819 26.4786 2.9944 0.8240
33.4869 24.9733 2.5904 0.8458
31.8828 25.8382 2.5448 0.8483
32.7825 28.8298 2.7071 0.8395
25.1825 24.9990 2.2004 0.8674
22.2835 24.9681 2.0752 0.8745
21.9555 25.6209 2.0923 0.8735
21.7974 26.4983 2.1277 0.8715
22.4750 29.6815 2.3087 0.8614
23.7753 32.7485 2.5095 0.8503
22.7848 32.7516 2.4741 0.8522
15.9296 24.9869 1.8375 0.8880
15.0233 24.6465 1.7899 0.8908
14.3520 24.6486 1.7687 0.8920
13.6961 24.6506 1.7487 0.8931
13.6086 25.6988 1.8032 0.8900
13.6127 27.0077 1.8755 0.8858
13.6219 29.9709 2.0415 0.8764
13.6392 35.5671 2.3621 0.8584
13.5044 37.4546 2.4689 0.8525
12.6591 37.4573 2.4518 0.8535
10.3386 35.2052 2.2753 0.8633
9.6992 35.6697 2.2923 0.8623
6.2334 37.4772 2.3559 0.8588
5.1007 35.0089 2.1938 0.8678
3.6647 34.9738 2.1806 0.8685
1.6505 37.4914 2.3271 0.8604
0.8759 36.7077 2.2769 0.8632
-64.9359 2.8332 2.5629 0.7709
-41.5583 -17.5415 1.7787 0.8348
-37.3185 -17.5542 1.6262 0.8478
-35.6696 -17.6643 1.5695 0.8527
-33.9769 -17.6867 1.5104 0.8578
-31.9039 -21.8629 1.5250 0.8566
-31.8077 -23.7340 1.5649 0.8531
-31.8141 -25.7963 1.6150 0.8488
-31.8696 -26.9228 1.6450 0.8462
-24.9585 -21.9608 1.3109 0.8754
-31.9991 -29.3198 1.7112 0.8405
-31.9384 -33.0262 1.8116 0.8320
-31.9427 -34.3900 1.8507 0.8287
-26.0776 -29.2347 1.5447 0.8549
-31.9064 -38.8079 1.9810 0.8178
-31.9168 -42.1737 2.0855 0.8092
-32.0107 -46.0389 2.2111 0.7989
-31.9924 -48.0487 2.2762 0.7937
-24.0865 -37.8035 1.7675 0.8357
-25.3076 -43.4902 1.9841 0.8176
-31.8531 -60.1899 2.6852 0.7614
-31.6976 -62.9293 2.7784 0.7542
-32.0043 -70.4647 3.0517 0.7336
-8.5114 -19.7887 0.8494 0.9174
-25.9721 -63.8993 2.7198 0.7587
-31.7256 -82.7961 3.4962 0.7012
-22.8955 -84.2866 3.4439 0.7049
-3.4740 -18.5953 0.7459 0.9271
-3.0880 -18.5965 0.7433 0.9273
-2.3234 -18.5988 0.7391 0.9277
-1.1898 -18.6023 0.7350 0.9281
-0.8141 -18.6035 0.7343 0.9282
-0.4391 -18.6047 0.7338 0.9282
-0.0644 -18.6058 0.7336 0.9282
0.3103 -18.6070 0.7338 0.9282
1.0610 -18.6093 0.7350 0.9281
1.4375 -18.6105 0.7360 0.9280
2.1945 -18.6128 0.7390 0.9277
2.5756 -18.6140 0.7410 0.9275
3.3448 -18.6164 0.7458 0.9271
3.7334 -18.6176 0.7487 0.9268
4.1253 -18.6188 0.7520 0.9265
5.7323 -18.6237 0.7684 0.9250
6.1459 -18.6250 0.7734 0.9245
6.9903 -18.6276 0.7845 0.9234
7.4221 -18.6290 0.7907 0.9229
7.8609 -18.6304 0.7973 0.9222
9.2252 -18.6346 0.8199 0.9201
10.6744 -18.6390 0.8469 0.9176
52.1373 -79.4906 3.7484 0.6835
58.9994 -72.7821 3.6944 0.6872
30.6703 -36.3151 1.8743 0.8267
53.3665 -58.2585 3.1153 0.7289
53.6426 -51.8893 2.9428 0.7417
53.3933 -49.6065 2.8738 0.7470
53.4052 -45.7527 2.7730 0.7546
56.2788 -42.6030 2.7833 0.7539
61.2784 -42.6185 2.9432 0.7417
66.8972 -42.6359 3.1280 0.7279
43.5494 -23.0541 1.9430 0.8210
71.1312 -35.8405 3.1407 0.7270
88.3977 -42.3307 3.8647 0.6755
70.7662 -30.4484 3.0377 0.7346
72.5125 -24.4958 3.0180 0.7361
74.5964 -21.8958 3.0655 0.7326
86.3151 15.4964 3.4579 0.7039
85.7311 18.9835 3.4623 0.7036
88.7278 21.5299 3.6002 0.6939
58.4115 15.4254 2.3822 0.7852
83.3375 35.1505 3.5664 0.6962
74.8504 35.1848 3.2612 0.7181
70.2701 34.7763 3.0916 0.7306
70.0809 36.4573 3.1149 0.7289
42.8987 24.5602 1.9491 0.8205
41.8673 25.1023 1.9249 0.8225
40.5109 25.4118 1.8857 0.8258
40.3855 27.6596 1.9301 0.8221
31.8828 25.8382 1.6182 0.8485
25.1825 24.9990 1.3992 0.8676
23.2826 25.0533 1.3486 0.8720
14.3647 16.7628 0.8705 0.9154
14.1850 17.2442 0.8804 0.9145
21.8009 27.6177 1.3874 0.8686
22.4750 29.6815 1.4680 0.8615
16.6262 24.9565 1.1824 0.8869
15.8230 24.8197 1.1606 0.8888
15.0233 24.6465 1.1382 0.8909
13.6127 27.0077 1.1926 0.8860
13.6171 28.4265 1.2429 0.8815
13.5044 37.4546 1.5699 0.8527
11.8250 37.4598 1.5489 0.8545
10.3360 35.1966 1.4464 0.8634
8.3736 36.5478 1.4785 0.8606
7.7948 37.4723 1.5092 0.8579
6.8889 36.8211 1.4771 0.8607
6.2334 37.4772 1.4981 0.8589
5.3409 36.6579 1.4607 0.8622
4.5252 36.1463 1.4364 0.8643
2.4075 37.4890 1.4813 0.8604
0.8773 36.7670 1.4502 0.8631
-95.5920 13.8891 1.6317 0.6795
-64.9311 2.8329 1.0978 0.7710
-48.6456 -17.1528 0.8713 0.8135
-43.1599 -17.2020 0.7848 0.8304
-38.6092 -17.2206 0.7141 0.8444
-36.6933 -17.2601 0.6850 0.8503
-34.8862 -17.2763 0.6576 0.8558
-33.2174 -17.2913 0.6326 0.8609
-32.1552 -17.5702 0.6190 0.8636
-31.8927 -18.2701 0.6209 0.8633
-32.1058 -19.2611 0.6324 0.8609
-32.1114 -21.0676 0.6487 0.8576
-31.9039 -21.8629 0.6533 0.8566
-31.8108 -24.7489 0.6808 0.8511
-31.9512 -30.4818 0.7459 0.8381
-32.5225 -32.3025 0.7742 0.8325
-32.1534 -34.6169 0.7981 0.8278
-31.9115 -40.4476 0.8703 0.8137
-32.0106 -46.0389 0.9472 0.7991
-32.0063 -52.5389 1.0392 0.7818
-25.2497 -43.3908 0.8480 0.8180
-8.5160 -19.7995 0.3641 0.9174
-32.2065 -79.2379 1.4448 0.7102
-24.7007 -78.3191 1.3872 0.7200
-8.5502 -29.1438 0.5130 0.8856
-8.8323 -38.5966 0.6688 0.8535
-3.0421 -20.9180 0.3571 0.9189
-2.1867 -20.9206 0.3553 0.9193
-0.8203 -18.7444 0.3169 0.9277
-0.0648 -18.7468 0.3167 0.9277
1.0672 -18.7184 0.3167 0.9277
1.4479 -18.7455 0.3176 0.9275
1.8315 -18.7786 0.3187 0.9273
3.3748 -18.7834 0.3224 0.9265
3.7605 -18.7527 0.3231 0.9263
4.1623 -18.7858 0.3250 0.9259
4.5613 -18.7871 0.3266 0.9256
6.1465 -18.6268 0.3313 0.9245
4.0747 -11.5608 0.2071 0.9521
7.4887 -18.7961 0.3418 0.9222
8.3818 -18.7989 0.3477 0.9210
8.8405 -18.8003 0.3509 0.9202
10.3348 -20.8761 0.3935 0.9110
30.6930 -56.1887 1.0815 0.7740
11.1917 -18.6608 0.3676 0.9166
52.1373 -79.4906 1.6058 0.6837
52.2386 -70.0280 1.4758 0.7050
52.2466 -67.1729 1.4375 0.7115
30.6816 -36.3285 0.8032 0.8268
52.9959 -57.8540 1.3253 0.7306
53.0030 -55.5725 1.2972 0.7355
53.0098 -53.3848 1.2708 0.7401
53.0344 -45.4350 1.1796 0.7563
53.0400 -43.6190 1.1600 0.7598
53.5025 -42.2226 1.1513 0.7613
55.7856 -42.2296 1.1819 0.7559
58.1942 -42.2371 1.2146 0.7500
60.7414 -42.2450 1.2498 0.7438
63.4414 -42.2534 1.2876 0.7372
72.6382 -42.2819 1.4197 0.7145
76.1431 -42.2927 1.4713 0.7058
77.5258 -33.3569 1.4256 0.7135
87.4090 -33.5062 1.5813 0.6876
78.5029 -28.2929 1.4096 0.7162
95.0528 -25.8332 1.6639 0.6743
90.0393 16.1650 1.5452 0.6935
78.4686 34.9743 1.4512 0.7091
74.8335 35.1768 1.3967 0.7183
63.8796 34.8833 1.2295 0.7474
42.8987 24.5602 0.8350 0.8206
40.3407 25.3050 0.8044 0.8265
23.2701 16.6355 0.4832 0.8919
32.1221 24.9775 0.6873 0.8498
32.7862 30.0252 0.7510 0.8371
34.3110 32.7159 0.8008 0.8272
22.7945 24.5280 0.5656 0.8746
14.3647 16.7628 0.3729 0.9155
14.1850 17.2442 0.3772 0.9145
23.7753 32.7485 0.6836 0.8505
16.3541 24.5480 0.4983 0.8887
14.9659 24.5523 0.4857 0.8913
14.2971 24.5544 0.4800 0.8926
13.6438 24.5564 0.4745 0.8937
13.5221 28.2282 0.5287 0.8823
13.6219 29.9709 0.5561 0.8766
14.1087 32.7785 0.6028 0.8670
13.6328 33.5158 0.6112 0.8652
13.5666 35.3778 0.6400 0.8593
11.0496 32.6948 0.5830 0.8710
10.3770 32.8727 0.5823 0.8712
6.1552 32.8996 0.5654 0.8747
3.4494 32.9185 0.5591 0.8760
2.1145 32.9252 0.5573 0.8763
1.6001 36.3465 0.6146 0.8645
0.7866 32.9624 0.5570 0.8764
0.1395 37.4961 0.6334 0.8607
-45.0922 -16.9282 -0.2712 0.8248
-40.1417 -16.9435 -0.2453 0.8401
-37.9866 -16.9429 -0.2342 0.8467
-36.0472 -16.9562 -0.2243 0.8527
-32.5782 -16.9586 -0.2068 0.8634
-32.1552 -17.5702 -0.2063 0.8637
-31.8927 -18.2702 -0.2069 0.8633
-31.8954 -19.1348 -0.2094 0.8618
-31.9039 -21.8629 -0.2178 0.8567
-31.8567 -22.7866 -0.2205 0.8550
-31.8662 -25.8386 -0.2310 0.8487
-31.8696 -26.9228 -0.2349 0.8463
-31.9473 -29.2723 -0.2440 0.8409
-31.9512 -30.4818 -0.2486 0.8381
-31.1749 -30.9641 -0.2474 0.8388
-31.9427 -34.3900 -0.2643 0.8288
-31.9517 -37.3057 -0.2765 0.8216
-31.9115 -40.4477 -0.2901 0.8138
-31.9168 -42.1737 -0.2978 0.8093
-25.2619 -43.4117 -0.2828 0.8180
-31.9230 -60.3220 -0.3842 0.7611
-32.0009 -63.5316 -0.4005 0.7524
-25.1601 -52.5587 -0.3281 0.7921
-32.0044 -70.4652 -0.4357 0.7338
-8.5133 -19.7932 -0.1213 0.9174
-32.0624 -83.6749 -0.5045 0.6988
-31.1333 -92.2006 -0.5479 0.6776
-24.7120 -78.3551 -0.4626 0.7199
-10.0670 -48.4596 -0.2787 0.8204
-3.4827 -18.6421 -0.1068 0.9269
-3.4680 -20.8847 -0.1192 0.9188
-3.0374 -20.8861 -0.1188 0.9190
-0.4417 -18.7137 -0.1054 0.9279
-0.0647 -18.7148 -0.1054 0.9279
0.3122 -18.7160 -0.1054 0.9279
1.0672 -18.7184 -0.1056 0.9277
1.4479 -18.7455 -0.1059 0.9276
1.8284 -18.7467 -0.1060 0.9274
2.5943 -18.7490 -0.1066 0.9271
2.9804 -18.7502 -0.1069 0.9269
3.3690 -18.7514 -0.1073 0.9266
4.1552 -18.7539 -0.1081 0.9260
5.3625 -18.7576 -0.1098 0.9249
5.7739 -18.7589 -0.1105 0.9245
4.0741 -11.5589 -0.0690 0.9522
7.0410 -18.7628 -0.1128 0.9230
7.4759 -18.7642 -0.1137 0.9224
7.9179 -18.7655 -0.1147 0.9218
8.3676 -18.7669 -0.1157 0.9211
8.8254 -18.7683 -0.1168 0.9204
10.2980 -20.8016 -0.1307 0.9113
52.8533 -84.2331 -0.5599 0.6718
52.1373 -79.4906 -0.5352 0.6837
52.2406 -67.1652 -0.4791 0.7115
52.2410 -64.4449 -0.4671 0.7176
30.6103 -36.2442 -0.2671 0.8272
61.4831 -69.8941 -0.5241 0.6891
53.3665 -58.2585 -0.4448 0.7290
64.3512 -62.2479 -0.5040 0.6990
68.2793 -63.4368 -0.5247 0.6888
53.1437 -47.4171 -0.4010 0.7521
53.4052 -45.7528 -0.3959 0.7548
75.7353 -62.2832 -0.5520 0.6755
56.2787 -42.6030 -0.3975 0.7540
73.7231 -42.9134 -0.4803 0.7109
71.1312 -35.8405 -0.4484 0.7272
87.4090 -33.5062 -0.5271 0.6877
78.5029 -28.2929 -0.4699 0.7162
88.4138 -29.8675 -0.5254 0.6885
80.8542 -25.5118 -0.4773 0.7124
88.3528 -25.9337 -0.5184 0.6919
78.4944 -19.6447 -0.4556 0.7235
81.2579 -18.6060 -0.4693 0.7164
50.7939 13.4137 -0.2958 0.8105
74.5262 35.0324 -0.4636 0.7194
66.0218 32.6738 -0.4148 0.7448
42.4058 24.2780 -0.2751 0.8225
40.6969 24.4006 -0.2672 0.8271
40.1973 25.2150 -0.2672 0.8271
39.6814 26.0193 -0.2672 0.8271
34.2606 24.4925 -0.2371 0.8450
32.8480 24.4969 -0.2307 0.8488
31.7634 25.7415 -0.2302 0.8491
23.4340 19.7861 -0.1727 0.8845
32.7862 30.0252 -0.2503 0.8371
24.7021 24.5221 -0.1960 0.8700
22.7945 24.5280 -0.1885 0.8746
21.8933 24.5308 -0.1851 0.8768
14.5754 17.0087 -0.1261 0.9143
21.6907 26.3685 -0.1922 0.8723
21.6941 27.4824 -0.1971 0.8693
22.4750 29.6815 -0.2096 0.8616
23.7753 32.7485 -0.2278 0.8505
22.7848 32.7516 -0.2246 0.8525
16.3541 24.5480 -0.1661 0.8887
15.6512 24.5502 -0.1639 0.8901
13.5177 26.8193 -0.1691 0.8868
5.7876 13.4462 -0.0824 0.9431
13.1586 32.3498 -0.1966 0.8696
11.0496 32.6948 -0.1943 0.8711
10.3770 32.8727 -0.1941 0.8712
9.5052 34.9559 -0.2040 0.8651
6.1552 32.8996 -0.1884 0.8747
4.5252 36.1463 -0.2051 0.8644
3.4494 32.9185 -0.1863 0.8760
0.7868 32.9708 -0.1857 0.8764
0.1395 37.4961 -0.2111 0.8607
-0.2987 18.1973 -0.1025 0.9298
-0.6578 17.9868 -0.1013 0.9305
-84.1551 13.9631 -2.4020 0.7108
-84.1398 12.2252 -2.3941 0.7116
-84.1724 7.0767 -2.3785 0.7132
-59.0507 3.7689 -1.6661 0.7892
-79.9366 -4.5678 -2.2545 0.7259
-82.8603 -9.7804 -2.3494 0.7161
-83.5412 -11.5708 -2.3748 0.7136
-86.7419 -19.2311 -2.5018 0.7008
-86.3371 -20.9737 -2.5018 0.7008
-47.9832 -16.9192 -1.4326 0.8158
-45.0922 -16.9282 -1.3562 0.8247
-36.0472 -16.9562 -1.1217 0.8526
-32.5782 -16.9586 -1.0342 0.8633
-32.0953 -21.9940 -1.0956 0.8558
-31.8567 -22.7866 -1.1029 0.8549
-31.8598 -23.7729 -1.1193 0.8529
-31.8629 -24.7895 -1.1367 0.8508
-32.0577 -25.9939 -1.1621 0.8478
-24.8157 -21.8352 -0.9307 0.8761
-31.9476 -29.2726 -1.2201 0.8408
-31.9511 -30.4817 -1.2434 0.8380
-29.9448 -30.9646 -1.2129 0.8417
-32.1387 -36.0296 -1.3595 0.8243
-31.9517 -37.3057 -1.3831 0.8216
-31.9168 -42.1737 -1.4892 0.8093
-31.9133 -45.8989 -1.5741 0.7996
-23.6154 -37.0641 -1.2375 0.8387
-23.7085 -38.9179 -1.2832 0.8333
-23.5243 -40.4256 -1.3170 0.8293
-9.6084 -17.3041 -0.5573 0.9239
-23.4625 -44.3351 -1.4124 0.8181
-23.4448 -48.9753 -1.5289 0.8047
-23.5052 -51.7520 -1.6005 0.7966
-8.5325 -19.8379 -0.6081 0.9172
-23.4166 -57.6119 -1.7511 0.7797
-23.4883 -74.4747 -2.1989 0.7316
-23.2472 -85.5816 -2.4971 0.7013
-18.0712 -86.9890 -2.5017 0.7008
-1.5663 -18.6012 -0.5256 0.9280
-1.1988 -18.7433 -0.5289 0.9276
-0.8203 -18.7444 -0.5283 0.9277
0.3127 -18.7479 -0.5280 0.9277
1.0672 -18.7184 -0.5279 0.9277
2.2104 -18.7479 -0.5316 0.9272
2.5987 -18.7810 -0.5339 0.9269
2.9804 -18.7502 -0.5346 0.9268
3.3748 -18.7834 -0.5374 0.9265
4.5536 -18.7551 -0.5434 0.9257
4.9643 -18.7883 -0.5472 0.9252
7.0530 -18.7948 -0.5653 0.9228
7.4887 -18.7961 -0.5697 0.9222
7.9314 -18.7975 -0.5745 0.9216
8.3818 -18.7989 -0.5796 0.9209
31.7283 -58.0840 -1.8636 0.7673
31.7330 -55.4105 -1.7980 0.7745
11.1917 -18.6608 -0.6128 0.9166
29.1692 -44.4726 -1.4976 0.8083
31.7050 -44.3373 -1.5348 0.8040
49.8857 -66.8737 -2.3492 0.7162
51.2221 -65.8557 -2.3492 0.7162
52.1815 -64.3715 -2.3333 0.7178
30.4749 -36.0838 -1.3299 0.8278
52.9959 -57.8540 -2.2092 0.7306
53.6233 -56.2229 -2.1877 0.7328
56.1834 -56.5808 -2.2452 0.7268
60.9803 -56.6555 -2.3438 0.7167
53.0286 -47.3144 -2.0011 0.7525
53.0400 -43.6190 -1.9337 0.7597
55.7855 -42.2296 -1.9701 0.7558
58.1942 -42.2371 -2.0247 0.7500
30.6659 -21.3278 -1.0518 0.8612
72.9342 -40.5104 -2.3492 0.7162
43.5337 -23.0458 -1.3870 0.8211
73.4105 -35.1538 -2.2919 0.7220
74.1032 -33.6684 -2.2919 0.7220
74.7661 -32.1695 -2.2919 0.7220
71.7980 -25.8764 -2.1490 0.7368
72.5125 -24.4958 -2.1552 0.7362
74.5964 -21.8958 -2.1891 0.7326
76.0788 -20.6765 -2.2199 0.7294
78.0749 -19.5397 -2.2662 0.7247
81.6830 -16.9800 -2.3492 0.7162
82.0083 -15.3319 -2.3492 0.7162
87.9148 -12.7971 -2.5016 0.7008
88.1547 -11.0243 -2.5016 0.7008
88.3588 -9.2471 -2.5016 0.7008
88.7559 -3.8956 -2.5016 0.7008
88.8163 -2.1078 -2.5016 0.7008
85.7968 6.6157 -2.4230 0.7087
65.3911 13.1042 -1.8779 0.7658
50.6268 13.3696 -1.4744 0.8110
50.9137 14.5480 -1.4910 0.8091
50.6457 16.7046 -1.5016 0.8078
61.3509 23.0136 -1.8450 0.7694
40.7808 17.2007 -1.2463 0.8377
40.7838 18.1778 -1.2573 0.8364
32.2874 17.6315 -1.0359 0.8631
32.2900 18.4866 -1.0477 0.8617
32.2928 19.3617 -1.0602 0.8601
24.2159 16.5852 -0.8265 0.8892
23.2041 16.5884 -0.8032 0.8921
22.6078 16.8601 -0.7941 0.8933
22.6124 18.3253 -0.8196 0.8901
22.6147 19.0944 -0.8334 0.8883
22.6224 21.5707 -0.8802 0.8824
24.5120 24.3334 -0.9726 0.8709
23.5472 24.3364 -0.9535 0.8733
22.6191 24.3393 -0.9356 0.8755
14.9993 16.8063 -0.6343 0.9138
14.9317 18.9157 -0.6786 0.9081
14.5478 19.2125 -0.6786 0.9081
14.1580 19.5015 -0.6786 0.9081
13.9624 20.0700 -0.6884 0.9068
13.9651 20.9621 -0.7092 0.9041
13.9681 21.9101 -0.7317 0.9012
6.3611 13.2792 -0.4146 0.9428
5.9644 13.1230 -0.4059 0.9439
14.5699 35.8195 -1.0888 0.8566
14.5767 38.0117 -1.1463 0.8497
30.1338 83.5764 -2.5016 0.7008
25.0330 85.2432 -2.5016 0.7008
19.8409 86.5990 -2.5016 0.7008
12.8088 87.9146 -2.5016 0.7008
11.0361 88.1551 -2.5016 0.7008
7.4778 88.5280 -2.5016 0.7008
5.6937 88.6606 -2.5016 0.7008
3.9073 88.7573 -2.5016 0.7008
0.3306 88.8430 -2.5016 0.7008
-45.6998 7.5826 -2.3493 0.8307
-48.4038 7.0329 -2.4805 0.8221
-48.9502 6.1086 -2.5017 0.8207
-49.2297 3.1421 -2.5017 0.8207
-49.3163 1.1575 -2.5017 0.8207
-49.3296 0.1642 -2.5017 0.8207
-49.3229 -0.8291 -2.5017 0.8207
-49.2962 -1.8221 -2.5017 0.8207
-49.2495 -2.8143 -2.5017 0.8207
-49.1828 -3.8054 -2.5017 0.8207
-49.0962 -4.7949 -2.5017 0.8207
-48.7172 -7.7503 -2.5017 0.8207
-48.5513 -8.7296 -2.5017 0.8207
-48.1604 -10.6774 -2.5017 0.8207
-47.9132 -11.6395 -2.5006 0.8208
-44.5387 -12.7391 -2.3493 0.8307
-43.9896 -14.5220 -2.3493 0.8307
-43.6883 -15.4048 -2.3493 0.8307
-37.9866 -16.9429 -2.1094 0.8465
-34.2510 -16.9617 -1.9383 0.8581
-32.1552 -17.5702 -1.8583 0.8635
-31.8927 -18.2702 -1.8640 0.8631
-31.8982 -20.0208 -1.9099 0.8600
-32.0953 -21.9940 -1.9732 0.8557
-31.7163 -22.6862 -1.9776 0.8554
-30.3905 -22.6765 -1.9230 0.8591
-25.2348 -19.6327 -1.6215 0.8798
-23.5670 -19.1092 -1.5387 0.8856
-23.4912 -20.6697 -1.5869 0.8822
-23.3830 -21.4250 -1.6084 0.8807
-23.3427 -22.2691 -1.6361 0.8788
-23.3321 -23.1742 -1.6677 0.8766
-23.3343 -24.1290 -1.7023 0.8742
-23.4147 -25.2087 -1.7448 0.8713
-23.3355 -26.1606 -1.7778 0.8690
-23.3472 -27.2594 -1.8202 0.8661
-23.3623 -30.8700 -1.9633 0.8564
-23.3724 -35.1024 -2.1387 0.8446
-23.4244 -36.7643 -2.2108 0.8398
-9.6067 -17.3011 -1.0036 0.9238
-20.3994 -44.9140 -2.5017 0.8207
-8.5307 -19.8337 -1.0949 0.9172
-14.8373 -47.0451 -2.5017 0.8207
-8.6025 -29.3219 -1.5497 0.8848
-3.4733 -20.9167 -1.0753 0.9186
-3.0421 -20.9180 -1.0720 0.9188
-2.6133 -20.9193 -1.0692 0.9190
-2.1867 -20.9206 -1.0668 0.9192
-1.5663 -18.6012 -0.9467 0.9280
-1.1988 -18.7433 -0.9525 0.9275
-0.8203 -18.7444 -0.9515 0.9276
-0.0648 -18.7468 -0.9507 0.9277
0.6905 -18.7491 -0.9515 0.9276
1.0672 -18.7184 -0.9508 0.9277
1.4479 -18.7455 -0.9535 0.9275
2.2104 -18.7479 -0.9574 0.9272
2.5987 -18.7810 -0.9615 0.9269
2.9804 -18.7502 -0.9628 0.9268
3.7605 -18.7527 -0.9700 0.9263
4.1623 -18.7858 -0.9758 0.9258
4.5536 -18.7551 -0.9788 0.9256
4.9643 -18.7883 -0.9855 0.9251
6.1465 -18.6268 -0.9948 0.9244
4.0728 -11.5553 -0.6214 0.9521
7.9314 -18.7975 -1.0347 0.9215
8.8405 -18.8003 -1.0536 0.9202
10.3138 -20.8336 -1.1789 0.9111
10.8423 -20.8352 -1.1912 0.9102
24.5144 -42.8058 -2.5017 0.8207
27.0540 -41.2476 -2.5017 0.8207
28.5745 -39.9595 -2.4913 0.8214
28.5874 -38.3225 -2.4247 0.8257
28.6010 -36.7720 -2.3625 0.8298
29.1950 -36.0152 -2.3512 0.8305
29.2199 -34.5978 -2.2966 0.8341
29.1424 -31.8138 -2.1880 0.8413
35.4548 -34.2960 -2.5016 0.8207
36.1382 -33.5752 -2.5016 0.8207
31.6812 -26.0539 -2.0802 0.8485
38.7225 -30.5586 -2.5016 0.8207
29.1254 -22.0479 -1.8526 0.8639
42.5075 -24.7431 -2.4943 0.8212
42.5323 -23.6240 -2.4674 0.8229
42.5426 -21.4357 -2.4159 0.8263
42.5523 -20.3769 -2.3927 0.8278
42.7966 -18.4140 -2.3628 0.8298
43.3822 -16.6296 -2.3562 0.8302
44.9189 -14.1732 -2.3887 0.8281
45.6571 -13.4014 -2.4131 0.8265
46.5711 -12.6570 -2.4475 0.8242
47.7122 -11.9409 -2.4943 0.8212
48.6604 -8.0868 -2.5016 0.8207
48.9465 -6.1211 -2.5016 0.8207
49.0598 -5.1343 -2.5016 0.8207
49.2267 -3.1549 -2.5016 0.8207
49.3273 -0.1771 -2.5016 0.8207
49.3209 0.8161 -2.5016 0.8207
49.2480 2.8013 -2.5016 0.8207
49.1816 3.7924 -2.5016 0.8207
48.9891 5.7695 -2.5016 0.8207
48.8630 6.7547 -2.5016 0.8207
45.5937 8.1856 -2.3492 0.8307
45.4196 9.1020 -2.3492 0.8307
45.0163 10.9233 -2.3492 0.8307
44.2747 13.6212 -2.3492 0.8307
43.6224 16.3633 -2.3628 0.8298
40.7869 19.1726 -2.2856 0.8348
33.4549 16.5566 -1.8930 0.8611
32.2848 16.7951 -1.8456 0.8644
32.2874 17.6315 -1.8657 0.8630
32.2984 21.1782 -1.9587 0.8567
23.2041 16.5884 -1.4466 0.8920
22.6078 16.8601 -1.4303 0.8932
22.6100 17.5812 -1.4525 0.8916
22.6124 18.3253 -1.4761 0.8900
22.6147 19.0944 -1.5010 0.8882
22.6172 19.8902 -1.5275 0.8864
22.6198 20.7149 -1.5555 0.8844
22.6224 21.5707 -1.5852 0.8823
33.6811 33.4357 -2.4068 0.8269
15.4383 16.6124 -1.1501 0.9132
14.8279 16.6143 -1.1293 0.9147
13.9573 18.4326 -1.1726 0.9116
13.9624 20.0700 -1.2399 0.9067
13.9681 21.9101 -1.3177 0.9012
24.9296 40.8982 -2.4291 0.8254
24.1159 41.4188 -2.4306 0.8253
20.7543 43.3260 -2.4363 0.8250
6.0429 13.2957 -0.7407 0.9432
19.0129 44.1725 -2.4389 0.8248
17.2354 44.9449 -2.4412 0.8247
16.3341 45.3028 -2.4423 0.8246
14.5068 45.9625 -2.4443 0.8245
6.0087 22.0974 -1.1613 0.9124
6.0392 24.1173 -1.2609 0.9052
5.5232 24.1068 -1.2542 0.9057
4.0946 24.6179 -1.2656 0.9049
2.5807 24.6280 -1.2558 0.9056
2.0806 24.6313 -1.2536 0.9057
1.5783 24.5765 -1.2489 0.9061
0.5879 24.6389 -1.2499 0.9060
-0.4046 24.6455 -1.2500 0.9060
-0.6585 18.0081 -0.9139 0.9304
-33.6591 5.5847 -2.5017 0.8721
-33.7648 4.9059 -2.5017 0.8721
-33.9349 3.5424 -2.5017 0.8721
-33.9994 2.8584 -2.5017 0.8721
-34.0501 2.1733 -2.5017 0.8721
-34.1100 0.8005 -2.5017 0.8721
-34.1192 0.1136 -2.5017 0.8721
-34.1145 -0.5734 -2.5017 0.8721
-34.0177 -2.6320 -2.5017 0.8721
-33.8841 -3.9995 -2.5017 0.8721
-33.5809 -6.0380 -2.5017 0.8721
-33.4524 -6.7129 -2.5017 0.8721
-32.9862 -8.7203 -2.5017 0.8721
-32.8039 -9.3827 -2.5017 0.8721
-32.6083 -10.0413 -2.5017 0.8721
-32.3995 -10.6959 -2.5017 0.8721
-32.0800 -11.3116 -2.4941 0.8725
-28.9934 -13.6381 -2.3493 0.8794
-28.7129 -14.2192 -2.3493 0.8794
-27.8020 -15.9268 -2.3493 0.8794
-27.1384 -17.0333 -2.3493 0.8794
-26.7897 -17.5762 -2.3493 0.8794
-26.4304 -18.1120 -2.3493 0.8794
-24.0771 -17.9656 -2.2027 0.8865
-23.4287 -20.6147 -2.2882 0.8824
-23.5405 -21.5693 -2.3410 0.8798
-23.3199 -24.1141 -2.4596 0.8741
-21.1333 -26.7863 -2.5017 0.8721
-17.1605 -29.4896 -2.5017 0.8721
-9.6051 -17.2982 -1.4508 0.9237
-15.9592 -30.1567 -2.5017 0.8721
-15.3487 -30.4719 -2.5017 0.8721
-8.6651 -18.1012 -1.4715 0.9227
-8.5427 -19.8615 -1.5853 0.9169
-12.8472 -31.6080 -2.5017 0.8721
-8.9802 -23.4361 -1.8402 0.9042
-9.2215 -27.3094 -2.1135 0.8908
-9.1067 -28.8748 -2.2200 0.8857
-8.4836 -28.9168 -2.2096 0.8862
-7.8453 -28.8817 -2.1944 0.8869
-6.5170 -31.3709 -2.3493 0.8794
-2.1692 -20.7538 -1.5300 0.9197
0.6905 -18.7491 -1.3757 0.9275
1.8284 -18.7467 -1.3811 0.9272
2.2104 -18.7479 -1.3842 0.9271
2.5943 -18.7490 -1.3878 0.9269
3.3690 -18.7514 -1.3969 0.9264
3.7605 -18.7527 -1.4024 0.9262
4.1552 -18.7539 -1.4084 0.9259
4.9558 -18.7563 -1.4225 0.9251
5.3625 -18.7576 -1.4304 0.9247
6.1465 -18.6268 -1.4382 0.9243
4.0722 -11.5535 -0.8982 0.9521
7.0108 -18.6822 -1.4631 0.9231
7.4221 -18.6290 -1.4703 0.9227
7.8609 -18.6304 -1.4826 0.9221
10.8423 -20.8352 -1.7222 0.9101
11.1917 -18.6608 -1.5955 0.9164
17.0293 -27.1399 -2.3493 0.8794
20.4006 -27.3478 -2.5017 0.8721
20.9471 -26.9314 -2.5017 0.8721
21.4851 -26.5042 -2.5017 0.8721
24.9956 -23.2228 -2.5016 0.8721
25.9103 -22.1976 -2.5016 0.8721
27.6122 -20.0408 -2.5016 0.8721
28.3967 -18.9129 -2.5016 0.8721
28.6741 -16.6909 -2.4327 0.8754
29.4983 -15.6157 -2.4472 0.8747
30.4692 -15.3524 -2.5016 0.8721
30.7721 -14.7358 -2.5016 0.8721
31.6057 -12.8510 -2.5016 0.8721
31.8580 -12.2120 -2.5016 0.8721
32.0975 -11.5681 -2.5016 0.8721
32.9241 -8.9480 -2.5016 0.8721
33.0976 -8.2833 -2.5016 0.8721
33.2577 -7.6152 -2.5016 0.8721
33.4043 -6.9440 -2.5016 0.8721
33.5374 -6.2700 -2.5016 0.8721
33.6568 -5.5934 -2.5016 0.8721
33.7626 -4.9146 -2.5016 0.8721
33.8547 -4.2338 -2.5016 0.8721
33.9331 -3.5512 -2.5016 0.8721
34.0485 -2.1821 -2.5016 0.8721
34.1181 -0.1225 -2.5016 0.8721
34.1137 0.5645 -2.5016 0.8721
34.0633 1.9376 -2.5016 0.8721
33.3115 7.3762 -2.5016 0.8721
32.2935 7.8361 -2.4365 0.8752
30.8069 8.8028 -2.3492 0.8794
30.6234 9.4213 -2.3492 0.8794
30.4275 10.0360 -2.3492 0.8794
29.2647 13.0436 -2.3492 0.8794
28.9961 13.6301 -2.3492 0.8794
28.7661 14.2364 -2.3534 0.8792
28.1047 16.0904 -2.3745 0.8782
27.7780 16.6548 -2.3748 0.8782
27.4401 17.2127 -2.3750 0.8782
27.0914 17.7640 -2.3754 0.8782
24.2160 16.5852 -2.1521 0.8889
23.2041 16.5884 -2.0914 0.8919
22.6100 17.5812 -2.1000 0.8915
22.6147 19.0944 -2.1702 0.8881
22.6198 20.7149 -2.2489 0.8842
22.5654 23.3218 -2.3794 0.8780
15.4383 16.6124 -1.6628 0.9131
14.2390 16.6161 -1.6045 0.9160
13.9624 20.0700 -1.7927 0.9066
13.9681 21.9101 -1.9052 0.9010
16.9709 27.8417 -2.3908 0.8774
14.7002 29.1652 -2.3947 0.8772
5.7133 13.2736 -1.0596 0.9437
5.9100 14.5295 -1.1501 0.9390
5.2957 13.8095 -1.0844 0.9424
9.8572 31.2262 -2.4009 0.8769
6.2026 22.8105 -1.7332 0.9095
4.9630 23.8590 -1.7868 0.9069
4.4559 23.8170 -1.7766 0.9074
1.5411 23.9973 -1.7632 0.9081
1.0588 24.0515 -1.7652 0.9080
-0.3009 18.3298 -1.3442 0.9291
-25.7065 4.2652 -2.5017 0.9006
-25.7872 3.7468 -2.5017 0.9006
-25.9172 2.7055 -2.5017 0.9006
-26.0051 1.6598 -2.5017 0.9006
-26.0578 0.0867 -2.5017 0.9006
-26.0543 -0.4380 -2.5017 0.9006
-26.0156 -1.4866 -2.5017 0.9006
-25.9803 -2.0101 -2.5017 0.9006
-25.8116 -3.5750 -2.5017 0.9006
-25.7344 -4.0940 -2.5017 0.9006
-25.6467 -4.6114 -2.5017 0.9006
-25.5487 -5.1268 -2.5017 0.9006
-25.4403 -5.6402 -2.5017 0.9006
-25.3215 -6.1513 -2.5017 0.9006
-24.7445 -8.1688 -2.5017 0.9006
-24.5750 -8.6653 -2.5017 0.9006
-24.2062 -9.6477 -2.5017 0.9006
-23.7981 -10.6145 -2.5017 0.9006
-23.3515 -11.5641 -2.5017 0.9006
-22.3453 -13.4055 -2.5017 0.9006
-22.0708 -13.8527 -2.5017 0.9006
-21.4952 -14.7301 -2.5017 0.9006
-21.1942 -15.1599 -2.5017 0.9006
-20.8847 -15.5836 -2.5017 0.9006
-19.9057 -16.8160 -2.5017 0.9006
-19.2125 -17.6039 -2.5017 0.9006
-18.8542 -17.9871 -2.5017 0.9006
-18.4882 -18.3631 -2.5017 0.9006
-18.1147 -18.7316 -2.5017 0.9006
-17.7339 -19.0926 -2.5017 0.9006
-17.3458 -19.4458 -2.5017 0.9006
-16.5488 -20.1284 -2.5017 0.9006
-15.3034 -21.0908 -2.5017 0.9006
-14.8756 -21.3947 -2.5017 0.9006
-14.0022 -21.9762 -2.5017 0.9006
-13.5568 -22.2537 -2.5017 0.9006
-13.1060 -22.5222 -2.5017 0.9006
-9.5588 -17.2148 -1.8904 0.9239
-11.7223 -23.2723 -2.5017 0.9006
-8.0961 -19.9190 -2.0643 0.9172
-8.7557 -22.8504 -2.3493 0.9063
-8.2939 -23.0220 -2.3493 0.9063
-6.8888 -23.4808 -2.3493 0.9063
-5.9378 -23.7391 -2.3493 0.9063
-5.4586 -23.8538 -2.3493 0.9063
-3.4827 -18.6421 -1.8207 0.9266
-3.0178 -20.7511 -2.0132 0.9192
-2.5925 -20.7525 -2.0078 0.9194
-1.5663 -18.6012 -1.7921 0.9277
-1.1988 -18.7433 -1.8031 0.9273
-0.0648 -18.7468 -1.7998 0.9274
0.3127 -18.7479 -1.8001 0.9274
0.6905 -18.7491 -1.8012 0.9274
1.4375 -18.6105 -1.7920 0.9277
1.8152 -18.6116 -1.7953 0.9276
2.5756 -18.6140 -1.8041 0.9273
2.9590 -18.6152 -1.8096 0.9271
3.3448 -18.6164 -1.8159 0.9268
4.5208 -18.6200 -1.8395 0.9259
4.9202 -18.6212 -1.8491 0.9255
5.3238 -18.6225 -1.8595 0.9251
4.0715 -11.5516 -1.1759 0.9520
7.4221 -18.6290 -1.9252 0.9226
7.8609 -18.6304 -1.9413 0.9220
8.3073 -18.6317 -1.9585 0.9213
11.7308 -21.4751 -2.3493 0.9063
12.1608 -21.2346 -2.3493 0.9063
13.4206 -20.4616 -2.3493 0.9063
15.0234 -19.3155 -2.3493 0.9063
16.5288 -18.0440 -2.3493 0.9063
16.8888 -17.7075 -2.3493 0.9063
17.5880 -17.0132 -2.3493 0.9063
19.7886 -16.9531 -2.5017 0.9006
20.1259 -16.5512 -2.5017 0.9006
20.4551 -16.1426 -2.5017 0.9006
20.7760 -15.7274 -2.5017 0.9006
21.3924 -14.8782 -2.5016 0.9006
21.9741 -14.0048 -2.5016 0.9006
22.2516 -13.5595 -2.5016 0.9006
22.5201 -13.1087 -2.5016 0.9006
22.7795 -12.6526 -2.5016 0.9006
23.7237 -10.7787 -2.5016 0.9006
23.9359 -10.2989 -2.5016 0.9006
24.1384 -9.8148 -2.5016 0.9006
24.8498 -7.8408 -2.5016 0.9006
25.0026 -7.3389 -2.5016 0.9006
25.1453 -6.8339 -2.5016 0.9006
25.5121 -5.3034 -2.5016 0.9006
25.7049 -4.2719 -2.5016 0.9006
25.7857 -3.7535 -2.5016 0.9006
26.0324 -1.1426 -2.5016 0.9006
26.0539 0.4311 -2.5016 0.9006
25.9803 2.0033 -2.5016 0.9006
25.8785 3.0477 -2.5016 0.9006
25.8119 3.5682 -2.5016 0.9006
25.7349 4.0872 -2.5016 0.9006
25.6473 4.6045 -2.5016 0.9006
25.5494 5.1200 -2.5016 0.9006
25.1937 6.6532 -2.5016 0.9006
25.0546 7.1591 -2.5016 0.9006
23.6843 7.8118 -2.3943 0.9046
22.9111 8.5943 -2.3492 0.9063
22.7334 9.0538 -2.3492 0.9063
22.5465 9.5098 -2.3492 0.9063
22.1453 10.4098 -2.3492 0.9063
21.9313 10.8536 -2.3492 0.9063
21.4765 11.7279 -2.3492 0.9063
20.9869 12.5830 -2.3492 0.9063
20.7292 13.0031 -2.3492 0.9063
20.4632 13.4178 -2.3492 0.9063
20.1889 13.8271 -2.3492 0.9063
19.7240 14.7095 -2.3622 0.9059
18.6292 16.3831 -2.3817 0.9051
17.9584 17.1235 -2.3822 0.9051
17.2584 17.8368 -2.3828 0.9051
15.4383 16.6124 -2.1772 0.9129
13.9528 16.9618 -2.1086 0.9155
13.3602 20.9567 -2.3860 0.9050
12.9375 21.2245 -2.3864 0.9049
12.0760 21.7347 -2.3871 0.9049
6.2555 13.0588 -1.3901 0.9435
5.9362 13.0608 -1.3773 0.9440
5.6969 13.2354 -1.3834 0.9437
5.3844 13.2374 -1.3720 0.9442
5.1136 13.3347 -1.3711 0.9442
4.7807 13.2594 -1.3532 0.9449
4.4141 13.9834 -1.4078 0.9428
3.8557 13.1295 -1.3137 0.9465
2.7326 13.1364 -1.2882 0.9475
2.4580 13.1381 -1.2832 0.9477
1.9062 13.0835 -1.2693 0.9483
1.6382 13.0852 -1.2660 0.9484
1.3772 13.1426 -1.2687 0.9483
1.1103 13.1443 -1.2664 0.9484
0.3138 13.1492 -1.2627 0.9485
0.0490 13.1508 -1.2626 0.9485
-0.4810 13.1541 -1.2637 0.9485
-20.7764 3.4472 -2.5017 0.9187
-20.8416 3.0282 -2.5017 0.9187
-21.0405 0.9180 -2.5017 0.9187
-20.9977 -1.6247 -2.5017 0.9187
-20.9608 -2.0471 -2.5017 0.9187
-20.7281 -3.7270 -2.5017 0.9187
-20.6488 -4.1436 -2.5017 0.9187
-20.3610 -5.3827 -2.5017 0.9187
-20.2485 -5.7916 -2.5017 0.9187
-20.1278 -6.1981 -2.5017 0.9187
-19.7169 -7.4020 -2.5017 0.9187
-19.5639 -7.7975 -2.5017 0.9187
-19.4029 -8.1898 -2.5017 0.9187
-19.2340 -8.5788 -2.5017 0.9187
-18.4814 -10.0986 -2.5017 0.9187
-18.2743 -10.4687 -2.5017 0.9187
-18.0598 -10.8345 -2.5017 0.9187
-17.8380 -11.1960 -2.5017 0.9187
-17.6090 -11.5529 -2.5017 0.9187
-16.8794 -12.5949 -2.5017 0.9187
-16.0881 -13.5910 -2.5017 0.9187
-15.2383 -14.5375 -2.5017 0.9187
-14.6406 -15.1392 -2.5017 0.9187
-14.3328 -15.4310 -2.5017 0.9187
-13.3750 -16.2681 -2.5017 0.9187
-13.0447 -16.5341 -2.5017 0.9187
-12.7092 -16.7934 -2.5017 0.9187
-12.3685 -17.0459 -2.5017 0.9187
-12.0227 -17.2915 -2.5017 0.9187
-11.6721 -17.5301 -2.5017 0.9187
-10.9568 -17.9858 -2.5017 0.9187
-9.9472 -17.0939 -2.3493 0.9234
-9.5483 -17.1959 -2.3364 0.9238
-8.5395 -17.8388 -2.3493 0.9234
-8.1786 -18.0071 -2.3493 0.9234
-7.8144 -18.1682 -2.3493 0.9234
-7.4470 -18.3218 -2.3493 0.9234
-7.0766 -18.4681 -2.3493 0.9234
-6.7033 -18.6068 -2.3493 0.9234
-6.3272 -18.7380 -2.3493 0.9234
-5.9487 -18.8616 -2.3493 0.9234
-4.4118 -19.2791 -2.3493 0.9234
-4.0227 -19.3640 -2.3493 0.9234
-3.4827 -18.6421 -2.2527 0.9265
-3.1205 -18.7922 -2.2628 0.9261
-2.7415 -18.8512 -2.2628 0.9261
-2.3614 -18.9026 -2.2628 0.9261
-1.9803 -18.9463 -2.2628 0.9261
-1.5663 -18.6012 -2.2174 0.9276
-0.0647 -18.7148 -2.2231 0.9274
1.0672 -18.7184 -2.2271 0.9273
1.4375 -18.6105 -2.2172 0.9276
1.8152 -18.6116 -2.2213 0.9274
3.3448 -18.6164 -2.2468 0.9266
4.9201 -18.6212 -2.2879 0.9254
5.3239 -18.6225 -2.3007 0.9249
6.1459 -18.6250 -2.3297 0.9240
4.0709 -11.5498 -1.4547 0.9519
6.9486 -18.5165 -2.3493 0.9234
8.0538 -18.0632 -2.3493 0.9234
8.4159 -17.8973 -2.3493 0.9234
8.7745 -17.7242 -2.3493 0.9234
9.1296 -17.5440 -2.3493 0.9234
9.4810 -17.3566 -2.3493 0.9234
11.8254 -15.8524 -2.3493 0.9234
12.7609 -15.1096 -2.3493 0.9234
13.3589 -14.5835 -2.3493 0.9234
13.6498 -14.3116 -2.3493 0.9234
14.2150 -13.7504 -2.3493 0.9234
16.2662 -13.3770 -2.5017 0.9187
17.0441 -12.3705 -2.5017 0.9187
17.5283 -11.6743 -2.5017 0.9187
17.7598 -11.3190 -2.5017 0.9187
17.9842 -10.9590 -2.5017 0.9187
18.8076 -9.4765 -2.5017 0.9187
19.9524 -6.7402 -2.5016 0.9187
20.2076 -5.9314 -2.5016 0.9187
20.3229 -5.5233 -2.5016 0.9187
20.6193 -4.2863 -2.5016 0.9187
20.7015 -3.8702 -2.5016 0.9187
20.9856 -1.7698 -2.5016 0.9187
21.0572 0.3484 -2.5016 0.9187
21.0261 1.1960 -2.5016 0.9187
20.9978 1.6191 -2.5016 0.9187
20.9609 2.0416 -2.5016 0.9187
20.9156 2.4632 -2.5016 0.9187
20.6496 4.1381 -2.5016 0.9187
20.5620 4.5530 -2.5016 0.9187
20.4662 4.9661 -2.5016 0.9187
20.3621 5.3772 -2.5016 0.9187
20.1290 6.1927 -2.5016 0.9187
19.8634 6.9981 -2.5016 0.9187
19.7099 7.3934 -2.5006 0.9187
19.5071 7.7689 -2.4942 0.9189
17.8983 8.4134 -2.3492 0.9234
17.7253 8.7721 -2.3492 0.9234
16.9620 10.1699 -2.3492 0.9234
16.3171 11.1754 -2.3492 0.9234
14.5852 13.3569 -2.3492 0.9234
14.3133 13.6479 -2.3492 0.9234
14.0356 13.9333 -2.3493 0.9234
13.7832 14.2450 -2.3545 0.9233
12.7040 15.4437 -2.3754 0.9226
12.4165 15.7293 -2.3804 0.9225
12.1220 16.0089 -2.3853 0.9223
11.8052 16.2607 -2.3869 0.9222
11.4766 16.4969 -2.3872 0.9222
11.1433 16.7264 -2.3874 0.9222
10.8054 16.9492 -2.3877 0.9222
10.4631 17.1653 -2.3879 0.9222
9.7657 17.5766 -2.3885 0.9222
6.2555 13.0588 -1.7200 0.9433
5.1136 13.3347 -1.6965 0.9441
4.6289 13.6967 -1.7174 0.9434
4.2971 13.6125 -1.6956 0.9441
4.0206 13.6913 -1.6950 0.9441
3.7043 13.6231 -1.6770 0.9447
3.3899 13.5375 -1.6577 0.9453
2.7569 13.2536 -1.6080 0.9469
2.4799 13.2553 -1.6019 0.9471
2.1758 13.0819 -1.5753 0.9480
1.3895 13.2599 -1.5837 0.9477
1.1202 13.2615 -1.5809 0.9478
0.0505 13.5858 -1.6138 0.9467
-0.2251 13.7132 -1.6292 0.9463
-0.5011 13.7012 -1.6286 0.9463
-17.4180 2.8900 -2.5017 0.9312
-17.4727 2.5387 -2.5017 0.9312
-17.5202 2.1864 -2.5017 0.9312
-17.5607 1.8331 -2.5017 0.9312
-17.6394 0.7696 -2.5017 0.9312
-17.6513 0.4143 -2.5017 0.9312
-17.6561 0.0587 -2.5017 0.9312
-17.6536 -0.2968 -2.5017 0.9312
-17.5725 -1.7162 -2.5017 0.9312
-17.5344 -2.0697 -2.5017 0.9312
-17.4892 -2.4223 -2.5017 0.9312
-17.3775 -3.1245 -2.5017 0.9312
-17.3110 -3.4738 -2.5017 0.9312
-17.2376 -3.8217 -2.5017 0.9312
-17.1571 -4.1680 -2.5017 0.9312
-17.0697 -4.5126 -2.5017 0.9312
-16.9754 -4.8554 -2.5017 0.9312
-16.8742 -5.1962 -2.5017 0.9312
-16.7662 -5.5349 -2.5017 0.9312
-16.6513 -5.8714 -2.5017 0.9312
-16.4014 -6.5371 -2.5017 0.9312
-16.2665 -6.8660 -2.5017 0.9312
-16.1249 -7.1921 -2.5017 0.9312
-15.8223 -7.8355 -2.5017 0.9312
-15.3203 -8.7765 -2.5017 0.9312
-14.9546 -9.3862 -2.5017 0.9312
-14.7625 -9.6854 -2.5017 0.9312
-14.5645 -9.9807 -2.5017 0.9312
-13.4876 -11.3941 -2.5017 0.9312
-13.0179 -11.9279 -2.5017 0.9312
-12.7751 -12.1876 -2.5017 0.9312
-12.5271 -12.4423 -2.5017 0.9312
-12.2740 -12.6921 -2.5017 0.9312
-12.0160 -12.9366 -2.5017 0.9312
-11.4854 -13.4099 -2.5017 0.9312
-10.3692 -14.2905 -2.5017 0.9312
-9.7854 -14.6964 -2.5017 0.9312
-9.4858 -14.8878 -2.5012 0.9312
-8.3393 -14.3308 -2.3493 0.9352
-6.8566 -15.0964 -2.3493 0.9352
-6.2433 -15.3601 -2.3493 0.9352
-5.9327 -15.4828 -2.3493 0.9352
-5.6197 -15.5991 -2.3493 0.9352
-4.6677 -15.9099 -2.3493 0.9352
-3.3724 -16.2339 -2.3493 0.9352
-3.0449 -16.2985 -2.3493 0.9352
-2.7161 -16.3565 -2.3493 0.9352
-2.3862 -16.4079 -2.3493 0.9352
-1.7236 -16.4906 -2.3493 0.9352
-1.3912 -16.5220 -2.3493 0.9352
-1.0583 -16.5467 -2.3493 0.9352
-0.7249 -16.5646 -2.3493 0.9352
1.2769 -16.5312 -2.3493 0.9352
1.6095 -16.5021 -2.3493 0.9352
2.2726 -16.4239 -2.3493 0.9352
3.5867 -16.1878 -2.3493 0.9352
4.8776 -15.8468 -2.3493 0.9352
5.1956 -15.7453 -2.3493 0.9352
4.0374 -11.4550 -1.7209 0.9521
5.8254 -15.5234 -2.3493 0.9352
6.1368 -15.4029 -2.3493 0.9352
8.2399 -14.3880 -2.3493 0.9352
9.0935 -13.8643 -2.3493 0.9352
10.1795 -13.0877 -2.3493 0.9352
10.4410 -12.8800 -2.3493 0.9352
10.6982 -12.6672 -2.3493 0.9352
10.9511 -12.4492 -2.3493 0.9352
11.1995 -12.2261 -2.3493 0.9352
11.4434 -11.9982 -2.3493 0.9352
11.6827 -11.7653 -2.3493 0.9352
13.1431 -11.7269 -2.4957 0.9313
13.4061 -11.4851 -2.5012 0.9312
13.6368 -11.2147 -2.5017 0.9312
14.2890 -10.3709 -2.5017 0.9312
15.2591 -8.8821 -2.5017 0.9312
15.6043 -8.2606 -2.5017 0.9312
16.4862 -6.3196 -2.5017 0.9312
16.7272 -5.6507 -2.5017 0.9312
16.9412 -4.9727 -2.5017 0.9312
17.1277 -4.2865 -2.5017 0.9312
17.3552 -3.2446 -2.5017 0.9312
17.5600 -1.8377 -2.5017 0.9312
17.5934 -1.4838 -2.5017 0.9312
17.6389 -0.7742 -2.5016 0.9312
17.6558 -0.0634 -2.5016 0.9312
17.6274 1.0027 -2.5016 0.9312
17.4896 2.4177 -2.5016 0.9312
17.1580 4.1634 -2.5016 0.9312
17.0707 4.5080 -2.5016 0.9312
16.9764 4.8508 -2.5016 0.9312
16.8753 5.1917 -2.5016 0.9312
16.7674 5.5304 -2.5016 0.9312
16.2680 6.8616 -2.5016 0.9312
15.9584 7.5015 -2.4985 0.9312
15.6924 7.7661 -2.4808 0.9317
14.5520 7.9465 -2.3493 0.9352
14.3890 8.2379 -2.3493 0.9352
14.0456 8.8106 -2.3493 0.9352
13.8654 9.0916 -2.3493 0.9352
13.6795 9.3689 -2.3493 0.9352
13.4881 9.6425 -2.3493 0.9352
13.2912 9.9121 -2.3493 0.9352
10.2871 8.3368 -1.8761 0.9479
12.4506 10.9494 -2.3493 0.9352
11.9997 11.4418 -2.3493 0.9352
11.0401 12.3702 -2.3493 0.9352
10.5331 12.8047 -2.3493 0.9352
9.1927 13.7986 -2.3493 0.9352
7.5168 14.9152 -2.3666 0.9347
5.6969 13.2354 -2.0417 0.9434
5.3844 13.2374 -2.0248 0.9439
4.7887 13.2815 -2.0004 0.9446
4.2996 13.6205 -2.0237 0.9439
3.6071 13.2653 -1.9478 0.9460
3.4333 13.7109 -2.0027 0.9445
3.0401 13.2688 -1.9288 0.9465
2.4799 13.2553 -1.9107 0.9470
2.1758 13.0819 -1.8790 0.9478
1.9062 13.0835 -1.8734 0.9480
1.6382 13.0852 -1.8685 0.9481
1.3895 13.2599 -1.8891 0.9476
0.8529 13.2802 -1.8855 0.9477
0.6031 13.6990 -1.9429 0.9461
0.3170 13.2835 -1.8827 0.9477
0.0504 13.5413 -1.9187 0.9468
-0.2181 13.2868 -1.8829 0.9477
-0.4859 13.2884 -1.8841 0.9477
-14.9809 2.4856 -2.5017 0.9403
-15.1713 0.6619 -2.5017 0.9403
-15.1754 -0.5609 -2.5017 0.9403
-15.1610 -0.8663 -2.5017 0.9403
-15.0421 -2.0834 -2.5017 0.9403
-14.9460 -2.6874 -2.5017 0.9403
-14.8257 -3.2870 -2.5017 0.9403
-14.3215 -5.0499 -2.5017 0.9403
-14.2169 -5.3372 -2.5017 0.9403
-13.7414 -6.4638 -2.5017 0.9403
-13.6085 -6.7392 -2.5017 0.9403
-13.4700 -7.0118 -2.5017 0.9403
-13.3261 -7.2816 -2.5017 0.9403
-13.1768 -7.5485 -2.5017 0.9403
-13.0221 -7.8123 -2.5017 0.9403
-12.5267 -8.5842 -2.5017 0.9403
-12.3513 -8.8347 -2.5017 0.9403
-12.1709 -9.0816 -2.5017 0.9403
-11.9856 -9.3248 -2.5017 0.9403
-11.7954 -9.5643 -2.5017 0.9403
-11.6004 -9.7998 -2.5017 0.9403
-11.4007 -10.0314 -2.5017 0.9403
-10.5566 -10.9162 -2.5017 0.9403
-10.1086 -11.3324 -2.5017 0.9403
-9.4059 -11.9220 -2.5017 0.9403
-9.1640 -12.1090 -2.5017 0.9403
-8.9183 -12.2910 -2.5017 0.9403
-8.6690 -12.4681 -2.5017 0.9403
-8.4162 -12.6401 -2.5017 0.9403
-7.8998 -12.9676 -2.5015 0.9403
-7.1944 -12.9566 -2.4414 0.9417
-6.6704 -12.6044 -2.3493 0.9438
-6.1575 -12.8628 -2.3493 0.9438
-5.6346 -13.1002 -2.3493 0.9438
-5.3697 -13.2110 -2.3493 0.9438
-4.5623 -13.5111 -2.3493 0.9438
-4.0146 -13.6838 -2.3493 0.9438
-2.9006 -13.9625 -2.3493 0.9438
-2.3360 -14.0679 -2.3493 0.9438
-1.1966 -14.2103 -2.3493 0.9438
-0.6234 -14.2469 -2.3493 0.9438
0.2378 -14.2586 -2.3493 0.9438
0.5249 -14.2509 -2.3493 0.9438
0.8117 -14.2374 -2.3493 0.9438
1.0982 -14.2182 -2.3493 0.9438
1.3843 -14.1932 -2.3493 0.9438
2.2387 -14.0837 -2.3493 0.9438
2.5218 -14.0358 -2.3493 0.9438
2.8039 -13.9822 -2.3493 0.9438
3.3646 -13.8579 -2.3493 0.9438
3.6429 -13.7874 -2.3493 0.9438
4.1951 -13.6295 -2.3493 0.9438
5.0103 -13.3514 -2.3493 0.9438
5.5438 -13.1388 -2.3493 0.9438
5.8072 -13.0245 -2.3493 0.9438
6.0683 -12.9050 -2.3493 0.9438
6.3269 -12.7802 -2.3493 0.9438
7.0869 -12.3749 -2.3493 0.9438
7.3347 -12.2296 -2.3493 0.9438
7.5795 -12.0795 -2.3493 0.9438
7.8211 -11.9244 -2.3493 0.9438
8.0597 -11.7645 -2.3493 0.9438
8.5268 -11.4305 -2.3493 0.9438
8.7552 -11.2565 -2.3493 0.9438
10.2264 -11.1638 -2.4941 0.9405
10.4637 -10.9709 -2.4976 0.9404
10.6982 -10.7739 -2.5013 0.9403
11.1251 -10.3361 -2.5017 0.9403
11.3310 -10.1100 -2.5017 0.9403
12.6389 -8.4178 -2.5017 0.9403
12.8058 -8.1616 -2.5017 0.9403
13.1241 -7.6394 -2.5017 0.9403
13.2752 -7.3736 -2.5017 0.9403
13.5613 -6.8331 -2.5017 0.9403
13.8255 -6.2815 -2.5017 0.9403
13.9492 -6.0019 -2.5017 0.9403
14.0672 -5.7198 -2.5017 0.9403
14.1795 -5.4354 -2.5017 0.9403
14.2861 -5.1488 -2.5017 0.9403
14.5708 -4.2769 -2.5017 0.9403
14.8025 -3.3894 -2.5017 0.9403
14.9269 -2.7907 -2.5017 0.9403
14.9801 -2.4895 -2.5017 0.9403
15.1031 -1.5806 -2.5017 0.9403
15.1318 -1.2762 -2.5017 0.9403
15.1709 -0.6659 -2.5017 0.9403
15.1813 -0.3603 -2.5017 0.9403
15.1854 -0.0545 -2.5017 0.9403
15.1835 0.2512 -2.5017 0.9403
15.1753 0.5569 -2.5017 0.9403
15.1610 0.8624 -2.5017 0.9403
15.1406 1.1675 -2.5017 0.9403
15.0813 1.7761 -2.5017 0.9403
15.0425 2.0794 -2.5017 0.9403
14.9976 2.3819 -2.5017 0.9403
14.9466 2.6834 -2.5017 0.9403
14.8264 3.2830 -2.5017 0.9403
14.7573 3.5809 -2.5017 0.9403
14.6822 3.8773 -2.5017 0.9403
14.6012 4.1721 -2.5017 0.9403
14.4213 4.7566 -2.5017 0.9403
14.3226 5.0461 -2.5017 0.9403
14.2181 5.3334 -2.5017 0.9403
14.1079 5.6186 -2.5017 0.9403
13.9919 5.9015 -2.5017 0.9403
13.8702 6.1821 -2.5017 0.9403
13.7429 6.4601 -2.5017 0.9403
13.6100 6.7355 -2.5017 0.9403
13.3278 7.2780 -2.5017 0.9403
13.1581 7.5332 -2.4978 0.9404
12.9346 7.7551 -2.4845 0.9407
11.9254 7.8195 -2.3493 0.9438
11.6009 8.2933 -2.3493 0.9438
11.4316 8.5252 -2.3493 0.9438
10.5599 8.2112 -2.2037 0.9472
10.2742 8.3263 -2.1786 0.9478
9.9161 10.2485 -2.3493 0.9438
9.7077 10.4461 -2.3493 0.9438
9.4955 10.6394 -2.3493 0.9438
9.2793 10.8285 -2.3493 0.9438
9.0594 11.0131 -2.3493 0.9438
8.8358 11.1933 -2.3493 0.9438
8.3780 11.5400 -2.3493 0.9438
8.1439 11.7063 -2.3493 0.9438
7.4223 12.1766 -2.3493 0.9438
6.6736 12.6025 -2.3493 0.9438
6.4185 12.7344 -2.3493 0.9438
5.3731 13.2095 -2.3493 0.9438
5.1060 13.3150 -2.3493 0.9438
4.7820 13.2629 -2.3226 0.9444
4.2928 13.5990 -2.3493 0.9438
3.8965 13.2684 -2.2781 0.9455
3.0412 13.2736 -2.2433 0.9463
2.7569 13.2536 -2.2301 0.9466
2.4799 13.2553 -2.2216 0.9468
2.1758 13.0819 -2.1847 0.9477
1.6382 13.0852 -2.1725 0.9479
0.8532 13.2850 -2.1931 0.9475
0.5950 13.5161 -2.2288 0.9466
0.3171 13.2883 -2.1897 0.9475
0.0504 13.5484 -2.2320 0.9466
-0.2182 13.2916 -2.1899 0.9475
-0.4861 13.2933 -2.1914 0.9475
-13.1301 2.1786 -2.5017 0.9473
-13.1713 1.9137 -2.5017 0.9473
-13.2826 0.8478 -2.5017 0.9473
-13.3095 0.0443 -2.5017 0.9473
-13.3005 -0.4916 -2.5017 0.9473
-13.2879 -0.7593 -2.5017 0.9473
-13.2466 -1.2937 -2.5017 0.9473
-13.2178 -1.5602 -2.5017 0.9473
-13.1837 -1.8260 -2.5017 0.9473
-13.0494 -2.6186 -2.5017 0.9473
-12.9334 -3.1419 -2.5017 0.9473
-12.7964 -3.6601 -2.5017 0.9473
-12.6387 -4.1724 -2.5017 0.9473
-12.5521 -4.4260 -2.5017 0.9473
-12.1553 -5.4216 -2.5017 0.9473
-11.6797 -6.3820 -2.5017 0.9473
-11.4133 -6.8471 -2.5017 0.9473
-11.2731 -7.0755 -2.5017 0.9473
-11.1283 -7.3011 -2.5017 0.9473
-10.6673 -7.9596 -2.5017 0.9473
-10.5048 -8.1728 -2.5017 0.9473
-10.3381 -8.3826 -2.5017 0.9473
-10.1672 -8.5891 -2.5017 0.9473
-9.9922 -8.7921 -2.5017 0.9473
-9.4432 -9.3793 -2.5017 0.9473
-9.2524 -9.5676 -2.5017 0.9473
-9.0579 -9.7519 -2.5017 0.9473
-8.8597 -9.9323 -2.5017 0.9473
-8.6579 -10.1087 -2.5017 0.9473
-8.4526 -10.2810 -2.5017 0.9473
-8.2439 -10.4491 -2.5017 0.9473
-8.0318 -10.6129 -2.5017 0.9473
-7.5980 -10.9277 -2.5017 0.9473
-6.2255 -11.7637 -2.5017 0.9473
-5.3886 -11.8642 -2.4492 0.9483
-4.7271 -11.6302 -2.3597 0.9502
-4.4722 -11.6713 -2.3493 0.9504
-3.9986 -11.8419 -2.3493 0.9504
-3.5186 -11.9933 -2.3493 0.9504
-3.2764 -12.0617 -2.3493 0.9504
-2.7881 -12.1838 -2.3493 0.9504
-2.2953 -12.2862 -2.3493 0.9504
-2.0474 -12.3299 -2.3493 0.9504
-1.5494 -12.4023 -2.3493 0.9504
-1.2993 -12.4310 -2.3493 0.9504
-1.0487 -12.4547 -2.3493 0.9504
-0.7978 -12.4732 -2.3493 0.9504
-0.5464 -12.4868 -2.3493 0.9504
-0.0432 -12.4987 -2.3493 0.9504
0.2084 -12.4970 -2.3493 0.9504
0.4600 -12.4903 -2.3493 0.9504
0.9625 -12.4616 -2.3493 0.9504
1.4635 -12.4128 -2.3493 0.9504
2.2102 -12.3018 -2.3493 0.9504
2.7037 -12.2028 -2.3493 0.9504
2.9489 -12.1459 -2.3493 0.9504
3.1929 -12.0840 -2.3493 0.9504
3.6768 -11.9457 -2.3493 0.9504
3.9166 -11.8692 -2.3493 0.9504
4.0291 -11.4313 -2.2782 0.9519
4.3913 -11.7019 -2.3493 0.9504
4.8589 -11.5156 -2.3493 0.9504
5.3186 -11.3106 -2.3493 0.9504
5.5474 -11.2055 -2.3502 0.9504
7.2806 -11.1003 -2.4952 0.9474
8.1713 -10.5058 -2.5017 0.9473
8.7907 -9.9933 -2.5017 0.9473
8.9901 -9.8143 -2.5017 0.9473
9.1859 -9.6312 -2.5017 0.9473
9.3780 -9.4443 -2.5017 0.9473
9.5663 -9.2536 -2.5017 0.9473
9.9311 -8.8609 -2.5017 0.9473
10.1075 -8.6592 -2.5017 0.9473
10.4479 -8.2452 -2.5017 0.9473
10.6118 -8.0331 -2.5017 0.9473
10.9267 -7.5994 -2.5017 0.9473
11.0775 -7.3778 -2.5017 0.9473
11.2238 -7.1533 -2.5017 0.9473
11.3655 -6.9258 -2.5017 0.9473
11.5027 -6.6956 -2.5017 0.9473
11.6352 -6.4626 -2.5017 0.9473
12.0041 -5.7484 -2.5017 0.9473
12.1174 -5.5055 -2.5017 0.9473
12.3292 -5.0131 -2.5017 0.9473
12.5211 -4.5127 -2.5017 0.9473
12.6094 -4.2596 -2.5017 0.9473
12.8436 -3.4906 -2.5017 0.9473
12.9113 -3.2313 -2.5017 0.9473
12.9737 -2.9707 -2.5017 0.9473
13.1294 -2.1820 -2.5017 0.9473
13.2066 -1.6516 -2.5017 0.9473
13.2372 -1.3853 -2.5017 0.9473
13.2822 -0.8512 -2.5017 0.9473
13.3094 -0.0478 -2.5017 0.9473
13.3076 0.2202 -2.5017 0.9473
13.3005 0.4881 -2.5017 0.9473
13.2880 0.7558 -2.5017 0.9473
13.2701 1.0232 -2.5017 0.9473
13.2181 1.5567 -2.5017 0.9473
13.1841 1.8225 -2.5017 0.9473
13.1447 2.0876 -2.5017 0.9473
13.0500 2.6152 -2.5017 0.9473
12.9341 3.1385 -2.5017 0.9473
12.8683 3.3983 -2.5017 0.9473
12.7973 3.6567 -2.5017 0.9473
12.7210 3.9136 -2.5017 0.9473
12.3649 4.9245 -2.5017 0.9473
12.2632 5.1724 -2.5017 0.9473
12.0450 5.6620 -2.5017 0.9473
11.8073 6.1424 -2.5017 0.9473
11.5504 6.6128 -2.5017 0.9473
10.9650 7.5098 -2.4980 0.9473
10.7963 7.7181 -2.4945 0.9474
9.9848 7.7640 -2.3774 0.9498
9.5499 8.0633 -2.3493 0.9504
9.2175 8.4412 -2.3493 0.9504
9.0456 8.6251 -2.3493 0.9504
8.3223 9.3250 -2.3493 0.9504
7.1378 10.2601 -2.3493 0.9504
6.9297 10.4017 -2.3493 0.9504
6.2891 10.8011 -2.3493 0.9504
6.0703 10.9255 -2.3493 0.9504
5.8491 11.0456 -2.3493 0.9504
5.6255 11.1611 -2.3493 0.9504
4.9414 11.4804 -2.3493 0.9504
4.7093 11.5776 -2.3493 0.9504
4.2393 11.7578 -2.3493 0.9504
4.0017 11.8407 -2.3493 0.9504
3.7625 11.9189 -2.3493 0.9504
3.5217 11.9922 -2.3493 0.9504
3.2795 12.0607 -2.3493 0.9504
2.0507 12.3293 -2.3493 0.9504
0.5497 12.4866 -2.3493 0.9504
-0.2052 12.4970 -2.3493 0.9504
-11.7439 1.4655 -2.5017 0.9528
-11.8110 0.7538 -2.5017 0.9528
-11.8238 0.5159 -2.5017 0.9528
-11.8349 0.0394 -2.5017 0.9528
-11.8333 -0.1989 -2.5017 0.9528
-11.8269 -0.4372 -2.5017 0.9528
-11.7997 -0.9130 -2.5017 0.9528
-11.7534 -1.3873 -2.5017 0.9528
-11.7231 -1.6237 -2.5017 0.9528
-11.6880 -1.8594 -2.5017 0.9528
-11.5005 -2.7938 -2.5017 0.9528
-11.4419 -3.0248 -2.5017 0.9528
-11.2384 -3.7101 -2.5017 0.9528
-10.9939 -4.3818 -2.5017 0.9528
-10.9035 -4.6023 -2.5017 0.9528
-10.7094 -5.0376 -2.5017 0.9528
-10.4978 -5.4647 -2.5017 0.9528
-10.2693 -5.8829 -2.5017 0.9528
-10.1488 -6.0885 -2.5017 0.9528
-10.0241 -6.2916 -2.5017 0.9528
-9.8954 -6.4922 -2.5017 0.9528
-9.4854 -7.0777 -2.5017 0.9528
-9.3410 -7.2673 -2.5017 0.9528
-9.0408 -7.6375 -2.5017 0.9528
-8.8852 -7.8180 -2.5017 0.9528
-8.3970 -8.3402 -2.5017 0.9528
-8.2273 -8.5075 -2.5017 0.9528
-8.0544 -8.6715 -2.5017 0.9528
-7.8781 -8.8319 -2.5017 0.9528
-7.6987 -8.9887 -2.5017 0.9528
-7.5161 -9.1419 -2.5017 0.9528
-6.7562 -9.7170 -2.5017 0.9528
-5.9525 -10.2291 -2.5017 0.9528
-5.1101 -10.6749 -2.5017 0.9528
-3.7787 -11.1906 -2.4967 0.9529
-3.5502 -11.2569 -2.4950 0.9529
-3.3096 -11.2809 -2.4851 0.9531
-2.5691 -11.2269 -2.4345 0.9540
-2.0956 -11.2170 -2.4121 0.9544
-1.6314 -11.2182 -2.3963 0.9547
-0.2648 -11.2177 -2.3718 0.9552
0.4131 -11.2151 -2.3722 0.9552
0.8661 -11.2125 -2.3772 0.9551
1.3216 -11.2092 -2.3858 0.9549
1.5508 -11.2073 -2.3916 0.9548
2.0128 -11.2029 -2.4060 0.9545
2.2461 -11.2004 -2.4147 0.9544
3.4427 -11.1850 -2.4737 0.9533
3.9234 -11.1315 -2.4949 0.9529
4.8169 -10.8035 -2.5004 0.9528
5.0361 -10.7099 -2.5017 0.9528
5.2507 -10.6064 -2.5017 0.9528
5.6735 -10.3864 -2.5017 0.9528
6.2903 -10.0249 -2.5017 0.9528
6.4908 -9.8962 -2.5017 0.9528
6.6888 -9.7635 -2.5017 0.9528
6.8840 -9.6268 -2.5017 0.9528
7.0764 -9.4863 -2.5017 0.9528
7.6363 -9.0417 -2.5017 0.9528
7.9941 -8.7269 -2.5017 0.9528
8.3390 -8.3980 -2.5017 0.9528
8.5064 -8.2284 -2.5017 0.9528
8.6704 -8.0554 -2.5017 0.9528
8.8308 -7.8792 -2.5017 0.9528
8.9877 -7.6998 -2.5017 0.9528
9.2904 -7.3317 -2.5017 0.9528
9.4361 -7.1432 -2.5017 0.9528
9.5780 -6.9517 -2.5017 0.9528
9.7161 -6.7575 -2.5017 0.9528
10.1063 -6.1585 -2.5017 0.9528
10.2283 -5.9538 -2.5017 0.9528
10.3461 -5.7466 -2.5017 0.9528
10.4597 -5.5371 -2.5017 0.9528
10.7749 -4.8955 -2.5017 0.9528
10.9633 -4.4577 -2.5017 0.9528
11.0508 -4.2361 -2.5017 0.9528
11.1339 -4.0127 -2.5017 0.9528
11.2124 -3.7877 -2.5017 0.9528
11.3558 -3.3332 -2.5017 0.9528
11.4206 -3.1039 -2.5017 0.9528
11.4808 -2.8733 -2.5017 0.9528
11.5363 -2.6415 -2.5017 0.9528
11.6333 -2.1749 -2.5017 0.9528
11.6748 -1.9402 -2.5017 0.9528
11.7115 -1.7048 -2.5017 0.9528
11.7434 -1.4686 -2.5017 0.9528
11.7706 -1.2318 -2.5017 0.9528
11.8107 -0.7569 -2.5017 0.9528
11.8348 -0.0425 -2.5017 0.9528
11.8158 0.6721 -2.5017 0.9528
11.7792 1.1473 -2.5017 0.9528
11.7234 1.6206 -2.5017 0.9528
11.6884 1.8563 -2.5017 0.9528
11.6486 2.0913 -2.5017 0.9528
11.6042 2.3254 -2.5017 0.9528
11.5550 2.5586 -2.5017 0.9528
11.5011 2.7908 -2.5017 0.9528
11.4426 3.0218 -2.5017 0.9528
11.3794 3.2516 -2.5017 0.9528
11.3117 3.4800 -2.5017 0.9528
10.9950 4.3789 -2.5017 0.9528
10.9046 4.5994 -2.5017 0.9528
10.7106 5.0347 -2.5017 0.9528
10.3871 5.6721 -2.5017 0.9528
10.0257 6.2889 -2.5017 0.9528
9.8970 6.4895 -2.5017 0.9528
9.4872 7.0752 -2.5017 0.9528
9.1850 7.4437 -2.4990 0.9528
9.0226 7.6180 -2.4961 0.9529
8.4620 7.7494 -2.4254 0.9542
7.5658 8.1412 -2.3493 0.9556
7.4003 8.2918 -2.3493 0.9556
6.7091 8.8604 -2.3493 0.9556
6.1620 9.2493 -2.3493 0.9556
5.9745 9.3715 -2.3493 0.9556
5.7846 9.4899 -2.3493 0.9556
5.5923 9.6044 -2.3493 0.9556
5.3978 9.7151 -2.3493 0.9556
5.2011 9.8218 -2.3493 0.9556
4.8014 10.0232 -2.3493 0.9556
4.5986 10.1179 -2.3493 0.9556
4.3940 10.2085 -2.3493 0.9556
3.7696 10.4551 -2.3493 0.9556
3.5584 10.5289 -2.3493 0.9556
3.3456 10.5984 -2.3493 0.9556
2.9162 10.7245 -2.3493 0.9556
2.0438 10.9244 -2.3493 0.9556
1.8235 10.9633 -2.3493 0.9556
1.6023 10.9978 -2.3493 0.9556
0.7123 11.0911 -2.3493 0.9556
0.2651 11.1108 -2.3493 0.9556
-0.4062 11.1065 -2.3493 0.9556
-10.5008 1.7423 -2.5017 0.9572
