ply
format ascii 1.0
element vertex 1584
property float32 x
property float32 y
property float32 z
property float32 I
end_header
10.0867 10.1388 -2.3560 0.9437
9.8803 10.3389 -2.3559 0.9437
9.6700 10.5348 -2.3558 0.9437
9.4557 10.7264 -2.3556 0.9437
9.2376 10.9136 -2.3555 0.9437
9.0158 11.0964 -2.3553 0.9437
8.7904 11.2746 -2.3552 0.9437
8.0934 11.7816 -2.3547 0.9437
7.0372 11.6970 -2.2488 0.9462
7.1190 12.3901 -2.3541 0.9437
6.8680 12.5298 -2.3539 0.9437
6.6143 12.6644 -2.3537 0.9437
6.3579 12.7939 -2.3536 0.9437
5.5741 13.1509 -2.3530 0.9437
5.3082 13.2592 -2.3529 0.9437
4.7703 13.4598 -2.3525 0.9438
3.9495 13.7196 -2.3519 0.9438
3.6727 13.7951 -2.3518 0.9438
2.8343 13.9900 -2.3515 0.9438
2.2698 14.0927 -2.3515 0.9438
1.7015 14.1720 -2.3515 0.9438
1.1305 14.2279 -2.3513 0.9438
0.8442 14.2471 -2.3512 0.9438
0.2709 14.2676 -2.3509 0.9438
-0.8756 14.2380 -2.3500 0.9438
-1.1615 14.2159 -2.3497 0.9438
-1.4468 14.1879 -2.3494 0.9438
-2.0153 14.1144 -2.3488 0.9438
-2.2982 14.0688 -2.3484 0.9438
-2.5801 14.0175 -2.3480 0.9439
-2.8609 13.9605 -2.3476 0.9439
-3.4187 13.8302 -2.3470 0.9439
-3.9711 13.6795 -2.3466 0.9439
-4.3350 12.9625 -2.2517 0.9461
-4.5122 11.8816 -2.0938 0.9498
-4.7879 11.8824 -2.1104 0.9494
-5.5636 11.7160 -2.1367 0.9488
-6.3632 12.7329 -2.3449 0.9439
-6.6173 12.6014 -2.3448 0.9439
-6.8687 12.4650 -2.3446 0.9439
-7.1017 11.7448 -2.2610 0.9459
-8.0819 11.7087 -2.3438 0.9440
-8.3150 11.5431 -2.3436 0.9440
-8.7711 11.1981 -2.3433 0.9440
-9.2129 10.8352 -2.3430 0.9440
-10.0509 10.0577 -2.3424 0.9440
-10.8237 9.2158 -2.3419 0.9440
-11.1842 8.7724 -2.3416 0.9440
-11.3577 8.5454 -2.3415 0.9440
-11.5266 8.3150 -2.3414 0.9440
-12.1333 7.6854 -2.3661 0.9434
-13.2382 7.3066 -2.4910 0.9405
-13.6618 6.4989 -2.4923 0.9405
-13.7892 6.2228 -2.4922 0.9405
-13.9110 5.9442 -2.4921 0.9405
-14.2426 5.0945 -2.4919 0.9405
-14.4351 4.5177 -2.4918 0.9405
-14.5226 4.2266 -2.4917 0.9405
-14.6800 3.6393 -2.4916 0.9405
-14.7499 3.3434 -2.4915 0.9405
-14.8138 3.0462 -2.4915 0.9405
-14.9238 2.4483 -2.4914 0.9405
-14.9698 2.1478 -2.4914 0.9405
-15.0097 1.8465 -2.4913 0.9405
-15.0437 1.5444 -2.4913 0.9405
-15.0933 0.9385 -2.4913 0.9405
-15.1091 0.6349 -2.4912 0.9405
-15.1187 0.3311 -2.4912 0.9405
-15.1223 0.0272 -2.4912 0.9405
-15.1197 -0.2768 -2.4912 0.9405
-15.0757 -1.1875 -2.4912 0.9405
-14.9770 -2.0940 -2.4913 0.9405
-14.9321 -2.3946 -2.4913 0.9405
-14.8811 -2.6943 -2.4914 0.9405
-14.8241 -2.9929 -2.4914 0.9405
-14.6176 -3.8810 -2.4915 0.9405
-14.5369 -4.1742 -2.4916 0.9405
-14.1561 -5.3287 -2.4918 0.9405
-14.0465 -5.6124 -2.4919 0.9405
-13.4147 -6.9946 -2.4923 0.9405
-13.1237 -7.5286 -2.4925 0.9405
-12.9702 -7.7912 -2.4926 0.9405
-12.8116 -8.0507 -2.4927 0.9405
-12.6477 -8.3069 -2.4928 0.9405
-12.4787 -8.5598 -2.4929 0.9405
-12.3047 -8.8093 -2.4930 0.9405
-12.1258 -9.0553 -2.4931 0.9405
-11.9419 -9.2976 -2.4933 0.9405
-10.9516 -10.4516 -2.4939 0.9405
-10.5239 -10.8846 -2.4942 0.9405
-9.8505 -11.5011 -2.4946 0.9405
-9.6180 -11.6975 -2.4948 0.9405
-9.3815 -11.8892 -2.4949 0.9405
-8.8972 -12.2582 -2.4953 0.9404
-7.8861 -12.9367 -2.4959 0.9404
-7.6250 -13.0935 -2.4961 0.9404
-7.3608 -13.2451 -2.4963 0.9404
-7.0936 -13.3913 -2.4965 0.9404
-6.8235 -13.5322 -2.4967 0.9404
-6.5506 -13.6676 -2.4968 0.9404
-6.2750 -13.7975 -2.4970 0.9404
-5.1481 -14.2613 -2.4978 0.9404
-4.8608 -14.3630 -2.4980 0.9404
-4.5715 -14.4589 -2.4982 0.9404
-3.3965 -14.7840 -2.4990 0.9404
-3.0989 -14.8505 -2.4992 0.9404
8.9017 -9.9353 -2.5074 0.9472
9.1001 -9.7549 -2.5075 0.9472
9.4858 -9.3822 -2.5078 0.9471
9.6730 -9.1902 -2.5079 0.9471
9.8562 -8.9943 -2.5080 0.9471
10.0355 -8.7948 -2.5081 0.9471
10.2108 -8.5918 -2.5083 0.9471
10.7115 -7.9619 -2.5086 0.9471
11.1733 -7.3028 -2.5089 0.9471
11.3183 -7.0770 -2.5090 0.9471
11.5945 -6.6170 -2.5092 0.9471
11.7255 -6.3828 -2.5093 0.9471
11.9734 -5.9068 -2.5095 0.9471
12.0901 -5.6651 -2.5096 0.9471
12.2019 -5.4211 -2.5097 0.9471
12.3088 -5.1749 -2.5097 0.9471
12.4107 -4.9266 -2.5098 0.9471
12.5076 -4.6763 -2.5099 0.9471
12.5994 -4.4241 -2.5099 0.9471
12.7676 -3.9143 -2.5101 0.9471
12.8440 -3.6570 -2.5101 0.9471
12.9811 -3.1379 -2.5102 0.9471
13.0418 -2.8764 -2.5103 0.9471
13.1473 -2.3500 -2.5103 0.9471
13.1920 -2.0853 -2.5104 0.9471
13.2314 -1.8198 -2.5104 0.9471
13.2655 -1.5535 -2.5104 0.9471
13.2942 -1.2865 -2.5105 0.9471
13.3174 -1.0191 -2.5105 0.9471
13.3353 -0.7512 -2.5105 0.9471
13.3478 -0.4830 -2.5105 0.9471
13.3548 -0.2146 -2.5105 0.9471
13.3565 0.0539 -2.5105 0.9471
13.3289 0.8587 -2.5105 0.9471
13.2835 1.3937 -2.5105 0.9471
13.0760 2.7193 -2.5104 0.9471
12.9558 3.2426 -2.5103 0.9471
12.8878 3.5023 -2.5102 0.9471
12.6525 4.2724 -2.5101 0.9471
12.5638 4.5257 -2.5100 0.9471
12.2673 5.2743 -2.5099 0.9471
12.0447 5.7627 -2.5097 0.9471
11.6744 6.4775 -2.5095 0.9471
11.5414 6.7106 -2.5094 0.9471
11.4038 6.9410 -2.5093 0.9471
10.9408 7.5990 -2.5038 0.9472
10.2603 7.7557 -2.4175 0.9490
9.8589 7.7685 -2.3592 0.9502
9.5241 8.1460 -2.3556 0.9503
8.8373 8.8830 -2.3552 0.9503
8.6566 9.0583 -2.3551 0.9503
8.4723 9.2300 -2.3549 0.9503
8.0936 9.5621 -2.3547 0.9503
7.7019 9.8785 -2.3544 0.9503
7.0914 10.3229 -2.3540 0.9503
6.6699 10.5983 -2.3537 0.9503
6.4552 10.7296 -2.3536 0.9503
6.2378 10.8565 -2.3535 0.9503
5.3443 11.3196 -2.3529 0.9503
3.9420 11.8756 -2.3519 0.9503
3.7023 11.9516 -2.3517 0.9504
3.4611 12.0228 -2.3516 0.9504
2.9746 12.1505 -2.3513 0.9504
2.2365 12.3051 -2.3508 0.9504
1.7399 12.3833 -2.3504 0.9504
1.2406 12.4414 -2.3501 0.9504
0.7395 12.4794 -2.3498 0.9504
0.4884 12.4908 -2.3496 0.9504
0.2373 12.4972 -2.3494 0.9504
-0.5162 12.4861 -2.3489 0.9504
-0.7670 12.4723 -2.3487 0.9504
-1.0175 12.4535 -2.3486 0.9504
-1.2675 12.4296 -2.3484 0.9504
-1.5170 12.4007 -2.3482 0.9504
-1.7658 12.3668 -2.3481 0.9504
-2.0138 12.3279 -2.3479 0.9504
-2.2611 12.2841 -2.3477 0.9504
-2.5073 12.2353 -2.3475 0.9504
-3.4810 11.9910 -2.3469 0.9505
-3.7210 11.9178 -2.3467 0.9505
-3.9595 11.8398 -2.3466 0.9505
-4.1964 11.7570 -2.3464 0.9505
-4.8963 11.4804 -2.3459 0.9505
-5.3531 11.2728 -2.3456 0.9505
-5.5782 11.1622 -2.3455 0.9505
-6.2396 10.8036 -2.3450 0.9505
-7.6898 9.8176 -2.3440 0.9505
-7.8851 9.6605 -2.3439 0.9505
-8.0772 9.4996 -2.3437 0.9505
-8.2661 9.3348 -2.3436 0.9505
-8.4516 9.1662 -2.3435 0.9505
-8.6336 8.9940 -2.3434 0.9505
-8.8122 8.8182 -2.3432 0.9505
-9.1586 8.4561 -2.3430 0.9505
-9.3262 8.2698 -2.3429 0.9505
-9.4901 8.0803 -2.3428 0.9505
-9.8186 7.7013 -2.3455 0.9505
-10.2147 7.6855 -2.4027 0.9493
-10.8926 7.5295 -2.4889 0.9475
-11.0570 7.3192 -2.4924 0.9475
-11.3492 6.8731 -2.4939 0.9474
-11.4846 6.6433 -2.4938 0.9474
-11.6154 6.4109 -2.4937 0.9474
-11.7415 6.1759 -2.4936 0.9474
-11.8628 5.9384 -2.4935 0.9474
-11.9794 5.6986 -2.4934 0.9474
-12.0911 5.4565 -2.4934 0.9474
-12.1980 5.2122 -2.4933 0.9474
-12.2999 4.9658 -2.4932 0.9474
-12.4889 4.4672 -2.4931 0.9474
-12.5759 4.2152 -2.4930 0.9474
-12.7345 3.7062 -2.4929 0.9475
-12.8062 3.4494 -2.4928 0.9475
-12.8727 3.1913 -2.4928 0.9475
-12.9901 2.6712 -2.4927 0.9475
-13.0410 2.4095 -2.4927 0.9475
-13.1620 1.6192 -2.4926 0.9475
-13.2162 1.0888 -2.4925 0.9475
-13.2353 0.8230 -2.4925 0.9475
-13.2585 -0.2427 -2.4925 0.9475
-13.2380 -0.7754 -2.4925 0.9475
-13.1674 -1.5718 -2.4925 0.9475
-13.1333 -1.8362 -2.4926 0.9475
-13.0491 -2.3626 -2.4926 0.9475
-12.9440 -2.8852 -2.4927 0.9475
-12.7472 -3.6602 -2.4928 0.9475
-12.5042 -4.4221 -2.4929 0.9474
-12.4131 -4.6726 -2.4930 0.9474
-12.3169 -4.9213 -2.4931 0.9474
-12.1098 -5.4126 -2.4932 0.9474
-11.8832 -5.8953 -2.4933 0.9474
-11.7627 -6.1332 -2.4934 0.9474
-11.3728 -6.8316 -2.4937 0.9474
-11.2336 -7.0591 -2.4938 0.9474
-11.0899 -7.2838 -2.4939 0.9474
-10.9417 -7.5055 -2.4940 0.9474
-10.7890 -7.7242 -2.4941 0.9474
-10.6320 -7.9398 -2.4942 0.9474
-10.1356 -8.5673 -2.4945 0.9474
-9.9618 -8.7697 -2.4946 0.9474
-9.6022 -9.1638 -2.4948 0.9474
-9.4165 -9.3554 -2.4950 0.9474
-8.8369 -9.9075 -2.4953 0.9474
-8.6365 -10.0836 -2.4955 0.9474
-8.4325 -10.2557 -2.4956 0.9474
-8.2251 -10.4237 -2.4958 0.9474
-7.8004 -10.7471 -2.4960 0.9474
-7.5833 -10.9023 -2.4962 0.9474
-7.3630 -11.0532 -2.4963 0.9474
-7.1398 -11.1996 -2.4965 0.9474
-6.9137 -11.3416 -2.4966 0.9474
-6.6847 -11.4789 -2.4968 0.9474
-6.4530 -11.6117 -2.4969 0.9474
-5.2571 -12.2045 -2.4977 0.9474
-5.0111 -12.3085 -2.4979 0.9473
-4.7630 -12.4076 -2.4981 0.9473
-4.5129 -12.5016 -2.4982 0.9473
-3.4952 -12.8272 -2.4989 0.9473
-3.2369 -12.8958 -2.4991 0.9473
-2.9772 -12.9592 -2.4993 0.9473
-2.7164 -13.0173 -2.4994 0.9473
8.0897 -8.6718 -2.5068 0.9527
8.2628 -8.5079 -2.5069 0.9527
8.4325 -8.3404 -2.5071 0.9527
8.5988 -8.1696 -2.5072 0.9527
8.9210 -7.8181 -2.5074 0.9527
9.0768 -7.6376 -2.5075 0.9527
9.3772 -7.2672 -2.5077 0.9527
9.5217 -7.0775 -2.5078 0.9527
9.6624 -6.8850 -2.5079 0.9527
9.7993 -6.6896 -2.5080 0.9526
9.9321 -6.4916 -2.5081 0.9526
10.1857 -6.0876 -2.5083 0.9526
10.5351 -5.4632 -2.5085 0.9526
10.7468 -5.0356 -2.5087 0.9526
10.8461 -4.8188 -2.5087 0.9526
11.1993 -3.9325 -2.5090 0.9526
11.2763 -3.7067 -2.5091 0.9526
11.3488 -3.4793 -2.5091 0.9526
11.5384 -2.7892 -2.5092 0.9526
11.6416 -2.3233 -2.5093 0.9526
11.7609 -1.6175 -2.5094 0.9526
11.7911 -1.3808 -2.5094 0.9526
11.8373 -0.9058 -2.5095 0.9526
11.8642 -0.4293 -2.5095 0.9526
11.8705 -0.1908 -2.5095 0.9526
11.8686 0.2865 -2.5095 0.9526
11.8604 0.5250 -2.5095 0.9526
11.8071 1.2388 -2.5095 0.9526
11.7107 1.9481 -2.5094 0.9526
11.6691 2.1831 -2.5094 0.9526
11.6227 2.4171 -2.5094 0.9526
11.5716 2.6502 -2.5093 0.9526
11.5159 2.8822 -2.5093 0.9526
11.4555 3.1131 -2.5093 0.9526
11.2464 3.7976 -2.5091 0.9526
11.1676 4.0228 -2.5091 0.9526
11.0843 4.2463 -2.5090 0.9526
10.9041 4.6882 -2.5089 0.9526
10.8074 4.9063 -2.5089 0.9526
10.6009 5.3364 -2.5087 0.9526
10.4912 5.5483 -2.5087 0.9526
10.1369 6.1699 -2.5084 0.9526
10.0105 6.3722 -2.5083 0.9526
9.4650 7.1546 -2.5080 0.9526
9.3156 7.3405 -2.5070 0.9527
8.9909 7.6900 -2.5008 0.9528
8.6919 7.7422 -2.4605 0.9535
8.3568 7.7505 -2.4092 0.9545
7.8560 7.8965 -2.3545 0.9555
7.6953 8.0525 -2.3544 0.9555
7.5316 8.2051 -2.3543 0.9555
7.3648 8.3545 -2.3542 0.9555
7.0224 8.6429 -2.3540 0.9555
6.8469 8.7819 -2.3538 0.9555
6.6686 8.9172 -2.3537 0.9555
6.4877 9.0490 -2.3536 0.9555
6.3042 9.1771 -2.3535 0.9555
6.1182 9.3015 -2.3533 0.9555
5.3502 9.7607 -2.3528 0.9555
5.1526 9.8657 -2.3527 0.9555
4.9530 9.9667 -2.3526 0.9555
4.5479 10.1566 -2.3523 0.9555
4.3426 10.2453 -2.3522 0.9555
4.1355 10.3299 -2.3520 0.9555
3.9268 10.4104 -2.3519 0.9555
3.2917 10.6261 -2.3515 0.9555
1.7681 10.9780 -2.3504 0.9556
1.5470 11.0106 -2.3503 0.9556
1.1031 11.0625 -2.3500 0.9556
0.6575 11.0964 -2.3497 0.9556
-0.2358 11.1105 -2.3491 0.9556
-0.4590 11.1028 -2.3489 0.9556
-0.6821 11.0906 -2.3488 0.9556
-1.3490 11.0273 -2.3483 0.9556
-1.7908 10.9627 -2.3480 0.9556
-2.6649 10.7808 -2.3474 0.9556
-2.8808 10.7243 -2.3473 0.9556
-3.7320 10.4557 -2.3467 0.9556
-4.1487 10.2960 -2.3464 0.9556
-4.3545 10.2100 -2.3463 0.9556
-4.7608 10.0255 -2.3460 0.9556
-4.9610 9.9272 -2.3459 0.9556
-5.1593 9.8249 -2.3457 0.9556
-5.3554 9.7187 -2.3456 0.9556
-5.5494 9.6085 -2.3455 0.9556
-5.7410 9.4945 -2.3453 0.9557
-6.3018 9.1298 -2.3449 0.9557
-6.4837 9.0008 -2.3448 0.9557
-6.6629 8.8682 -2.3447 0.9557
-7.1842 8.4492 -2.3443 0.9557
-7.3522 8.3027 -2.3442 0.9557
-7.5172 8.1528 -2.3441 0.9557
-8.0149 7.7042 -2.3500 0.9556
-8.3323 7.6932 -2.3972 0.9547
-9.2847 7.2825 -2.4943 0.9529
-9.4326 7.0970 -2.4952 0.9529
-9.7094 6.7116 -2.4950 0.9529
-9.8420 6.5149 -2.4949 0.9529
-9.9706 6.3155 -2.4948 0.9529
-10.0952 6.1136 -2.4947 0.9529
-10.3321 5.7026 -2.4946 0.9529
-10.4443 5.4936 -2.4945 0.9529
-10.8505 4.6364 -2.4942 0.9529
-10.9412 4.4173 -2.4941 0.9529
-11.0275 4.1964 -2.4941 0.9529
-11.1868 3.7496 -2.4940 0.9529
-11.3917 3.0684 -2.4938 0.9529
-11.4509 2.8388 -2.4938 0.9529
-11.5055 2.6080 -2.4937 0.9529
-11.5554 2.3762 -2.4937 0.9529
-11.6006 2.1434 -2.4936 0.9529
-11.6412 1.9098 -2.4936 0.9529
-11.6771 1.6754 -2.4936 0.9529
-11.7083 1.4403 -2.4936 0.9529
-11.7736 0.7321 -2.4935 0.9529
-11.7934 0.2583 -2.4935 0.9529
-11.7942 -0.2159 -2.4935 0.9529
-11.7875 -0.4529 -2.4935 0.9529
-11.7760 -0.6898 -2.4935 0.9529
-11.7598 -0.9263 -2.4935 0.9529
-11.7389 -1.1625 -2.4935 0.9529
-11.7132 -1.3982 -2.4935 0.9529
-11.6828 -1.6334 -2.4935 0.9529
-11.6478 -1.8679 -2.4936 0.9529
-11.6080 -2.1017 -2.4936 0.9529
-11.5635 -2.3346 -2.4936 0.9529
-11.4022 -3.0273 -2.4937 0.9529
-11.2717 -3.4833 -2.4938 0.9529
-11.1996 -3.7092 -2.4938 0.9529
-11.0419 -4.1565 -2.4939 0.9529
-10.9564 -4.3777 -2.4940 0.9529
-10.6734 -5.0304 -2.4942 0.9529
-10.4632 -5.4556 -2.4943 0.9529
-9.7327 -6.6761 -2.4948 0.9529
-9.5969 -6.8707 -2.4949 0.9529
-8.8608 -7.8004 -2.4954 0.9529
-8.5408 -8.1509 -2.4956 0.9529
-8.3756 -8.3213 -2.4957 0.9529
-8.2071 -8.4884 -2.4958 0.9529
-8.0352 -8.6520 -2.4959 0.9529
-7.8600 -8.8122 -2.4960 0.9529
-7.6817 -8.9688 -2.4961 0.9529
-7.3157 -9.2712 -2.4964 0.9529
-6.9379 -9.5587 -2.4966 0.9529
-6.3502 -9.9610 -2.4970 0.9529
-5.7393 -10.3273 -2.4974 0.9528
-5.5308 -10.4412 -2.4976 0.9528
-5.3201 -10.5508 -2.4977 0.9528
-4.8924 -10.7573 -2.4980 0.9528
-4.6754 -10.8541 -2.4981 0.9528
-4.4566 -10.9466 -2.4983 0.9528
-4.0135 -11.1182 -2.4986 0.9528
-3.5638 -11.2718 -2.4989 0.9528
-3.1083 -11.4074 -2.4992 0.9528
-2.1826 -11.6231 -2.4998 0.9528
-1.9487 -11.6653 -2.5000 0.9528
7.4299 -7.6503 -2.5064 0.9571
7.5825 -7.4997 -2.5065 0.9571
7.7320 -7.3461 -2.5066 0.9571
8.1617 -6.8676 -2.5069 0.9571
8.2984 -6.7024 -2.5070 0.9571
8.4317 -6.5345 -2.5071 0.9571
8.8111 -6.0151 -2.5074 0.9571
9.2670 -5.2886 -2.5077 0.9571
9.5697 -4.7209 -2.5079 0.9571
9.6629 -4.5278 -2.5079 0.9571
9.7522 -4.3327 -2.5080 0.9571
9.8375 -4.1359 -2.5081 0.9571
9.9963 -3.7374 -2.5082 0.9571
10.0696 -3.5358 -2.5082 0.9571
10.1388 -3.3327 -2.5083 0.9571
10.2649 -2.9227 -2.5084 0.9571
10.3218 -2.7158 -2.5084 0.9571
10.3744 -2.5078 -2.5085 0.9571
10.4229 -2.2988 -2.5085 0.9571
10.4671 -2.0889 -2.5085 0.9571
10.5071 -1.8781 -2.5086 0.9571
10.5744 -1.4543 -2.5086 0.9571
10.6244 -1.0282 -2.5087 0.9571
10.6672 -0.3860 -2.5087 0.9571
10.6742 0.0430 -2.5087 0.9571
10.6712 0.2576 -2.5087 0.9571
10.6638 0.4720 -2.5087 0.9571
10.5913 1.3270 -2.5087 0.9571
10.5624 1.5396 -2.5086 0.9571
10.4502 2.1733 -2.5086 0.9571
10.4042 2.3829 -2.5086 0.9571
10.3541 2.5915 -2.5085 0.9571
10.2998 2.7990 -2.5085 0.9571
10.2413 3.0054 -2.5084 0.9571
10.0411 3.6170 -2.5083 0.9571
9.9661 3.8180 -2.5083 0.9571
9.8872 4.0175 -2.5082 0.9571
9.8042 4.2153 -2.5082 0.9571
9.4331 4.9887 -2.5079 0.9571
9.3307 5.1771 -2.5079 0.9571
9.2245 5.3635 -2.5078 0.9571
8.7628 6.0863 -2.5075 0.9571
8.6385 6.2610 -2.5074 0.9571
8.5106 6.4331 -2.5073 0.9571
8.3793 6.6027 -2.5072 0.9571
7.5087 7.5475 -2.5022 0.9572
7.3481 7.6892 -2.4996 0.9572
7.1002 7.7352 -2.4677 0.9578
6.8248 7.7420 -2.4256 0.9585
6.1568 7.8968 -2.3534 0.9597
5.6689 8.2524 -2.3530 0.9597
5.3322 8.4727 -2.3528 0.9597
4.8112 8.7774 -2.3525 0.9597
4.6335 8.8718 -2.3523 0.9597
4.4540 8.9627 -2.3522 0.9597
4.2728 9.0500 -2.3521 0.9597
3.5314 9.3620 -2.3516 0.9597
2.9602 9.5562 -2.3512 0.9597
1.9859 9.8022 -2.3506 0.9597
1.3913 9.9024 -2.3502 0.9597
0.9921 9.9492 -2.3499 0.9597
-0.2121 9.9928 -2.3491 0.9598
-0.4129 9.9860 -2.3489 0.9598
-0.8138 9.9602 -2.3487 0.9598
-1.0137 9.9412 -2.3485 0.9598
-1.4123 9.8913 -2.3483 0.9598
-2.2017 9.7437 -2.3477 0.9598
-2.3970 9.6969 -2.3476 0.9598
-2.7845 9.5917 -2.3473 0.9598
-3.3569 9.4048 -2.3469 0.9598
-3.7317 9.2613 -2.3467 0.9598
-4.1005 9.1029 -2.3464 0.9598
-4.2824 9.0181 -2.3463 0.9598
-5.1643 8.5407 -2.3457 0.9598
-5.3347 8.4348 -2.3456 0.9598
-5.9938 7.9775 -2.3451 0.9598
-6.1526 7.8551 -2.3450 0.9598
-6.3090 7.7295 -2.3449 0.9598
-6.5500 7.7034 -2.3765 0.9593
-6.8142 7.6952 -2.4157 0.9586
-7.3358 7.6420 -2.4896 0.9574
-7.4948 7.4999 -2.4919 0.9574
-7.9468 7.0467 -2.4962 0.9573
-8.0865 6.8852 -2.4961 0.9573
-8.3561 6.5542 -2.4959 0.9573
-8.4858 6.3847 -2.4958 0.9573
-8.9700 5.6817 -2.4955 0.9573
-9.0821 5.5001 -2.4954 0.9573
-9.2952 5.1303 -2.4953 0.9573
-9.4934 4.7523 -2.4951 0.9573
-9.5867 4.5604 -2.4950 0.9573
-9.6762 4.3667 -2.4950 0.9573
-9.7618 4.1712 -2.4949 0.9573
-9.8434 3.9741 -2.4949 0.9573
-9.9211 3.7754 -2.4948 0.9573
-9.9948 3.5751 -2.4948 0.9573
-10.1915 2.9661 -2.4946 0.9573
-10.5057 1.5073 -2.4944 0.9573
-10.5338 1.2959 -2.4944 0.9573
-10.5577 1.0839 -2.4943 0.9573
-10.5773 0.8714 -2.4943 0.9573
-10.5948 -0.6206 -2.4943 0.9573
-10.5382 -1.2580 -2.4943 0.9573
-10.2584 -2.7236 -2.4945 0.9573
-10.0761 -3.3371 -2.4946 0.9573
-10.0071 -3.5390 -2.4946 0.9573
-9.9341 -3.7395 -2.4947 0.9573
-9.7762 -4.1359 -2.4948 0.9573
-9.6913 -4.3317 -2.4948 0.9573
-9.4133 -4.9082 -2.4950 0.9573
-9.2089 -5.2829 -2.4952 0.9573
-9.1012 -5.4670 -2.4952 0.9573
-8.9897 -5.6490 -2.4953 0.9573
-8.8746 -5.8288 -2.4954 0.9573
-8.5080 -6.3536 -2.4956 0.9573
-8.1105 -6.8555 -2.4959 0.9573
-7.6835 -7.3327 -2.4962 0.9573
-7.2285 -7.7834 -2.4965 0.9573
-7.0708 -7.9274 -2.4966 0.9573
-6.9104 -8.0683 -2.4967 0.9573
-6.7471 -8.2059 -2.4968 0.9573
-6.5811 -8.3402 -2.4969 0.9573
-6.2411 -8.5988 -2.4971 0.9573
-5.8910 -8.8435 -2.4974 0.9573
-4.7857 -9.4908 -2.4981 0.9573
-4.5942 -9.5856 -2.4982 0.9573
-4.4008 -9.6765 -2.4984 0.9573
-4.2056 -9.7635 -2.4985 0.9573
-4.0088 -9.8466 -2.4986 0.9573
-3.8102 -9.9257 -2.4987 0.9573
-3.0014 -10.2019 -2.4993 0.9572
-2.1728 -10.4123 -2.4999 0.9572
-1.9632 -10.4545 -2.5000 0.9572
-1.7527 -10.4924 -2.5001 0.9572
6.7430 -6.9430 -2.5059 0.9608
6.8815 -6.8063 -2.5060 0.9608
7.1500 -6.5247 -2.5062 0.9608
7.2799 -6.3799 -2.5063 0.9608
7.5310 -6.0826 -2.5065 0.9608
7.6520 -5.9302 -2.5066 0.9608
7.7699 -5.7754 -2.5066 0.9608
7.8847 -5.6182 -2.5067 0.9608
7.9962 -5.4588 -2.5068 0.9608
8.4098 -4.7995 -2.5071 0.9608
8.8500 -3.9319 -2.5074 0.9608
8.9275 -3.7533 -2.5075 0.9608
9.0013 -3.5732 -2.5075 0.9608
9.0715 -3.3916 -2.5076 0.9608
9.1380 -3.2087 -2.5076 0.9608
9.2008 -3.0244 -2.5077 0.9608
9.2599 -2.8389 -2.5077 0.9608
9.3152 -2.6523 -2.5077 0.9608
9.4586 -2.0861 -2.5078 0.9608
9.4987 -1.8956 -2.5079 0.9608
9.5350 -1.7043 -2.5079 0.9608
9.5959 -1.3198 -2.5079 0.9608
9.6414 -0.9330 -2.5080 0.9608
9.6582 -0.7391 -2.5080 0.9608
9.6853 -0.1557 -2.5080 0.9608
9.6838 0.2338 -2.5080 0.9608
9.6771 0.4283 -2.5080 0.9608
9.6665 0.6228 -2.5080 0.9608
9.6520 0.8169 -2.5080 0.9608
9.6113 1.2042 -2.5080 0.9608
9.5550 1.5895 -2.5080 0.9608
9.5211 1.7812 -2.5079 0.9608
9.3961 2.3517 -2.5079 0.9608
9.3468 2.5400 -2.5078 0.9608
9.2370 2.9136 -2.5078 0.9608
9.1764 3.0986 -2.5077 0.9608
9.0441 3.4648 -2.5076 0.9608
8.9725 3.6458 -2.5076 0.9608
8.8184 4.0033 -2.5075 0.9608
8.7359 4.1797 -2.5074 0.9608
8.4676 4.6982 -2.5073 0.9608
8.3712 4.8674 -2.5072 0.9608
8.2715 5.0346 -2.5071 0.9608
7.4821 6.1435 -2.5066 0.9608
7.2287 6.4388 -2.5065 0.9608
7.0976 6.5826 -2.5064 0.9608
6.9636 6.7237 -2.5063 0.9608
6.8268 6.8620 -2.5062 0.9608
6.6872 6.9976 -2.5061 0.9608
6.5450 7.1303 -2.5060 0.9608
6.2482 7.3818 -2.5040 0.9608
5.9366 7.6143 -2.4999 0.9609
5.7770 7.7249 -2.4976 0.9609
5.5424 7.7305 -2.4628 0.9615
4.8523 7.7102 -2.3587 0.9631
4.5260 7.8773 -2.3522 0.9632
4.2054 8.0521 -2.3520 0.9632
3.8780 8.2138 -2.3518 0.9632
3.5444 8.3622 -2.3516 0.9632
3.3754 8.4314 -2.3515 0.9632
3.0336 8.5594 -2.3512 0.9632
2.8608 8.6182 -2.3511 0.9632
2.5118 8.7254 -2.3509 0.9632
1.9811 8.8595 -2.3505 0.9632
1.4433 8.9614 -2.3502 0.9632
0.9005 9.0307 -2.3498 0.9632
0.7188 9.0465 -2.3497 0.9632
0.5368 9.0587 -2.3496 0.9632
0.3546 9.0671 -2.3494 0.9632
0.1722 9.0720 -2.3493 0.9632
-0.0101 9.0731 -2.3492 0.9632
-0.7387 9.0411 -2.3487 0.9632
-1.1014 9.0032 -2.3485 0.9632
-1.6417 8.9190 -2.3481 0.9632
-1.8205 8.8838 -2.3480 0.9632
-1.9986 8.8449 -2.3478 0.9632
-2.1759 8.8025 -2.3477 0.9632
-2.3522 8.7566 -2.3476 0.9632
-2.5276 8.7071 -2.3475 0.9632
-2.7020 8.6541 -2.3474 0.9632
-3.0473 8.5376 -2.3471 0.9632
-3.2182 8.4742 -2.3470 0.9632
-3.3877 8.4074 -2.3469 0.9632
-3.5558 8.3372 -2.3468 0.9632
-3.7225 8.2637 -2.3467 0.9632
-3.8876 8.1868 -2.3466 0.9632
-4.0512 8.1066 -2.3464 0.9632
-4.2131 8.0232 -2.3463 0.9632
-4.5371 7.8558 -2.3489 0.9632
-4.6891 7.7549 -2.3464 0.9632
-4.8787 7.7139 -2.3632 0.9630
-5.0937 7.7064 -2.3918 0.9626
-5.3144 7.6993 -2.4223 0.9621
-5.9343 7.5764 -2.4918 0.9610
-6.0899 7.4611 -2.4936 0.9610
-6.2434 7.3427 -2.4955 0.9610
-6.6786 6.9574 -2.4970 0.9609
-6.8169 6.8215 -2.4970 0.9609
-7.3417 6.2510 -2.4966 0.9609
-7.5865 5.9505 -2.4964 0.9609
-7.8190 5.6405 -2.4963 0.9609
-7.9305 5.4820 -2.4962 0.9609
-8.0389 5.3213 -2.4961 0.9609
-8.1440 5.1585 -2.4960 0.9610
-8.3443 4.8268 -2.4959 0.9610
-8.4394 4.6579 -2.4958 0.9610
-8.5310 4.4872 -2.4958 0.9610
-8.7853 3.9647 -2.4956 0.9610
-8.9372 3.6082 -2.4955 0.9610
-9.2533 2.6930 -2.4952 0.9610
-9.3538 2.3189 -2.4952 0.9610
-9.4762 1.7509 -2.4951 0.9610
-9.5387 1.3686 -2.4950 0.9610
-9.6276 0.4046 -2.4950 0.9610
-9.6338 0.2110 -2.4950 0.9610
-9.6360 0.0173 -2.4949 0.9610
-9.6344 -0.1764 -2.4949 0.9610
-9.6289 -0.3700 -2.4949 0.9610
-9.6063 -0.7567 -2.4950 0.9610
-9.5892 -0.9496 -2.4950 0.9610
-9.5682 -1.1422 -2.4950 0.9610
-9.4822 -1.7168 -2.4950 0.9610
-9.4459 -1.9070 -2.4950 0.9610
-9.3618 -2.2852 -2.4951 0.9610
-9.3141 -2.4729 -2.4951 0.9610
-9.2074 -2.8454 -2.4952 0.9610
-8.8762 -3.7551 -2.4954 0.9610
-8.5466 -4.4563 -2.4956 0.9610
-8.3610 -4.7964 -2.4957 0.9610
-8.1619 -5.1289 -2.4959 0.9610
-7.8386 -5.6119 -2.4961 0.9609
-7.7245 -5.7685 -2.4962 0.9609
-7.6072 -5.9228 -2.4962 0.9609
-7.3635 -6.2241 -2.4964 0.9609
-7.1079 -6.5155 -2.4966 0.9609
-6.9757 -6.6573 -2.4967 0.9609
-6.8408 -6.7964 -2.4967 0.9609
-6.7030 -6.9328 -2.4968 0.9609
-6.4195 -7.1971 -2.4970 0.9609
-6.1255 -7.4499 -2.4972 0.9609
-5.6661 -7.8065 -2.4975 0.9609
-5.5082 -7.9191 -2.4976 0.9609
-5.3482 -8.0286 -2.4977 0.9609
-5.0216 -8.2378 -2.4980 0.9609
-4.8553 -8.3374 -2.4981 0.9609
-4.3445 -8.6160 -2.4984 0.9609
-4.1707 -8.7020 -2.4985 0.9609
-3.8179 -8.8634 -2.4988 0.9609
-2.5380 -9.3145 -2.4996 0.9609
-2.3504 -9.3641 -2.4997 0.9609
-2.1618 -9.4099 -2.4999 0.9609
-1.9724 -9.4520 -2.5000 0.9609
-1.5911 -9.5246 -2.5003 0.9609
5.9056 -6.5913 -2.5054 0.9639
6.1662 -6.3491 -2.5056 0.9639
6.6572 -5.8341 -2.5059 0.9639
6.8867 -5.5622 -2.5061 0.9639
7.1051 -5.2813 -2.5062 0.9639
7.6002 -4.5423 -2.5066 0.9639
7.7770 -4.2334 -2.5067 0.9639
7.9413 -3.9176 -2.5068 0.9639
8.0186 -3.7573 -2.5068 0.9639
8.1634 -3.4321 -2.5069 0.9639
8.2309 -3.2674 -2.5070 0.9639
8.4133 -2.7655 -2.5071 0.9639
8.6088 -2.0810 -2.5073 0.9639
8.6489 -1.9076 -2.5073 0.9639
8.6856 -1.7334 -2.5073 0.9638
8.7188 -1.5585 -2.5074 0.9638
8.7484 -1.3829 -2.5074 0.9638
8.7745 -1.2068 -2.5074 0.9638
8.7971 -1.0302 -2.5074 0.9638
8.8548 0.2137 -2.5075 0.9638
8.8391 0.5694 -2.5075 0.9638
8.8258 0.7470 -2.5075 0.9638
8.7061 1.6287 -2.5074 0.9638
8.6715 1.8034 -2.5074 0.9638
8.5919 2.1504 -2.5073 0.9638
8.4463 2.6642 -2.5072 0.9639
8.3322 3.0014 -2.5072 0.9639
8.0637 3.6607 -2.5070 0.9639
7.5637 4.6037 -2.5067 0.9639
7.4694 4.7547 -2.5066 0.9639
7.3722 4.9037 -2.5065 0.9639
7.1687 5.1958 -2.5064 0.9639
7.0627 5.3387 -2.5063 0.9639
6.9537 5.4794 -2.5063 0.9639
6.6103 5.8880 -2.5060 0.9639
6.4904 6.0194 -2.5060 0.9639
6.2428 6.2750 -2.5058 0.9639
6.1152 6.3990 -2.5057 0.9639
5.9851 6.5204 -2.5056 0.9639
5.8527 6.6392 -2.5055 0.9639
5.7178 6.7552 -2.5054 0.9639
5.4413 6.9791 -2.5053 0.9639
5.2345 6.9995 -2.4743 0.9643
5.0294 7.0150 -2.4436 0.9648
4.8290 7.0297 -2.4144 0.9652
4.2946 7.1384 -2.3583 0.9660
4.1054 7.4898 -2.4179 0.9651
3.7869 7.6202 -2.4089 0.9652
3.2652 7.7035 -2.3686 0.9658
3.0990 7.7408 -2.3604 0.9659
2.7743 7.8278 -2.3511 0.9661
2.4572 7.9323 -2.3508 0.9661
1.6485 8.1369 -2.3503 0.9661
1.4846 8.1680 -2.3502 0.9661
1.1550 8.2203 -2.3500 0.9661
0.6574 8.2738 -2.3496 0.9661
0.1575 8.2972 -2.3493 0.9661
-0.0093 8.2983 -2.3492 0.9661
-0.1761 8.2960 -2.3491 0.9661
-0.5093 8.2814 -2.3488 0.9661
-0.8416 8.2535 -2.3486 0.9661
-1.0073 8.2345 -2.3485 0.9661
-1.1726 8.2122 -2.3484 0.9661
-1.3373 8.1866 -2.3483 0.9661
-1.6651 8.1254 -2.3481 0.9661
-1.8280 8.0900 -2.3479 0.9661
-1.9902 8.0512 -2.3478 0.9661
-2.1515 8.0092 -2.3477 0.9661
-2.6299 7.8639 -2.3474 0.9661
-2.7873 7.8091 -2.3473 0.9661
-3.1105 7.7194 -2.3561 0.9660
-3.2611 7.6462 -2.3532 0.9660
-3.4140 7.5788 -2.3531 0.9660
-3.5655 7.5083 -2.3530 0.9660
-3.7155 7.4348 -2.3529 0.9660
-3.8640 7.3583 -2.3528 0.9660
-4.0110 7.2788 -2.3527 0.9660
-4.1563 7.1965 -2.3526 0.9660
-4.5575 7.5371 -2.4935 0.9640
-4.7107 7.4482 -2.4948 0.9640
-5.0121 7.2614 -2.4978 0.9640
-5.1577 7.1600 -2.4981 0.9640
-5.4408 6.9464 -2.4979 0.9640
-5.5792 6.8354 -2.4978 0.9640
-5.7152 6.7216 -2.4977 0.9640
-5.8489 6.6051 -2.4976 0.9640
-5.9803 6.4860 -2.4975 0.9640
-6.1092 6.3642 -2.4974 0.9640
-6.2357 6.2399 -2.4973 0.9640
-6.3597 6.1131 -2.4973 0.9640
-6.4810 5.9839 -2.4972 0.9640
-6.7159 5.7182 -2.4970 0.9640
-6.8292 5.5819 -2.4969 0.9640
-7.0476 5.3026 -2.4968 0.9640
-7.1526 5.1597 -2.4967 0.9640
-7.2546 5.0147 -2.4966 0.9640
-7.3537 4.8678 -2.4966 0.9640
-7.4499 4.7189 -2.4965 0.9640
-7.5430 4.5680 -2.4964 0.9640
-7.8040 4.1048 -2.4962 0.9640
-7.8848 3.9471 -2.4962 0.9640
-7.9624 3.7877 -2.4961 0.9640
-8.0367 3.6268 -2.4961 0.9640
-8.1757 3.3008 -2.4960 0.9640
-8.2402 3.1357 -2.4959 0.9640
-8.3014 2.9694 -2.4959 0.9640
-8.4649 2.4636 -2.4958 0.9640
-8.5126 2.2929 -2.4957 0.9640
-8.5976 1.9489 -2.4957 0.9640
-8.7494 1.0763 -2.4956 0.9640
-8.7855 0.7238 -2.4955 0.9640
-8.8074 0.3701 -2.4955 0.9640
-8.8137 -0.1613 -2.4955 0.9640
-8.8086 -0.3385 -2.4955 0.9640
-8.7531 -1.0449 -2.4955 0.9640
-8.6411 -1.7446 -2.4956 0.9640
-8.6044 -1.9179 -2.4956 0.9640
-8.5205 -2.2622 -2.4957 0.9640
-8.4734 -2.4331 -2.4957 0.9640
-8.4229 -2.6029 -2.4957 0.9640
-8.2511 -3.1059 -2.4958 0.9640
-8.1871 -3.2712 -2.4959 0.9640
-8.0493 -3.5978 -2.4960 0.9640
-7.9755 -3.7589 -2.4960 0.9640
-7.8985 -3.9185 -2.4961 0.9640
-7.8183 -4.0766 -2.4961 0.9640
-7.7350 -4.2330 -2.4962 0.9640
-7.4664 -4.6918 -2.4963 0.9640
-7.0661 -5.2769 -2.4966 0.9640
-6.6203 -5.8280 -2.4969 0.9640
-6.5020 -5.9601 -2.4970 0.9640
-6.2576 -6.2170 -2.4971 0.9640
-6.1316 -6.3417 -2.4972 0.9640
-6.0031 -6.4639 -2.4973 0.9640
-5.8721 -6.5835 -2.4974 0.9640
-5.7388 -6.7004 -2.4975 0.9640
-5.6032 -6.8147 -2.4976 0.9640
-5.0385 -7.2438 -2.4980 0.9640
-4.8921 -7.3439 -2.4981 0.9640
-4.7437 -7.4410 -2.4982 0.9640
-4.5934 -7.5352 -2.4983 0.9640
-4.1314 -7.7993 -2.4986 0.9640
-3.8149 -7.9597 -2.4988 0.9640
-3.6543 -8.0351 -2.4989 0.9640
-3.4922 -8.1073 -2.4990 0.9640
-3.3287 -8.1762 -2.4991 0.9640
-3.1638 -8.2418 -2.4992 0.9640
-2.8303 -8.3631 -2.4994 0.9640
-2.4921 -8.4708 -2.4997 0.9640
-2.3214 -8.5196 -2.4998 0.9640
-2.1498 -8.5649 -2.4999 0.9640
-1.9773 -8.6068 -2.5000 0.9640
-1.8040 -8.6452 -2.5001 0.9640
-1.4552 -8.7116 -2.5004 0.9639
5.5558 -5.9556 -2.5051 0.9665
6.0170 -5.4908 -2.5055 0.9665
6.1263 -5.3689 -2.5055 0.9665
6.3375 -5.1187 -2.5057 0.9665
6.4393 -4.9904 -2.5058 0.9665
6.8201 -4.4576 -2.5060 0.9665
6.9085 -4.3197 -2.5061 0.9665
7.0768 -4.0387 -2.5062 0.9665
7.1567 -3.8958 -2.5063 0.9665
7.2337 -3.7512 -2.5063 0.9665
7.3790 -3.4576 -2.5064 0.9665
7.4471 -3.3086 -2.5065 0.9665
7.5123 -3.1583 -2.5065 0.9665
7.6334 -2.8540 -2.5066 0.9665
7.6893 -2.7000 -2.5066 0.9665
7.7422 -2.5449 -2.5067 0.9665
7.8384 -2.2318 -2.5067 0.9665
7.8818 -2.0738 -2.5068 0.9665
7.9220 -1.9150 -2.5068 0.9665
7.9590 -1.7554 -2.5068 0.9665
8.0745 -1.1105 -2.5069 0.9665
8.0952 -0.9480 -2.5069 0.9665
8.1127 -0.7851 -2.5070 0.9665
8.1507 0.0329 -2.5070 0.9665
8.1484 0.1967 -2.5070 0.9665
8.1428 0.3604 -2.5070 0.9665
8.1339 0.5240 -2.5070 0.9665
8.0654 1.1756 -2.5069 0.9665
7.9797 1.6595 -2.5069 0.9665
7.9447 1.8195 -2.5069 0.9665
7.9064 1.9788 -2.5069 0.9665
7.8650 2.1373 -2.5068 0.9665
7.7216 2.6074 -2.5067 0.9665
7.6675 2.7620 -2.5067 0.9665
7.6103 2.9155 -2.5067 0.9665
7.4204 3.3687 -2.5065 0.9665
7.3511 3.5171 -2.5065 0.9665
7.2788 3.6641 -2.5065 0.9665
7.1253 3.9535 -2.5064 0.9665
6.9604 4.2365 -2.5062 0.9665
6.7842 4.5126 -2.5061 0.9665
6.6920 4.6479 -2.5061 0.9665
6.4994 4.9129 -2.5059 0.9665
6.1910 5.2952 -2.5057 0.9665
6.0832 5.4185 -2.5057 0.9665
5.9728 5.5395 -2.5056 0.9665
5.8601 5.6582 -2.5055 0.9665
5.7450 5.7747 -2.5054 0.9665
5.5080 6.0005 -2.5053 0.9665
5.2620 6.2167 -2.5051 0.9665
4.4631 6.7852 -2.4980 0.9666
4.3179 6.8610 -2.4934 0.9666
4.0329 7.0190 -2.4899 0.9667
3.8857 7.0890 -2.4865 0.9667
3.7375 7.1562 -2.4832 0.9668
3.5838 7.2115 -2.4769 0.9669
3.1194 7.3595 -2.4586 0.9671
2.8087 7.4462 -2.4478 0.9672
2.6531 7.4861 -2.4429 0.9673
2.3415 7.5586 -2.4339 0.9674
2.1833 7.5842 -2.4275 0.9675
2.0236 7.6011 -2.4194 0.9676
1.8647 7.6166 -2.4119 0.9677
1.5486 7.6438 -2.3988 0.9679
1.3914 7.6555 -2.3932 0.9680
0.3012 7.7026 -2.3710 0.9683
0.1463 7.7044 -2.3701 0.9683
-0.0086 7.7051 -2.3699 0.9683
-0.1635 7.7046 -2.3703 0.9683
-0.7842 7.6903 -2.3776 0.9682
-0.9399 7.6837 -2.3810 0.9681
-1.0960 7.6759 -2.3849 0.9681
-1.2524 7.6668 -2.3894 0.9680
-1.4093 7.6565 -2.3945 0.9679
-1.7246 7.6321 -2.4066 0.9678
-1.8831 7.6180 -2.4136 0.9677
-2.0422 7.6025 -2.4213 0.9676
-2.3577 7.5512 -2.4332 0.9674
-2.5134 7.5156 -2.4375 0.9674
-2.6690 7.4777 -2.4421 0.9673
-2.9796 7.3947 -2.4522 0.9672
-3.1252 7.3277 -2.4503 0.9672
-3.2170 7.1416 -2.4092 0.9678
-3.8708 7.0246 -2.4669 0.9670
-4.0505 7.0133 -2.4910 0.9667
-4.4792 6.7767 -2.4985 0.9666
-4.6143 6.6851 -2.4984 0.9666
-5.0083 6.3942 -2.4982 0.9666
-5.1356 6.2920 -2.4981 0.9666
-5.3840 6.0801 -2.4979 0.9666
-5.6236 5.8584 -2.4977 0.9666
-5.7401 5.7440 -2.4977 0.9666
-5.9659 5.5083 -2.4975 0.9666
-6.0752 5.3871 -2.4974 0.9666
-6.1821 5.2637 -2.4974 0.9666
-6.2865 5.1383 -2.4973 0.9666
-6.3883 5.0107 -2.4972 0.9666
-6.4875 4.8812 -2.4971 0.9666
-6.7694 4.4810 -2.4970 0.9666
-7.1840 3.7787 -2.4967 0.9666
-7.3298 3.4868 -2.4966 0.9666
-7.4637 3.1892 -2.4965 0.9666
-7.5261 3.0385 -2.4964 0.9666
-7.5856 2.8866 -2.4964 0.9666
-7.9147 1.7941 -2.4961 0.9666
-7.9802 1.4745 -2.4961 0.9666
-8.0082 1.3138 -2.4961 0.9666
-8.0544 0.9908 -2.4960 0.9666
-8.0726 0.8287 -2.4960 0.9666
-8.0876 0.6663 -2.4960 0.9666
-8.0993 0.5036 -2.4960 0.9666
-8.1078 0.3407 -2.4960 0.9666
-8.1130 0.1777 -2.4960 0.9666
-8.1136 -0.1485 -2.4960 0.9666
-8.1089 -0.3116 -2.4960 0.9666
-8.1011 -0.4745 -2.4960 0.9666
-8.0899 -0.6372 -2.4960 0.9666
-8.0578 -0.9619 -2.4960 0.9666
-7.9853 -1.4458 -2.4960 0.9666
-7.9547 -1.6060 -2.4961 0.9666
-7.9209 -1.7656 -2.4961 0.9666
-7.8003 -2.2398 -2.4962 0.9666
-7.6514 -2.7059 -2.4963 0.9666
-7.5956 -2.8592 -2.4963 0.9666
-7.5367 -3.0113 -2.4963 0.9666
-7.4099 -3.3119 -2.4964 0.9666
-7.3419 -3.4603 -2.4964 0.9666
-7.2710 -3.6072 -2.4965 0.9666
-7.1204 -3.8967 -2.4966 0.9666
-7.0408 -4.0391 -2.4966 0.9666
-6.9584 -4.1799 -2.4967 0.9666
-6.8731 -4.3190 -2.4968 0.9666
-6.5046 -4.8575 -2.4970 0.9666
-6.4058 -4.9874 -2.4971 0.9666
-6.3045 -5.1153 -2.4971 0.9666
-6.0941 -5.3648 -2.4973 0.9666
-5.8739 -5.6058 -2.4974 0.9666
-5.6442 -5.8377 -2.4976 0.9666
-5.4054 -6.0602 -2.4977 0.9666
-5.2827 -6.1678 -2.4978 0.9666
-5.0308 -6.3756 -2.4980 0.9666
-4.7708 -6.5731 -2.4981 0.9666
-4.5031 -6.7600 -2.4983 0.9666
-4.3665 -6.8494 -2.4984 0.9666
-4.2281 -6.9360 -2.4985 0.9666
-3.8029 -7.1791 -2.4988 0.9666
-3.6579 -7.2543 -2.4989 0.9666
-3.5115 -7.3267 -2.4990 0.9666
-3.0639 -7.5259 -2.4993 0.9666
-2.7592 -7.6436 -2.4995 0.9666
-2.6051 -7.6978 -2.4996 0.9666
-2.2938 -7.7969 -2.4998 0.9666
-1.6605 -7.9573 -2.5002 0.9666
-1.5003 -7.9895 -2.5003 0.9666
-1.3394 -8.0183 -2.5004 0.9666
5.1403 -5.5102 -2.5049 0.9687
5.2502 -5.4059 -2.5049 0.9687
5.3580 -5.2995 -2.5050 0.9687
5.5669 -5.0801 -2.5052 0.9687
5.6681 -4.9673 -2.5052 0.9687
5.8635 -4.7358 -2.5054 0.9687
6.1387 -4.3741 -2.5056 0.9687
6.3098 -4.1241 -2.5057 0.9687
6.3916 -3.9965 -2.5057 0.9687
6.4708 -3.8673 -2.5058 0.9687
6.6925 -3.4705 -2.5060 0.9687
6.7610 -3.3354 -2.5060 0.9687
6.8268 -3.1989 -2.5060 0.9687
6.9501 -2.9220 -2.5061 0.9687
7.0622 -2.6404 -2.5062 0.9687
7.1139 -2.4979 -2.5063 0.9687
7.2088 -2.2101 -2.5063 0.9687
7.2518 -2.0648 -2.5064 0.9687
7.2919 -1.9186 -2.5064 0.9687
7.3291 -1.7717 -2.5064 0.9687
7.3945 -1.4757 -2.5065 0.9687
7.4894 -0.8771 -2.5065 0.9687
7.5187 -0.5753 -2.5066 0.9687
7.5287 -0.4241 -2.5066 0.9687
7.5358 -0.2727 -2.5066 0.9687
7.5385 0.1820 -2.5066 0.9687
7.5251 0.4848 -2.5066 0.9687
7.5138 0.6359 -2.5066 0.9687
7.4821 0.9374 -2.5066 0.9687
7.3147 1.8308 -2.5065 0.9687
7.2764 1.9774 -2.5064 0.9687
7.0937 2.5553 -2.5063 0.9687
6.9265 2.9780 -2.5062 0.9687
6.8652 3.1166 -2.5062 0.9687
6.8010 3.2539 -2.5061 0.9687
6.7341 3.3899 -2.5061 0.9687
6.6645 3.5245 -2.5060 0.9687
6.5172 3.7894 -2.5059 0.9687
6.2766 4.1750 -2.5058 0.9687
6.1913 4.3002 -2.5057 0.9687
6.1035 4.4237 -2.5057 0.9687
5.9205 4.6652 -2.5055 0.9687
5.6281 5.0131 -2.5054 0.9687
5.4218 5.2350 -2.5052 0.9687
5.2067 5.4483 -2.5051 0.9687
4.8684 5.7517 -2.5049 0.9687
4.7517 5.8482 -2.5048 0.9687
4.3902 6.1234 -2.5045 0.9687
4.2661 6.2102 -2.5044 0.9687
4.0128 6.3762 -2.5043 0.9687
3.7530 6.5319 -2.5041 0.9687
3.4872 6.6770 -2.5039 0.9687
2.9285 6.9093 -2.4945 0.9689
2.6434 7.0078 -2.4896 0.9689
2.2106 7.1362 -2.4833 0.9690
1.9175 7.2023 -2.4775 0.9691
1.7699 7.2295 -2.4741 0.9691
1.6222 7.2544 -2.4710 0.9692
1.4743 7.2772 -2.4681 0.9692
1.1783 7.3161 -2.4632 0.9692
0.5854 7.3675 -2.4567 0.9693
0.2886 7.3801 -2.4551 0.9693
0.1402 7.3832 -2.4546 0.9694
-0.0083 7.3840 -2.4545 0.9694
-0.1567 7.3827 -2.4546 0.9694
-0.3051 7.3792 -2.4550 0.9693
-0.4535 7.3735 -2.4556 0.9693
-0.6018 7.3657 -2.4565 0.9693
-0.8983 7.3434 -2.4592 0.9693
-1.1945 7.3123 -2.4629 0.9693
-1.6381 7.2493 -2.4705 0.9692
-1.7857 7.2239 -2.4735 0.9691
-1.9331 7.1963 -2.4769 0.9691
-2.2248 7.1257 -2.4814 0.9690
-2.3694 7.0848 -2.4832 0.9690
-2.5133 7.0414 -2.4852 0.9690
-2.6566 6.9954 -2.4873 0.9690
-2.7991 6.9467 -2.4895 0.9689
-3.0820 6.8418 -2.4943 0.9689
-3.3600 6.7234 -2.4984 0.9688
-3.4955 6.6566 -2.4992 0.9688
-3.6285 6.5847 -2.4991 0.9688
-3.7599 6.5102 -2.4990 0.9688
-3.8899 6.4331 -2.4989 0.9688
-4.0183 6.3534 -2.4988 0.9688
-4.1450 6.2711 -2.4988 0.9688
-4.2701 6.1863 -2.4987 0.9688
-4.3934 6.0990 -2.4986 0.9688
-4.6347 5.9171 -2.4984 0.9688
-4.7525 5.8226 -2.4983 0.9688
-4.8684 5.7257 -2.4983 0.9688
-4.9824 5.6265 -2.4982 0.9688
-5.0943 5.5251 -2.4981 0.9688
-5.3119 5.3156 -2.4980 0.9688
-5.5210 5.0975 -2.4978 0.9688
-5.6222 4.9853 -2.4977 0.9688
-6.1802 4.2720 -2.4973 0.9688
-6.5769 3.6300 -2.4971 0.9688
-6.7172 3.3626 -2.4970 0.9688
-6.7833 3.2268 -2.4969 0.9688
-6.8467 3.0898 -2.4969 0.9688
-7.0201 2.6714 -2.4968 0.9688
-7.0722 2.5297 -2.4967 0.9688
-7.1680 2.2434 -2.4966 0.9688
-7.2116 2.0988 -2.4966 0.9688
-7.2522 1.9534 -2.4966 0.9688
-7.3565 1.5128 -2.4965 0.9688
-7.3854 1.3646 -2.4965 0.9688
-7.4112 1.2158 -2.4965 0.9688
-7.4341 1.0666 -2.4965 0.9688
-7.4848 0.6166 -2.4964 0.9688
-7.5035 0.3153 -2.4964 0.9688
-7.5083 0.1645 -2.4964 0.9688
-7.5101 0.0135 -2.4964 0.9688
-7.5088 -0.1375 -2.4964 0.9688
-7.4972 -0.4391 -2.4964 0.9688
-7.4869 -0.5897 -2.4964 0.9688
-7.4736 -0.7401 -2.4964 0.9688
-7.4378 -1.0399 -2.4964 0.9688
-7.4155 -1.1892 -2.4964 0.9688
-7.3901 -1.3380 -2.4964 0.9688
-7.3618 -1.4863 -2.4965 0.9688
-7.2590 -1.9273 -2.4965 0.9688
-7.1758 -2.2175 -2.4966 0.9688
-7.1299 -2.3613 -2.4966 0.9688
-7.0811 -2.5042 -2.4966 0.9688
-6.9176 -2.9265 -2.4967 0.9688
-6.8574 -3.0650 -2.4968 0.9688
-6.7946 -3.2023 -2.4968 0.9688
-6.7289 -3.3383 -2.4969 0.9688
-6.5896 -3.6062 -2.4970 0.9688
-6.5159 -3.7379 -2.4970 0.9688
-6.3606 -3.9970 -2.4971 0.9688
-6.1951 -4.2496 -2.4972 0.9688
-6.1086 -4.3733 -2.4973 0.9688
-5.9282 -4.6155 -2.4974 0.9688
-5.7382 -4.8503 -2.4975 0.9688
-5.4359 -5.1877 -2.4977 0.9688
-5.3307 -5.2961 -2.4978 0.9688
-5.1138 -5.5063 -2.4979 0.9688
-5.0022 -5.6082 -2.4980 0.9688
-4.6556 -5.9000 -2.4982 0.9688
-4.1672 -6.2557 -2.4986 0.9688
-3.6518 -6.5711 -2.4989 0.9688
-3.5191 -6.6434 -2.4990 0.9688
-3.1127 -6.8442 -2.4993 0.9688
-2.8353 -6.9642 -2.4995 0.9688
-2.6948 -7.0201 -2.4995 0.9688
-2.5533 -7.0731 -2.4996 0.9688
-2.2671 -7.1706 -2.4998 0.9688
-1.5365 -7.3633 -2.5003 0.9688
-1.2394 -7.4197 -2.5005 0.9688
4.7776 -5.1214 -2.5046 0.9707
4.8797 -5.0245 -2.5047 0.9707
5.0780 -4.8245 -2.5048 0.9707
5.1741 -4.7216 -2.5049 0.9707
5.2681 -4.6168 -2.5050 0.9707
5.3599 -4.5101 -2.5050 0.9707
5.5372 -4.2912 -2.5052 0.9707
5.6224 -4.1792 -2.5052 0.9707
5.7861 -3.9500 -2.5053 0.9707
6.0140 -3.5943 -2.5055 0.9707
6.0852 -3.4728 -2.5055 0.9707
6.1539 -3.3499 -2.5056 0.9707
6.2838 -3.0999 -2.5057 0.9707
6.3449 -2.9730 -2.5057 0.9707
6.4595 -2.7157 -2.5058 0.9707
6.5129 -2.5854 -2.5058 0.9707
6.5636 -2.4540 -2.5059 0.9707
6.6571 -2.1883 -2.5059 0.9707
6.7398 -1.9190 -2.5060 0.9707
6.7771 -1.7831 -2.5060 0.9707
6.8117 -1.6466 -2.5061 0.9707
6.8434 -1.5093 -2.5061 0.9707
6.9221 -1.0942 -2.5061 0.9707
6.9878 -0.5347 -2.5062 0.9707
6.9972 -0.3942 -2.5062 0.9707
7.0037 -0.2534 -2.5062 0.9707
7.0074 -0.1126 -2.5062 0.9707
7.0082 0.0283 -2.5062 0.9707
7.0063 0.1691 -2.5062 0.9707
6.9833 0.5911 -2.5062 0.9707
6.9539 0.8712 -2.5062 0.9707
6.9132 1.1500 -2.5062 0.9707
6.8886 1.2887 -2.5062 0.9707
6.6832 2.1080 -2.5060 0.9707
6.6394 2.2419 -2.5060 0.9707
6.5438 2.5069 -2.5059 0.9707
6.3209 3.0242 -2.5058 0.9707
5.9850 3.6428 -2.5056 0.9707
5.8336 3.8803 -2.5055 0.9707
5.7543 3.9967 -2.5054 0.9707
5.6727 4.1114 -2.5054 0.9707
5.5888 4.2245 -2.5053 0.9707
5.0392 4.8655 -2.5050 0.9707
4.8393 5.0639 -2.5048 0.9707
4.6316 5.2540 -2.5047 0.9707
4.5249 5.3459 -2.5046 0.9707
4.4164 5.4356 -2.5045 0.9707
4.3062 5.5231 -2.5045 0.9707
4.1941 5.6084 -2.5044 0.9707
3.6097 6.0000 -2.5040 0.9707
3.4883 6.0711 -2.5039 0.9707
3.2412 6.2060 -2.5038 0.9707
3.1157 6.2697 -2.5037 0.9707
2.9890 6.3308 -2.5036 0.9707
2.4705 6.5495 -2.5032 0.9707
2.2051 6.6430 -2.5031 0.9707
2.0711 6.6858 -2.5030 0.9707
1.9360 6.7251 -2.5026 0.9707
1.5244 6.8171 -2.4980 0.9708
0.9702 6.9051 -2.4936 0.9708
0.8309 6.9210 -2.4928 0.9708
0.4120 6.9535 -2.4910 0.9708
0.2721 6.9594 -2.4906 0.9708
-0.0078 6.9637 -2.4903 0.9709
-0.2877 6.9581 -2.4904 0.9708
-0.4275 6.9515 -2.4906 0.9708
-0.5672 6.9425 -2.4910 0.9708
-0.7068 6.9310 -2.4914 0.9708
-0.9853 6.9006 -2.4927 0.9708
-1.1242 6.8816 -2.4935 0.9708
-1.8132 6.7499 -2.4994 0.9707
-1.9492 6.7144 -2.5002 0.9707
-2.0837 6.6736 -2.5002 0.9707
-2.3500 6.5840 -2.5000 0.9707
-2.7423 6.4297 -2.4997 0.9707
-2.9983 6.3139 -2.4995 0.9707
-3.1245 6.2521 -2.4994 0.9707
-3.2494 6.1878 -2.4994 0.9707
-3.7354 5.9061 -2.4990 0.9707
-3.8532 5.8296 -2.4989 0.9708
-4.0841 5.6697 -2.4988 0.9708
-4.1971 5.5863 -2.4987 0.9708
-4.4180 5.4127 -2.4986 0.9708
-4.5258 5.3227 -2.4985 0.9708
-4.6317 5.2305 -2.4984 0.9708
-4.9381 4.9414 -2.4982 0.9708
-5.3185 4.5284 -2.4979 0.9708
-5.4083 4.4204 -2.4979 0.9708
-5.5813 4.1993 -2.4978 0.9708
-5.6644 4.0862 -2.4977 0.9708
-5.7453 3.9714 -2.4976 0.9708
-6.1141 3.3746 -2.4974 0.9708
-6.2446 3.1260 -2.4973 0.9708
-6.4751 2.6142 -2.4971 0.9708
-6.5262 2.4835 -2.4971 0.9708
-6.5747 2.3518 -2.4971 0.9708
-6.7420 1.8160 -2.4969 0.9708
-6.9454 0.7130 -2.4968 0.9708
-6.9757 0.2932 -2.4968 0.9708
-6.9801 0.1529 -2.4967 0.9708
-6.9818 0.0125 -2.4967 0.9708
-6.9767 -0.2681 -2.4967 0.9708
-6.9479 -0.6881 -2.4968 0.9708
-6.8703 -1.2439 -2.4968 0.9708
-6.8439 -1.3817 -2.4968 0.9708
-6.7830 -1.6557 -2.4969 0.9708
-6.7484 -1.7917 -2.4969 0.9708
-6.5829 -2.3280 -2.4970 0.9708
-6.5349 -2.4599 -2.4970 0.9708
-6.4842 -2.5908 -2.4970 0.9708
-6.4309 -2.7207 -2.4971 0.9708
-6.3750 -2.8494 -2.4971 0.9708
-6.2555 -3.1034 -2.4972 0.9708
-6.1260 -3.3524 -2.4973 0.9708
-5.9131 -3.7157 -2.4974 0.9708
-5.8374 -3.8339 -2.4975 0.9708
-5.6788 -4.0656 -2.4976 0.9708
-5.5960 -4.1790 -2.4976 0.9708
-5.5110 -4.2907 -2.4977 0.9708
-5.3344 -4.5090 -2.4978 0.9708
-5.2428 -4.6154 -2.4979 0.9708
-4.7539 -5.1188 -2.4982 0.9708
-4.5445 -5.3060 -2.4983 0.9708
-4.4371 -5.3965 -2.4984 0.9708
-4.3279 -5.4847 -2.4985 0.9708
-3.9898 -5.7361 -2.4987 0.9708
-3.7563 -5.8922 -2.4988 0.9708
-3.6372 -5.9667 -2.4989 0.9708
-3.5167 -6.0388 -2.4990 0.9708
-3.2713 -6.1756 -2.4992 0.9707
-2.3735 -6.5750 -2.4998 0.9707
-2.1075 -6.6655 -2.4999 0.9707
-1.8380 -6.7453 -2.5001 0.9707
-1.7021 -6.7812 -2.5002 0.9707
-1.1521 -6.8970 -2.5006 0.9707
4.3609 -4.8672 -2.5044 0.9724
4.4579 -4.7787 -2.5044 0.9724
4.5532 -4.6883 -2.5045 0.9724
4.7382 -4.5017 -2.5046 0.9724
4.8278 -4.4057 -2.5047 0.9724
4.9155 -4.3078 -2.5047 0.9724
5.0850 -4.1070 -2.5049 0.9724
5.2461 -3.8995 -2.5050 0.9724
5.3236 -3.7933 -2.5050 0.9724
5.5428 -3.4658 -2.5052 0.9724
5.6115 -3.3538 -2.5052 0.9724
5.6779 -3.2404 -2.5053 0.9724
5.7420 -3.1256 -2.5053 0.9724
5.9202 -2.7740 -2.5054 0.9724
6.0271 -2.5339 -2.5055 0.9724
6.0769 -2.4123 -2.5056 0.9724
6.1691 -2.1662 -2.5056 0.9724
6.2886 -1.7905 -2.5057 0.9724
6.3234 -1.6638 -2.5057 0.9724
6.3557 -1.5363 -2.5058 0.9724
6.3853 -1.4083 -2.5058 0.9724
6.4124 -1.2797 -2.5058 0.9724
6.4368 -1.1506 -2.5058 0.9724
6.4587 -1.0209 -2.5058 0.9724
6.4946 -0.7606 -2.5059 0.9724
6.5287 -0.3678 -2.5059 0.9724
6.5390 0.0264 -2.5059 0.9724
6.4274 1.2024 -2.5058 0.9724
6.4019 1.3314 -2.5058 0.9724
6.3431 1.5876 -2.5058 0.9724
6.3099 1.7148 -2.5058 0.9724
6.2741 1.8412 -2.5057 0.9724
6.1516 2.2159 -2.5057 0.9724
6.0574 2.4613 -2.5056 0.9724
6.0066 2.5825 -2.5056 0.9724
5.8978 2.8218 -2.5055 0.9724
5.8398 2.9397 -2.5055 0.9724
5.7794 3.0564 -2.5054 0.9724
5.5844 3.3990 -2.5053 0.9724
5.2930 3.8363 -2.5051 0.9724
5.2147 3.9418 -2.5051 0.9724
5.1343 4.0457 -2.5050 0.9724
5.0519 4.1480 -2.5050 0.9724
4.9674 4.2486 -2.5049 0.9724
4.8808 4.3475 -2.5048 0.9724
4.7924 4.4446 -2.5048 0.9724
4.7019 4.5400 -2.5047 0.9724
4.5155 4.7250 -2.5046 0.9724
4.3217 4.9025 -2.5045 0.9724
4.2222 4.9882 -2.5044 0.9724
3.6998 5.3859 -2.5041 0.9724
3.0244 5.7909 -2.5036 0.9724
2.9073 5.8503 -2.5035 0.9724
2.7891 5.9074 -2.5034 0.9724
2.6697 5.9621 -2.5034 0.9724
2.5492 6.0143 -2.5033 0.9724
2.4277 6.0642 -2.5032 0.9724
2.0577 6.1988 -2.5030 0.9724
1.9326 6.2387 -2.5029 0.9724
1.8067 6.2761 -2.5028 0.9724
1.5529 6.3432 -2.5026 0.9724
1.1677 6.4246 -2.5024 0.9724
0.9085 6.4659 -2.5022 0.9724
0.7783 6.4826 -2.5021 0.9724
0.3862 6.5170 -2.5018 0.9724
0.2551 6.5232 -2.5017 0.9724
0.1239 6.5268 -2.5016 0.9724
-0.0073 6.5278 -2.5016 0.9724
-0.2696 6.5217 -2.5014 0.9724
-0.5315 6.5052 -2.5012 0.9724
-0.6621 6.4929 -2.5011 0.9724
-0.9225 6.4606 -2.5009 0.9724
-1.3100 6.3926 -2.5007 0.9724
-1.6927 6.3014 -2.5004 0.9724
-1.8190 6.2659 -2.5003 0.9724
-2.1931 6.1442 -2.5001 0.9724
-2.3160 6.0987 -2.5000 0.9724
-2.4381 6.0507 -2.4999 0.9724
-2.7980 5.8922 -2.4997 0.9724
-3.2618 5.6477 -2.4993 0.9724
-3.3746 5.5809 -2.4993 0.9724
-3.5959 5.4404 -2.4991 0.9725
-3.7045 5.3669 -2.4990 0.9725
-3.9169 5.2133 -2.4989 0.9725
-4.0208 5.1334 -2.4988 0.9725
-4.1231 5.0514 -2.4988 0.9725
-4.2236 4.9674 -2.4987 0.9725
-4.4196 4.7933 -2.4985 0.9725
-4.6085 4.6116 -2.4984 0.9725
-4.7899 4.4224 -2.4983 0.9725
-4.9635 4.2262 -2.4982 0.9725
-5.1291 4.0230 -2.4981 0.9725
-5.2864 3.8135 -2.4979 0.9725
-5.4352 3.5978 -2.4978 0.9725
-5.5063 3.4877 -2.4978 0.9725
-5.5752 3.3763 -2.4977 0.9725
-5.7061 3.1494 -2.4977 0.9725
-5.7682 3.0340 -2.4976 0.9725
-5.9403 2.6807 -2.4975 0.9725
-6.2192 1.9464 -2.4973 0.9725
-6.2922 1.6949 -2.4972 0.9725
-6.3250 1.5680 -2.4972 0.9725
-6.3551 1.4406 -2.4972 0.9725
-6.3828 1.3125 -2.4972 0.9725
-6.4078 1.1839 -2.4971 0.9725
-6.4674 0.7956 -2.4971 0.9725
-6.4820 0.6654 -2.4971 0.9725
-6.5035 0.4044 -2.4971 0.9725
-6.5103 0.2736 -2.4971 0.9725
-6.5145 0.1427 -2.4971 0.9725
-6.5082 0.0117 -2.4941 0.9725
-6.4922 -0.2495 -2.4898 0.9726
-6.4877 -0.3800 -2.4905 0.9725
-6.4843 -0.6421 -2.4971 0.9725
-6.4533 -0.9022 -2.4971 0.9725
-6.4339 -1.0318 -2.4971 0.9725
-6.4119 -1.1609 -2.4971 0.9725
-6.3873 -1.2895 -2.4971 0.9725
-6.3602 -1.4177 -2.4971 0.9725
-6.3304 -1.5452 -2.4972 0.9725
-6.2981 -1.6722 -2.4972 0.9725
-6.2633 -1.7985 -2.4972 0.9725
-6.0989 -2.2958 -2.4973 0.9725
-5.9497 -2.6593 -2.4974 0.9725
-5.8381 -2.8963 -2.4975 0.9725
-5.7172 -3.1287 -2.4976 0.9725
-5.5870 -3.3561 -2.4976 0.9725
-5.2998 -3.7943 -2.4978 0.9725
-5.0618 -4.1071 -2.4980 0.9725
-4.9784 -4.2081 -2.4980 0.9725
-4.8929 -4.3074 -2.4981 0.9725
-4.8054 -4.4050 -2.4982 0.9725
-4.6247 -4.5947 -2.4983 0.9725
-4.2412 -4.9518 -2.4985 0.9725
-4.0390 -5.1186 -2.4987 0.9725
-3.8302 -5.2771 -2.4988 0.9725
-3.7234 -5.3531 -2.4989 0.9725
-3.5055 -5.4988 -2.4990 0.9725
-2.8190 -5.8817 -2.4995 0.9724
-2.7003 -5.9373 -2.4996 0.9724
-2.4596 -6.0415 -2.4997 0.9724
-2.3378 -6.0899 -2.4998 0.9724
-2.2150 -6.1358 -2.4999 0.9724
-2.0912 -6.1793 -2.5000 0.9724
-1.8413 -6.2588 -2.5001 0.9724
-1.5884 -6.3282 -2.5003 0.9724
-1.4609 -6.3591 -2.5004 0.9724
-1.3329 -6.3874 -2.5005 0.9724
-1.2043 -6.4131 -2.5006 0.9724
-1.0752 -6.4362 -2.5007 0.9724
4.0829 -4.5570 -2.5042 0.9739
4.2630 -4.3894 -2.5043 0.9739
4.6825 -3.9400 -2.5046 0.9739
4.9117 -3.6509 -2.5047 0.9739
4.9842 -3.5515 -2.5048 0.9739
5.4337 -2.8178 -2.5051 0.9739
5.4893 -2.7080 -2.5051 0.9739
5.5427 -2.5972 -2.5052 0.9739
5.7337 -2.1437 -2.5053 0.9739
5.7757 -2.0281 -2.5054 0.9739
5.8527 -1.7943 -2.5054 0.9739
5.9202 -1.5577 -2.5055 0.9739
5.9504 -1.4384 -2.5055 0.9739
5.9781 -1.3185 -2.5055 0.9739
6.0264 -1.0772 -2.5055 0.9739
6.0468 -0.9558 -2.5056 0.9739
6.0649 -0.8341 -2.5056 0.9739
6.0804 -0.7121 -2.5056 0.9739
6.1124 -0.3443 -2.5056 0.9739
6.1181 -0.2214 -2.5056 0.9739
6.1203 0.1477 -2.5056 0.9739
6.1161 0.2707 -2.5056 0.9739
6.1094 0.3936 -2.5056 0.9739
6.1003 0.5163 -2.5056 0.9739
6.0886 0.6388 -2.5056 0.9739
5.9937 1.2465 -2.5055 0.9739
5.9387 1.4863 -2.5055 0.9739
5.8381 1.8415 -2.5055 0.9739
5.7999 1.9585 -2.5054 0.9739
5.7164 2.1899 -2.5054 0.9739
5.6711 2.3043 -2.5053 0.9739
5.5738 2.5304 -2.5053 0.9739
5.4674 2.7523 -2.5052 0.9739
5.4109 2.8616 -2.5052 0.9739
5.2914 3.0766 -2.5051 0.9739
5.2284 3.1823 -2.5051 0.9739
5.1633 3.2867 -2.5050 0.9739
5.0961 3.3897 -2.5050 0.9739
5.0268 3.4914 -2.5049 0.9739
4.8823 3.6905 -2.5048 0.9739
4.8070 3.7878 -2.5048 0.9739
4.7298 3.8836 -2.5047 0.9739
4.5697 4.0704 -2.5046 0.9739
4.4869 4.1613 -2.5046 0.9739
4.4022 4.2506 -2.5045 0.9739
4.3158 4.3381 -2.5045 0.9739
4.2276 4.4239 -2.5044 0.9739
3.9531 4.6703 -2.5042 0.9739
3.4641 5.0427 -2.5039 0.9739
2.9402 5.3641 -2.5035 0.9739
2.8317 5.4219 -2.5035 0.9739
2.4996 5.5822 -2.5032 0.9739
2.3868 5.6312 -2.5032 0.9739
2.2731 5.6778 -2.5031 0.9739
2.0429 5.7642 -2.5029 0.9739
1.9266 5.8040 -2.5029 0.9739
1.5731 5.9089 -2.5026 0.9739
1.4540 5.9392 -2.5025 0.9739
1.2141 5.9924 -2.5024 0.9739
1.0933 6.0154 -2.5023 0.9739
0.9722 6.0360 -2.5022 0.9739
0.7287 6.0698 -2.5021 0.9739
0.6066 6.0830 -2.5020 0.9739
0.3616 6.1021 -2.5018 0.9739
0.1160 6.1113 -2.5016 0.9739
-0.2525 6.1065 -2.5014 0.9739
-0.3751 6.1000 -2.5013 0.9739
-0.6200 6.0796 -2.5011 0.9739
-0.8638 6.0494 -2.5010 0.9739
-0.9851 6.0306 -2.5009 0.9739
-1.1061 6.0094 -2.5008 0.9739
-1.2266 5.9858 -2.5007 0.9739
-1.3467 5.9597 -2.5006 0.9739
-1.4661 5.9312 -2.5006 0.9739
-1.8207 5.8315 -2.5003 0.9739
-1.9375 5.7936 -2.5002 0.9739
-2.2829 5.6657 -2.5000 0.9739
-2.5087 5.5691 -2.4999 0.9739
-2.8395 5.4072 -2.4996 0.9739
-3.0543 5.2885 -2.4995 0.9740
-3.1599 5.2258 -2.4994 0.9740
-3.8608 4.7301 -2.4989 0.9740
-3.9550 4.6515 -2.4989 0.9740
-4.1386 4.4885 -2.4987 0.9740
-4.3154 4.3183 -2.4986 0.9740
-4.4853 4.1412 -2.4985 0.9740
-4.5675 4.0501 -2.4984 0.9740
-4.6479 3.9574 -2.4984 0.9740
-4.8030 3.7672 -2.4983 0.9740
-4.9503 3.5710 -2.4982 0.9740
-5.0210 3.4707 -2.4981 0.9740
-5.0896 3.3690 -2.4981 0.9740
-5.2831 3.0560 -2.4979 0.9740
-5.3434 2.9492 -2.4979 0.9740
-5.4015 2.8411 -2.4979 0.9740
-5.5111 2.6217 -2.4978 0.9740
-5.5626 2.5103 -2.4977 0.9740
-5.6119 2.3980 -2.4977 0.9740
-5.7036 2.1704 -2.4976 0.9740
-5.7460 2.0553 -2.4976 0.9740
-5.7861 1.9394 -2.4976 0.9740
-5.8238 1.8227 -2.4976 0.9740
-5.8592 1.7052 -2.4975 0.9740
-5.9512 1.3490 -2.4975 0.9740
-5.9771 1.2291 -2.4974 0.9740
-6.0005 1.1087 -2.4974 0.9740
-6.0700 0.6231 -2.4974 0.9740
-6.0813 0.5010 -2.4974 0.9740
-6.0901 0.3787 -2.4974 0.9740
-6.0965 0.2562 -2.4973 0.9740
-6.0914 -0.3568 -2.4973 0.9740
-6.0830 -0.4792 -2.4973 0.9740
-6.0722 -0.6013 -2.4974 0.9740
-6.0432 -0.8449 -2.4974 0.9740
-5.9813 -1.2076 -2.4974 0.9740
-5.9559 -1.3276 -2.4974 0.9740
-5.9280 -1.4470 -2.4974 0.9740
-5.8978 -1.5659 -2.4975 0.9740
-5.8652 -1.6842 -2.4975 0.9740
-5.7929 -1.9185 -2.4975 0.9740
-5.7112 -2.1499 -2.4976 0.9740
-5.6669 -2.2642 -2.4976 0.9740
-5.5715 -2.4902 -2.4977 0.9740
-5.4670 -2.7122 -2.4977 0.9740
-5.4115 -2.8216 -2.4978 0.9740
-5.3538 -2.9298 -2.4978 0.9740
-5.2939 -3.0369 -2.4978 0.9740
-5.1677 -3.2473 -2.4979 0.9740
