ply
format ascii 1.0
element vertex 1578
property float32 x
property float32 y
property float32 z
property float32 I
end_header
9.8131 17.5502 -2.3885 0.9222
9.4600 17.7456 -2.3888 0.9222
6.3021 13.0585 -1.7224 0.9433
5.9830 13.0605 -1.7064 0.9438
5.4324 13.2371 -1.6996 0.9440
5.1252 13.2390 -1.6863 0.9444
4.8515 13.3197 -1.6839 0.9445
4.6815 13.7023 -1.7200 0.9433
4.3942 13.7576 -1.7155 0.9435
3.7537 13.6150 -1.6776 0.9447
3.5006 13.7694 -1.6876 0.9444
3.1052 13.3285 -1.6256 0.9464
2.8085 13.2533 -1.6093 0.9469
2.5321 13.2550 -1.6030 0.9471
2.2279 13.0815 -1.5763 0.9480
1.4442 13.2596 -1.5844 0.9477
1.1756 13.2612 -1.5814 0.9478
0.6545 13.5447 -1.6108 0.9468
0.3878 13.7399 -1.6328 0.9461
0.1106 13.5795 -1.6131 0.9468
-0.7119 13.6627 -1.6251 0.9464
-1.2323 13.3293 -1.5901 0.9475
-1.4968 13.2777 -1.5872 0.9476
-2.2831 13.1073 -1.5804 0.9478
-1.8530 8.5844 -1.0432 0.9652
-1.9074 8.0497 -0.9827 0.9672
-3.5332 13.6811 -1.6784 0.9447
-3.0169 9.3241 -1.1641 0.9613
-3.4548 9.3751 -1.1868 0.9606
-3.6704 9.3758 -1.1960 0.9603
-4.5698 9.3786 -1.2393 0.9588
-4.8054 9.3793 -1.2518 0.9584
-5.0459 9.3801 -1.2652 0.9580
-5.1585 9.1447 -1.2472 0.9586
-9.2072 13.6365 -1.9545 0.9359
-10.0824 13.1512 -1.9684 0.9354
-10.5102 13.1538 -2.0000 0.9344
-12.5581 13.3614 -2.1781 0.9288
-14.5439 13.1766 -2.3312 0.9240
-15.1781 12.6803 -2.3493 0.9234
-15.6746 12.0610 -2.3493 0.9234
-15.9135 11.7441 -2.3493 0.9234
-16.1460 11.4224 -2.3493 0.9234
-16.3719 11.0961 -2.3493 0.9234
-16.5913 10.7654 -2.3493 0.9234
-17.4011 9.4004 -2.3493 0.9234
-17.5862 9.0493 -2.3493 0.9234
-17.7642 8.6946 -2.3493 0.9234
-17.9352 8.3364 -2.3493 0.9234
-18.0988 7.9748 -2.3493 0.9234
-20.0266 6.5189 -2.5017 0.9187
-20.1534 6.1157 -2.5017 0.9187
-20.3825 5.3022 -2.5017 0.9187
-20.4848 4.8921 -2.5017 0.9187
-20.7421 3.6507 -2.5017 0.9187
-20.8718 2.8155 -2.5017 0.9187
-20.9241 2.3962 -2.5017 0.9187
-21.0489 0.7107 -2.5017 0.9187
-21.0535 -0.5570 -2.5017 0.9187
-21.0142 -1.4014 -2.5017 0.9187
-20.8919 -2.6632 -2.5017 0.9187
-20.7682 -3.4993 -2.5017 0.9187
-20.6110 -4.3298 -2.5017 0.9187
-20.4207 -5.1533 -2.5017 0.9187
-19.9418 -6.7741 -2.5017 0.9187
-19.6539 -7.5688 -2.5017 0.9187
-19.4981 -7.9616 -2.5017 0.9187
-19.3344 -8.3513 -2.5017 0.9187
-19.1629 -8.7376 -2.5017 0.9187
-18.7969 -9.4994 -2.5017 0.9187
-18.6025 -9.8747 -2.5017 0.9187
-18.4006 -10.2460 -2.5017 0.9187
-18.1913 -10.6132 -2.5017 0.9187
-17.9746 -10.9761 -2.5017 0.9187
-17.7508 -11.3345 -2.5017 0.9187
-17.5198 -11.6884 -2.5017 0.9187
-17.2817 -12.0377 -2.5017 0.9187
-17.0367 -12.3820 -2.5017 0.9187
-16.7848 -12.7214 -2.5017 0.9187
-15.9890 -13.7082 -2.5017 0.9187
-15.1352 -14.6453 -2.5017 0.9187
-14.8383 -14.9461 -2.5017 0.9187
-14.2267 -15.5294 -2.5017 0.9187
-13.9122 -15.8118 -2.5017 0.9187
-13.5921 -16.0878 -2.5017 0.9187
-13.2665 -16.3572 -2.5017 0.9187
-12.9356 -16.6201 -2.5017 0.9187
-11.2057 -17.8323 -2.5017 0.9187
-10.8457 -18.0536 -2.5017 0.9187
11.2463 -12.1836 -2.3493 0.9352
11.9590 -11.4849 -2.3493 0.9352
13.4475 -11.4416 -2.5017 0.9312
13.6744 -11.1694 -2.5017 0.9312
14.5260 -10.0370 -2.5017 0.9312
14.9170 -9.4461 -2.5017 0.9312
15.1035 -9.1448 -2.5017 0.9312
15.4583 -8.5314 -2.5017 0.9312
15.7882 -7.9043 -2.5017 0.9312
15.9436 -7.5859 -2.5017 0.9312
16.0926 -7.2645 -2.5017 0.9312
16.2351 -6.9401 -2.5017 0.9312
16.3711 -6.6129 -2.5017 0.9312
16.8486 -5.2789 -2.5017 0.9312
16.9512 -4.9398 -2.5017 0.9312
17.0469 -4.5986 -2.5017 0.9312
17.1357 -4.2556 -2.5017 0.9312
17.2177 -3.9109 -2.5017 0.9312
17.2927 -3.5647 -2.5017 0.9312
17.3607 -3.2170 -2.5017 0.9312
17.4218 -2.8680 -2.5017 0.9312
17.5228 -2.1666 -2.5017 0.9312
17.5628 -1.8146 -2.5017 0.9312
17.6214 -1.1084 -2.5017 0.9312
17.6401 -0.7546 -2.5017 0.9312
17.6517 -0.4004 -2.5017 0.9312
17.6536 0.3081 -2.5017 0.9312
17.6438 0.6623 -2.5017 0.9312
17.5720 1.7227 -2.5017 0.9312
17.4365 2.7768 -2.5017 0.9312
17.3111 3.4742 -2.5017 0.9312
17.2379 3.8208 -2.5017 0.9312
17.1577 4.1660 -2.5017 0.9312
17.0707 4.5094 -2.5017 0.9312
16.9767 4.8510 -2.5017 0.9312
16.8760 5.1907 -2.5017 0.9312
16.7684 5.5283 -2.5017 0.9312
16.5331 6.1967 -2.5017 0.9312
15.7159 7.7656 -2.4838 0.9316
14.5712 7.9428 -2.3514 0.9352
14.3961 8.2262 -2.3493 0.9352
14.2281 8.5134 -2.3493 0.9352
10.2871 8.3133 -1.8740 0.9480
12.6843 10.6783 -2.3493 0.9352
12.4675 10.9307 -2.3493 0.9352
12.2456 11.1787 -2.3493 0.9352
10.8142 12.5686 -2.3493 0.9352
10.5599 12.7831 -2.3493 0.9352
9.7716 13.3953 -2.3493 0.9352
9.2263 13.7766 -2.3493 0.9352
8.9503 13.9630 -2.3500 0.9352
8.4074 14.3523 -2.3568 0.9350
8.1290 14.5381 -2.3600 0.9349
7.5587 14.8915 -2.3662 0.9348
5.7126 13.1616 -2.0329 0.9437
5.4324 13.2371 -2.0273 0.9438
4.8344 13.2730 -2.0015 0.9445
4.3783 13.7080 -2.0389 0.9435
3.9448 13.2632 -1.9606 0.9456
3.6573 13.2650 -1.9496 0.9459
3.4626 13.6199 -1.9912 0.9448
3.0912 13.2685 -1.9303 0.9464
2.8085 13.2533 -1.9195 0.9467
1.6914 13.0849 -1.8694 0.9481
-0.1584 13.2864 -1.8827 0.9477
-0.6924 13.2897 -1.8856 0.9477
-1.7675 13.2794 -1.8981 0.9473
-2.0128 13.1056 -1.8787 0.9478
-2.2831 13.1073 -1.8851 0.9477
-1.9074 8.0497 -1.1721 0.9671
-4.1261 13.6836 -2.0251 0.9439
-3.6704 9.3758 -1.4266 0.9601
-3.8894 9.3765 -1.4383 0.9598
-4.1023 9.3548 -1.4473 0.9596
-4.5698 9.3786 -1.4782 0.9587
-5.0459 9.3801 -1.5092 0.9579
-5.2398 8.4750 -1.4118 0.9605
-9.2782 13.7418 -2.3493 0.9352
-9.4916 13.4671 -2.3344 0.9356
-9.7973 13.3247 -2.3434 0.9354
-10.3502 12.9536 -2.3493 0.9352
-10.6081 12.7433 -2.3493 0.9352
-10.8617 12.5279 -2.3493 0.9352
-11.1109 12.3074 -2.3493 0.9352
-11.5958 11.8517 -2.3493 0.9352
-11.8312 11.6166 -2.3493 0.9352
-12.0620 11.3769 -2.3493 0.9352
-9.6632 8.0730 -1.7841 0.9504
-13.1409 10.1114 -2.3493 0.9352
-13.9094 9.0252 -2.3493 0.9352
-14.5883 7.8808 -2.3493 0.9352
-14.9090 7.6716 -2.3757 0.9345
-15.6345 7.6522 -2.4663 0.9321
-16.2971 6.7938 -2.5017 0.9312
-16.4301 6.4654 -2.5017 0.9312
-16.6763 5.8009 -2.5017 0.9312
-16.8957 5.1271 -2.5017 0.9312
-16.9952 4.7871 -2.5017 0.9312
-17.0878 4.4451 -2.5017 0.9312
-17.2524 3.7559 -2.5017 0.9312
-17.3243 3.4089 -2.5017 0.9312
-17.3892 3.0606 -2.5017 0.9312
-17.4980 2.3604 -2.5017 0.9312
-17.5786 1.6564 -2.5017 0.9312
-17.6083 1.3033 -2.5017 0.9312
-17.6464 0.5958 -2.5017 0.9312
-17.6548 0.2416 -2.5017 0.9312
-17.6374 -0.8211 -2.5017 0.9312
-17.5902 -1.5281 -2.5017 0.9312
-17.5148 -2.2327 -2.5017 0.9312
-17.4664 -2.5837 -2.5017 0.9312
-17.3487 -3.2824 -2.5017 0.9312
-17.1198 -4.3203 -2.5017 0.9312
-16.9327 -5.0037 -2.5017 0.9312
-16.8288 -5.3425 -2.5017 0.9312
-16.7182 -5.6791 -2.5017 0.9312
-16.6009 -6.0134 -2.5017 0.9312
-16.4769 -6.3454 -2.5017 0.9312
-16.2091 -7.0013 -2.5017 0.9312
-15.7584 -7.9639 -2.5017 0.9312
-15.4262 -8.5898 -2.5017 0.9312
-15.0691 -9.2018 -2.5017 0.9312
-14.4882 -10.0918 -2.5017 0.9312
-14.2828 -10.3805 -2.5017 0.9312
-13.8548 -10.9452 -2.5017 0.9312
-13.6323 -11.2210 -2.5017 0.9312
-12.6887 -12.2780 -2.5017 0.9312
-12.1858 -12.7772 -2.5017 0.9312
-11.9270 -13.0192 -2.5017 0.9312
-11.6633 -13.2559 -2.5017 0.9312
-11.1221 -13.7132 -2.5017 0.9312
-10.5629 -14.1484 -2.5017 0.9312
-10.2768 -14.3575 -2.5017 0.9312
-9.9867 -14.5608 -2.5017 0.9312
-9.6925 -14.7583 -2.5017 0.9312
-9.3857 -14.9359 -2.4994 0.9312
-8.8248 -14.6896 -2.4281 0.9331
-8.2517 -14.3818 -2.3493 0.9352
10.2717 -11.1278 -2.4948 0.9405
10.5077 -10.9348 -2.4983 0.9404
10.9530 -10.5188 -2.5017 0.9403
11.1618 -10.2968 -2.5017 0.9403
11.3662 -10.0708 -2.5017 0.9403
11.7611 -9.6066 -2.5017 0.9403
12.3178 -8.8816 -2.5017 0.9403
12.4935 -8.6326 -2.5017 0.9403
12.6642 -8.3802 -2.5017 0.9403
13.1455 -7.6030 -2.5017 0.9403
13.4400 -7.0695 -2.5017 0.9403
13.5791 -6.7984 -2.5017 0.9403
13.7128 -6.5245 -2.5017 0.9403
13.8410 -6.2480 -2.5017 0.9403
14.3972 -4.8302 -2.5017 0.9403
14.4912 -4.5403 -2.5017 0.9403
14.5794 -4.2486 -2.5017 0.9403
14.8086 -3.3637 -2.5017 0.9403
15.1054 -1.5607 -2.5017 0.9403
15.1559 -0.9533 -2.5017 0.9403
15.1720 -0.6490 -2.5017 0.9403
15.1858 -0.0397 -2.5017 0.9403
15.1752 0.5696 -2.5017 0.9403
15.1607 0.8740 -2.5017 0.9403
15.1134 1.4816 -2.5017 0.9403
15.0806 1.7846 -2.5017 0.9403
15.0418 2.0868 -2.5017 0.9403
14.7571 3.5831 -2.5017 0.9403
14.6822 3.8785 -2.5017 0.9403
14.5148 4.4645 -2.5017 0.9403
14.4223 4.7548 -2.5017 0.9403
14.3239 5.0433 -2.5017 0.9403
14.2199 5.3297 -2.5017 0.9403
13.8734 6.1756 -2.5017 0.9403
13.7467 6.4527 -2.5017 0.9403
11.9337 7.8074 -2.3493 0.9438
11.6109 8.2799 -2.3493 0.9438
11.4424 8.5112 -2.3493 0.9438
11.2693 8.7391 -2.3493 0.9438
10.9096 9.1842 -2.3493 0.9438
10.5323 9.6146 -2.3493 0.9438
10.3372 9.8240 -2.3493 0.9438
9.3012 10.8101 -2.3493 0.9438
9.0824 10.9945 -2.3493 0.9438
8.8599 11.1746 -2.3493 0.9438
8.6339 11.3501 -2.3493 0.9438
8.4044 11.5211 -2.3493 0.9438
7.9354 11.8490 -2.3493 0.9438
7.4536 12.1579 -2.3493 0.9438
6.9597 12.4471 -2.3493 0.9438
6.4547 12.7164 -2.3493 0.9438
5.4143 13.1930 -2.3493 0.9438
5.1252 13.2390 -2.3387 0.9441
4.5320 13.2644 -2.3092 0.9448
4.3390 13.5847 -2.3493 0.9438
3.6586 13.2698 -2.2676 0.9457
3.5019 13.7743 -2.3413 0.9440
1.9589 13.0832 -2.1793 0.9478
1.4442 13.2596 -2.1973 0.9474
0.6453 13.3546 -2.2026 0.9472
0.3751 13.2880 -2.1899 0.9475
0.1117 13.7080 -2.2583 0.9459
-0.1584 13.2912 -2.1897 0.9475
-0.7442 14.2831 -2.3562 0.9437
-0.9606 13.2962 -2.1961 0.9474
-1.2323 13.3293 -2.2052 0.9472
-1.4968 13.2777 -2.2012 0.9473
-1.7675 13.2794 -2.2069 0.9471
-2.0128 13.1056 -2.1843 0.9477
-2.2831 13.1073 -2.1918 0.9475
-1.8530 8.5844 -1.4468 0.9650
-1.9074 8.0497 -1.3628 0.9670
-3.6704 9.3758 -1.6587 0.9600
-3.8894 9.3765 -1.6723 0.9597
-4.0749 8.8074 -1.5987 0.9614
-4.5698 9.3786 -1.7187 0.9586
-5.1585 9.1447 -1.7297 0.9583
-7.9801 11.8191 -2.3493 0.9438
-8.4479 11.4894 -2.3493 0.9438
-8.6767 11.3176 -2.3493 0.9438
-8.9021 11.1412 -2.3493 0.9438
-9.5563 10.5854 -2.3493 0.9438
-9.9733 10.1934 -2.3493 0.9438
-10.1758 9.9913 -2.3493 0.9438
-10.3743 9.7851 -2.3493 0.9438
-10.5685 9.5749 -2.3493 0.9438
-9.4367 8.2108 -2.0607 0.9506
-9.6486 8.0608 -2.0712 0.9503
-11.1255 8.9217 -2.3493 0.9438
-11.3022 8.6967 -2.3493 0.9438
-11.4745 8.4681 -2.3493 0.9438
-11.6421 8.2362 -2.3493 0.9438
-11.8050 8.0009 -2.3493 0.9438
-11.9632 7.7624 -2.3493 0.9438
-12.3682 7.6770 -2.3981 0.9427
-13.3600 7.2173 -2.5015 0.9403
-13.5032 6.9483 -2.5017 0.9403
-14.0168 5.8432 -2.5017 0.9403
-14.2400 5.2761 -2.5017 0.9403
-14.3430 4.9893 -2.5017 0.9403
-14.5316 4.4097 -2.5017 0.9403
-14.6172 4.1173 -2.5017 0.9403
-14.6969 3.8231 -2.5017 0.9403
-14.9561 2.6324 -2.5017 0.9403
-15.0497 2.0301 -2.5017 0.9403
-15.1774 0.5124 -2.5017 0.9403
-15.1846 0.2078 -2.5017 0.9403
-15.1290 -1.3143 -2.5017 0.9403
-15.0996 -1.6176 -2.5017 0.9403
-15.0226 -2.2222 -2.5017 0.9403
-14.9749 -2.5232 -2.5017 0.9403
-14.9213 -2.8232 -2.5017 0.9403
-14.7244 -3.7158 -2.5017 0.9403
-14.6469 -4.0105 -2.5017 0.9403
-14.5635 -4.3036 -2.5017 0.9403
-14.3791 -4.8845 -2.5017 0.9403
-14.1715 -5.4575 -2.5017 0.9403
-14.0591 -5.7408 -2.5017 0.9403
-13.9411 -6.0217 -2.5017 0.9403
-13.4134 -7.1202 -2.5017 0.9403
-13.1169 -7.6527 -2.5017 0.9403
-12.7992 -8.1728 -2.5017 0.9403
-12.6327 -8.4280 -2.5017 0.9403
-12.2843 -8.9281 -2.5017 0.9403
-11.9162 -9.4138 -2.5017 0.9403
-11.3282 -10.1137 -2.5017 0.9403
-11.1230 -10.3389 -2.5017 0.9403
-10.4808 -10.9895 -2.5017 0.9403
-10.2582 -11.1975 -2.5017 0.9403
-9.8006 -11.6001 -2.5017 0.9403
-9.5659 -11.7944 -2.5017 0.9403
-9.3273 -11.9840 -2.5017 0.9403
-9.0849 -12.1688 -2.5017 0.9403
-8.3363 -12.6933 -2.5017 0.9403
9.2221 -9.5970 -2.5017 0.9473
9.5998 -9.2192 -2.5017 0.9473
9.7828 -9.0247 -2.5017 0.9473
10.1371 -8.6249 -2.5017 0.9473
10.4750 -8.2112 -2.5017 0.9473
10.6376 -7.9994 -2.5017 0.9473
10.7960 -7.7843 -2.5017 0.9473
10.9500 -7.5661 -2.5017 0.9473
11.0996 -7.3449 -2.5017 0.9473
11.2448 -7.1207 -2.5017 0.9473
11.3854 -6.8936 -2.5017 0.9473
11.5214 -6.6637 -2.5017 0.9473
11.6528 -6.4312 -2.5017 0.9473
11.7795 -6.1961 -2.5017 0.9473
12.0187 -5.7185 -2.5017 0.9473
12.3409 -4.9850 -2.5017 0.9473
12.4385 -4.7363 -2.5017 0.9473
12.5310 -4.4858 -2.5017 0.9473
12.6185 -4.2334 -2.5017 0.9473
12.7009 -3.9794 -2.5017 0.9473
12.7782 -3.7237 -2.5017 0.9473
12.8503 -3.4666 -2.5017 0.9473
12.9791 -2.9482 -2.5017 0.9473
13.0356 -2.6871 -2.5017 0.9473
13.1330 -2.1619 -2.5017 0.9473
13.1737 -1.8979 -2.5017 0.9473
13.2091 -1.6332 -2.5017 0.9473
13.2392 -1.3678 -2.5017 0.9473
13.2640 -1.1019 -2.5017 0.9473
13.2835 -0.8355 -2.5017 0.9473
13.2975 -0.5688 -2.5017 0.9473
13.3063 -0.3019 -2.5017 0.9473
13.3077 0.2323 -2.5017 0.9473
13.2877 0.7660 -2.5017 0.9473
13.2696 1.0325 -2.5017 0.9473
13.2462 1.2986 -2.5017 0.9473
13.2175 1.5641 -2.5017 0.9473
13.1834 1.8290 -2.5017 0.9473
13.1441 2.0932 -2.5017 0.9473
12.9943 2.8802 -2.5017 0.9473
12.9339 3.1404 -2.5017 0.9473
12.7975 3.6568 -2.5017 0.9473
12.5543 4.4202 -2.5017 0.9473
12.4631 4.6712 -2.5017 0.9473
12.2656 5.1675 -2.5017 0.9473
11.9325 5.8961 -2.5017 0.9473
11.6863 6.3702 -2.5017 0.9473
11.5561 6.6034 -2.5017 0.9473
11.4213 6.8339 -2.5017 0.9473
11.1379 7.2867 -2.5017 0.9473
10.0111 7.7634 -2.3812 0.9497
9.5617 8.0495 -2.3493 0.9504
9.3983 8.2398 -2.3493 0.9504
9.2310 8.4268 -2.3493 0.9504
9.0601 8.6103 -2.3493 0.9504
8.8855 8.7904 -2.3493 0.9504
8.7073 8.9669 -2.3493 0.9504
7.7653 9.7940 -2.3493 0.9504
7.5672 9.9479 -2.3493 0.9504
7.1620 10.2435 -2.3493 0.9504
6.9550 10.3851 -2.3493 0.9504
6.7452 10.5226 -2.3493 0.9504
6.3176 10.7847 -2.3493 0.9504
5.8798 11.0296 -2.3493 0.9504
5.6573 11.1453 -2.3493 0.9504
5.4325 11.2566 -2.3493 0.9504
5.2055 11.3634 -2.3493 0.9504
4.9764 11.4655 -2.3493 0.9504
4.5124 11.6560 -2.3493 0.9504
4.0411 11.8276 -2.3493 0.9504
3.8029 11.9063 -2.3493 0.9504
3.0797 12.1136 -2.3493 0.9504
2.8360 12.1729 -2.3493 0.9504
2.0984 12.3215 -2.3493 0.9504
1.1037 12.4501 -2.3493 0.9504
0.8537 12.4698 -2.3493 0.9504
-0.6503 12.4820 -2.3493 0.9504
-1.1506 12.4459 -2.3493 0.9504
-1.4001 12.4203 -2.3493 0.9504
-1.6491 12.3897 -2.3493 0.9504
-3.1253 12.1019 -2.3493 0.9504
-3.3675 12.0368 -2.3493 0.9504
-3.1182 9.0154 -1.7931 0.9619
-3.8927 8.8768 -1.8219 0.9613
-5.2483 11.3437 -2.3493 0.9504
-6.1410 10.8863 -2.3493 0.9504
-5.2398 8.4750 -1.8728 0.9603
-7.4042 10.0699 -2.3493 0.9504
-7.6047 9.9193 -2.3493 0.9504
-7.8023 9.7647 -2.3493 0.9504
-8.5601 9.1077 -2.3493 0.9504
-8.7411 8.9341 -2.3493 0.9504
-8.9187 8.7569 -2.3493 0.9504
-9.4245 8.2002 -2.3481 0.9504
-9.7510 7.8195 -2.3493 0.9504
-9.9952 7.6909 -2.3705 0.9500
-10.4042 7.6783 -2.4305 0.9487
-11.1631 7.2433 -2.5012 0.9473
-11.7103 6.3261 -2.5017 0.9473
-11.8349 6.0898 -2.5017 0.9473
-12.3854 4.8737 -2.5017 0.9473
-12.8812 3.3508 -2.5017 0.9473
-12.9458 3.0917 -2.5017 0.9473
-13.0052 2.8312 -2.5017 0.9473
-13.0594 2.5697 -2.5017 0.9473
-13.1084 2.3071 -2.5017 0.9473
-13.1520 2.0437 -2.5017 0.9473
-13.1904 1.7793 -2.5017 0.9473
-13.2234 1.5143 -2.5017 0.9473
-13.2512 1.2487 -2.5017 0.9473
-13.3023 0.4491 -2.5017 0.9473
-13.3086 0.1821 -2.5017 0.9473
-13.3096 -0.0850 -2.5017 0.9473
-13.2955 -0.6190 -2.5017 0.9473
-13.2804 -0.8856 -2.5017 0.9473
-13.2599 -1.1519 -2.5017 0.9473
-13.1666 -1.9477 -2.5017 0.9473
-13.1248 -2.2115 -2.5017 0.9473
-13.0778 -2.4744 -2.5017 0.9473
-13.0255 -2.7363 -2.5017 0.9473
-12.8373 -3.5150 -2.5017 0.9473
-12.6026 -4.2811 -2.5017 0.9473
-12.5141 -4.5331 -2.5017 0.9473
-12.2187 -5.2778 -2.5017 0.9473
-11.9971 -5.7638 -2.5017 0.9473
-11.8791 -6.0034 -2.5017 0.9473
-11.2180 -7.1631 -2.5017 0.9473
-10.9215 -7.6074 -2.5017 0.9473
-10.7667 -7.8250 -2.5017 0.9473
-10.6075 -8.0395 -2.5017 0.9473
-10.2763 -8.4587 -2.5017 0.9473
-9.7488 -9.0616 -2.5017 0.9473
-9.5650 -9.2554 -2.5017 0.9473
-9.3774 -9.4455 -2.5017 0.9473
-8.9908 -9.8141 -2.5017 0.9473
-8.5898 -10.1670 -2.5017 0.9473
-8.1749 -10.5035 -2.5017 0.9473
-7.9625 -10.6654 -2.5017 0.9473
-7.7469 -10.8230 -2.5017 0.9473
-7.5282 -10.9763 -2.5017 0.9473
-7.0817 -11.2695 -2.5017 0.9473
-6.8541 -11.4093 -2.5017 0.9473
-6.6238 -11.5446 -2.5017 0.9473
8.2004 -8.5337 -2.5017 0.9528
8.3700 -8.3674 -2.5017 0.9528
8.5362 -8.1978 -2.5017 0.9528
8.8583 -7.8487 -2.5017 0.9528
9.0140 -7.6694 -2.5017 0.9528
9.3144 -7.3015 -2.5017 0.9528
9.4591 -7.1131 -2.5017 0.9528
9.7369 -6.7279 -2.5017 0.9528
9.9990 -6.3318 -2.5017 0.9528
10.1240 -6.1299 -2.5017 0.9528
10.4745 -5.5096 -2.5017 0.9528
10.5829 -5.2983 -2.5017 0.9528
10.6871 -5.0849 -2.5017 0.9528
10.7870 -4.8694 -2.5017 0.9528
10.8825 -4.6520 -2.5017 0.9528
10.9737 -4.4327 -2.5017 0.9528
11.2205 -3.7644 -2.5017 0.9528
11.4267 -3.0825 -2.5017 0.9528
11.4862 -2.8526 -2.5017 0.9528
11.5411 -2.6215 -2.5017 0.9528
11.7142 -1.6877 -2.5017 0.9528
11.7725 -1.2163 -2.5017 0.9528
11.8243 -0.5058 -2.5017 0.9528
11.8333 0.2066 -2.5017 0.9528
11.8268 0.4439 -2.5017 0.9528
11.8155 0.6812 -2.5017 0.9528
11.7228 1.6264 -2.5017 0.9528
11.6037 2.3288 -2.5017 0.9528
11.5010 2.7925 -2.5017 0.9528
11.4426 3.0227 -2.5017 0.9528
11.3796 3.2517 -2.5017 0.9528
11.3121 3.4794 -2.5017 0.9528
11.2400 3.7057 -2.5017 0.9528
11.1634 3.9305 -2.5017 0.9528
11.0823 4.1537 -2.5017 0.9528
10.9067 4.5950 -2.5017 0.9528
10.8123 4.8129 -2.5017 0.9528
10.6105 5.2429 -2.5017 0.9528
10.5031 5.4548 -2.5017 0.9528
10.2758 5.8718 -2.5017 0.9528
10.1559 6.0768 -2.5017 0.9528
9.9039 6.4794 -2.5017 0.9528
9.7719 6.6768 -2.5017 0.9528
9.4961 7.0635 -2.5017 0.9528
9.1962 7.4317 -2.4993 0.9528
7.5811 8.1272 -2.3493 0.9556
7.4165 8.2777 -2.3493 0.9556
7.2489 8.4248 -2.3493 0.9556
7.0784 8.5686 -2.3493 0.9556
6.5500 8.9790 -2.3493 0.9556
5.6176 9.5899 -2.3493 0.9556
3.5934 10.5172 -2.3493 0.9556
3.3816 10.5872 -2.3493 0.9556
2.9541 10.7144 -2.3493 0.9556
2.3041 10.8727 -2.3493 0.9556
1.4248 11.0225 -2.3493 0.9556
1.2034 11.0488 -2.3493 0.9556
0.9814 11.0708 -2.3493 0.9556
0.7591 11.0882 -2.3493 0.9556
0.5364 11.1012 -2.3493 0.9556
0.0906 11.1138 -2.3493 0.9556
-0.1325 11.1134 -2.3493 0.9556
-0.3554 11.1085 -2.3493 0.9556
-0.5783 11.0991 -2.3493 0.9556
-1.0232 11.0670 -2.3493 0.9556
-1.4664 11.0170 -2.3493 0.9556
-1.6872 10.9854 -2.3493 0.9556
-1.8169 9.3204 -2.0072 0.9619
-1.8051 8.3627 -1.8084 0.9656
-1.9074 8.0497 -1.7487 0.9667
-2.7791 10.7611 -2.3493 0.9556
-2.9944 10.7032 -2.3493 0.9556
-3.2086 10.6410 -2.3493 0.9556
-3.0169 9.3241 -2.0715 0.9607
-3.6330 10.5037 -2.3493 0.9556
-4.6668 10.0869 -2.3493 0.9556
-4.8683 9.9913 -2.3493 0.9556
-5.0678 9.8915 -2.3493 0.9556
-5.2653 9.7879 -2.3493 0.9556
-5.4606 9.6802 -2.3493 0.9556
-5.2398 8.4750 -2.1062 0.9601
-6.0332 9.3341 -2.3493 0.9556
-6.4028 9.0846 -2.3493 0.9556
-6.5838 8.9542 -2.3493 0.9556
-7.2806 8.3975 -2.3493 0.9556
-7.7727 7.9443 -2.3493 0.9556
-9.0612 7.5701 -2.4958 0.9529
-9.2222 7.3954 -2.4988 0.9528
-9.3798 7.2174 -2.5017 0.9528
-9.5228 7.0277 -2.5017 0.9528
-9.7971 6.6400 -2.5017 0.9528
-10.1788 6.0385 -2.5017 0.9528
-10.5237 5.4151 -2.5017 0.9528
-10.6302 5.2029 -2.5017 0.9528
-10.7325 4.9885 -2.5017 0.9528
-10.8304 4.7722 -2.5017 0.9528
-11.0132 4.3338 -2.5017 0.9528
-11.1782 3.8884 -2.5017 0.9528
-11.2540 3.6633 -2.5017 0.9528
-11.5115 2.7491 -2.5017 0.9528
-11.5644 2.5176 -2.5017 0.9528
-11.6125 2.2850 -2.5017 0.9528
-11.7290 1.5822 -2.5017 0.9528
-11.7584 1.3465 -2.5017 0.9528
-11.7830 1.1103 -2.5017 0.9528
-11.8029 0.8736 -2.5017 0.9528
-11.8285 0.3993 -2.5017 0.9528
-11.8341 0.1619 -2.5017 0.9528
-11.8350 -0.0756 -2.5017 0.9528
-11.8224 -0.5504 -2.5017 0.9528
-11.8090 -0.7875 -2.5017 0.9528
-11.7679 -1.2607 -2.5017 0.9528
-11.7402 -1.4966 -2.5017 0.9528
-11.6707 -1.9665 -2.5017 0.9528
-11.4150 -3.1256 -2.5017 0.9528
-11.2804 -3.5811 -2.5017 0.9528
-11.0446 -4.2533 -2.5017 0.9528
-10.8650 -4.6931 -2.5017 0.9528
-10.7686 -4.9101 -2.5017 0.9528
-10.6679 -5.1252 -2.5017 0.9528
-10.5630 -5.3382 -2.5017 0.9528
-10.3403 -5.7578 -2.5017 0.9528
-10.2226 -5.9641 -2.5017 0.9528
-9.7115 -6.7646 -2.5017 0.9528
-9.5738 -6.9581 -2.5017 0.9528
-9.4323 -7.1488 -2.5017 0.9528
-9.2869 -7.3366 -2.5017 0.9528
-8.8287 -7.8821 -2.5017 0.9528
-8.6687 -8.0577 -2.5017 0.9528
-8.5053 -8.2300 -2.5017 0.9528
-8.3384 -8.3990 -2.5017 0.9528
-8.1682 -8.5646 -2.5017 0.9528
-7.6381 -9.0406 -2.5017 0.9528
-7.2692 -9.3398 -2.5017 0.9528
-6.8886 -9.6239 -2.5017 0.9528
-6.0947 -10.1453 -2.5017 0.9528
-5.8900 -10.2655 -2.5017 0.9528
7.3754 -7.6752 -2.5017 0.9572
7.5280 -7.5257 -2.5017 0.9572
7.6775 -7.3731 -2.5017 0.9572
8.7573 -6.0510 -2.5017 0.9572
8.9931 -5.6948 -2.5017 0.9572
9.4208 -4.9554 -2.5017 0.9572
9.7018 -4.3795 -2.5017 0.9572
10.1576 -3.1825 -2.5017 0.9572
10.2194 -2.9781 -2.5017 0.9572
10.3307 -2.5656 -2.5017 0.9572
10.3801 -2.3578 -2.5017 0.9572
10.4253 -2.1491 -2.5017 0.9572
10.4664 -1.9394 -2.5017 0.9572
10.5357 -1.5179 -2.5017 0.9572
10.5641 -1.3062 -2.5017 0.9572
10.6080 -0.8813 -2.5017 0.9572
10.6235 -0.6682 -2.5017 0.9572
10.6348 -0.4549 -2.5017 0.9572
10.6370 0.3993 -2.5017 0.9572
10.6269 0.6127 -2.5017 0.9572
10.6124 0.8258 -2.5017 0.9572
10.5121 1.6740 -2.5017 0.9572
10.4364 2.0945 -2.5017 0.9572
10.2349 2.9246 -2.5017 0.9572
10.1741 3.1294 -2.5017 0.9572
10.0404 3.5351 -2.5017 0.9572
9.8095 4.1327 -2.5017 0.9572
9.7246 4.3287 -2.5017 0.9572
9.6358 4.5230 -2.5017 0.9572
9.4465 4.9060 -2.5017 0.9572
9.1342 5.4655 -2.5017 0.9572
9.0227 5.6477 -2.5017 0.9572
8.7889 6.0052 -2.5017 0.9572
8.1431 6.8553 -2.5017 0.9572
6.9352 7.7406 -2.4426 0.9582
6.6657 7.7471 -2.4019 0.9589
6.2104 7.8328 -2.3493 0.9598
6.0519 7.9558 -2.3493 0.9598
5.8911 8.0757 -2.3493 0.9598
5.5623 8.3056 -2.3493 0.9598
4.5244 8.9136 -2.3493 0.9598
4.3446 9.0026 -2.3493 0.9598
4.1631 9.0879 -2.3493 0.9598
3.7951 9.2476 -2.3493 0.9598
3.6088 9.3219 -2.3493 0.9598
3.2319 9.4592 -2.3493 0.9598
2.6569 9.6365 -2.3493 0.9598
2.4630 9.6879 -2.3493 0.9598
2.2681 9.7354 -2.3493 0.9598
2.0723 9.7789 -2.3493 0.9598
1.8756 9.8186 -2.3493 0.9598
1.6782 9.8542 -2.3493 0.9598
1.4802 9.8859 -2.3493 0.9598
1.2815 9.9136 -2.3493 0.9598
1.0823 9.9373 -2.3493 0.9598
0.8827 9.9570 -2.3493 0.9598
0.6827 9.9728 -2.3493 0.9598
0.2820 9.9921 -2.3493 0.9598
0.0815 9.9958 -2.3493 0.9598
-0.1191 9.9954 -2.3493 0.9598
-0.9202 9.9537 -2.3493 0.9598
-1.1198 9.9332 -2.3493 0.9598
-1.5174 9.8803 -2.3493 0.9598
-3.4564 9.3795 -2.3493 0.9598
-4.0145 9.1546 -2.3493 0.9598
-4.1974 9.0722 -2.3493 0.9598
-4.3786 8.9861 -2.3493 0.9598
-4.9113 8.7064 -2.3493 0.9598
-5.0850 8.6061 -2.3493 0.9598
-5.5936 8.2846 -2.3493 0.9598
-5.7587 8.1707 -2.3493 0.9598
-6.6748 7.6988 -2.3948 0.9590
-7.2196 7.6814 -2.4775 0.9576
-7.4260 7.5899 -2.4956 0.9573
-7.5842 7.4466 -2.4980 0.9573
-8.1690 6.8246 -2.5017 0.9572
-9.1548 5.4311 -2.5017 0.9572
-9.6528 4.4867 -2.5017 0.9572
-9.7409 4.2921 -2.5017 0.9572
-9.8251 4.0958 -2.5017 0.9572
-9.9815 3.6983 -2.5017 0.9572
-10.2459 2.8860 -2.5017 0.9572
-10.3535 2.4725 -2.5017 0.9572
-10.4010 2.2643 -2.5017 0.9572
-10.5184 1.6344 -2.5017 0.9572
-10.5755 1.2111 -2.5017 0.9572
-10.6292 0.5726 -2.5017 0.9572
-10.6409 -0.2816 -2.5017 0.9572
-10.6331 -0.4950 -2.5017 0.9572
-10.6210 -0.7083 -2.5017 0.9572
-10.5840 -1.1339 -2.5017 0.9572
-10.5592 -1.3460 -2.5017 0.9572
-10.4967 -1.7686 -2.5017 0.9572
-10.4591 -1.9789 -2.5017 0.9572
-10.4172 -2.1884 -2.5017 0.9572
-10.3210 -2.6046 -2.5017 0.9572
-10.2667 -2.8112 -2.5017 0.9572
-10.1456 -3.2208 -2.5017 0.9572
-10.0790 -3.4238 -2.5017 0.9572
-9.9335 -3.8254 -2.5017 0.9572
-9.7720 -4.2209 -2.5017 0.9572
-9.5003 -4.8012 -2.5017 0.9572
-9.4021 -4.9909 -2.5017 0.9572
-9.3000 -5.1786 -2.5017 0.9572
-9.1942 -5.3641 -2.5017 0.9572
-9.0847 -5.5475 -2.5017 0.9572
-8.8548 -5.9076 -2.5017 0.9572
-8.7345 -6.0841 -2.5017 0.9572
-8.3526 -6.5986 -2.5017 0.9572
-8.0811 -6.9284 -2.5017 0.9572
-7.1904 -7.8489 -2.5017 0.9572
-7.0315 -7.9916 -2.5017 0.9572
-6.8697 -8.1311 -2.5017 0.9572
-6.7052 -8.2673 -2.5017 0.9572
-6.3681 -8.5297 -2.5017 0.9572
-6.1956 -8.6557 -2.5017 0.9572
-6.0207 -8.7783 -2.5017 0.9572
-5.8433 -8.8974 -2.5017 0.9572
-5.6636 -9.0128 -2.5017 0.9572
-5.2974 -9.2328 -2.5017 0.9572
6.5536 -7.0998 -2.5017 0.9609
6.6948 -6.9669 -2.5017 0.9609
6.8332 -6.8312 -2.5017 0.9609
7.2319 -6.4077 -2.5017 0.9609
7.6043 -5.9609 -2.5017 0.9609
7.8373 -5.6510 -2.5017 0.9609
8.0578 -5.3320 -2.5017 0.9609
8.2652 -5.0044 -2.5017 0.9609
8.3640 -4.8375 -2.5017 0.9609
8.4594 -4.6687 -2.5017 0.9609
8.6399 -4.3255 -2.5017 0.9609
8.7249 -4.1513 -2.5017 0.9609
8.8065 -3.9754 -2.5017 0.9609
8.9589 -3.6188 -2.5017 0.9609
9.1604 -3.0733 -2.5017 0.9609
9.3287 -2.5166 -2.5017 0.9609
9.3773 -2.3288 -2.5017 0.9609
9.4222 -2.1402 -2.5017 0.9609
9.4632 -1.9507 -2.5017 0.9609
9.5004 -1.7604 -2.5017 0.9609
9.5339 -1.5694 -2.5017 0.9609
9.6290 -0.7999 -2.5017 0.9609
9.6431 -0.6066 -2.5017 0.9609
9.6554 0.3624 -2.5017 0.9609
9.6462 0.5561 -2.5017 0.9609
9.6161 0.9427 -2.5017 0.9609
9.5705 1.3278 -2.5017 0.9609
9.5095 1.7107 -2.5017 0.9609
9.4733 1.9012 -2.5017 0.9609
9.4332 2.0909 -2.5017 0.9609
9.2903 2.6547 -2.5017 0.9609
9.1138 3.2088 -2.5017 0.9609
9.0475 3.3911 -2.5017 0.9609
8.8271 3.9293 -2.5017 0.9609
8.5747 4.4533 -2.5017 0.9609
8.4837 4.6244 -2.5017 0.9609
8.2913 4.9611 -2.5017 0.9609
8.0855 5.2898 -2.5017 0.9609
7.9778 5.4510 -2.5017 0.9609
7.6353 5.9211 -2.5017 0.9609
7.5150 6.0731 -2.5017 0.9609
7.3916 6.2227 -2.5017 0.9609
7.2653 6.3697 -2.5017 0.9609
7.1360 6.5142 -2.5017 0.9609
7.0038 6.6561 -2.5017 0.9609
6.8689 6.7953 -2.5017 0.9609
6.5907 7.0654 -2.5017 0.9609
6.4476 7.1963 -2.5017 0.9609
6.1469 7.4410 -2.4990 0.9609
5.9916 7.5569 -2.4970 0.9609
5.8342 7.6697 -2.4951 0.9610
4.9644 7.7445 -2.3818 0.9627
4.5862 7.8292 -2.3493 0.9632
4.4282 7.9196 -2.3493 0.9632
3.9437 8.1717 -2.3493 0.9632
3.7789 8.2492 -2.3493 0.9632
3.6126 8.3234 -2.3493 0.9632
3.4449 8.3942 -2.3493 0.9632
3.2758 8.4616 -2.3493 0.9632
3.1053 8.5257 -2.3493 0.9632
2.5867 8.6971 -2.3493 0.9632
2.4117 8.7472 -2.3493 0.9632
2.2357 8.7938 -2.3493 0.9632
1.5234 8.9448 -2.3493 0.9632
1.3436 8.9736 -2.3493 0.9632
0.8012 9.0381 -2.3493 0.9632
-0.2902 9.0689 -2.3493 0.9632
-0.4721 9.0613 -2.3493 0.9632
-1.0164 9.0165 -2.3493 0.9632
-1.1971 8.9943 -2.3493 0.9632
-1.5571 8.9390 -2.3493 0.9632
-1.7361 8.9060 -2.3493 0.9632
-2.4447 8.7381 -2.3493 0.9632
-2.7933 8.6329 -2.3493 0.9632
-2.9660 8.5751 -2.3493 0.9632
-3.4765 8.3812 -2.3493 0.9632
-3.6440 8.3097 -2.3493 0.9632
-3.8100 8.2349 -2.3493 0.9632
-4.1374 8.0754 -2.3493 0.9632
-4.4580 7.9029 -2.3493 0.9632
-4.6157 7.8119 -2.3493 0.9632
-4.7729 7.7198 -2.3500 0.9632
-5.4238 7.6955 -2.4377 0.9618
-5.6532 7.6885 -2.4709 0.9613
-6.3267 7.2972 -2.5006 0.9609
-6.4747 7.1720 -2.5017 0.9609
-6.8945 6.7694 -2.5017 0.9609
-7.0289 6.6297 -2.5017 0.9609
-7.2893 6.3423 -2.5017 0.9609
-7.5379 6.0448 -2.5017 0.9609
-7.9983 5.4209 -2.5017 0.9609
-8.1055 5.2593 -2.5017 0.9609
-8.4072 4.7621 -2.5017 0.9609
-8.5011 4.5924 -2.5017 0.9609
-8.6785 4.2476 -2.5017 0.9609
-8.7620 4.0726 -2.5017 0.9609
-9.0603 3.3570 -2.5017 0.9609
-9.1259 3.1745 -2.5017 0.9609
-9.1877 2.9907 -2.5017 0.9609
-9.2459 2.8058 -2.5017 0.9609
-9.3979 2.2444 -2.5017 0.9609
-9.4411 2.0554 -2.5017 0.9609
-9.4804 1.8655 -2.5017 0.9609
-9.5160 1.6749 -2.5017 0.9609
-9.5755 1.2917 -2.5017 0.9609
-9.5995 1.0993 -2.5017 0.9609
-9.6196 0.9064 -2.5017 0.9609
-9.6359 0.7132 -2.5017 0.9609
-9.6613 0.1322 -2.5017 0.9609
-9.6620 -0.0617 -2.5017 0.9609
-9.6589 -0.2556 -2.5017 0.9609
-9.6518 -0.4493 -2.5017 0.9609
-9.6408 -0.6429 -2.5017 0.9609
-9.6260 -0.8362 -2.5017 0.9609
-9.5847 -1.2218 -2.5017 0.9609
-9.5582 -1.4139 -2.5017 0.9609
-9.4938 -1.7963 -2.5017 0.9609
-9.3192 -2.5517 -2.5017 0.9609
-9.2661 -2.7382 -2.5017 0.9609
-9.2093 -2.9236 -2.5017 0.9609
-9.1488 -3.1078 -2.5017 0.9609
-9.0846 -3.2907 -2.5017 0.9609
-9.0167 -3.4724 -2.5017 0.9609
-8.9452 -3.6526 -2.5017 0.9609
-8.8701 -3.8314 -2.5017 0.9609
-8.7915 -4.0086 -2.5017 0.9609
-8.7093 -4.1842 -2.5017 0.9609
-8.6236 -4.3581 -2.5017 0.9609
-8.5344 -4.5303 -2.5017 0.9609
-8.4417 -4.7006 -2.5017 0.9609
-8.3457 -4.8691 -2.5017 0.9609
-8.2463 -5.0356 -2.5017 0.9609
-8.1436 -5.2000 -2.5017 0.9609
-8.0376 -5.3624 -2.5017 0.9609
-7.8160 -5.6806 -2.5017 0.9609
-7.7005 -5.8362 -2.5017 0.9609
-7.4601 -6.1405 -2.5017 0.9609
-7.2077 -6.4349 -2.5017 0.9609
-6.2357 -7.3807 -2.5017 0.9609
-6.0864 -7.5043 -2.5017 0.9609
-5.9346 -7.6249 -2.5017 0.9609
-5.4650 -7.9682 -2.5017 0.9609
-5.1409 -8.1811 -2.5017 0.9609
-4.9757 -8.2826 -2.5017 0.9609
5.9940 -6.4935 -2.5017 0.9639
6.2497 -6.2478 -2.5017 0.9639
6.6143 -5.8605 -2.5017 0.9639
6.7306 -5.7266 -2.5017 0.9639
6.9549 -5.4519 -2.5017 0.9639
7.1681 -5.1684 -2.5017 0.9639
7.5594 -4.5771 -2.5017 0.9639
7.6497 -4.4244 -2.5017 0.9639
7.7370 -4.2700 -2.5017 0.9639
7.9799 -3.7968 -2.5017 0.9639
8.0544 -3.6359 -2.5017 0.9639
8.4842 -2.4724 -2.5017 0.9639
8.5321 -2.3016 -2.5017 0.9639
8.6175 -1.9574 -2.5017 0.9639
8.7467 -1.2602 -2.5017 0.9639
8.7903 -0.9082 -2.5017 0.9639
8.8196 -0.5548 -2.5017 0.9639
8.8348 -0.2004 -2.5017 0.9639
8.8370 -0.0231 -2.5017 0.9639
8.8308 0.3315 -2.5017 0.9639
8.7758 1.0385 -2.5017 0.9639
8.5876 2.0851 -2.5017 0.9639
8.5440 2.2570 -2.5017 0.9639
8.4465 2.5980 -2.5017 0.9639
8.3927 2.7670 -2.5017 0.9639
8.2749 3.1015 -2.5017 0.9639
8.1438 3.4310 -2.5017 0.9639
8.0733 3.5937 -2.5017 0.9639
7.9996 3.7550 -2.5017 0.9639
7.9226 3.9148 -2.5017 0.9639
7.8425 4.0729 -2.5017 0.9639
7.1950 5.1309 -2.5017 0.9639
6.9833 5.4154 -2.5017 0.9639
6.7604 5.6913 -2.5017 0.9639
6.5266 5.9579 -2.5017 0.9639
6.2823 6.2150 -2.5017 0.9639
6.0279 6.4621 -2.5017 0.9639
5.8970 6.5817 -2.5017 0.9639
5.7637 6.6987 -2.5017 0.9639
5.3502 7.0334 -2.5017 0.9639
5.2080 7.1393 -2.5017 0.9639
4.9152 7.3393 -2.5006 0.9639
4.7639 7.4318 -2.4990 0.9640
3.3583 7.7374 -2.3878 0.9655
3.1765 7.7403 -2.3686 0.9658
2.9992 7.7470 -2.3517 0.9661
2.8401 7.7976 -2.3493 0.9661
2.5250 7.9053 -2.3493 0.9661
2.2057 8.0002 -2.3493 0.9661
1.8830 8.0823 -2.3493 0.9661
1.5572 8.1513 -2.3493 0.9661
1.2288 8.2072 -2.3493 0.9661
1.0639 8.2303 -2.3493 0.9661
0.8985 8.2499 -2.3493 0.9661
0.7328 8.2663 -2.3493 0.9661
0.4005 8.2891 -2.3493 0.9661
-0.4318 8.2875 -2.3493 0.9661
-0.5980 8.2772 -2.3493 0.9661
-0.9296 8.2465 -2.3493 0.9661
-1.2598 8.2025 -2.3493 0.9661
-1.4241 8.1756 -2.3493 0.9661
-1.9074 8.0497 -2.3419 0.9662
-2.2359 7.9919 -2.3493 0.9661
-2.5548 7.8957 -2.3493 0.9661
-2.7127 7.8429 -2.3493 0.9661
-3.2011 7.7172 -2.3652 0.9659
-3.3823 7.7130 -2.3842 0.9656
-3.7538 7.7039 -2.4260 0.9650
-3.9445 7.6989 -2.4489 0.9647
-4.6389 7.5030 -2.4972 0.9640
-4.9423 7.3199 -2.5003 0.9639
-5.0910 7.2233 -2.5017 0.9639
-5.2349 7.1197 -2.5017 0.9639
-5.5164 6.9039 -2.5017 0.9639
-5.9218 6.5595 -2.5017 0.9639
-6.4287 6.0636 -2.5017 0.9639
-6.6668 5.8007 -2.5017 0.9639
-6.7818 5.6658 -2.5017 0.9639
-7.2143 5.1037 -2.5017 0.9639
-7.4133 4.8102 -2.5017 0.9639
-7.5083 4.6604 -2.5017 0.9639
-7.6893 4.3554 -2.5017 0.9639
-7.7751 4.2003 -2.5017 0.9639
-7.8578 4.0434 -2.5017 0.9639
-8.2233 3.2359 -2.5017 0.9639
-8.2866 3.0703 -2.5017 0.9639
-8.3465 2.9034 -2.5017 0.9639
-8.4031 2.7353 -2.5017 0.9639
-8.5525 2.2248 -2.5017 0.9639
-8.7033 1.5319 -2.5017 0.9639
-8.7797 1.0054 -2.5017 0.9639
-8.7981 0.8290 -2.5017 0.9639
-8.8369 -0.0564 -2.5017 0.9639
-8.8340 -0.2337 -2.5017 0.9639
-8.8276 -0.4110 -2.5017 0.9639
-8.8175 -0.5880 -2.5017 0.9639
-8.7662 -1.1175 -2.5017 0.9639
-8.7420 -1.2932 -2.5017 0.9639
-8.6102 -1.9899 -2.5017 0.9639
-8.5685 -2.1623 -2.5017 0.9639
-8.5234 -2.3338 -2.5017 0.9639
-8.4748 -2.5044 -2.5017 0.9639
-8.3088 -3.0097 -2.5017 0.9639
-8.0407 -3.6663 -2.5017 0.9639
-7.9655 -3.8269 -2.5017 0.9639
-7.8056 -4.1434 -2.5017 0.9639
-7.3513 -4.9045 -2.5017 0.9639
-7.2514 -5.0510 -2.5017 0.9639
-7.1485 -5.1955 -2.5017 0.9639
-6.9343 -5.4781 -2.5017 0.9639
-6.8230 -5.6161 -2.5017 0.9639
-6.2261 -6.2714 -2.5017 0.9639
-5.9695 -6.5161 -2.5017 0.9639
-5.8375 -6.6346 -2.5017 0.9639
-5.7032 -6.7504 -2.5017 0.9639
-5.5666 -6.8635 -2.5017 0.9639
-5.4278 -6.9738 -2.5017 0.9639
-5.1436 -7.1860 -2.5017 0.9639
-4.7019 -7.4824 -2.5017 0.9639
5.5168 -5.9766 -2.5017 0.9665
5.7522 -5.7504 -2.5017 0.9665
6.0877 -5.3939 -2.5017 0.9665
6.1948 -5.2707 -2.5017 0.9665
6.2993 -5.1453 -2.5017 0.9665
6.5974 -4.7570 -2.5017 0.9665
7.0408 -4.0722 -2.5017 0.9665
7.1210 -3.9301 -2.5017 0.9665
7.1985 -3.7864 -2.5017 0.9665
7.2730 -3.6412 -2.5017 0.9665
7.3446 -3.4945 -2.5017 0.9665
7.4789 -3.1970 -2.5017 0.9665
7.7112 -2.5871 -2.5017 0.9665
7.8088 -2.2756 -2.5017 0.9665
7.8529 -2.1184 -2.5017 0.9665
8.0256 -1.3212 -2.5017 0.9665
8.0721 -0.9981 -2.5017 0.9665
8.0905 -0.8359 -2.5017 0.9665
8.1056 -0.6734 -2.5017 0.9665
8.1175 -0.5106 -2.5017 0.9665
8.1315 -0.1845 -2.5017 0.9665
8.1323 0.1419 -2.5017 0.9665
8.1201 0.4681 -2.5017 0.9665
8.0948 0.7936 -2.5017 0.9665
8.0772 0.9558 -2.5017 0.9665
8.0564 1.1177 -2.5017 0.9665
8.0324 1.2792 -2.5017 0.9665
7.9408 1.7601 -2.5017 0.9665
7.8206 2.2347 -2.5017 0.9665
7.7246 2.5467 -2.5017 0.9665
7.6719 2.7012 -2.5017 0.9665
7.3628 3.4561 -2.5017 0.9665
7.2919 3.6031 -2.5017 0.9665
7.2182 3.7487 -2.5017 0.9665
6.9796 4.1762 -2.5017 0.9665
6.8944 4.3154 -2.5017 0.9665
6.8064 4.4529 -2.5017 0.9665
6.7156 4.5886 -2.5017 0.9665
6.5261 4.8544 -2.5017 0.9665
6.3261 5.1123 -2.5017 0.9665
6.0070 5.4836 -2.5017 0.9665
5.7822 5.7203 -2.5017 0.9665
5.5480 5.9477 -2.5017 0.9665
5.4275 6.0578 -2.5017 0.9665
5.3049 6.1655 -2.5017 0.9665
4.7934 6.5710 -2.5017 0.9665
4.1111 7.0181 -2.5017 0.9665
3.9695 7.0992 -2.5017 0.9665
3.6814 7.2527 -2.5017 0.9665
3.3847 7.3886 -2.4997 0.9666
3.0829 7.5121 -2.4976 0.9666
2.4642 7.7150 -2.4911 0.9667
2.1282 7.7190 -2.4628 0.9670
1.9629 7.7207 -2.4503 0.9672
1.6367 7.7235 -2.4283 0.9675
1.3157 7.7256 -2.4104 0.9677
1.1568 7.7264 -2.4030 0.9678
0.9988 7.7270 -2.3964 0.9679
0.6851 7.7277 -2.3862 0.9681
0.3734 7.7278 -2.3797 0.9681
0.2181 7.7276 -2.3778 0.9682
0.0630 7.7272 -2.3768 0.9682
-0.0921 7.7266 -2.3767 0.9682
-0.2472 7.7259 -2.3775 0.9682
-0.4025 7.7250 -2.3793 0.9681
-0.7140 7.7227 -2.3855 0.9681
-1.1853 7.7179 -2.4017 0.9679
-1.3440 7.7160 -2.4090 0.9678
-1.5037 7.7138 -2.4173 0.9676
-1.9902 7.7063 -2.4481 0.9672
-2.3219 7.7003 -2.4738 0.9669
-2.6511 7.6649 -2.4946 0.9666
-2.9587 7.5579 -2.4964 0.9666
-3.1110 7.4999 -2.4974 0.9666
-3.2622 7.4390 -2.4984 0.9666
-3.4122 7.3752 -2.4995 0.9666
-3.7087 7.2388 -2.5017 0.9665
-3.8533 7.1630 -2.5017 0.9665
-3.9962 7.0842 -2.5017 0.9665
-4.2772 6.9181 -2.5017 0.9665
-4.4152 6.8309 -2.5017 0.9665
-4.5514 6.7409 -2.5017 0.9665
-4.8182 6.5529 -2.5017 0.9665
-5.0772 6.3543 -2.5017 0.9665
-5.5704 5.9267 -2.5017 0.9665
-5.6882 5.8137 -2.5017 0.9665
-5.8037 5.6984 -2.5017 0.9665
-5.9169 5.5808 -2.5017 0.9665
-6.1360 5.3389 -2.5017 0.9665
-6.2420 5.2147 -2.5017 0.9665
-6.3454 5.0884 -2.5017 0.9665
-6.5444 4.8297 -2.5017 0.9665
-6.8231 4.4272 -2.5017 0.9665
-6.9953 4.1499 -2.5017 0.9665
-7.1561 3.8659 -2.5017 0.9665
-7.3758 3.4283 -2.5017 0.9665
-7.5074 3.1296 -2.5017 0.9665
-7.6821 2.6722 -2.5017 0.9665
-7.8290 2.2052 -2.5017 0.9665
-7.9806 1.5704 -2.5017 0.9665
-8.0105 1.4099 -2.5017 0.9665
-8.0372 1.2489 -2.5017 0.9665
-8.0606 1.0873 -2.5017 0.9665
-8.0808 0.9254 -2.5017 0.9665
-8.0977 0.7631 -2.5017 0.9665
-8.1114 0.6004 -2.5017 0.9665
-8.1218 0.4375 -2.5017 0.9665
-8.1290 0.2744 -2.5017 0.9665
-8.1329 0.1113 -2.5017 0.9665
-8.1335 -0.0519 -2.5017 0.9665
-8.1156 -0.5412 -2.5017 0.9665
-8.0683 -1.0285 -2.5017 0.9665
-7.9918 -1.5121 -2.5017 0.9665
-7.9599 -1.6721 -2.5017 0.9665
-7.8864 -1.9902 -2.5017 0.9665
-7.8449 -2.1480 -2.5017 0.9665
-7.7523 -2.4611 -2.5017 0.9665
-7.6474 -2.7701 -2.5017 0.9665
-7.5902 -2.9230 -2.5017 0.9665
-7.5301 -3.0747 -2.5017 0.9665
-7.4006 -3.3744 -2.5017 0.9665
-7.2593 -3.6686 -2.5017 0.9665
-7.1842 -3.8136 -2.5017 0.9665
-7.1062 -3.9570 -2.5017 0.9665
-6.3823 -5.0420 -2.5017 0.9665
-6.1749 -5.2940 -2.5017 0.9665
-5.4943 -5.9974 -2.5017 0.9665
-5.3728 -6.1064 -2.5017 0.9665
-5.1235 -6.3171 -2.5017 0.9665
-4.9957 -6.4186 -2.5017 0.9665
-4.8659 -6.5176 -2.5017 0.9665
-4.7341 -6.6139 -2.5017 0.9665
-4.3276 -6.8868 -2.5017 0.9665
-4.1885 -6.9722 -2.5017 0.9665
5.1048 -5.5302 -2.5017 0.9688
5.2147 -5.4267 -2.5017 0.9688
5.3226 -5.3209 -2.5017 0.9688
5.4282 -5.2131 -2.5017 0.9688
5.5318 -5.1031 -2.5017 0.9688
5.6331 -4.9911 -2.5017 0.9688
5.9232 -4.6431 -2.5017 0.9688
6.0151 -4.5233 -2.5017 0.9688
6.1918 -4.2783 -2.5017 0.9688
6.2764 -4.1532 -2.5017 0.9688
6.3585 -4.0264 -2.5017 0.9688
6.4380 -3.8980 -2.5017 0.9688
6.5149 -3.7681 -2.5017 0.9688
6.6608 -3.5036 -2.5017 0.9688
6.7961 -3.2336 -2.5017 0.9688
6.9203 -2.9582 -2.5017 0.9688
6.9783 -2.8188 -2.5017 0.9688
7.1818 -2.2502 -2.5017 0.9688
7.2255 -2.1056 -2.5017 0.9688
7.2663 -1.9602 -2.5017 0.9688
7.3042 -1.8140 -2.5017 0.9688
7.3711 -1.5195 -2.5017 0.9688
7.4001 -1.3712 -2.5017 0.9688
7.4492 -1.0732 -2.5017 0.9688
7.4692 -0.9235 -2.5017 0.9688
7.4862 -0.7735 -2.5017 0.9688
7.5112 -0.4725 -2.5017 0.9688
7.5192 -0.3217 -2.5017 0.9688
7.5249 0.1313 -2.5017 0.9688
7.5208 0.2823 -2.5017 0.9688
7.4739 0.8845 -2.5017 0.9688
7.4324 1.1836 -2.5017 0.9688
7.1935 2.2126 -2.5017 0.9688
7.1476 2.3565 -2.5017 0.9688
6.9929 2.7823 -2.5017 0.9688
6.9357 2.9220 -2.5017 0.9688
6.8757 3.0606 -2.5017 0.9688
6.8129 3.1980 -2.5017 0.9688
6.7473 3.3340 -2.5017 0.9688
6.6791 3.4687 -2.5017 0.9688
6.5345 3.7339 -2.5017 0.9688
6.4583 3.8643 -2.5017 0.9688
6.3794 3.9931 -2.5017 0.9688
6.2980 4.1203 -2.5017 0.9688
6.0387 4.4918 -2.5017 0.9688
5.6591 4.9615 -2.5017 0.9688
5.5584 5.0741 -2.5017 0.9688
5.4554 5.1846 -2.5017 0.9688
5.3503 5.2930 -2.5017 0.9688
5.1336 5.5034 -2.5017 0.9688
4.9087 5.7050 -2.5017 0.9688
4.5565 5.9900 -2.5017 0.9688
4.4354 6.0802 -2.5017 0.9688
4.1879 6.2533 -2.5017 0.9688
4.0616 6.3361 -2.5017 0.9688
3.9336 6.4163 -2.5017 0.9688
3.6730 6.5689 -2.5017 0.9688
3.4065 6.7110 -2.5017 0.9688
3.2711 6.7780 -2.5017 0.9688
2.8574 6.9626 -2.5017 0.9688
2.7171 7.0185 -2.5017 0.9688
2.5757 7.0716 -2.5017 0.9688
2.4333 7.1219 -2.5017 0.9688
2.2899 7.1693 -2.5017 0.9688
2.1456 7.2138 -2.5017 0.9688
1.5592 7.3578 -2.5001 0.9688
1.2623 7.4117 -2.4992 0.9688
0.9636 7.4542 -2.4984 0.9688
0.8137 7.4711 -2.4981 0.9688
0.5132 7.4964 -2.4977 0.9688
0.3626 7.5047 -2.4975 0.9688
0.2120 7.5102 -2.4974 0.9688
0.0612 7.5127 -2.4974 0.9688
-0.2403 7.5093 -2.4974 0.9688
-0.3909 7.5032 -2.4975 0.9688
-1.2902 7.4066 -2.4991 0.9688
-1.4388 7.3805 -2.4995 0.9688
-1.7344 7.3198 -2.5005 0.9688
-2.0277 7.2478 -2.5017 0.9688
-2.6024 7.0619 -2.5017 0.9688
-2.8836 6.9518 -2.5017 0.9688
-3.0225 6.8925 -2.5017 0.9688
-3.1602 6.8304 -2.5017 0.9688
-3.2966 6.7657 -2.5017 0.9688
-3.4317 6.6982 -2.5017 0.9688
-3.6977 6.5551 -2.5017 0.9688
-4.5791 5.9728 -2.5017 0.9688
-4.6980 5.8797 -2.5017 0.9688
-4.9301 5.6865 -2.5017 0.9688
-5.0433 5.5864 -2.5017 0.9688
-5.2634 5.3795 -2.5017 0.9688
-5.6778 4.9402 -2.5017 0.9688
-5.7758 4.8253 -2.5017 0.9688
-5.8714 4.7084 -2.5017 0.9688
-5.9647 4.5896 -2.5017 0.9688
-6.3944 3.9690 -2.5017 0.9688
-6.4728 3.8399 -2.5017 0.9688
-6.5485 3.7093 -2.5017 0.9688
-6.6217 3.5771 -2.5017 0.9688
-6.6921 3.4435 -2.5017 0.9688
-6.7599 3.3086 -2.5017 0.9688
-6.8249 3.1723 -2.5017 0.9688
-6.9467 2.8959 -2.5017 0.9688
-7.0034 2.7559 -2.5017 0.9688
-7.0573 2.6148 -2.5017 0.9688
-7.1083 2.4727 -2.5017 0.9688
-7.1565 2.3295 -2.5017 0.9688
-7.2018 2.1854 -2.5017 0.9688
-7.2442 2.0405 -2.5017 0.9688
-7.4122 1.3046 -2.5017 0.9688
-7.4369 1.1556 -2.5017 0.9688
-7.4586 1.0061 -2.5017 0.9688
-7.4773 0.8563 -2.5017 0.9688
-7.5056 0.5555 -2.5017 0.9688
-7.5152 0.4048 -2.5017 0.9688
-7.5254 0.1029 -2.5017 0.9688
-7.5260 -0.0481 -2.5017 0.9688
-7.5180 -0.3500 -2.5017 0.9688
-7.5094 -0.5008 -2.5017 0.9688
-7.4979 -0.6514 -2.5017 0.9688
-7.4833 -0.8017 -2.5017 0.9688
-7.4657 -0.9517 -2.5017 0.9688
-7.4451 -1.1013 -2.5017 0.9688
-7.3949 -1.3991 -2.5017 0.9688
-7.3328 -1.6947 -2.5017 0.9688
-7.2973 -1.8415 -2.5017 0.9688
-7.2589 -1.9876 -2.5017 0.9688
-7.2176 -2.1329 -2.5017 0.9688
-6.9676 -2.8451 -2.5017 0.9688
-6.9091 -2.9843 -2.5017 0.9688
-6.8479 -3.1224 -2.5017 0.9688
-6.7838 -3.2592 -2.5017 0.9688
-6.5007 -3.7926 -2.5017 0.9688
-6.4232 -3.9223 -2.5017 0.9688
-6.1756 -4.3016 -2.5017 0.9688
-5.9981 -4.5460 -2.5017 0.9688
-5.6142 -5.0123 -2.5017 0.9688
-5.4086 -5.2335 -2.5017 0.9688
-5.3025 -5.3410 -2.5017 0.9688
-5.1942 -5.4463 -2.5017 0.9688
-4.8571 -5.7490 -2.5017 0.9688
-4.7408 -5.8453 -2.5017 0.9688
-4.6226 -5.9392 -2.5017 0.9688
-4.3805 -6.1199 -2.5017 0.9688
-4.1315 -6.2908 -2.5017 0.9688
-4.0044 -6.3724 -2.5017 0.9688
-3.8757 -6.4515 -2.5017 0.9688
4.7450 -5.1405 -2.5017 0.9707
4.9475 -4.9460 -2.5017 0.9707
5.0457 -4.8457 -2.5017 0.9707
5.1419 -4.7435 -2.5017 0.9707
5.3281 -4.5333 -2.5017 0.9707
5.4180 -4.4255 -2.5017 0.9707
5.5057 -4.3159 -2.5017 0.9707
5.5912 -4.2046 -2.5017 0.9707
5.9104 -3.7427 -2.5017 0.9707
5.9843 -3.6233 -2.5017 0.9707
6.0558 -3.5025 -2.5017 0.9707
6.2555 -3.1318 -2.5017 0.9707
6.3171 -3.0057 -2.5017 0.9707
6.7543 -1.8221 -2.5017 0.9707
6.8219 -1.5496 -2.5017 0.9707
6.9587 -0.7190 -2.5017 0.9707
6.9819 -0.4392 -2.5017 0.9707
6.9893 -0.2990 -2.5017 0.9707
6.9908 0.2624 -2.5017 0.9707
6.9746 0.5427 -2.5017 0.9707
6.9623 0.6825 -2.5017 0.9707
6.9472 0.8221 -2.5017 0.9707
6.9293 0.9614 -2.5017 0.9707
6.8299 1.5139 -2.5017 0.9707
6.6865 2.0566 -2.5017 0.9707
6.5986 2.3233 -2.5017 0.9707
6.5507 2.4552 -2.5017 0.9707
6.4469 2.7161 -2.5017 0.9707
6.3911 2.8449 -2.5017 0.9707
6.2718 3.0990 -2.5017 0.9707
6.0740 3.4708 -2.5017 0.9707
5.9298 3.7117 -2.5017 0.9707
5.8542 3.8300 -2.5017 0.9707
5.6958 4.0618 -2.5017 0.9707
5.4411 4.3971 -2.5017 0.9707
5.3517 4.5054 -2.5017 0.9707
4.9733 4.9200 -2.5017 0.9707
4.7718 5.1156 -2.5017 0.9707
4.6682 5.2103 -2.5017 0.9707
4.5627 5.3029 -2.5017 0.9707
4.3463 5.4817 -2.5017 0.9707
4.2354 5.5678 -2.5017 0.9707
4.1228 5.6517 -2.5017 0.9707
4.0086 5.7333 -2.5017 0.9707
3.8928 5.8126 -2.5017 0.9707
3.6564 5.9641 -2.5017 0.9707
3.2909 6.1733 -2.5017 0.9707
2.9135 6.3601 -2.5017 0.9707
2.6560 6.4719 -2.5017 0.9707
2.5256 6.5239 -2.5017 0.9707
2.3942 6.5732 -2.5017 0.9707
2.1285 6.6640 -2.5017 0.9707
1.9944 6.7054 -2.5017 0.9707
1.8594 6.7441 -2.5017 0.9707
1.7237 6.7800 -2.5017 0.9707
1.5873 6.8132 -2.5017 0.9707
1.1745 6.8964 -2.5017 0.9707
0.8969 6.9380 -2.5017 0.9707
0.7575 6.9546 -2.5017 0.9707
0.4778 6.9794 -2.5017 0.9707
0.3377 6.9876 -2.5017 0.9707
-0.0834 6.9952 -2.5017 0.9707
-0.2237 6.9921 -2.5017 0.9707
-0.5041 6.9775 -2.5017 0.9707
-0.6440 6.9660 -2.5017 0.9707
-0.7837 6.9517 -2.5017 0.9707
-0.9230 6.9346 -2.5017 0.9707
-1.3386 6.8664 -2.5017 0.9707
-2.1536 6.6560 -2.5017 0.9707
-2.4189 6.5642 -2.5017 0.9707
-2.5502 6.5143 -2.5017 0.9707
-2.6804 6.4619 -2.5017 0.9707
-2.8095 6.4068 -2.5017 0.9707
-3.1899 6.2261 -2.5017 0.9707
-3.4371 6.0931 -2.5017 0.9707
-3.5587 6.0229 -2.5017 0.9707
-3.6789 5.9503 -2.5017 0.9707
-3.7975 5.8753 -2.5017 0.9707
-4.4757 5.3766 -2.5017 0.9707
-4.5827 5.2857 -2.5017 0.9707
-4.7911 5.0976 -2.5017 0.9707
-4.8924 5.0004 -2.5017 0.9707
-5.1844 4.6970 -2.5017 0.9707
-5.2776 4.5920 -2.5017 0.9707
-5.7111 4.0403 -2.5017 0.9707
-5.8686 3.8079 -2.5017 0.9707
-5.9438 3.6893 -2.5017 0.9707
-6.0166 3.5693 -2.5017 0.9707
-6.3439 2.9487 -2.5017 0.9707
-6.4571 2.6918 -2.5017 0.9707
-6.5599 2.4305 -2.5017 0.9707
-6.6074 2.2984 -2.5017 0.9707
-6.6522 2.1654 -2.5017 0.9707
-6.7337 1.8967 -2.5017 0.9707
-6.7704 1.7612 -2.5017 0.9707
-6.9649 0.6563 -2.5017 0.9707
-6.9766 0.5164 -2.5017 0.9707
-6.9856 0.3763 -2.5017 0.9707
-6.9933 -0.1850 -2.5017 0.9707
-6.9882 -0.3253 -2.5017 0.9707
-6.9695 -0.6055 -2.5017 0.9707
-6.9396 -0.8846 -2.5017 0.9707
-6.8161 -1.5753 -2.5017 0.9707
-6.7474 -1.8475 -2.5017 0.9707
-6.7089 -1.9825 -2.5017 0.9707
-6.6240 -2.2501 -2.5017 0.9707
-6.4766 -2.6446 -2.5017 0.9707
-6.2437 -3.1554 -2.5017 0.9707
-6.1791 -3.2801 -2.5017 0.9707
-6.0425 -3.5253 -2.5017 0.9707
-5.9706 -3.6459 -2.5017 0.9707
-5.5753 -4.2256 -2.5017 0.9707
-5.4894 -4.3366 -2.5017 0.9707
-5.2186 -4.6591 -2.5017 0.9707
-5.1240 -4.7629 -2.5017 0.9707
-4.7256 -5.1584 -2.5017 0.9707
-4.6212 -5.2522 -2.5017 0.9707
-4.5148 -5.3438 -2.5017 0.9707
-4.0718 -5.6886 -2.5017 0.9707
-3.8403 -5.8474 -2.5017 0.9707
4.4279 -4.7970 -2.5017 0.9724
4.5233 -4.7071 -2.5017 0.9724
4.6168 -4.6154 -2.5017 0.9724
4.8861 -4.3293 -2.5017 0.9724
4.9720 -4.2304 -2.5017 0.9724
5.0559 -4.1297 -2.5017 0.9724
5.1378 -4.0275 -2.5017 0.9724
5.2176 -3.9236 -2.5017 0.9724
5.3708 -3.7110 -2.5017 0.9724
5.5843 -3.3812 -2.5017 0.9724
5.7155 -3.1544 -2.5017 0.9724
5.8375 -2.9225 -2.5017 0.9724
5.9500 -2.6859 -2.5017 0.9724
6.0530 -2.4450 -2.5017 0.9724
6.1462 -2.2002 -2.5017 0.9724
6.1891 -2.0764 -2.5017 0.9724
6.2296 -1.9518 -2.5017 0.9724
6.3029 -1.7003 -2.5017 0.9724
6.3660 -1.4460 -2.5017 0.9724
6.3937 -1.3180 -2.5017 0.9724
6.4415 -1.0604 -2.5017 0.9724
6.4615 -0.9309 -2.5017 0.9724
6.4788 -0.8011 -2.5017 0.9724
6.4936 -0.6709 -2.5017 0.9724
6.5222 -0.2790 -2.5017 0.9724
6.5281 -0.0171 -2.5017 0.9724
6.5272 0.1139 -2.5017 0.9724
6.5236 0.2449 -2.5017 0.9724
6.5173 0.3757 -2.5017 0.9724
6.5085 0.5064 -2.5017 0.9724
6.4970 0.6369 -2.5017 0.9724
6.4662 0.8971 -2.5017 0.9724
6.4469 1.0267 -2.5017 0.9724
6.4005 1.2845 -2.5017 0.9724
6.3735 1.4127 -2.5017 0.9724
6.3438 1.5403 -2.5017 0.9724
6.2397 1.9192 -2.5017 0.9724
6.1576 2.1680 -2.5017 0.9724
6.1129 2.2911 -2.5017 0.9724
6.0657 2.4133 -2.5017 0.9724
6.0161 2.5346 -2.5017 0.9724
5.7934 3.0088 -2.5017 0.9724
5.7319 3.1245 -2.5017 0.9724
5.3901 3.6829 -2.5017 0.9724
5.3151 3.7903 -2.5017 0.9724
4.9941 4.2043 -2.5017 0.9724
4.9087 4.3037 -2.5017 0.9724
4.8214 4.4013 -2.5017 0.9724
4.6409 4.5912 -2.5017 0.9724
4.5478 4.6834 -2.5017 0.9724
4.4529 4.7737 -2.5017 0.9724
4.1577 5.0330 -2.5017 0.9724
4.0558 5.1154 -2.5017 0.9724
3.7407 5.3502 -2.5017 0.9724
3.6326 5.4241 -2.5017 0.9724
3.5230 5.4959 -2.5017 0.9724
3.1860 5.6979 -2.5017 0.9724
2.9548 5.8212 -2.5017 0.9724
2.8374 5.8793 -2.5017 0.9724
2.7188 5.9351 -2.5017 0.9724
2.5992 5.9884 -2.5017 0.9724
2.2342 6.1340 -2.5017 0.9724
1.7351 6.2934 -2.5017 0.9724
1.6085 6.3269 -2.5017 0.9724
1.4812 6.3579 -2.5017 0.9724
0.7068 6.4898 -2.5017 0.9724
0.3151 6.5206 -2.5017 0.9724
-0.2088 6.5248 -2.5017 0.9724
-0.4704 6.5112 -2.5017 0.9724
-0.6010 6.5005 -2.5017 0.9724
-0.8613 6.4711 -2.5017 0.9724
-0.9910 6.4525 -2.5017 0.9724
-1.1203 6.4313 -2.5017 0.9724
-1.3774 6.3812 -2.5017 0.9724
-1.5052 6.3523 -2.5017 0.9724
-1.7589 6.2868 -2.5017 0.9724
-2.0097 6.2111 -2.5017 0.9724
-2.3798 6.0790 -2.5017 0.9724
-2.6217 5.9786 -2.5017 0.9724
-2.7412 5.9248 -2.5017 0.9724
-3.2074 5.6859 -2.5017 0.9724
-3.4330 5.5527 -2.5017 0.9724
-3.6530 5.4104 -2.5017 0.9724
-4.4709 4.7569 -2.5017 0.9724
-4.7490 4.4793 -2.5017 0.9724
-4.9249 4.2851 -2.5017 0.9724
-5.0099 4.1854 -2.5017 0.9724
-5.1738 3.9811 -2.5017 0.9724
-5.3294 3.7703 -2.5017 0.9724
-5.5466 3.4428 -2.5017 0.9724
-5.6145 3.3308 -2.5017 0.9724
-5.7437 3.1028 -2.5017 0.9724
-5.8048 2.9870 -2.5017 0.9724
-6.0748 2.3905 -2.5017 0.9724
-6.1215 2.2681 -2.5017 0.9724
-6.2469 1.8957 -2.5017 0.9724
-6.2837 1.7699 -2.5017 0.9724
-6.4508 1.0024 -2.5017 0.9724
-6.4858 0.7427 -2.5017 0.9724
-6.4994 0.6124 -2.5017 0.9724
-6.5259 -0.1727 -2.5017 0.9724
-6.5037 -0.5650 -2.5017 0.9724
-6.4910 -0.6954 -2.5017 0.9724
-6.4374 -1.0847 -2.5017 0.9724
-6.0921 -2.3461 -2.5017 0.9724
-5.9930 -2.5886 -2.5017 0.9724
-5.8843 -2.8270 -2.5017 0.9724
-5.8264 -2.9445 -2.5017 0.9724
-5.7662 -3.0608 -2.5017 0.9724
-5.7036 -3.1759 -2.5017 0.9724
-5.6387 -3.2897 -2.5017 0.9724
-5.5022 -3.5133 -2.5017 0.9724
-5.4306 -3.6230 -2.5017 0.9724
-5.2808 -3.8380 -2.5017 0.9724
-5.2027 -3.9432 -2.5017 0.9724
-5.1226 -4.0468 -2.5017 0.9724
-5.0403 -4.1488 -2.5017 0.9724
-4.9561 -4.2491 -2.5017 0.9724
-4.8698 -4.3477 -2.5017 0.9724
-4.6914 -4.5396 -2.5017 0.9724
-4.5994 -4.6328 -2.5017 0.9724
-4.5055 -4.7242 -2.5017 0.9724
-4.4098 -4.8136 -2.5017 0.9724
-4.1122 -5.0702 -2.5017 0.9724
-4.0096 -5.1517 -2.5017 0.9724
-3.9055 -5.2312 -2.5017 0.9724
-3.7997 -5.3085 -2.5017 0.9724
-3.6924 -5.3836 -2.5017 0.9724
-3.5836 -5.4566 -2.5017 0.9724
-3.3618 -5.5960 -2.5017 0.9724
4.3229 -4.3216 -2.5017 0.9739
4.4928 -4.1446 -2.5017 0.9739
4.6555 -3.9610 -2.5017 0.9739
4.8107 -3.7711 -2.5017 0.9739
5.0288 -3.4748 -2.5017 0.9739
5.0976 -3.3732 -2.5017 0.9739
5.1642 -3.2702 -2.5017 0.9739
5.2288 -3.1659 -2.5017 0.9739
5.2913 -3.0604 -2.5017 0.9739
5.4658 -2.7365 -2.5017 0.9739
5.5196 -2.6262 -2.5017 0.9739
5.5712 -2.5149 -2.5017 0.9739
5.6676 -2.2894 -2.5017 0.9739
5.7549 -2.0601 -2.5017 0.9739
5.7951 -1.9442 -2.5017 0.9739
5.8330 -1.8276 -2.5017 0.9739
5.9016 -1.5920 -2.5017 0.9739
5.9323 -1.4733 -2.5017 0.9739
5.9607 -1.3540 -2.5017 0.9739
5.9867 -1.2341 -2.5017 0.9739
6.0501 -0.8716 -2.5017 0.9739
6.0664 -0.7501 -2.5017 0.9739
6.0916 -0.5061 -2.5017 0.9739
