ply
format ascii 1.0
element vertex 1584
property float32 x
property float32 y
property float32 z
property float32 I
end_header
-7.7057 -10.8897 -2.5074 0.9472
-7.2603 -11.1891 -2.5071 0.9472
-6.5530 -11.5725 -2.4997 0.9473
-5.2844 -11.3786 -2.3581 0.9502
-3.1403 -12.1089 -2.3513 0.9504
-2.8959 -12.1686 -2.3511 0.9504
-2.6503 -12.2233 -2.3509 0.9504
-2.4037 -12.2731 -2.3507 0.9504
-1.9684 -11.2454 -2.1458 0.9546
-1.9078 -12.3578 -2.3503 0.9504
-1.6587 -12.3926 -2.3501 0.9504
-1.1588 -12.4471 -2.3497 0.9504
-0.6571 -12.4815 -2.3493 0.9504
-0.1546 -12.4957 -2.3489 0.9504
0.3480 -12.4896 -2.3485 0.9504
0.5991 -12.4790 -2.3483 0.9504
0.8499 -12.4634 -2.3481 0.9504
1.1003 -12.4427 -2.3479 0.9504
1.5996 -12.3863 -2.3475 0.9504
1.8483 -12.3506 -2.3473 0.9504
2.3431 -12.2642 -2.3469 0.9505
3.3201 -12.0323 -2.3461 0.9505
4.0388 -11.8073 -2.3456 0.9505
4.5097 -11.6335 -2.3452 0.9505
6.0182 -11.2694 -2.4013 0.9493
6.3352 -11.3095 -2.4365 0.9486
6.6616 -11.3505 -2.4737 0.9478
7.3977 -11.0231 -2.4952 0.9474
7.8342 -10.7155 -2.4950 0.9474
8.2578 -10.3904 -2.4947 0.9474
8.6679 -10.0487 -2.4943 0.9474
8.8678 -9.8717 -2.4942 0.9474
9.0640 -9.6908 -2.4941 0.9474
9.9885 -8.7293 -2.4934 0.9474
10.1615 -8.5262 -2.4932 0.9474
10.4952 -8.1099 -2.4930 0.9474
10.6557 -7.8968 -2.4929 0.9475
10.8119 -7.6805 -2.4928 0.9475
10.9637 -7.4612 -2.4927 0.9475
11.1111 -7.2388 -2.4926 0.9475
11.2540 -7.0136 -2.4925 0.9475
11.3923 -6.7856 -2.4924 0.9475
11.5261 -6.5548 -2.4923 0.9475
11.7796 -6.0855 -2.4921 0.9475
12.0140 -5.6065 -2.4919 0.9475
12.1240 -5.3635 -2.4919 0.9475
12.3293 -4.8713 -2.4917 0.9475
12.5146 -4.3713 -2.4916 0.9475
12.5998 -4.1186 -2.4916 0.9475
12.7547 -3.6084 -2.4915 0.9475
12.8245 -3.3511 -2.4914 0.9475
12.8892 -3.0924 -2.4914 0.9475
12.9486 -2.8325 -2.4914 0.9475
13.0028 -2.5715 -2.4913 0.9475
13.0518 -2.3094 -2.4913 0.9475
13.1339 -1.7826 -2.4913 0.9475
13.1671 -1.5181 -2.4913 0.9475
13.1949 -1.2529 -2.4913 0.9475
13.2174 -0.9873 -2.4913 0.9475
10.4871 5.4053 -2.4939 0.9529
10.3767 5.6154 -2.4940 0.9529
8.1084 5.5069 -2.0719 0.9607
7.8125 5.5387 -2.0243 0.9616
7.6354 5.6473 -2.0075 0.9619
7.7224 5.9557 -2.0614 0.9609
8.0552 7.6181 -2.3436 0.9557
7.9008 7.7791 -2.3437 0.9557
7.7432 7.9369 -2.3439 0.9557
7.5825 8.0915 -2.3440 0.9557
7.4186 8.2428 -2.3441 0.9557
7.2518 8.3909 -2.3443 0.9557
7.0820 8.5356 -2.3444 0.9557
6.7338 8.8146 -2.3447 0.9557
6.1912 9.2065 -2.3452 0.9557
5.8167 9.4493 -2.3455 0.9556
5.4327 9.6770 -2.3458 0.9556
5.2373 9.7850 -2.3460 0.9556
5.0398 9.8890 -2.3461 0.9556
4.6387 10.0852 -2.3465 0.9556
4.4352 10.1771 -2.3467 0.9556
4.2299 10.2650 -2.3468 0.9556
4.0229 10.3488 -2.3470 0.9556
3.3922 10.5749 -2.3475 0.9556
3.1791 10.6418 -2.3477 0.9556
2.7489 10.7627 -2.3480 0.9556
2.5321 10.8166 -2.3482 0.9556
2.3142 10.8662 -2.3484 0.9556
2.0953 10.9114 -2.3486 0.9556
1.2119 11.0478 -2.3493 0.9556
0.9896 11.0708 -2.3495 0.9556
0.7667 11.0893 -2.3497 0.9556
0.3202 11.1129 -2.3500 0.9556
0.0966 11.1180 -2.3502 0.9556
-0.1271 11.1185 -2.3504 0.9556
-0.5742 11.1061 -2.3507 0.9556
-1.2432 11.0538 -2.3513 0.9555
-1.4654 11.0273 -2.3514 0.9555
-1.6871 10.9965 -2.3516 0.9555
-1.9080 10.9611 -2.3518 0.9555
-2.1283 10.9213 -2.3520 0.9555
-2.3477 10.8771 -2.3521 0.9555
-2.5662 10.8285 -2.3523 0.9555
-2.3693 8.4648 -1.8581 0.9647
-3.2152 10.6563 -2.3528 0.9555
-3.6417 10.5199 -2.3532 0.9555
-3.8528 10.4452 -2.3533 0.9555
-4.0624 10.3663 -2.3535 0.9555
-4.1826 10.0718 -2.3053 0.9564
-4.6812 10.1045 -2.3540 0.9555
-4.4926 9.2073 -2.1656 0.9590
-5.0844 9.9094 -2.3543 0.9555
-4.7867 8.8844 -2.1332 0.9596
-5.7942 9.3553 -2.3261 0.9560
-6.2429 9.2287 -2.3552 0.9555
-6.4276 9.1018 -2.3553 0.9555
-6.6098 8.9712 -2.3554 0.9555
-6.4800 8.0922 -2.1914 0.9585
-7.1400 8.5577 -2.3558 0.9555
-7.3110 8.4128 -2.3560 0.9555
-7.9652 7.7996 -2.3565 0.9554
-8.1209 7.6382 -2.3566 0.9554
-8.9961 7.1907 -2.4344 0.9540
-9.2926 7.1262 -2.4754 0.9533
-9.5410 7.0164 -2.5034 0.9527
-9.6907 6.8305 -2.5061 0.9527
-9.9745 6.4462 -2.5104 0.9526
-10.1025 6.2445 -2.5105 0.9526
-10.2264 6.0402 -2.5106 0.9526
-10.5731 5.4130 -2.5108 0.9526
-10.6801 5.1994 -2.5109 0.9526
-10.7828 4.9837 -2.5109 0.9526
-10.9751 4.5462 -2.5111 0.9526
-11.3772 3.4216 -2.5113 0.9526
-11.4439 3.1921 -2.5114 0.9526
-11.6160 2.4962 -2.5114 0.9526
-11.6640 2.2621 -2.5115 0.9526
-11.7457 1.7912 -2.5115 0.9526
-11.8083 1.3174 -2.5115 0.9526
-11.8324 1.0796 -2.5115 0.9526
-11.8518 0.8414 -2.5115 0.9526
-11.8663 0.6029 -2.5115 0.9526
-11.8809 -0.1139 -2.5115 0.9526
-11.8761 -0.3528 -2.5115 0.9526
-11.8521 -0.8301 -2.5114 0.9526
-11.8088 -1.3061 -2.5114 0.9526
-11.7799 -1.5433 -2.5113 0.9526
-11.7079 -2.0158 -2.5112 0.9526
-11.6169 -2.4849 -2.5111 0.9526
-11.5643 -2.7180 -2.5111 0.9526
-11.5070 -2.9500 -2.5110 0.9526
-11.3785 -3.4103 -2.5109 0.9526
-11.3072 -3.6383 -2.5108 0.9526
-11.2314 -3.8649 -2.5107 0.9526
-10.8830 -4.7544 -2.5104 0.9526
-10.5752 -5.4015 -2.5101 0.9526
-10.4640 -5.6129 -2.5100 0.9526
-10.3486 -5.8220 -2.5099 0.9526
-10.2289 -6.0287 -2.5098 0.9526
-10.1051 -6.2329 -2.5097 0.9526
-9.9773 -6.4346 -2.5096 0.9526
-9.8454 -6.6337 -2.5094 0.9526
-9.7095 -6.8300 -2.5093 0.9526
-9.4260 -7.2143 -2.5091 0.9526
-9.1272 -7.5867 -2.5088 0.9526
-8.9723 -7.7684 -2.5087 0.9526
-8.8138 -7.9468 -2.5085 0.9526
-8.6517 -8.1220 -2.5084 0.9526
-8.1447 -8.6275 -2.5079 0.9527
-7.7901 -8.9470 -2.5076 0.9527
-6.8503 -9.6808 -2.5068 0.9527
-6.4545 -9.9472 -2.5065 0.9527
-6.0484 -10.1973 -2.5062 0.9527
-5.6326 -10.4309 -2.5058 0.9527
-4.9922 -10.7493 -2.5053 0.9527
-4.7732 -10.8434 -2.5043 0.9527
-4.5502 -10.9278 -2.5022 0.9528
-2.8561 -11.0130 -2.4049 0.9546
-2.3802 -10.9778 -2.3744 0.9551
-1.9175 -10.9543 -2.3507 0.9556
-0.1375 -11.1116 -2.3490 0.9556
0.0860 -11.1113 -2.3488 0.9556
0.3095 -11.1065 -2.3486 0.9556
0.7558 -11.0833 -2.3482 0.9556
0.9785 -11.0651 -2.3481 0.9556
1.2008 -11.0423 -2.3479 0.9556
2.5471 -10.9273 -2.3717 0.9552
3.0228 -10.9545 -2.4021 0.9546
3.5120 -10.9839 -2.4376 0.9539
3.7622 -10.9987 -2.4572 0.9536
4.0165 -11.0135 -2.4780 0.9532
5.1414 -10.6361 -2.4971 0.9528
5.9780 -10.1858 -2.4965 0.9529
6.1813 -10.0629 -2.4963 0.9529
6.7757 -9.6700 -2.4959 0.9529
7.8880 -8.7810 -2.4951 0.9529
8.0626 -8.6201 -2.4949 0.9529
8.4019 -8.2880 -2.4947 0.9529
8.5665 -8.1170 -2.4946 0.9529
9.1895 -7.4008 -2.4941 0.9529
9.3361 -7.2142 -2.4940 0.9529
9.4789 -7.0247 -2.4939 0.9529
9.6179 -6.8323 -2.4938 0.9529
9.8842 -6.4395 -2.4936 0.9529
10.2535 -5.8311 -2.4933 0.9529
10.3684 -5.6235 -2.4933 0.9529
10.7856 -4.7714 -2.4930 0.9529
10.9682 -4.3336 -2.4929 0.9529
11.0529 -4.1120 -2.4928 0.9529
11.5194 -2.5199 -2.4925 0.9529
11.6112 -2.0545 -2.4925 0.9529
11.6843 -1.5859 -2.4925 0.9529
11.7138 -1.3505 -2.4925 0.9529
9.4351 4.8631 -2.4947 0.9573
8.6617 6.1408 -2.4954 0.9573
8.4085 6.4848 -2.4956 0.9573
8.2768 6.6529 -2.4957 0.9573
7.8606 7.1401 -2.4958 0.9573
7.7090 7.2907 -2.4937 0.9573
7.1742 7.6558 -2.4658 0.9578
6.9211 7.6901 -2.4315 0.9584
6.6748 7.7233 -2.3991 0.9589
6.4348 7.7555 -2.3684 0.9594
6.0577 7.9295 -2.3452 0.9598
5.7345 8.1677 -2.3455 0.9598
5.5694 8.2819 -2.3456 0.9598
5.2325 8.5002 -2.3459 0.9598
4.5335 8.8955 -2.3465 0.9598
3.9895 9.1545 -2.3469 0.9598
3.8048 9.2335 -2.3471 0.9598
3.4309 9.3803 -2.3474 0.9598
3.2417 9.4480 -2.3476 0.9598
3.0512 9.5119 -2.3477 0.9598
2.8595 9.5720 -2.3479 0.9598
2.6666 9.6282 -2.3480 0.9598
1.6869 9.8507 -2.3488 0.9598
1.4886 9.8833 -2.3490 0.9598
1.2896 9.9119 -2.3492 0.9598
0.8900 9.9571 -2.3495 0.9598
0.6896 9.9737 -2.3496 0.9598
0.2879 9.9948 -2.3500 0.9597
0.0869 9.9992 -2.3501 0.9597
-0.1143 9.9996 -2.3503 0.9597
-0.9179 9.9608 -2.3509 0.9597
-1.3179 9.9172 -2.3513 0.9597
-1.9140 9.8216 -2.3517 0.9597
-2.3077 9.7380 -2.3520 0.9597
-2.1875 8.4679 -2.0555 0.9647
-2.8914 9.5830 -2.3525 0.9597
-3.2749 9.4601 -2.3528 0.9597
-3.4647 9.3929 -2.3529 0.9597
-3.6532 9.3220 -2.3531 0.9597
-3.8401 9.2471 -2.3532 0.9597
-4.0256 9.1686 -2.3534 0.9597
-4.2094 9.0863 -2.3535 0.9597
-4.5720 8.9107 -2.3538 0.9597
-4.7506 8.8175 -2.3539 0.9597
-5.1020 8.6203 -2.3542 0.9597
-5.4452 8.4091 -2.3545 0.9597
-5.6135 8.2983 -2.3546 0.9597
-5.7796 8.1841 -2.3547 0.9597
-5.9433 8.0666 -2.3549 0.9597
-6.1047 7.9459 -2.3550 0.9597
-6.2636 7.8219 -2.3551 0.9597
-6.6098 7.6059 -2.3682 0.9594
-6.8458 7.5646 -2.3978 0.9589
-7.0877 7.5221 -2.4290 0.9584
-7.5909 7.4331 -2.4969 0.9573
-7.7574 7.2963 -2.5029 0.9572
-8.0589 6.9909 -2.5074 0.9571
-8.4720 6.4968 -2.5092 0.9571
-8.6013 6.3254 -2.5093 0.9571
-8.8493 5.9747 -2.5095 0.9571
-8.9680 5.7957 -2.5095 0.9571
-9.3021 5.2448 -2.5098 0.9571
-9.4060 5.0568 -2.5098 0.9571
-9.6946 4.4807 -2.5100 0.9571
-9.9478 3.8881 -2.5102 0.9571
-10.0965 3.4850 -2.5103 0.9571
-10.2288 3.0762 -2.5104 0.9571
-10.4866 2.0338 -2.5105 0.9571
-10.6554 0.7565 -2.5106 0.9571
-10.6771 0.3273 -2.5106 0.9571
-10.6816 -0.1024 -2.5105 0.9571
-10.6557 -0.7463 -2.5105 0.9571
-10.6168 -1.1743 -2.5104 0.9571
-10.5607 -1.6003 -2.5103 0.9571
-10.5262 -1.8124 -2.5103 0.9571
-10.4874 -2.0237 -2.5103 0.9571
-10.3971 -2.4437 -2.5102 0.9571
-10.3456 -2.6523 -2.5101 0.9571
-10.0980 -3.4749 -2.5098 0.9571
-9.9495 -3.8779 -2.5097 0.9571
-9.6966 -4.4705 -2.5095 0.9571
-9.6044 -4.6645 -2.5094 0.9571
-9.5083 -4.8565 -2.5093 0.9571
-9.4083 -5.0466 -2.5092 0.9571
-9.3045 -5.2346 -2.5091 0.9571
-9.1970 -5.4205 -2.5090 0.9571
-9.0858 -5.6042 -2.5089 0.9571
-8.9708 -5.7855 -2.5088 0.9571
-8.4753 -6.4867 -2.5083 0.9571
-7.9250 -7.1455 -2.5079 0.9571
-7.7793 -7.3031 -2.5077 0.9571
-7.4785 -7.6092 -2.5075 0.9571
-7.3235 -7.7577 -2.5073 0.9571
-7.0049 -8.0451 -2.5071 0.9571
-6.8412 -8.1839 -2.5069 0.9571
-6.6749 -8.3194 -2.5068 0.9571
-6.5058 -8.4515 -2.5066 0.9571
-6.3341 -8.5801 -2.5065 0.9571
-6.1599 -8.7052 -2.5063 0.9571
-5.8041 -8.9449 -2.5060 0.9571
-5.6227 -9.0593 -2.5059 0.9571
-5.4390 -9.1700 -2.5057 0.9571
-5.0652 -9.3801 -2.5054 0.9571
-4.8752 -9.4795 -2.5053 0.9571
-4.6832 -9.5750 -2.5051 0.9571
-4.4894 -9.6666 -2.5049 0.9572
-4.2938 -9.7544 -2.5048 0.9572
-4.0964 -9.8381 -2.5046 0.9572
-3.8975 -9.9178 -2.5045 0.9572
-3.2916 -10.1328 -2.5039 0.9572
-3.0869 -10.1963 -2.5038 0.9572
-2.8810 -10.2556 -2.5036 0.9572
-2.2568 -10.4086 -2.5031 0.9572
-1.1989 -10.5695 -2.5000 0.9572
0.0823 -10.6260 -2.4974 0.9573
0.5096 -10.6136 -2.4973 0.9573
0.7230 -10.6014 -2.4974 0.9573
0.9361 -10.5851 -2.4975 0.9573
1.3613 -10.5411 -2.4980 0.9573
1.5733 -10.5134 -2.4984 0.9573
1.7848 -10.4818 -2.4989 0.9573
1.9958 -10.4461 -2.4995 0.9572
2.6218 -10.3055 -2.4992 0.9572
2.8284 -10.2500 -2.4990 0.9572
3.0338 -10.1904 -2.4989 0.9573
3.4407 -10.0589 -2.4985 0.9573
4.0403 -9.8313 -2.4981 0.9573
4.2370 -9.7474 -2.4979 0.9573
4.4319 -9.6596 -2.4978 0.9573
5.1927 -9.2700 -2.4972 0.9573
5.3778 -9.1632 -2.4970 0.9573
5.7414 -8.9385 -2.4968 0.9573
5.9197 -8.8207 -2.4966 0.9573
6.4398 -8.4463 -2.4962 0.9573
6.6081 -8.3146 -2.4961 0.9573
7.0964 -7.8998 -2.4957 0.9573
7.4077 -7.6073 -2.4955 0.9573
7.9938 -6.9861 -2.4951 0.9573
8.1324 -6.8237 -2.4950 0.9573
8.5281 -6.3201 -2.4947 0.9573
8.7748 -5.9715 -2.4945 0.9573
8.8928 -5.7937 -2.4944 0.9573
9.0073 -5.6134 -2.4944 0.9573
9.1181 -5.4309 -2.4943 0.9573
9.7041 -4.2929 -2.4939 0.9573
9.7882 -4.0968 -2.4938 0.9573
9.9447 -3.6997 -2.4937 0.9573
10.0169 -3.4989 -2.4937 0.9573
10.2092 -2.8883 -2.4936 0.9573
10.4821 -1.6380 -2.4934 0.9573
10.5394 -1.2151 -2.4934 0.9573
10.5617 -1.0029 -2.4934 0.9573
8.4764 4.5871 -2.4954 0.9610
8.3827 4.7568 -2.4955 0.9610
8.1852 5.0904 -2.4957 0.9610
8.0815 5.2542 -2.4958 0.9610
7.9745 5.4159 -2.4959 0.9610
7.8642 5.5754 -2.4960 0.9610
7.6343 5.8877 -2.4962 0.9609
7.5146 6.0403 -2.4963 0.9609
7.2663 6.3382 -2.4965 0.9609
7.1376 6.4834 -2.4966 0.9609
7.0061 6.6259 -2.4968 0.9609
6.8717 6.7658 -2.4969 0.9609
6.7346 6.9030 -2.4970 0.9609
6.5947 7.0374 -2.4971 0.9609
6.4521 7.1690 -2.4972 0.9609
6.3068 7.2976 -2.4973 0.9609
5.4970 7.8295 -2.4769 0.9612
5.0663 7.8712 -2.4236 0.9621
4.6527 7.9105 -2.3762 0.9628
4.1156 8.0755 -2.3468 0.9632
3.9526 8.1572 -2.3469 0.9632
2.9428 8.5768 -2.3477 0.9632
2.5958 8.6892 -2.3480 0.9632
2.0674 8.8316 -2.3485 0.9632
1.8894 8.8719 -2.3486 0.9632
1.7107 8.9087 -2.3488 0.9632
0.9894 9.0196 -2.3493 0.9632
0.8079 9.0383 -2.3495 0.9632
0.6260 9.0532 -2.3496 0.9632
0.4438 9.0646 -2.3498 0.9632
-0.1037 9.0765 -2.3502 0.9632
-0.8331 9.0411 -2.3508 0.9632
-1.1962 9.0014 -2.3511 0.9632
-1.3771 8.9760 -2.3512 0.9632
-1.7372 8.9145 -2.3515 0.9632
-1.9162 8.8783 -2.3517 0.9632
-2.0945 8.8385 -2.3518 0.9632
-2.1853 8.4592 -2.2621 0.9645
-2.3645 8.4475 -2.2713 0.9644
-2.7988 8.6436 -2.3524 0.9632
-3.1445 8.5250 -2.3526 0.9632
-3.3155 8.4605 -2.3528 0.9631
-3.4852 8.3925 -2.3529 0.9631
-3.6535 8.3212 -2.3530 0.9631
-3.8204 8.2465 -2.3532 0.9631
-3.9857 8.1684 -2.3533 0.9631
-4.4718 7.9144 -2.3537 0.9631
-4.6428 7.8445 -2.3601 0.9630
-4.8416 7.8173 -2.3808 0.9627
-5.0446 7.7904 -2.4030 0.9624
-5.2513 7.7629 -2.4266 0.9620
-5.4621 7.7346 -2.4516 0.9616
-5.6773 7.7055 -2.4781 0.9612
-6.6421 7.0492 -2.5077 0.9608
-6.7828 6.9145 -2.5079 0.9608
-6.9208 6.7769 -2.5080 0.9608
-7.4442 6.1997 -2.5083 0.9608
-7.8054 5.7401 -2.5086 0.9608
-8.0304 5.4218 -2.5088 0.9608
-8.1381 5.2594 -2.5088 0.9608
-8.3435 4.9281 -2.5090 0.9608
-8.4412 4.7594 -2.5090 0.9608
-8.6262 4.4163 -2.5092 0.9607
-8.7135 4.2420 -2.5092 0.9607
-8.7973 4.0660 -2.5093 0.9607
-8.8775 3.8883 -2.5093 0.9607
-8.9540 3.7090 -2.5094 0.9607
-9.2238 2.9776 -2.5096 0.9607
-9.2819 2.7915 -2.5096 0.9607
-9.3363 2.6042 -2.5096 0.9607
-9.3869 2.4160 -2.5097 0.9607
-9.4767 2.0365 -2.5097 0.9607
-9.5158 1.8455 -2.5097 0.9607
-9.5511 1.6538 -2.5097 0.9607
-9.5824 1.4613 -2.5097 0.9607
-9.6335 1.0747 -2.5098 0.9607
-9.6532 0.8808 -2.5098 0.9607
-9.6690 0.6864 -2.5098 0.9607
-9.6887 0.2970 -2.5098 0.9607
-9.6927 -0.0929 -2.5097 0.9607
-9.6888 -0.2878 -2.5097 0.9607
-9.6105 -1.2591 -2.5096 0.9607
-9.3375 -2.5951 -2.5093 0.9607
-9.0979 -3.3368 -2.5091 0.9608
-8.7993 -4.0568 -2.5088 0.9608
-8.6284 -4.4072 -2.5086 0.9608
-8.5377 -4.5796 -2.5085 0.9608
-8.3461 -4.9190 -2.5083 0.9608
-8.2452 -5.0856 -2.5083 0.9608
-7.8085 -5.7310 -2.5079 0.9608
-7.6914 -5.8867 -2.5078 0.9608
-7.5711 -6.0399 -2.5077 0.9608
-7.4477 -6.1907 -2.5075 0.9608
-7.3214 -6.3389 -2.5074 0.9608
-7.1921 -6.4846 -2.5073 0.9608
-7.0599 -6.6277 -2.5072 0.9608
-6.9248 -6.7680 -2.5071 0.9608
-6.6464 -7.0404 -2.5068 0.9608
-6.0578 -7.5502 -2.5063 0.9608
-5.7486 -7.7870 -2.5061 0.9608
-5.5905 -7.9006 -2.5059 0.9608
-5.1030 -8.2220 -2.5055 0.9608
-4.9364 -8.3225 -2.5054 0.9608
-4.4247 -8.6036 -2.5050 0.9608
-4.2505 -8.6904 -2.5048 0.9608
-4.0746 -8.7736 -2.5047 0.9608
-3.8971 -8.8532 -2.5045 0.9608
-3.7180 -8.9293 -2.5044 0.9608
-3.5375 -9.0017 -2.5042 0.9608
-3.3555 -9.0705 -2.5041 0.9608
-3.1722 -9.1356 -2.5039 0.9608
-2.6150 -9.3086 -2.5035 0.9608
-2.0485 -9.4476 -2.5030 0.9608
-1.8579 -9.4863 -2.5028 0.9608
-1.0892 -9.6026 -2.5022 0.9609
0.0748 -9.6602 -2.5013 0.9609
0.2691 -9.6561 -2.5011 0.9609
0.4632 -9.6482 -2.5010 0.9609
0.6571 -9.6363 -2.5008 0.9609
1.2369 -9.5774 -2.5003 0.9609
1.4292 -9.5500 -2.5002 0.9609
1.6209 -9.5187 -2.5000 0.9609
1.8119 -9.4836 -2.4999 0.9609
2.0021 -9.4447 -2.4997 0.9609
2.1916 -9.4020 -2.4996 0.9609
2.3801 -9.3554 -2.4994 0.9609
2.5676 -9.3051 -2.4993 0.9609
3.1236 -9.1317 -2.4989 0.9609
3.3064 -9.0665 -2.4987 0.9609
3.4879 -8.9977 -2.4986 0.9609
3.6680 -8.9252 -2.4984 0.9609
4.1989 -8.6863 -2.4980 0.9609
4.5444 -8.5095 -2.4978 0.9609
4.8824 -8.3190 -2.4975 0.9609
5.0485 -8.2187 -2.4974 0.9609
5.3744 -8.0082 -2.4971 0.9609
5.9995 -7.5489 -2.4967 0.9609
6.2977 -7.3009 -2.4964 0.9609
6.4430 -7.1724 -2.4963 0.9609
6.5857 -7.0411 -2.4962 0.9609
6.7257 -6.9069 -2.4961 0.9609
6.8630 -6.7699 -2.4960 0.9610
7.1291 -6.4879 -2.4958 0.9610
7.3838 -6.1955 -2.4956 0.9610
7.6264 -5.8931 -2.4955 0.9610
7.7431 -5.7383 -2.4954 0.9610
7.8568 -5.5812 -2.4953 0.9610
8.1783 -5.0968 -2.4951 0.9610
8.4701 -4.5939 -2.4949 0.9610
8.5606 -4.4225 -2.4948 0.9610
8.6476 -4.2494 -2.4947 0.9610
8.9604 -3.5403 -2.4945 0.9610
9.2154 -2.8085 -2.4944 0.9610
9.2699 -2.6225 -2.4943 0.9610
9.3207 -2.4355 -2.4943 0.9610
9.3677 -2.2475 -2.4943 0.9610
9.5698 -1.1033 -2.4942 0.9610
9.5900 -0.9106 -2.4942 0.9610
7.6686 4.3515 -2.4961 0.9640
7.3929 4.8066 -2.4963 0.9640
7.2950 4.9544 -2.4964 0.9640
7.1941 5.1004 -2.4965 0.9640
7.0904 5.2442 -2.4966 0.9640
6.6470 5.7980 -2.4970 0.9640
6.5293 5.9308 -2.4971 0.9640
5.9021 6.5578 -2.4976 0.9640
5.6341 6.7905 -2.4979 0.9640
5.2151 7.1190 -2.4982 0.9640
4.9250 7.3237 -2.4985 0.9640
4.7770 7.4216 -2.4986 0.9640
4.4706 7.6009 -2.4963 0.9640
3.9989 7.8466 -2.4932 0.9641
3.8388 7.9225 -2.4922 0.9641
3.6631 7.9641 -2.4816 0.9642
3.2905 7.9852 -2.4449 0.9647
3.1079 7.9951 -2.4283 0.9650
2.9277 8.0047 -2.4129 0.9652
2.7497 8.0140 -2.3985 0.9654
2.5736 8.0231 -2.3853 0.9656
2.2268 8.0404 -2.3619 0.9659
2.0564 8.0514 -2.3525 0.9660
1.8909 8.0777 -2.3486 0.9661
1.4006 8.1784 -2.3490 0.9661
1.2359 8.2054 -2.3491 0.9661
0.9050 8.2494 -2.3494 0.9661
0.7389 8.2664 -2.3495 0.9661
0.4059 8.2904 -2.3498 0.9661
0.2391 8.2974 -2.3499 0.9661
-0.0949 8.3012 -2.3502 0.9661
-0.2618 8.2981 -2.3503 0.9661
-0.4287 8.2916 -2.3504 0.9661
-0.5954 8.2818 -2.3506 0.9661
-1.9155 8.0830 -2.3516 0.9661
-2.4145 8.0025 -2.3663 0.9658
-2.5885 7.9941 -2.3788 0.9657
-2.7632 7.9822 -2.3913 0.9655
-2.9387 7.9671 -2.4040 0.9653
-3.4772 7.9196 -2.4486 0.9647
-3.6613 7.9030 -2.4657 0.9644
-4.1881 7.7733 -2.4996 0.9640
-4.6565 7.5184 -2.5036 0.9639
-5.1075 7.2325 -2.5065 0.9639
-5.3947 7.0218 -2.5067 0.9639
-5.8091 6.6845 -2.5071 0.9639
-6.6914 5.8046 -2.5077 0.9638
-6.9199 5.5312 -2.5079 0.9638
-7.0300 5.3910 -2.5080 0.9638
-7.1372 5.2487 -2.5080 0.9638
-7.2416 5.1042 -2.5081 0.9638
-7.4414 4.8091 -2.5082 0.9638
-7.5368 4.6586 -2.5083 0.9638
-7.6292 4.5062 -2.5084 0.9638
-7.8046 4.1959 -2.5085 0.9638
-8.1173 3.5554 -2.5087 0.9638
-8.3773 2.8916 -2.5089 0.9638
-8.4871 2.5524 -2.5089 0.9638
-8.5368 2.3812 -2.5090 0.9638
-8.6258 2.0360 -2.5090 0.9638
-8.7009 1.6875 -2.5091 0.9638
-8.7331 1.5121 -2.5091 0.9638
-8.7869 1.1597 -2.5091 0.9638
-8.8085 0.9827 -2.5091 0.9638
-8.8409 0.6276 -2.5091 0.9638
-8.8590 0.2716 -2.5091 0.9638
-8.8627 -0.0849 -2.5091 0.9638
-8.8520 -0.4413 -2.5090 0.9638
-8.8412 -0.6193 -2.5090 0.9638
-8.8090 -0.9743 -2.5090 0.9638
-8.7339 -1.5038 -2.5089 0.9638
-8.7017 -1.6791 -2.5088 0.9638
-8.5842 -2.2007 -2.5087 0.9638
-8.5380 -2.3729 -2.5087 0.9638
-8.4353 -2.7142 -2.5086 0.9638
-8.2557 -3.2178 -2.5084 0.9638
-7.8069 -4.1876 -2.5080 0.9638
-7.7209 -4.3437 -2.5079 0.9638
-7.6317 -4.4979 -2.5078 0.9638
-7.5394 -4.6504 -2.5077 0.9638
-7.3458 -4.9495 -2.5075 0.9638
-7.2445 -5.0960 -2.5074 0.9638
-7.0331 -5.3829 -2.5073 0.9639
-6.9232 -5.5230 -2.5072 0.9639
-6.5767 -5.9298 -2.5069 0.9639
-6.4558 -6.0606 -2.5068 0.9639
-6.2063 -6.3148 -2.5065 0.9639
-6.0778 -6.4381 -2.5064 0.9639
-5.6777 -6.7920 -2.5061 0.9639
-5.3994 -7.0141 -2.5058 0.9639
-5.2570 -7.1210 -2.5057 0.9639
-5.1124 -7.2249 -2.5056 0.9639
-4.9658 -7.3259 -2.5055 0.9639
-4.8172 -7.4240 -2.5053 0.9639
-4.5143 -7.6109 -2.5051 0.9639
-4.0464 -7.8681 -2.5047 0.9639
-3.8872 -7.9475 -2.5046 0.9639
-3.7263 -8.0236 -2.5044 0.9639
-3.2351 -8.2324 -2.5040 0.9639
-3.0687 -8.2953 -2.5039 0.9639
-2.7323 -8.4111 -2.5036 0.9639
-2.5624 -8.4639 -2.5035 0.9639
-2.3915 -8.5132 -2.5033 0.9639
-2.0470 -8.6016 -2.5030 0.9639
-1.8735 -8.6405 -2.5029 0.9639
-1.6992 -8.6759 -2.5028 0.9639
-1.5243 -8.7079 -2.5026 0.9639
-1.3487 -8.7363 -2.5025 0.9639
-0.8193 -8.8002 -2.5020 0.9639
-0.4646 -8.8250 -2.5018 0.9639
-0.2870 -8.8321 -2.5016 0.9639
0.0684 -8.8355 -2.5013 0.9639
0.6010 -8.8138 -2.5009 0.9639
0.7782 -8.7994 -2.5008 0.9639
1.1313 -8.7600 -2.5005 0.9639
1.3072 -8.7350 -2.5003 0.9639
1.6573 -8.6744 -2.5001 0.9640
2.0046 -8.5997 -2.4998 0.9640
2.3486 -8.5113 -2.4995 0.9640
2.5192 -8.4618 -2.4994 0.9640
2.6887 -8.4090 -2.4993 0.9640
3.0244 -8.2932 -2.4990 0.9640
3.1904 -8.2303 -2.4989 0.9640
3.3552 -8.1640 -2.4987 0.9640
3.5185 -8.0945 -2.4986 0.9640
3.6804 -8.0217 -2.4985 0.9640
3.8408 -7.9456 -2.4984 0.9640
4.1569 -7.7840 -2.4981 0.9640
4.6181 -7.5180 -2.4978 0.9640
4.7681 -7.4233 -2.4977 0.9640
4.9163 -7.3256 -2.4975 0.9640
5.0624 -7.2249 -2.4974 0.9640
5.2065 -7.1213 -2.4973 0.9640
5.4882 -6.9055 -2.4971 0.9640
5.6257 -6.7935 -2.4970 0.9640
5.8939 -6.5612 -2.4968 0.9640
6.0245 -6.4411 -2.4967 0.9640
6.1526 -6.3183 -2.4966 0.9640
6.2782 -6.1931 -2.4965 0.9640
6.6395 -5.8026 -2.4963 0.9640
7.2885 -4.9600 -2.4958 0.9640
7.3866 -4.8123 -2.4957 0.9640
7.5738 -4.5111 -2.4956 0.9640
7.7487 -4.2027 -2.4955 0.9640
7.9111 -3.8874 -2.4954 0.9640
7.9875 -3.7274 -2.4953 0.9640
8.0607 -3.5660 -2.4953 0.9640
8.1973 -3.2388 -2.4952 0.9640
8.3774 -2.7384 -2.4951 0.9640
8.5269 -2.2281 -2.4950 0.9640
8.5700 -2.0562 -2.4949 0.9640
8.6095 -1.8834 -2.4949 0.9640
8.6456 -1.7098 -2.4949 0.9640
8.6782 -1.5355 -2.4949 0.9640
8.7073 -1.3607 -2.4949 0.9640
8.7549 -1.0094 -2.4949 0.9640
8.7734 -0.8331 -2.4949 0.9640
8.7884 -0.6564 -2.4949 0.9640
7.2144 3.7185 -2.4964 0.9666
7.1384 3.8629 -2.4965 0.9666
6.9776 4.1471 -2.4966 0.9666
6.8930 4.2868 -2.4967 0.9666
6.7155 4.5608 -2.4969 0.9666
6.6226 4.6951 -2.4969 0.9666
6.5271 4.8276 -2.4970 0.9666
6.4289 4.9580 -2.4971 0.9666
6.3280 5.0865 -2.4972 0.9666
6.2247 5.2130 -2.4973 0.9666
6.1188 5.3373 -2.4974 0.9666
6.0104 5.4595 -2.4975 0.9666
5.8996 5.5795 -2.4976 0.9666
5.7865 5.6973 -2.4977 0.9666
5.6709 5.8128 -2.4978 0.9666
5.5531 5.9259 -2.4979 0.9666
5.1863 6.2508 -2.4982 0.9666
5.0597 6.3541 -2.4983 0.9666
4.9311 6.4549 -2.4984 0.9666
4.3972 6.8315 -2.4989 0.9666
4.2590 6.9189 -2.4990 0.9666
4.1192 7.0035 -2.4991 0.9666
3.9777 7.0853 -2.4992 0.9666
3.8346 7.1642 -2.4993 0.9666
3.6899 7.2402 -2.4995 0.9666
3.5437 7.3134 -2.4996 0.9666
3.3961 7.3835 -2.4997 0.9666
3.2470 7.4507 -2.4998 0.9666
2.7906 7.6297 -2.4988 0.9666
2.4802 7.7319 -2.4975 0.9666
2.3237 7.7784 -2.4969 0.9666
2.0082 7.8625 -2.4960 0.9666
1.8493 7.9000 -2.4956 0.9666
1.2078 8.0189 -2.4943 0.9666
0.8823 8.0432 -2.4888 0.9667
0.3939 8.0458 -2.4777 0.9669
0.0699 8.0467 -2.4751 0.9669
-0.0920 8.0469 -2.4752 0.9669
-0.2539 8.0468 -2.4763 0.9669
-0.4160 8.0467 -2.4783 0.9668
-0.5784 8.0458 -2.4811 0.9668
-1.2304 8.0202 -2.4957 0.9666
-1.5527 7.9677 -2.4968 0.9666
-2.0318 7.8653 -2.4986 0.9666
-2.6608 7.6862 -2.5018 0.9665
-2.8157 7.6337 -2.5026 0.9665
-3.2742 7.4573 -2.5051 0.9665
-3.5719 7.3203 -2.5053 0.9665
-4.0074 7.0925 -2.5056 0.9665
-4.2897 6.9262 -2.5059 0.9665
-4.4284 6.8388 -2.5060 0.9665
-4.7002 6.6557 -2.5062 0.9665
-5.0937 6.3609 -2.5065 0.9665
-5.4686 6.0428 -2.5067 0.9665
-5.5892 5.9318 -2.5068 0.9665
-5.7076 5.8184 -2.5069 0.9665
-5.8237 5.7026 -2.5070 0.9665
-5.9374 5.5845 -2.5071 0.9665
-6.0487 5.4641 -2.5072 0.9665
-6.1576 5.3415 -2.5072 0.9665
-6.5678 4.8299 -2.5075 0.9665
-6.6638 4.6970 -2.5076 0.9665
-6.7571 4.5621 -2.5077 0.9665
-6.8477 4.4254 -2.5077 0.9665
-7.0204 4.1466 -2.5079 0.9665
-7.1026 4.0046 -2.5079 0.9665
-7.3316 3.5692 -2.5081 0.9665
-7.5339 3.1208 -2.5082 0.9664
-7.8097 2.3487 -2.5084 0.9664
-7.8555 2.1912 -2.5084 0.9664
-7.8980 2.0328 -2.5084 0.9664
-7.9374 1.8735 -2.5085 0.9664
-8.0625 1.2295 -2.5085 0.9664
-8.1519 0.2499 -2.5085 0.9664
-8.1553 -0.0781 -2.5085 0.9664
-8.1520 -0.2422 -2.5085 0.9664
-8.1224 -0.7334 -2.5084 0.9664
-8.0862 -1.0594 -2.5084 0.9664
-8.0368 -1.3837 -2.5083 0.9664
-8.0072 -1.5451 -2.5083 0.9664
-7.9744 -1.7058 -2.5083 0.9664
-7.9384 -1.8658 -2.5082 0.9664
-7.8566 -2.1835 -2.5081 0.9664
-7.7102 -2.6532 -2.5080 0.9665
-7.4713 -3.2640 -2.5077 0.9665
-7.1049 -3.9971 -2.5074 0.9665
-6.8503 -4.4179 -2.5072 0.9665
-6.7598 -4.5546 -2.5071 0.9665
-6.6666 -4.6896 -2.5070 0.9665
-6.5707 -4.8225 -2.5069 0.9665
-6.3710 -5.0825 -2.5067 0.9665
-6.2672 -5.2094 -2.5067 0.9665
-5.9410 -5.5773 -2.5064 0.9665
-5.4726 -6.0358 -2.5060 0.9665
-5.3499 -6.1444 -2.5059 0.9665
-5.2250 -6.2504 -2.5058 0.9665
-5.0980 -6.3540 -2.5056 0.9665
-4.5700 -6.7420 -2.5052 0.9665
-3.5774 -7.3142 -2.5044 0.9665
-3.4294 -7.3843 -2.5042 0.9665
-3.1294 -7.5155 -2.5040 0.9665
-2.6700 -7.6894 -2.5036 0.9665
-2.3583 -7.7897 -2.5034 0.9665
-2.2011 -7.8352 -2.5032 0.9665
-2.0429 -7.8775 -2.5031 0.9665
-1.8840 -7.9165 -2.5030 0.9665
-1.7243 -7.9524 -2.5028 0.9665
-1.5639 -7.9851 -2.5027 0.9665
-0.9169 -8.0832 -2.5022 0.9665
-0.7540 -8.0996 -2.5020 0.9665
-0.4276 -8.1225 -2.5018 0.9665
0.0630 -8.1323 -2.5014 0.9665
0.2265 -8.1289 -2.5013 0.9665
0.8790 -8.0827 -2.5007 0.9665
1.0413 -8.0630 -2.5006 0.9665
1.2032 -8.0400 -2.5005 0.9666
1.3646 -8.0138 -2.5003 0.9666
1.8451 -7.9157 -2.5000 0.9666
2.0039 -7.8766 -2.4998 0.9666
2.1618 -7.8343 -2.4997 0.9666
2.4749 -7.7403 -2.4995 0.9666
2.9367 -7.5758 -2.4991 0.9666
3.0884 -7.5149 -2.4990 0.9666
3.2387 -7.4509 -2.4989 0.9666
3.3878 -7.3839 -2.4988 0.9666
4.3892 -6.8333 -2.4980 0.9666
4.9234 -6.4574 -2.4976 0.9666
5.1787 -6.2536 -2.4974 0.9666
5.5458 -5.9293 -2.4971 0.9666
5.7794 -5.7011 -2.4969 0.9666
5.8927 -5.5835 -2.4969 0.9666
6.0036 -5.4637 -2.4968 0.9666
6.2181 -5.2174 -2.4966 0.9666
6.3216 -5.0912 -2.4966 0.9666
6.4225 -4.9629 -2.4965 0.9666
6.5209 -4.8325 -2.4964 0.9666
6.6166 -4.7003 -2.4963 0.9666
6.7096 -4.5661 -2.4963 0.9666
6.7999 -4.4301 -2.4962 0.9666
6.8875 -4.2923 -2.4962 0.9666
6.9722 -4.1528 -2.4961 0.9666
7.0542 -4.0117 -2.4960 0.9666
7.3532 -3.4314 -2.4958 0.9666
7.8071 -2.2087 -2.4955 0.9666
7.8895 -1.8929 -2.4955 0.9666
7.9259 -1.7338 -2.4955 0.9666
7.9591 -1.5740 -2.4955 0.9666
8.0395 -1.0911 -2.4954 0.9666
6.6767 3.4413 -2.4968 0.9688
6.5332 3.7072 -2.4970 0.9688
6.2983 4.0949 -2.4972 0.9688
6.1289 4.3451 -2.4973 0.9688
5.9495 4.5884 -2.4975 0.9688
5.7606 4.8243 -2.4976 0.9688
5.5623 5.0524 -2.4978 0.9688
5.3550 5.2724 -2.4980 0.9688
5.1390 5.4839 -2.4982 0.9688
4.9146 5.6866 -2.4984 0.9688
4.7994 5.7846 -2.4985 0.9688
4.6823 5.8801 -2.4986 0.9688
4.5633 5.9734 -2.4987 0.9688
4.4424 6.0642 -2.4988 0.9688
4.0691 6.3219 -2.4991 0.9688
3.9413 6.4027 -2.4992 0.9688
3.8119 6.4810 -2.4993 0.9688
3.4146 6.7000 -2.4996 0.9688
3.2792 6.7676 -2.4998 0.9688
2.2978 7.1632 -2.5006 0.9688
2.1533 7.2083 -2.5007 0.9688
1.5674 7.3594 -2.5012 0.9688
1.4191 7.3898 -2.5013 0.9688
1.2702 7.4172 -2.5014 0.9688
0.8207 7.4814 -2.5018 0.9688
0.5192 7.5091 -2.5020 0.9688
0.3681 7.5184 -2.5021 0.9688
0.0654 7.5279 -2.5024 0.9688
-0.0860 7.5280 -2.5025 0.9688
-0.3887 7.5192 -2.5028 0.9688
-0.5399 7.5102 -2.5029 0.9688
-0.6909 7.4982 -2.5030 0.9688
-0.8416 7.4831 -2.5031 0.9688
-1.2916 7.4198 -2.5035 0.9688
-1.5891 7.3626 -2.5037 0.9687
-1.7369 7.3295 -2.5038 0.9687
-2.0305 7.2543 -2.5041 0.9687
-2.4646 7.1196 -2.5044 0.9687
-3.4405 6.7053 -2.5052 0.9687
-3.9689 6.4082 -2.5056 0.9687
-4.2237 6.2438 -2.5058 0.9687
-4.3486 6.1578 -2.5058 0.9687
-4.4718 6.0694 -2.5059 0.9687
-4.7126 5.8850 -2.5061 0.9687
-4.8302 5.7892 -2.5062 0.9687
-4.9458 5.6911 -2.5063 0.9687
-5.0594 5.5907 -2.5064 0.9687
-5.6968 4.9418 -2.5069 0.9687
-5.8913 4.7090 -2.5070 0.9687
-6.2513 4.2207 -2.5073 0.9687
-6.3351 4.0942 -2.5073 0.9687
-6.7149 3.4378 -2.5076 0.9687
-6.8479 3.1650 -2.5077 0.9687
-6.9699 2.8871 -2.5077 0.9687
-7.0806 2.6046 -2.5078 0.9687
-7.1798 2.3177 -2.5079 0.9687
-7.2250 2.1729 -2.5079 0.9687
-7.2673 2.0271 -2.5079 0.9687
-7.3431 1.7332 -2.5080 0.9687
-7.4070 1.4365 -2.5080 0.9687
-7.4344 1.2873 -2.5080 0.9687
-7.4802 0.9872 -2.5080 0.9687
-7.5139 0.6856 -2.5080 0.9687
-7.5262 0.5343 -2.5080 0.9687
-7.5354 0.3828 -2.5080 0.9687
-7.5415 0.2312 -2.5080 0.9687
-7.5447 0.0795 -2.5080 0.9687
-7.5417 -0.2241 -2.5080 0.9687
-7.5356 -0.3757 -2.5080 0.9687
-7.5265 -0.5272 -2.5080 0.9687
-7.4595 -1.1304 -2.5079 0.9687
-7.4351 -1.2801 -2.5078 0.9687
-7.3774 -1.5781 -2.5078 0.9687
-7.3441 -1.7261 -2.5077 0.9687
-7.3078 -1.8735 -2.5077 0.9687
-7.2263 -2.1658 -2.5076 0.9687
-7.1811 -2.3107 -2.5076 0.9687
-7.1331 -2.4546 -2.5075 0.9687
-7.0821 -2.5975 -2.5075 0.9687
-7.0283 -2.7394 -2.5074 0.9687
-6.9716 -2.8801 -2.5074 0.9687
-6.9121 -3.0197 -2.5073 0.9687
-6.8498 -3.1580 -2.5073 0.9687
-6.7847 -3.2951 -2.5072 0.9687
-6.7169 -3.4308 -2.5071 0.9687
-6.6464 -3.5651 -2.5071 0.9687
-6.1677 -4.3386 -2.5066 0.9687
-5.9879 -4.5829 -2.5065 0.9687
-5.8943 -4.7022 -2.5064 0.9687
-5.7983 -4.8197 -2.5063 0.9687
-5.5994 -5.0486 -2.5061 0.9687
-5.4965 -5.1600 -2.5060 0.9687
-5.1748 -5.4815 -2.5058 0.9687
-5.0633 -5.5843 -2.5057 0.9687
-4.9497 -5.6848 -2.5056 0.9687
-4.8342 -5.7829 -2.5055 0.9687
-4.7167 -5.8788 -2.5054 0.9687
-4.5973 -5.9722 -2.5053 0.9687
-4.4761 -6.0632 -2.5052 0.9687
-4.3531 -6.1518 -2.5051 0.9687
-4.1018 -6.3213 -2.5048 0.9687
-3.9736 -6.4023 -2.5047 0.9687
-3.8439 -6.4806 -2.5046 0.9687
-3.7126 -6.5563 -2.5045 0.9687
-3.5798 -6.6294 -2.5044 0.9687
-3.3100 -6.7674 -2.5042 0.9687
-3.1730 -6.8323 -2.5041 0.9687
-2.7549 -7.0103 -2.5037 0.9687
-2.4705 -7.1147 -2.5035 0.9688
-2.3267 -7.1626 -2.5034 0.9688
-2.0366 -7.2497 -2.5031 0.9688
-1.8903 -7.2888 -2.5030 0.9688
-1.7432 -7.3250 -2.5029 0.9688
-1.5954 -7.3583 -2.5028 0.9688
-1.2981 -7.4158 -2.5025 0.9688
-1.1486 -7.4400 -2.5024 0.9688
-0.8484 -7.4795 -2.5022 0.9688
-0.6977 -7.4946 -2.5020 0.9688
-0.5468 -7.5068 -2.5019 0.9688
-0.3957 -7.5159 -2.5018 0.9688
0.0583 -7.5250 -2.5014 0.9688
0.2096 -7.5219 -2.5013 0.9688
0.5119 -7.5067 -2.5011 0.9688
0.6628 -7.4945 -2.5009 0.9688
0.8133 -7.4793 -2.5008 0.9688
1.1134 -7.4398 -2.5006 0.9688
1.2627 -7.4156 -2.5005 0.9688
1.4116 -7.3884 -2.5003 0.9688
2.0005 -7.2496 -2.4999 0.9688
2.1458 -7.2076 -2.4998 0.9688
2.4337 -7.1148 -2.4995 0.9688
2.5762 -7.0641 -2.4994 0.9688
2.7176 -7.0106 -2.4993 0.9688
2.8580 -6.9542 -2.4992 0.9688
2.9971 -6.8950 -2.4991 0.9688
3.2717 -6.7683 -2.4989 0.9688
3.4071 -6.7008 -2.4988 0.9688
3.5410 -6.6307 -2.4987 0.9688
3.6735 -6.5579 -2.4986 0.9688
4.0618 -6.3237 -2.4983 0.9688
4.4353 -6.0665 -2.4980 0.9688
4.5563 -5.9758 -2.4979 0.9688
4.6754 -5.8828 -2.4978 0.9688
4.7926 -5.7874 -2.4977 0.9688
4.9078 -5.6896 -2.4977 0.9688
5.3485 -5.2760 -2.4973 0.9688
5.4534 -5.1672 -2.4972 0.9688
5.5561 -5.0563 -2.4972 0.9688
5.8504 -4.7116 -2.4970 0.9688
6.2095 -4.2258 -2.4967 0.9688
6.2931 -4.0999 -2.4966 0.9688
6.3741 -3.9725 -2.4966 0.9688
6.4526 -3.8433 -2.4965 0.9688
6.6017 -3.5806 -2.4964 0.9688
6.6723 -3.4470 -2.4964 0.9688
6.8053 -3.1757 -2.4963 0.9688
6.9841 -2.7594 -2.4962 0.9688
7.1375 -2.3331 -2.4961 0.9688
7.1829 -2.1891 -2.4960 0.9688
7.2254 -2.0441 -2.4960 0.9688
7.2650 -1.8984 -2.4960 0.9688
7.3016 -1.7518 -2.4960 0.9688
7.3353 -1.6046 -2.4960 0.9688
7.4404 -1.0099 -2.4959 0.9688
7.4592 -0.8600 -2.4959 0.9688
7.4878 -0.5593 -2.4959 0.9688
6.2071 3.1993 -2.4972 0.9708
6.0737 3.4465 -2.4973 0.9708
5.9305 3.6881 -2.4974 0.9708
5.6977 4.0394 -2.4976 0.9708
5.6155 4.1533 -2.4977 0.9708
5.5310 4.2656 -2.4978 0.9708
5.4442 4.3761 -2.4979 0.9708
5.0755 4.8001 -2.4982 0.9708
4.5688 5.2864 -2.4986 0.9708
4.3528 5.4662 -2.4988 0.9708
4.2421 5.5529 -2.4989 0.9708
4.0156 5.7195 -2.4991 0.9707
3.9000 5.7993 -2.4992 0.9707
3.7826 5.8768 -2.4993 0.9707
3.6638 5.9520 -2.4994 0.9707
3.4218 6.0950 -2.4996 0.9707
3.0483 6.2911 -2.4999 0.9707
2.9213 6.3513 -2.5000 0.9707
2.7931 6.4091 -2.5001 0.9707
2.5333 6.5168 -2.5003 0.9707
2.4018 6.5667 -2.5005 0.9707
2.1360 6.6586 -2.5007 0.9707
2.0017 6.7005 -2.5008 0.9707
1.4569 6.8409 -2.5012 0.9707
1.3191 6.8692 -2.5013 0.9707
1.1807 6.8946 -2.5015 0.9707
0.9025 6.9371 -2.5017 0.9707
0.6229 6.9685 -2.5019 0.9707
-0.0800 6.9974 -2.5025 0.9707
-0.3613 6.9891 -2.5027 0.9707
-1.0615 6.9191 -2.5033 0.9707
-1.2005 6.8966 -2.5034 0.9707
-1.3390 6.8714 -2.5035 0.9707
-1.4770 6.8434 -2.5036 0.9707
-1.7512 6.7790 -2.5038 0.9707
-1.8873 6.7427 -2.5039 0.9707
-2.2908 6.6174 -2.5042 0.9707
-2.4235 6.5703 -2.5043 0.9707
-2.6860 6.4680 -2.5045 0.9707
-2.8157 6.4130 -2.5046 0.9707
-2.9442 6.3553 -2.5047 0.9707
-3.0716 6.2950 -2.5048 0.9707
-3.3225 6.1669 -2.5050 0.9707
-3.6888 5.9559 -2.5053 0.9707
-3.9256 5.8032 -2.5055 0.9707
-4.1562 5.6410 -2.5057 0.9707
-4.3800 5.4696 -2.5058 0.9707
-4.5967 5.2894 -2.5060 0.9707
-4.8060 5.1006 -2.5061 0.9707
-5.0076 4.9034 -2.5063 0.9707
-5.3861 4.4856 -2.5066 0.9707
-5.4753 4.3765 -2.5066 0.9707
-5.7297 4.0386 -2.5068 0.9707
-5.8099 3.9226 -2.5069 0.9707
-5.8877 3.8051 -2.5069 0.9707
-5.9632 3.6859 -2.5070 0.9707
-6.0363 3.5653 -2.5070 0.9707
-6.1750 3.3198 -2.5071 0.9707
-6.2407 3.1950 -2.5072 0.9707
-6.3038 3.0688 -2.5072 0.9707
-6.4223 2.8129 -2.5073 0.9707
-6.4777 2.6832 -2.5073 0.9707
-6.5304 2.5524 -2.5074 0.9707
-6.5805 2.4206 -2.5074 0.9707
-6.7147 2.0194 -2.5075 0.9707
-6.9093 1.1963 -2.5076 0.9707
-6.9689 0.7775 -2.5076 0.9707
-6.9832 0.6371 -2.5076 0.9707
-6.9946 0.4966 -2.5076 0.9707
-7.0031 0.3558 -2.5076 0.9707
-7.0089 0.2149 -2.5076 0.9707
-7.0090 -0.2082 -2.5076 0.9707
-6.9694 -0.7709 -2.5075 0.9707
-6.9326 -1.0505 -2.5075 0.9707
-6.7917 -1.7412 -2.5073 0.9707
-6.6293 -2.2812 -2.5071 0.9707
-6.5320 -2.5459 -2.5070 0.9707
-6.4793 -2.6767 -2.5070 0.9707
-6.3057 -3.0624 -2.5068 0.9707
-6.1771 -3.3134 -2.5067 0.9707
-6.0385 -3.5589 -2.5066 0.9707
-5.9656 -3.6796 -2.5065 0.9707
-5.8124 -3.9163 -2.5064 0.9707
-5.6499 -4.1467 -2.5062 0.9707
-5.5652 -4.2594 -2.5062 0.9707
-5.2977 -4.5868 -2.5059 0.9707
-5.2042 -4.6923 -2.5058 0.9707
-5.0109 -4.8975 -2.5057 0.9707
-4.9112 -4.9971 -2.5056 0.9707
-4.8096 -5.0947 -2.5055 0.9707
-4.7060 -5.1902 -2.5054 0.9707
-4.3839 -5.4640 -2.5051 0.9707
-4.1603 -5.6354 -2.5049 0.9707
-4.0459 -5.7177 -2.5048 0.9707
-3.8124 -5.8754 -2.5046 0.9707
-3.5727 -6.0235 -2.5044 0.9707
-3.4507 -6.0939 -2.5043 0.9707
-3.2026 -6.2272 -2.5041 0.9707
-2.9493 -6.3504 -2.5039 0.9707
-2.8208 -6.4082 -2.5038 0.9707
-2.6913 -6.4633 -2.5037 0.9707
-2.5606 -6.5159 -2.5036 0.9707
-2.2962 -6.6130 -2.5034 0.9707
-2.1627 -6.6576 -2.5033 0.9707
-2.0282 -6.6994 -2.5032 0.9707
-1.8930 -6.7386 -2.5030 0.9707
-1.7570 -6.7750 -2.5029 0.9707
-1.6203 -6.8087 -2.5028 0.9707
-1.4830 -6.8396 -2.5027 0.9707
-1.2066 -6.8930 -2.5025 0.9707
-0.6486 -6.9664 -2.5020 0.9707
-0.5083 -6.9778 -2.5019 0.9707
-0.3678 -6.9863 -2.5018 0.9707
0.3354 -6.9863 -2.5012 0.9707
0.6161 -6.9666 -2.5010 0.9707
0.8957 -6.9355 -2.5008 0.9707
1.1738 -6.8933 -2.5006 0.9707
1.4500 -6.8399 -2.5004 0.9707
1.7237 -6.7754 -2.5001 0.9707
1.9947 -6.7001 -2.4999 0.9707
2.1289 -6.6583 -2.4998 0.9707
2.3948 -6.5668 -2.4996 0.9707
2.7861 -6.4096 -2.4993 0.9707
2.9144 -6.3520 -2.4992 0.9707
3.1672 -6.2292 -2.4990 0.9708
3.2918 -6.1640 -2.4989 0.9708
3.8933 -5.8013 -2.4985 0.9708
4.1232 -5.6396 -2.4983 0.9708
4.5625 -5.2893 -2.4980 0.9708
4.6678 -5.1963 -2.4979 0.9708
4.7713 -5.1012 -2.4978 0.9708
4.8727 -5.0040 -2.4977 0.9708
4.9723 -4.9048 -2.4976 0.9708
5.0698 -4.8037 -2.4976 0.9708
5.2586 -4.5957 -2.4974 0.9708
5.3498 -4.4888 -2.4974 0.9708
5.4389 -4.3802 -2.4973 0.9708
5.6927 -4.0440 -2.4971 0.9708
5.7728 -3.9286 -2.4971 0.9708
5.9988 -3.5730 -2.4969 0.9708
6.0693 -3.4516 -2.4969 0.9708
6.1374 -3.3287 -2.4968 0.9708
6.2030 -3.2046 -2.4968 0.9708
6.2661 -3.0791 -2.4967 0.9708
6.4401 -2.6955 -2.4966 0.9708
6.4929 -2.5654 -2.4966 0.9708
6.5907 -2.3021 -2.4965 0.9708
6.6356 -2.1691 -2.4965 0.9708
6.6778 -2.0351 -2.4965 0.9708
6.7173 -1.9004 -2.4964 0.9708
6.7541 -1.7649 -2.4964 0.9708
6.8195 -1.4918 -2.4964 0.9708
6.8481 -1.3543 -2.4964 0.9708
6.9173 -0.9388 -2.4963 0.9708
6.9347 -0.7995 -2.4963 0.9708
6.9494 -0.6599 -2.4963 0.9708
6.9613 -0.5200 -2.4963 0.9708
5.7319 3.1018 -2.4976 0.9725
5.6685 3.2165 -2.4976 0.9725
5.6028 3.3300 -2.4977 0.9725
5.5348 3.4421 -2.4977 0.9725
5.4646 3.5528 -2.4978 0.9725
5.3175 3.7699 -2.4979 0.9725
4.7368 4.4798 -2.4984 0.9725
4.5531 4.6670 -2.4986 0.9725
4.3620 4.8466 -2.4988 0.9725
4.1638 5.0185 -2.4989 0.9725
4.0622 5.1014 -2.4990 0.9725
3.9589 5.1822 -2.4991 0.9725
3.8540 5.2610 -2.4992 0.9725
3.6396 5.4121 -2.4994 0.9724
3.5301 5.4845 -2.4995 0.9724
3.0784 5.7513 -2.4999 0.9724
2.9622 5.8123 -2.5000 0.9724
2.6066 5.9811 -2.5003 0.9724
2.3641 6.0815 -2.5005 0.9724
2.2414 6.1281 -2.5006 0.9724
1.9933 6.2138 -2.5008 0.9724
1.8680 6.2529 -2.5009 0.9724
1.7419 6.2895 -2.5010 0.9724
1.3596 6.3839 -2.5013 0.9724
1.2310 6.4102 -2.5014 0.9724
0.9722 6.4551 -2.5016 0.9724
0.5813 6.5028 -2.5019 0.9724
0.3193 6.5214 -2.5021 0.9724
0.1880 6.5268 -2.5022 0.9724
0.0567 6.5296 -2.5023 0.9724
-0.2059 6.5271 -2.5025 0.9724
-0.3372 6.5219 -2.5027 0.9724
-0.8604 6.4748 -2.5031 0.9724
-0.9905 6.4564 -2.5032 0.9724
-1.1202 6.4355 -2.5033 0.9724
-1.2495 6.4119 -2.5034 0.9724
-1.8873 6.2553 -2.5039 0.9724
-2.3844 6.0843 -2.5043 0.9724
-2.5063 6.0354 -2.5044 0.9724
-2.6273 5.9839 -2.5045 0.9724
-2.8661 5.8739 -2.5046 0.9724
-3.2154 5.6909 -2.5049 0.9724
-3.5532 5.4872 -2.5052 0.9724
-3.9832 5.1846 -2.5055 0.9724
-4.1888 5.0205 -2.5056 0.9724
-4.2890 4.9354 -2.5057 0.9724
-4.4843 4.7592 -2.5059 0.9724
-4.6724 4.5752 -2.5060 0.9724
-4.7636 4.4804 -2.5061 0.9724
-4.9402 4.2854 -2.5062 0.9724
-5.0255 4.1853 -2.5063 0.9724
-5.2691 3.8749 -2.5064 0.9724
-5.3461 3.7682 -2.5065 0.9724
-5.4209 3.6600 -2.5065 0.9724
-5.6980 3.2127 -2.5067 0.9724
-5.7616 3.0975 -2.5068 0.9724
-5.9922 2.6246 -2.5069 0.9724
-6.0439 2.5036 -2.5070 0.9724
-6.1841 2.1346 -2.5071 0.9724
-6.2258 2.0098 -2.5071 0.9724
-6.2650 1.8842 -2.5071 0.9724
-6.3018 1.7578 -2.5071 0.9724
-6.3359 1.6307 -2.5072 0.9724
-6.3964 1.3746 -2.5072 0.9724
-6.4678 0.9863 -2.5072 0.9724
-6.5022 0.7254 -2.5072 0.9724
-6.5261 0.4633 -2.5072 0.9724
-6.5396 -0.1943 -2.5072 0.9724
-6.5343 -0.3258 -2.5072 0.9724
-6.5264 -0.4571 -2.5072 0.9724
-6.4236 -1.2395 -2.5070 0.9724
-6.3973 -1.3684 -2.5070 0.9724
-6.3369 -1.6246 -2.5069 0.9724
-6.3028 -1.7517 -2.5069 0.9724
-6.1854 -2.1285 -2.5068 0.9724
-6.1413 -2.2524 -2.5067 0.9724
-6.0946 -2.3755 -2.5067 0.9724
-5.8835 -2.8574 -2.5065 0.9724
-5.7635 -3.0916 -2.5064 0.9724
-5.5662 -3.4333 -2.5062 0.9724
-5.3486 -3.7624 -2.5060 0.9724
-5.2717 -3.8691 -2.5059 0.9724
-5.1927 -3.9743 -2.5059 0.9724
-5.1115 -4.0778 -2.5058 0.9724
-5.0283 -4.1796 -2.5057 0.9724
-4.9431 -4.2798 -2.5057 0.9724
-4.8559 -4.3782 -2.5056 0.9724
-4.6756 -4.5697 -2.5054 0.9724
-4.4877 -4.7537 -2.5053 0.9724
-4.0906 -5.0984 -2.5049 0.9724
-3.9871 -5.1794 -2.5048 0.9724
-3.6670 -5.4099 -2.5046 0.9724
-3.5573 -5.4823 -2.5045 0.9724
-3.4462 -5.5526 -2.5044 0.9724
-3.1048 -5.7496 -2.5041 0.9724
-2.9884 -5.8107 -2.5040 0.9724
-2.6322 -5.9796 -2.5037 0.9724
-2.5113 -6.0311 -2.5036 0.9724
-2.3893 -6.0802 -2.5035 0.9724
-2.2665 -6.1267 -2.5034 0.9724
-2.0181 -6.2124 -2.5032 0.9724
-1.8926 -6.2515 -2.5031 0.9724
-1.5120 -6.3535 -2.5028 0.9724
-1.1259 -6.4323 -2.5024 0.9724
-0.8662 -6.4718 -2.5022 0.9724
-0.7359 -6.4876 -2.5021 0.9724
-0.6052 -6.5009 -2.5020 0.9724
-0.3432 -6.5194 -2.5018 0.9724
-0.0808 -6.5274 -2.5016 0.9724
0.1818 -6.5248 -2.5014 0.9724
0.3130 -6.5195 -2.5013 0.9724
0.4441 -6.5117 -2.5012 0.9724
0.8359 -6.4722 -2.5009 0.9724
1.2245 -6.4092 -2.5006 0.9724
1.4812 -6.3543 -2.5004 0.9724
1.8615 -6.2526 -2.5001 0.9724
1.9868 -6.2137 -2.5000 0.9724
2.1113 -6.1722 -2.4999 0.9724
2.3576 -6.0819 -2.4997 0.9724
2.4794 -6.0330 -2.4996 0.9724
2.9558 -5.8133 -2.4992 0.9725
3.3007 -5.6239 -2.4989 0.9725
3.4130 -5.5562 -2.4989 0.9725
3.7415 -5.3397 -2.4986 0.9725
3.8480 -5.2632 -2.4985 0.9725
4.0563 -5.1039 -2.4984 0.9725
4.1580 -5.0211 -2.4983 0.9725
4.2580 -4.9363 -2.4982 0.9725
4.4529 -4.7608 -2.4981 0.9725
4.5476 -4.6701 -2.4980 0.9725
4.7315 -4.4832 -2.4979 0.9725
4.8206 -4.3870 -2.4978 0.9725
5.2361 -3.8804 -2.4975 0.9725
5.3877 -3.6665 -2.4974 0.9725
5.5305 -3.4467 -2.4973 0.9725
5.5986 -3.3347 -2.4972 0.9725
5.7280 -3.1067 -2.4972 0.9725
5.8481 -2.8737 -2.4971 0.9725
6.0106 -2.5157 -2.4970 0.9725
6.1067 -2.2719 -2.4969 0.9725
6.1511 -2.1486 -2.4969 0.9725
6.1930 -2.0244 -2.4969 0.9725
6.3037 -1.6472 -2.4968 0.9725
6.3914 -1.2640 -2.4967 0.9725
6.4370 -1.0059 -2.4967 0.9725
6.4859 -0.6159 -2.4967 0.9725
6.4970 -0.4853 -2.4967 0.9725
5.4248 2.7960 -2.4978 0.9740
5.3675 2.9046 -2.4978 0.9740
4.9795 3.5303 -2.4982 0.9740
4.9076 3.6298 -2.4983 0.9740
4.8337 3.7279 -2.4983 0.9740
4.6801 3.9195 -2.4985 0.9740
4.5190 4.1048 -2.4986 0.9740
4.0846 4.5384 -2.4990 0.9740
3.9926 4.6198 -2.4990 0.9740
3.8991 4.6993 -2.4991 0.9740
3.8039 4.7770 -2.4992 0.9740
3.6089 4.9264 -2.4994 0.9740
3.4081 5.0679 -2.4995 0.9739
2.6638 5.4974 -2.5002 0.9739
2.4407 5.6005 -2.5004 0.9739
2.3277 5.6487 -2.5005 0.9739
2.2137 5.6946 -2.5005 0.9739
2.0988 5.7382 -2.5006 0.9739
1.9830 5.7794 -2.5007 0.9739
1.8664 5.8184 -2.5008 0.9739
1.5123 5.9210 -2.5011 0.9739
1.3930 5.9505 -2.5012 0.9739
1.2731 5.9776 -2.5013 0.9739
1.1526 6.0022 -2.5014 0.9739
1.0317 6.0244 -2.5015 0.9739
0.7886 6.0615 -2.5017 0.9739
0.5442 6.0888 -2.5019 0.9739
0.1761 6.1112 -2.5022 0.9739
-0.0699 6.1138 -2.5024 0.9739
-0.3157 6.1066 -2.5026 0.9739
-0.4385 6.0992 -2.5027 0.9739
-0.5611 6.0894 -2.5028 0.9739
-0.6835 6.0771 -2.5029 0.9739
-0.8056 6.0624 -2.5030 0.9739
-0.9274 6.0452 -2.5031 0.9739
-1.0489 6.0256 -2.5032 0.9739
-1.5300 5.9226 -2.5036 0.9739
-1.6489 5.8909 -2.5037 0.9739
-1.7671 5.8568 -2.5038 0.9739
-2.0014 5.7814 -2.5039 0.9739
-2.2324 5.6966 -2.5041 0.9739
-2.4599 5.6026 -2.5043 0.9739
-3.1172 5.2668 -2.5048 0.9739
-3.2226 5.2032 -2.5049 0.9739
-3.5308 4.9998 -2.5051 0.9739
-3.7293 4.8541 -2.5053 0.9739
-3.8263 4.7782 -2.5053 0.9739
-4.0156 4.6207 -2.5055 0.9739
-4.1078 4.5391 -2.5056 0.9739
-4.1984 4.4557 -2.5056 0.9739
-4.3744 4.2835 -2.5057 0.9739
-4.4598 4.1947 -2.5058 0.9739
-4.5434 4.1043 -2.5059 0.9739
-4.6251 4.0122 -2.5059 0.9739
-4.7050 3.9184 -2.5060 0.9739
-4.7830 3.8231 -2.5060 0.9739
-5.1432 3.3239 -2.5063 0.9739
-5.2729 3.1144 -2.5064 0.9739
-5.3941 2.8999 -2.5065 0.9739
-5.4514 2.7909 -2.5065 0.9739
-5.5594 2.5695 -2.5066 0.9739
-5.6584 2.3439 -2.5067 0.9739
-5.7044 2.2296 -2.5067 0.9739
-5.7896 1.9984 -2.5067 0.9739
-5.8654 1.7640 -2.5068 0.9739
-5.8998 1.6457 -2.5068 0.9739
-5.9317 1.5267 -2.5068 0.9739
-5.9612 1.4071 -2.5068 0.9739
-5.9884 1.2869 -2.5069 0.9739
-6.0552 0.9234 -2.5069 0.9739
-6.0725 0.8014 -2.5069 0.9739
-6.0874 0.6792 -2.5069 0.9739
-6.1098 0.4338 -2.5069 0.9739
-6.1173 0.3108 -2.5069 0.9739
-6.1223 0.1877 -2.5069 0.9739
-6.1248 0.0645 -2.5069 0.9739
-6.1002 -0.5508 -2.5068 0.9739
-6.0879 -0.6733 -2.5068 0.9739
-6.0558 -0.9176 -2.5068 0.9739
-6.0360 -1.0392 -2.5067 0.9739
-5.9892 -1.2812 -2.5067 0.9739
-5.9622 -1.4013 -2.5067 0.9739
-5.8665 -1.7583 -2.5066 0.9739
-5.8299 -1.8759 -2.5065 0.9739
-5.7496 -2.1088 -2.5064 0.9739
-5.7059 -2.2239 -2.5064 0.9739
-5.6116 -2.4515 -2.5063 0.9739
-5.5611 -2.5639 -2.5063 0.9739
-5.5083 -2.6752 -2.5062 0.9739
-5.3960 -2.8944 -2.5061 0.9739
-5.1454 -3.3184 -2.5059 0.9739
-5.0076 -3.5225 -2.5058 0.9739
-4.9356 -3.6224 -2.5057 0.9739
-4.8616 -3.7209 -2.5056 0.9739
-4.7857 -3.8178 -2.5056 0.9739
-4.5463 -4.0991 -2.5053 0.9739
-4.2904 -4.3654 -2.5051 0.9739
-3.9252 -4.6956 -2.5048 0.9739
-3.8298 -4.7734 -2.5047 0.9739
-3.7329 -4.8493 -2.5046 0.9739
-3.6345 -4.9233 -2.5046 0.9739
-3.5347 -4.9952 -2.5045 0.9739
-3.3307 -5.1330 -2.5043 0.9739
-2.9069 -5.3833 -2.5039 0.9739
-2.7980 -5.4405 -2.5039 0.9739
-2.6879 -5.4954 -2.5038 0.9739
-2.5767 -5.5482 -2.5037 0.9739
-2.4645 -5.5987 -2.5036 0.9739
-2.3513 -5.6469 -2.5035 0.9739
-2.2371 -5.6929 -2.5034 0.9739
-2.0062 -5.7778 -2.5032 0.9739
-1.7721 -5.8533 -2.5030 0.9739
-1.5351 -5.9194 -2.5028 0.9739
-1.4157 -5.9488 -2.5027 0.9739
-0.8111 -6.0597 -2.5022 0.9739
-0.3214 -6.1044 -2.5018 0.9739
0.1702 -6.1095 -2.5014 0.9739
0.2931 -6.1046 -2.5013 0.9739
0.4158 -6.0972 -2.5012 0.9739
0.5383 -6.0874 -2.5011 0.9739
0.6606 -6.0751 -2.5010 0.9739
0.9044 -6.0431 -2.5008 0.9739
1.2670 -5.9769 -2.5006 0.9739
1.3869 -5.9500 -2.5005 0.9739
1.7430 -5.8548 -2.5002 0.9739
2.0927 -5.7385 -2.4999 0.9739
2.2076 -5.6950 -2.4998 0.9739
2.3217 -5.6492 -2.4997 0.9739
2.4347 -5.6012 -2.4996 0.9739
2.5468 -5.5509 -2.4996 0.9739
2.6579 -5.4984 -2.4995 0.9740
2.7678 -5.4436 -2.4994 0.9740
2.8766 -5.3867 -2.4993 0.9740
3.0908 -5.2663 -2.4991 0.9740
3.1960 -5.2029 -2.4991 0.9740
3.2998 -5.1374 -2.4990 0.9740
3.4024 -5.0698 -2.4989 0.9740
3.5036 -5.0002 -2.4988 0.9740
3.7016 -4.8550 -2.4987 0.9740
3.7984 -4.7794 -2.4986 0.9740
3.9873 -4.6225 -2.4985 0.9740
4.0794 -4.5412 -2.4984 0.9740
4.2585 -4.3732 -2.4983 0.9740
4.4307 -4.1982 -2.4981 0.9740
4.5142 -4.1081 -2.4981 0.9740
4.6755 -3.9231 -2.4980 0.9740
4.7534 -3.8282 -2.4979 0.9740
4.8293 -3.7317 -2.4978 0.9740
5.1791 -3.2276 -2.4976 0.9740
5.3045 -3.0166 -2.4975 0.9740
5.3640 -2.9093 -2.4975 0.9740
5.4214 -2.8008 -2.4974 0.9740
5.5802 -2.4686 -2.4973 0.9740
5.6286 -2.3558 -2.4973 0.9740
5.7187 -2.1275 -2.4972 0.9740
5.7602 -2.0120 -2.4972 0.9740
5.7995 -1.8957 -2.4972 0.9740
5.8364 -1.7787 -2.4972 0.9740
6.0079 -1.0630 -2.4971 0.9740
6.0280 -0.9420 -2.4971 0.9740
6.0738 -0.5767 -2.4970 0.9740
4.8060 3.1246 -2.4983 0.9753
4.7423 3.2208 -2.4984 0.9753
4.5398 3.5011 -2.4985 0.9753
4.2441 3.8551 -2.4988 0.9753
4.1658 3.9398 -2.4989 0.9753
4.0859 4.0229 -2.4989 0.9753
4.0042 4.1044 -2.4990 0.9753
3.9210 4.1842 -2.4991 0.9753
3.8361 4.2623 -2.4992 0.9753
3.7498 4.3388 -2.4992 0.9753
3.5724 4.4863 -2.4994 0.9753
3.4816 4.5574 -2.4995 0.9753
2.7071 5.0577 -2.5001 0.9753
2.5017 5.1628 -2.5003 0.9753
1.9710 5.3889 -2.5007 0.9753
1.5317 5.5307 -2.5011 0.9753
1.3082 5.5882 -2.5013 0.9753
1.1955 5.6136 -2.5014 0.9753
1.0824 5.6367 -2.5015 0.9753
0.5111 5.7180 -2.5019 0.9753
0.3960 5.7273 -2.5020 0.9753
0.2808 5.7343 -2.5021 0.9753
0.1654 5.7390 -2.5022 0.9753
-0.1811 5.7392 -2.5025 0.9753
-0.2965 5.7346 -2.5026 0.9753
-0.4118 5.7277 -2.5027 0.9753
-0.5269 5.7185 -2.5028 0.9753
-0.6419 5.7069 -2.5028 0.9753
-0.7565 5.6930 -2.5029 0.9753
-1.0986 5.6377 -2.5032 0.9752
-1.2118 5.6146 -2.5033 0.9752
-1.3246 5.5893 -2.5034 0.9752
-1.4368 5.5617 -2.5035 0.9752
-1.5484 5.5319 -2.5036 0.9752
-1.6594 5.4998 -2.5036 0.9752
-1.7698 5.4655 -2.5037 0.9752
-1.8794 5.4290 -2.5038 0.9752
-1.9883 5.3903 -2.5039 0.9752
-2.0964 5.3494 -2.5040 0.9752
-2.3100 5.2611 -2.5042 0.9752
-2.4154 5.2137 -2.5042 0.9752
-2.5199 5.1643 -2.5043 0.9752
-2.6233 5.1127 -2.5044 0.9752
-2.7257 5.0591 -2.5045 0.9752
-2.9271 4.9457 -2.5046 0.9752
-3.1239 4.8242 -2.5048 0.9752
-3.3155 4.6949 -2.5049 0.9752
-3.4094 4.6275 -2.5050 0.9752
-3.5019 4.5581 -2.5051 0.9752
-3.5929 4.4868 -2.5051 0.9752
-3.7707 4.3389 -2.5053 0.9752
-4.1076 4.0222 -2.5055 0.9752
-4.1878 3.9389 -2.5056 0.9752
-4.2663 3.8540 -2.5056 0.9752
-4.4180 3.6794 -2.5057 0.9752
-4.6322 3.4065 -2.5059 0.9752
-4.8294 3.1211 -2.5060 0.9752
-4.8913 3.0234 -2.5061 0.9752
-5.0650 2.7230 -2.5062 0.9752
-5.2202 2.4127 -2.5063 0.9752
-5.3132 2.2009 -2.5064 0.9752
-5.3975 1.9854 -2.5064 0.9752
-5.4364 1.8765 -2.5064 0.9752
-5.4731 1.7668 -2.5065 0.9752
-5.5076 1.6564 -2.5065 0.9752
-5.5398 1.5453 -2.5065 0.9752
-5.5698 1.4335 -2.5065 0.9752
-5.7160 0.6377 -2.5066 0.9752
-5.7277 0.5226 -2.5066 0.9752
-5.7441 0.2918 -2.5066 0.9752
-5.7488 0.1762 -2.5066 0.9752
-5.7442 -0.2864 -2.5066 0.9752
-5.7373 -0.4018 -2.5065 0.9752
-5.7280 -0.5172 -2.5065 0.9752
-5.7164 -0.6323 -2.5065 0.9752
-5.6238 -1.2030 -2.5064 0.9752
-5.5984 -1.3158 -2.5064 0.9752
-5.5408 -1.5399 -2.5063 0.9752
-5.4742 -1.7615 -2.5062 0.9752
-5.4377 -1.8712 -2.5062 0.9752
-5.3578 -2.0883 -2.5061 0.9752
-5.3147 -2.1956 -2.5061 0.9752
-5.2693 -2.3020 -2.5060 0.9752
-5.2219 -2.4075 -2.5060 0.9752
-5.1723 -2.5120 -2.5060 0.9752
-5.1206 -2.6154 -2.5059 0.9752
-5.0669 -2.7179 -2.5059 0.9752
-4.8316 -3.1160 -2.5056 0.9752
-4.6346 -3.4015 -2.5055 0.9752
-4.5651 -3.4940 -2.5054 0.9752
-4.3458 -3.7626 -2.5052 0.9752
-4.2691 -3.8491 -2.5051 0.9752
-4.1106 -4.0175 -2.5050 0.9752
-4.0288 -4.0993 -2.5049 0.9752
-3.9455 -4.1794 -2.5049 0.9752
-3.8605 -4.2578 -2.5048 0.9752
-3.6859 -4.4093 -2.5046 0.9752
-3.5964 -4.4824 -2.5046 0.9752
-3.2241 -4.7563 -2.5042 0.9752
-3.1276 -4.8201 -2.5042 0.9752
-3.0300 -4.8819 -2.5041 0.9752
-2.9310 -4.9416 -2.5040 0.9752
-2.7298 -5.0552 -2.5038 0.9752
-2.6274 -5.1089 -2.5037 0.9752
-2.5241 -5.1605 -2.5037 0.9752
-2.4197 -5.2101 -2.5036 0.9752
-1.9928 -5.3869 -2.5032 0.9752
-1.7744 -5.4623 -2.5030 0.9753
-1.5532 -5.5288 -2.5029 0.9753
-1.4416 -5.5588 -2.5028 0.9753
-1.3295 -5.5865 -2.5027 0.9753
-1.2168 -5.6118 -2.5026 0.9753
-1.1036 -5.6350 -2.5025 0.9753
-0.7617 -5.6906 -2.5022 0.9753
-0.6471 -5.7046 -2.5021 0.9753
-0.5322 -5.7162 -2.5020 0.9753
-0.4171 -5.7256 -2.5019 0.9753
-0.3018 -5.7326 -2.5018 0.9753
-0.1864 -5.7373 -2.5017 0.9753
0.2752 -5.7329 -2.5014 0.9753
0.5056 -5.7168 -2.5012 0.9753
0.6204 -5.7052 -2.5011 0.9753
0.7350 -5.6914 -2.5010 0.9753
1.0768 -5.6361 -2.5007 0.9753
1.1899 -5.6131 -2.5006 0.9753
