ply
format ascii 1.0
element vertex 1584
property float32 x
property float32 y
property float32 z
property float32 I
end_header
-12.8766 3.2278 -2.4952 0.9474
-12.9946 2.7080 -2.4949 0.9474
-13.0917 2.1838 -2.4947 0.9474
-13.1323 1.9204 -2.4946 0.9474
-13.1977 1.3915 -2.4944 0.9474
-13.2225 1.1261 -2.4943 0.9474
-13.2648 0.3279 -2.4940 0.9474
-13.2465 -0.7374 -2.4937 0.9474
-13.2286 -1.0032 -2.4936 0.9474
-13.2054 -1.2686 -2.4935 0.9474
-13.1431 -1.7977 -2.4934 0.9474
-13.1040 -2.0612 -2.4933 0.9474
-12.9553 -2.8463 -2.4932 0.9474
-12.8300 -3.3640 -2.4931 0.9474
-12.6036 -4.1302 -2.4929 0.9474
-12.5180 -4.3824 -2.4929 0.9475
-12.4273 -4.6328 -2.4929 0.9475
-12.3316 -4.8813 -2.4929 0.9475
-12.2310 -5.1279 -2.4928 0.9475
-11.8999 -5.8550 -2.4928 0.9475
-11.7799 -6.0927 -2.4928 0.9475
-11.6551 -6.3280 -2.4928 0.9475
-11.3916 -6.7909 -2.4928 0.9475
-10.8102 -7.6832 -2.4928 0.9475
-10.6538 -7.8987 -2.4928 0.9475
-10.4931 -8.1112 -2.4929 0.9475
-10.3283 -8.3203 -2.4929 0.9475
-9.9861 -8.7285 -2.4929 0.9474
-9.6279 -9.1227 -2.4930 0.9474
-9.4429 -9.3144 -2.4931 0.9474
-9.2541 -9.5023 -2.4931 0.9474
-8.4626 -10.2151 -2.4933 0.9474
-7.1536 -11.1275 -2.4865 0.9476
-5.6866 -11.1687 -2.3557 0.9503
-5.4301 -11.2165 -2.3423 0.9505
-4.5134 -11.6180 -2.3427 0.9505
-4.2794 -11.7068 -2.3428 0.9505
-4.0436 -11.7910 -2.3429 0.9505
-3.8062 -11.8703 -2.3431 0.9505
-3.5673 -11.9449 -2.3432 0.9505
-3.3269 -12.0148 -2.3433 0.9505
-2.5978 -12.1951 -2.3436 0.9505
-2.1063 -12.2909 -2.3439 0.9505
-1.8592 -12.3314 -2.3440 0.9505
-1.6113 -12.3669 -2.3441 0.9505
-1.3627 -12.3975 -2.3443 0.9505
-0.6139 -12.4592 -2.3447 0.9505
-0.3636 -12.4698 -2.3448 0.9505
-0.1131 -12.4753 -2.3450 0.9505
0.1374 -12.4758 -2.3451 0.9505
0.6383 -12.4618 -2.3454 0.9505
0.8885 -12.4472 -2.3455 0.9505
1.3877 -12.4031 -2.3458 0.9505
1.6366 -12.3736 -2.3460 0.9505
1.8849 -12.3390 -2.3462 0.9505
2.1324 -12.2995 -2.3463 0.9505
2.6249 -12.2056 -2.3466 0.9505
3.1133 -12.0920 -2.3469 0.9504
3.3557 -12.0278 -2.3471 0.9504
4.0746 -11.8064 -2.3476 0.9504
4.5460 -11.6349 -2.3479 0.9504
5.0102 -11.4446 -2.3482 0.9504
5.2394 -11.3425 -2.3484 0.9504
5.4664 -11.2357 -2.3486 0.9504
6.0221 -11.2099 -2.3918 0.9495
6.3134 -11.2064 -2.4176 0.9490
6.6111 -11.2027 -2.4450 0.9484
6.9156 -11.1987 -2.4739 0.9478
7.4301 -11.0164 -2.4976 0.9474
7.6577 -10.8762 -2.5002 0.9473
7.8819 -10.7302 -2.5025 0.9473
8.0964 -10.5705 -2.5027 0.9472
8.3076 -10.4066 -2.5029 0.9472
8.5154 -10.2383 -2.5030 0.9472
9.3121 -9.5247 -2.5037 0.9472
9.8706 -8.9485 -2.5042 0.9472
10.3936 -8.3397 -2.5047 0.9472
10.5596 -8.1298 -2.5049 0.9472
10.8789 -7.7003 -2.5052 0.9472
11.1808 -7.2582 -2.5055 0.9472
11.4646 -6.8042 -2.5058 0.9472
11.5996 -6.5730 -2.5060 0.9472
11.9765 -5.8637 -2.5064 0.9472
12.0925 -5.6224 -2.5066 0.9472
12.2037 -5.3787 -2.5067 0.9472
12.3099 -5.1329 -2.5069 0.9472
12.4112 -4.8849 -2.5070 0.9472
12.5987 -4.3832 -2.5073 0.9472
12.6848 -4.1295 -2.5074 0.9472
12.8417 -3.6172 -2.5077 0.9471
12.9779 -3.0990 -2.5079 0.9471
13.0931 -2.5756 -2.5081 0.9471
13.1427 -2.3123 -2.5083 0.9471
13.1871 -2.0480 -2.5084 0.9471
13.3409 -0.4482 -2.5090 0.9471
13.3477 -0.1802 -2.5091 0.9471
13.3357 0.6238 -2.5093 0.9471
13.2442 1.6920 -2.5096 0.9471
13.1663 2.2226 -2.5098 0.9471
13.0670 2.7496 -2.5099 0.9471
12.8785 3.5315 -2.5100 0.9471
12.5543 4.5538 -2.5102 0.9471
12.2578 5.3015 -2.5102 0.9471
12.1489 5.5466 -2.5103 0.9471
12.0351 5.7895 -2.5103 0.9471
11.9165 6.0300 -2.5103 0.9471
11.6648 6.5037 -2.5103 0.9471
11.5319 6.7366 -2.5103 0.9471
11.2520 7.1942 -2.5103 0.9471
10.9256 7.6203 -2.5037 0.9472
10.5759 7.6966 -2.4585 0.9482
10.1588 7.7098 -2.3971 0.9494
9.6774 7.9766 -2.3572 0.9502
9.5152 8.1692 -2.3572 0.9502
9.3491 8.3585 -2.3572 0.9502
9.1792 8.5444 -2.3571 0.9502
9.0057 8.7269 -2.3571 0.9502
8.6477 9.0811 -2.3570 0.9502
8.2757 9.4206 -2.3569 0.9502
6.9911 8.2882 -2.0380 0.9568
6.8592 8.4712 -2.0488 0.9566
7.6929 9.9010 -2.3567 0.9502
6.4459 10.7519 -2.3563 0.9503
6.2285 10.8788 -2.3562 0.9503
5.7862 11.1193 -2.3560 0.9503
5.5615 11.2328 -2.3559 0.9503
5.3346 11.3418 -2.3558 0.9503
5.1056 11.4461 -2.3557 0.9503
4.4066 11.7312 -2.3554 0.9503
3.6918 11.9736 -2.3551 0.9503
3.4504 12.0447 -2.3550 0.9503
2.9637 12.1723 -2.3548 0.9503
0.7271 12.5006 -2.3536 0.9503
0.4759 12.5119 -2.3534 0.9503
0.2246 12.5182 -2.3533 0.9503
-0.0269 12.5194 -2.3532 0.9503
-0.2782 12.5156 -2.3530 0.9503
-1.5309 12.4207 -2.3523 0.9503
-2.0281 12.3476 -2.3520 0.9503
-2.5219 12.2546 -2.3516 0.9504
-1.5972 6.4394 -1.2470 0.9734
-1.7856 6.1336 -1.2007 0.9743
-2.1200 5.9264 -1.1831 0.9747
-2.2312 5.8633 -1.1792 0.9748
-2.5698 5.6954 -1.1744 0.9749
-2.8187 5.6322 -1.1838 0.9747
-2.9520 5.6139 -1.1922 0.9745
-3.0887 5.5981 -1.2018 0.9743
-3.5264 5.5698 -1.2391 0.9735
-3.9898 5.5338 -1.2823 0.9726
-4.1799 5.5586 -1.3072 0.9721
-4.5366 5.5540 -1.3479 0.9712
-5.1236 5.5534 -1.4202 0.9697
-5.3318 5.5511 -1.4467 0.9692
-10.8505 4.6679 -2.4968 0.9529
-11.0281 4.2280 -2.4966 0.9529
-11.1879 3.7815 -2.4963 0.9529
-11.2611 3.5559 -2.4962 0.9529
-11.3297 3.3289 -2.4961 0.9529
-11.3937 3.1006 -2.4960 0.9529
-11.4532 2.8710 -2.4959 0.9529
-11.5583 2.4086 -2.4957 0.9529
-11.6038 2.1760 -2.4956 0.9529
-11.6809 1.7082 -2.4954 0.9529
-11.7392 1.2377 -2.4952 0.9529
-11.7613 1.0017 -2.4951 0.9529
-11.7912 0.5286 -2.4949 0.9529
-11.8021 0.0547 -2.4948 0.9529
-11.8005 -0.1823 -2.4947 0.9529
-11.7941 -0.4192 -2.4946 0.9529
-11.7671 -0.8924 -2.4945 0.9529
-11.7212 -1.3641 -2.4943 0.9529
-11.6912 -1.5991 -2.4943 0.9529
-11.6564 -1.8335 -2.4942 0.9529
-11.5729 -2.3000 -2.4941 0.9529
-11.5242 -2.5319 -2.4941 0.9529
-11.4708 -2.7627 -2.4940 0.9529
-11.3503 -3.2210 -2.4940 0.9529
-11.2832 -3.4482 -2.4939 0.9529
-11.2115 -3.6740 -2.4939 0.9529
-11.1353 -3.8983 -2.4939 0.9529
-11.0547 -4.1211 -2.4938 0.9529
-10.9696 -4.3422 -2.4938 0.9529
-10.7862 -4.7791 -2.4938 0.9529
-10.6880 -4.9947 -2.4938 0.9529
-10.5856 -5.2083 -2.4937 0.9529
-10.4788 -5.4198 -2.4937 0.9529
-10.2527 -5.8361 -2.4937 0.9529
-10.0101 -6.2431 -2.4937 0.9529
-9.8828 -6.4429 -2.4937 0.9529
-9.7514 -6.6401 -2.4938 0.9529
-9.6162 -6.8346 -2.4938 0.9529
-9.4771 -7.0263 -2.4938 0.9529
-9.0371 -7.5844 -2.4939 0.9529
-8.8831 -7.7644 -2.4939 0.9529
-8.7255 -7.9413 -2.4939 0.9529
-8.5644 -8.1151 -2.4940 0.9529
-8.3998 -8.2855 -2.4940 0.9529
-8.2319 -8.4527 -2.4940 0.9529
-8.0607 -8.6164 -2.4941 0.9529
-7.7085 -8.9335 -2.4942 0.9529
-7.5277 -9.0867 -2.4942 0.9529
-7.3439 -9.2362 -2.4943 0.9529
-7.1571 -9.3820 -2.4943 0.9529
-6.9675 -9.5241 -2.4944 0.9529
-6.5798 -9.7967 -2.4945 0.9529
-6.3819 -9.9271 -2.4946 0.9529
-5.3555 -10.5185 -2.4950 0.9529
-4.4887 -10.9008 -2.4919 0.9529
-4.0433 -11.0611 -2.4894 0.9530
-3.3315 -11.1554 -2.4609 0.9535
-2.3791 -11.1684 -2.4138 0.9544
-1.9148 -11.1737 -2.3963 0.9547
-1.6850 -11.1761 -2.3891 0.9548
-1.4564 -11.1783 -2.3828 0.9550
-1.2289 -11.1802 -2.3775 0.9551
-1.0023 -11.1821 -2.3731 0.9551
-0.5511 -11.1852 -2.3672 0.9552
-0.3262 -11.1865 -2.3656 0.9553
-0.1015 -11.1876 -2.3649 0.9553
0.1232 -11.1885 -2.3652 0.9553
0.5732 -11.1900 -2.3684 0.9552
1.2521 -11.1908 -2.3803 0.9550
1.4802 -11.1907 -2.3861 0.9549
1.7094 -11.1905 -2.3929 0.9548
1.9401 -11.1901 -2.4006 0.9546
2.1722 -11.1895 -2.4094 0.9545
2.4062 -11.1887 -2.4191 0.9543
3.1206 -11.1854 -2.4547 0.9536
3.3637 -11.1838 -2.4687 0.9534
3.6096 -11.1822 -2.4838 0.9531
4.2971 -10.9979 -2.4959 0.9529
4.7413 -10.8303 -2.4991 0.9528
5.3892 -10.5339 -2.5011 0.9528
5.6000 -10.4242 -2.5013 0.9528
5.8086 -10.3103 -2.5015 0.9528
6.0148 -10.1923 -2.5016 0.9528
6.4200 -9.9438 -2.5019 0.9528
6.6188 -9.8135 -2.5021 0.9528
6.8149 -9.6792 -2.5022 0.9528
7.0084 -9.5410 -2.5024 0.9528
7.3867 -9.2530 -2.5027 0.9527
7.9319 -8.7931 -2.5032 0.9527
8.4485 -8.3011 -2.5036 0.9527
8.7760 -7.9562 -2.5039 0.9527
9.3883 -7.2280 -2.5045 0.9527
9.5321 -7.0384 -2.5047 0.9527
9.6721 -6.8460 -2.5048 0.9527
9.8081 -6.6508 -2.5049 0.9527
10.1925 -6.0492 -2.5054 0.9527
10.4283 -5.6357 -2.5056 0.9527
10.5399 -5.4254 -2.5058 0.9527
11.1189 -4.1205 -2.5065 0.9527
11.2000 -3.8965 -2.5066 0.9527
11.2765 -3.6710 -2.5068 0.9527
11.4158 -3.2156 -2.5070 0.9527
11.5367 -2.7548 -2.5072 0.9527
11.5902 -2.5228 -2.5073 0.9527
11.6390 -2.2896 -2.5074 0.9527
11.6831 -2.0555 -2.5075 0.9527
11.7871 -1.3485 -2.5078 0.9527
11.8122 -1.1116 -2.5079 0.9527
11.8326 -0.8742 -2.5080 0.9526
11.8649 -0.1602 -2.5082 0.9526
11.8661 0.0781 -2.5083 0.9526
11.8541 0.5545 -2.5085 0.9526
11.8409 0.7924 -2.5085 0.9526
11.8002 1.2673 -2.5087 0.9526
11.7726 1.5040 -2.5087 0.9526
11.6615 2.2103 -2.5089 0.9526
11.6150 2.4440 -2.5089 0.9526
11.3822 3.3683 -2.5091 0.9526
11.3124 3.5963 -2.5091 0.9526
11.1591 4.0477 -2.5092 0.9526
10.9878 4.4926 -2.5092 0.9526
10.8955 4.7123 -2.5093 0.9526
10.7987 4.9302 -2.5093 0.9526
10.4824 5.5715 -2.5093 0.9526
10.3684 5.7809 -2.5093 0.9526
10.2503 5.9879 -2.5093 0.9526
10.1279 6.1925 -2.5093 0.9526
9.8711 6.5941 -2.5093 0.9526
9.7366 6.7910 -2.5093 0.9526
9.5982 6.9851 -2.5093 0.9526
9.3026 7.3590 -2.5073 0.9527
8.6209 7.7075 -2.4444 0.9538
8.2916 7.7182 -2.3945 0.9547
8.0049 7.7571 -2.3562 0.9555
7.8474 7.9161 -2.3562 0.9555
7.6867 8.0720 -2.3561 0.9555
7.5229 8.2245 -2.3561 0.9555
6.9821 8.2775 -2.2890 0.9567
6.8482 8.4577 -2.3004 0.9565
6.6599 8.9362 -2.3558 0.9555
6.4789 9.0679 -2.3558 0.9555
6.2954 9.1959 -2.3557 0.9555
5.9207 9.4408 -2.3556 0.9555
5.3411 9.7792 -2.3553 0.9555
5.1434 9.8841 -2.3553 0.9555
4.9438 9.9851 -2.3552 0.9555
4.3331 10.2635 -2.3549 0.9555
3.4951 10.5764 -2.3545 0.9555
3.2818 10.6440 -2.3544 0.9555
3.0673 10.7073 -2.3543 0.9555
2.8516 10.7662 -2.3542 0.9555
1.7576 10.9953 -2.3537 0.9555
1.5364 11.0278 -2.3536 0.9555
1.0922 11.0795 -2.3533 0.9555
0.6464 11.1133 -2.3531 0.9555
-0.4707 11.1191 -2.3525 0.9555
-0.6938 11.1068 -2.3523 0.9555
-0.9167 11.0900 -2.3522 0.9555
-1.3611 11.0429 -2.3519 0.9555
-1.8032 10.9781 -2.3516 0.9555
-2.0231 10.9390 -2.3515 0.9555
-2.2422 10.8956 -2.3514 0.9555
-1.4996 6.6115 -1.4330 0.9727
-1.6219 6.0190 -1.3177 0.9748
-1.7128 5.8837 -1.2953 0.9753
-2.1399 5.6233 -1.2718 0.9757
-2.2634 5.6067 -1.2781 0.9756
-2.3888 5.5911 -1.2852 0.9754
-2.5156 5.5754 -1.2929 0.9753
-2.6808 5.6366 -1.3194 0.9748
-2.8094 5.6135 -1.3269 0.9747
-2.9130 5.5397 -1.3230 0.9747
-3.2046 5.5420 -1.3532 0.9742
-3.6671 5.5425 -1.4048 0.9732
-3.8297 5.5430 -1.4241 0.9728
-3.9978 5.5449 -1.4450 0.9724
-4.9204 5.5528 -1.5683 0.9701
-5.1221 5.5518 -1.5967 0.9696
-5.3290 5.5483 -1.6261 0.9690
-5.5568 5.5576 -1.6612 0.9684
-9.6749 4.3944 -2.4974 0.9573
-9.8427 4.0020 -2.4972 0.9573
-9.9946 3.6033 -2.4970 0.9573
-10.1304 3.1988 -2.4967 0.9573
-10.3033 2.5828 -2.4964 0.9573
-10.3979 2.1668 -2.4963 0.9573
-10.4758 1.7475 -2.4961 0.9573
-10.5964 0.6884 -2.4957 0.9573
-10.6149 0.2624 -2.4955 0.9573
-10.6177 0.0492 -2.4954 0.9573
-10.6163 -0.1640 -2.4954 0.9573
-10.5678 -1.0152 -2.4951 0.9573
-10.5181 -1.4387 -2.4950 0.9573
-10.4514 -1.8598 -2.4949 0.9573
-10.4118 -2.0692 -2.4949 0.9573
-10.3200 -2.4855 -2.4948 0.9573
-10.2678 -2.6922 -2.4947 0.9573
-10.0867 -3.3054 -2.4947 0.9573
-10.0182 -3.5072 -2.4946 0.9573
-9.9457 -3.7077 -2.4946 0.9573
-9.8691 -3.9066 -2.4946 0.9573
-9.7886 -4.1040 -2.4946 0.9573
-9.7042 -4.2997 -2.4945 0.9573
-9.6158 -4.4936 -2.4945 0.9573
-9.4276 -4.8761 -2.4945 0.9573
-9.3277 -5.0644 -2.4945 0.9573
-9.1169 -5.4348 -2.4945 0.9573
-9.0059 -5.6168 -2.4945 0.9573
-8.8913 -5.7965 -2.4945 0.9573
-8.7732 -5.9739 -2.4945 0.9573
-8.6515 -6.1489 -2.4945 0.9573
-8.5263 -6.3215 -2.4946 0.9573
-8.2658 -6.6588 -2.4946 0.9573
-8.1305 -6.8235 -2.4946 0.9573
-7.9919 -6.9855 -2.4946 0.9573
-7.8501 -7.1446 -2.4947 0.9573
-7.5571 -7.4543 -2.4947 0.9573
-7.4060 -7.6046 -2.4948 0.9573
-6.9351 -8.0371 -2.4949 0.9573
-6.4390 -8.4406 -2.4951 0.9573
-5.9195 -8.8136 -2.4952 0.9573
-5.7415 -8.9309 -2.4953 0.9573
-5.5612 -9.0447 -2.4954 0.9573
-5.1938 -9.2612 -2.4955 0.9573
-4.6272 -9.5580 -2.4957 0.9573
-4.4345 -9.6493 -2.4958 0.9573
-3.6464 -9.9753 -2.4962 0.9573
-3.4455 -10.0469 -2.4963 0.9573
-3.2432 -10.1145 -2.4963 0.9573
-2.8347 -10.2373 -2.4965 0.9573
-2.2134 -10.3907 -2.4968 0.9573
-2.0044 -10.4335 -2.4969 0.9573
-1.7946 -10.4721 -2.4971 0.9573
-1.3728 -10.5366 -2.4973 0.9573
-0.9487 -10.5842 -2.4975 0.9573
-0.7360 -10.6016 -2.4976 0.9573
0.1171 -10.6285 -2.4981 0.9573
1.3942 -10.5406 -2.4989 0.9573
1.6056 -10.5110 -2.4990 0.9572
1.8165 -10.4772 -2.4991 0.9572
2.0266 -10.4392 -2.4993 0.9572
2.2359 -10.3969 -2.4994 0.9572
2.4444 -10.3505 -2.4995 0.9572
2.6519 -10.2999 -2.4997 0.9572
2.8583 -10.2451 -2.4998 0.9572
3.4705 -10.0561 -2.5002 0.9572
3.6720 -9.9849 -2.5003 0.9572
4.2672 -9.7474 -2.5008 0.9572
4.4623 -9.6603 -2.5009 0.9572
4.6556 -9.5692 -2.5010 0.9572
4.8471 -9.4744 -2.5012 0.9572
5.2242 -9.2731 -2.5015 0.9572
5.5930 -9.0569 -2.5017 0.9572
5.9528 -8.8260 -2.5020 0.9572
6.6433 -8.3218 -2.5026 0.9572
6.9728 -8.0492 -2.5029 0.9572
7.1335 -7.9080 -2.5030 0.9572
7.4460 -7.6160 -2.5033 0.9572
7.7467 -7.3117 -2.5035 0.9572
7.8924 -7.1551 -2.5037 0.9572
8.0349 -6.9955 -2.5038 0.9572
8.3102 -6.6680 -2.5041 0.9572
8.4428 -6.5001 -2.5042 0.9572
8.5721 -6.3296 -2.5043 0.9572
9.0542 -5.6225 -2.5048 0.9572
9.1657 -5.4398 -2.5050 0.9571
9.2735 -5.2549 -2.5051 0.9571
9.3776 -5.0679 -2.5052 0.9571
9.7558 -4.2999 -2.5057 0.9571
9.9984 -3.7052 -2.5060 0.9571
10.3215 -2.6849 -2.5065 0.9571
10.3738 -2.4772 -2.5066 0.9571
10.5718 -1.4251 -2.5071 0.9571
10.5986 -1.2125 -2.5072 0.9571
10.6631 -0.3583 -2.5075 0.9571
10.6695 0.0702 -2.5076 0.9571
10.6586 0.4986 -2.5078 0.9571
10.6467 0.7125 -2.5078 0.9571
10.6305 0.9262 -2.5079 0.9571
10.6100 1.1395 -2.5079 0.9571
10.5852 1.3523 -2.5080 0.9571
10.5561 1.5646 -2.5080 0.9571
10.4852 1.9873 -2.5081 0.9571
10.4434 2.1975 -2.5082 0.9571
10.3973 2.4068 -2.5082 0.9571
10.2926 2.8224 -2.5083 0.9571
10.2340 3.0286 -2.5083 0.9571
10.1044 3.4371 -2.5084 0.9571
10.0334 3.6394 -2.5084 0.9571
9.9584 3.8401 -2.5084 0.9571
9.8794 4.0394 -2.5085 0.9571
9.7963 4.2370 -2.5085 0.9571
9.7094 4.4329 -2.5085 0.9571
9.6184 4.6269 -2.5085 0.9571
9.5236 4.8192 -2.5085 0.9571
9.4249 5.0094 -2.5085 0.9571
9.3225 5.1977 -2.5085 0.9571
9.1062 5.5678 -2.5085 0.9571
8.9926 5.7495 -2.5085 0.9571
8.5021 6.4524 -2.5085 0.9571
8.2360 6.7885 -2.5084 0.9571
7.9566 7.1136 -2.5084 0.9571
7.8110 7.2708 -2.5080 0.9571
7.6557 7.4187 -2.5055 0.9571
7.3350 7.7027 -2.4998 0.9572
7.0541 7.7119 -2.4563 0.9580
6.7824 7.7207 -2.4153 0.9587
6.5195 7.7290 -2.3764 0.9593
6.3062 7.7883 -2.3552 0.9597
5.8255 8.1534 -2.3551 0.9597
5.1519 8.5936 -2.3548 0.9597
4.8025 8.7931 -2.3547 0.9597
4.6248 8.8875 -2.3546 0.9597
4.4453 8.9783 -2.3546 0.9597
4.2639 9.0654 -2.3545 0.9597
3.8962 9.2287 -2.3543 0.9597
3.7100 9.3048 -2.3543 0.9597
3.5223 9.3770 -2.3542 0.9597
2.9510 9.5710 -2.3539 0.9597
2.5641 9.6810 -2.3537 0.9597
2.3691 9.7302 -2.3536 0.9597
1.9764 9.8166 -2.3534 0.9597
1.7788 9.8539 -2.3533 0.9597
1.5805 9.8872 -2.3532 0.9597
0.7819 9.9803 -2.3528 0.9597
0.5813 9.9936 -2.3527 0.9597
0.3805 10.0027 -2.3526 0.9597
-0.0215 10.0090 -2.3523 0.9597
-0.2224 10.0060 -2.3522 0.9597
-0.4233 9.9991 -2.3521 0.9597
-0.6240 9.9880 -2.3520 0.9597
-0.8243 9.9730 -2.3519 0.9597
-1.0244 9.9539 -2.3518 0.9597
-1.2240 9.9308 -2.3516 0.9597
-1.5226 6.1386 -1.4864 0.9743
-1.6236 6.0254 -1.4666 0.9747
-1.7747 5.6693 -1.3962 0.9759
-1.9955 5.5784 -1.3924 0.9759
-2.1144 5.5565 -1.3972 0.9759
-2.4904 5.5194 -1.4231 0.9754
-2.6254 5.5201 -1.4366 0.9752
-2.9085 5.5311 -1.4687 0.9746
-3.0533 5.5339 -1.4854 0.9744
-3.2012 5.5361 -1.5030 0.9741
-3.3538 5.5402 -1.5221 0.9737
-3.5104 5.5445 -1.5423 0.9734
-3.6716 5.5492 -1.5638 0.9730
-3.8373 5.5541 -1.5866 0.9726
-4.0072 5.5580 -1.6104 0.9722
-4.5449 5.5641 -1.6885 0.9709
-4.7316 5.5609 -1.7160 0.9704
-4.9237 5.5566 -1.7449 0.9700
-5.1175 5.5468 -1.7737 0.9695
-5.3419 5.5617 -1.8124 0.9688
-5.5734 5.5742 -1.8526 0.9681
-8.7019 4.1652 -2.4979 0.9609
-8.8614 3.8121 -2.4977 0.9609
-9.0737 3.2713 -2.4974 0.9609
-9.1372 3.0883 -2.4973 0.9609
-9.1971 2.9041 -2.4972 0.9609
-9.3056 2.5323 -2.4970 0.9609
-9.3542 2.3449 -2.4969 0.9609
-9.4402 1.9672 -2.4967 0.9609
-9.4775 1.7772 -2.4967 0.9609
-9.5883 1.0109 -2.4963 0.9609
-9.6064 0.8181 -2.4963 0.9609
-9.6206 0.6250 -2.4962 0.9609
-9.6309 0.4317 -2.4961 0.9609
-9.6374 0.2382 -2.4961 0.9609
-9.6336 -0.3424 -2.4959 0.9610
-9.6245 -0.5358 -2.4958 0.9610
-9.6116 -0.7289 -2.4958 0.9610
-9.5497 -1.3062 -2.4956 0.9610
-9.4532 -1.8787 -2.4955 0.9610
-9.4134 -2.0681 -2.4954 0.9610
-9.2167 -2.8166 -2.4953 0.9610
-9.0960 -3.1844 -2.4953 0.9610
-8.9606 -3.5470 -2.4952 0.9610
-8.8109 -3.9039 -2.4952 0.9610
-8.7307 -4.0800 -2.4952 0.9610
-8.6469 -4.2545 -2.4952 0.9610
-8.4691 -4.5982 -2.4952 0.9610
-8.2776 -4.9345 -2.4952 0.9610
-8.1769 -5.0998 -2.4952 0.9610
-8.0729 -5.2629 -2.4952 0.9610
-7.5049 -6.0458 -2.4952 0.9610
-6.8614 -6.7680 -2.4954 0.9610
-6.7242 -6.9045 -2.4954 0.9610
-6.5843 -7.0383 -2.4954 0.9610
-6.2966 -7.2972 -2.4955 0.9610
-6.1489 -7.4223 -2.4956 0.9610
-5.8461 -7.6635 -2.4957 0.9610
-5.5339 -7.8924 -2.4958 0.9610
-5.3745 -8.0021 -2.4958 0.9610
-5.2128 -8.1086 -2.4959 0.9610
-4.8833 -8.3117 -2.4960 0.9610
-4.3743 -8.5914 -2.4962 0.9609
-4.2010 -8.6777 -2.4963 0.9609
-3.1281 -9.1215 -2.4967 0.9609
-2.9445 -9.1828 -2.4968 0.9609
-2.5736 -9.2942 -2.4970 0.9609
-2.3865 -9.3444 -2.4971 0.9609
-2.0095 -9.4334 -2.4973 0.9609
-1.8198 -9.4722 -2.4974 0.9609
-1.6292 -9.5072 -2.4975 0.9609
-1.4381 -9.5384 -2.4976 0.9609
-1.2463 -9.5657 -2.4977 0.9609
-0.6682 -9.6246 -2.4980 0.9609
-0.4748 -9.6365 -2.4981 0.9609
0.3000 -9.6452 -2.4985 0.9609
0.4937 -9.6377 -2.4986 0.9609
0.6871 -9.6262 -2.4988 0.9609
0.8803 -9.6110 -2.4989 0.9609
1.0732 -9.5918 -2.4990 0.9609
1.4576 -9.5419 -2.4992 0.9609
2.5947 -9.3002 -2.4999 0.9609
3.1504 -9.1285 -2.5003 0.9609
3.3332 -9.0638 -2.5004 0.9609
3.6948 -8.9236 -2.5007 0.9609
4.3999 -8.6001 -2.5012 0.9609
4.5719 -8.5104 -2.5013 0.9609
4.7421 -8.4174 -2.5015 0.9609
5.0768 -8.2210 -2.5017 0.9609
5.5634 -7.9016 -2.5021 0.9609
5.7212 -7.7887 -2.5022 0.9609
6.1807 -7.4313 -2.5026 0.9608
6.3290 -7.3060 -2.5027 0.9608
6.4748 -7.1778 -2.5029 0.9608
6.7584 -6.9127 -2.5031 0.9608
7.0312 -6.6364 -2.5034 0.9608
7.1634 -6.4942 -2.5035 0.9608
7.7802 -5.7448 -2.5041 0.9608
8.1131 -5.2667 -2.5044 0.9608
8.2176 -5.1030 -2.5045 0.9608
8.6020 -4.4279 -2.5050 0.9608
8.7736 -4.0793 -2.5052 0.9608
9.0741 -3.3627 -2.5056 0.9608
9.1402 -3.1799 -2.5057 0.9608
9.2025 -2.9958 -2.5058 0.9608
9.2612 -2.8106 -2.5059 0.9608
9.4146 -2.2481 -2.5061 0.9608
9.4582 -2.0587 -2.5062 0.9608
9.5339 -1.6774 -2.5064 0.9608
9.5659 -1.4856 -2.5065 0.9608
9.5942 -1.2933 -2.5066 0.9608
9.6185 -1.1004 -2.5066 0.9608
9.6389 -0.9071 -2.5067 0.9608
9.6619 0.6466 -2.5072 0.9608
9.6472 0.8405 -2.5073 0.9608
9.5796 1.4199 -2.5074 0.9608
9.5494 1.6120 -2.5075 0.9608
9.5152 1.8035 -2.5075 0.9608
9.4773 1.9942 -2.5076 0.9608
9.4354 2.1841 -2.5076 0.9608
9.3404 2.5613 -2.5077 0.9608
9.2872 2.7484 -2.5077 0.9608
9.1695 3.1191 -2.5078 0.9608
9.0371 3.4848 -2.5078 0.9608
8.9653 3.6656 -2.5078 0.9608
8.8900 3.8450 -2.5078 0.9608
8.8110 4.0227 -2.5078 0.9608
8.7285 4.1988 -2.5079 0.9608
8.5529 4.5460 -2.5079 0.9608
8.2637 5.0527 -2.5079 0.9608
8.1605 5.2176 -2.5079 0.9608
8.0541 5.3804 -2.5079 0.9608
7.9444 5.5410 -2.5078 0.9608
7.7154 5.8554 -2.5078 0.9608
7.5963 6.0091 -2.5078 0.9608
7.0893 6.5990 -2.5077 0.9608
6.8185 6.8782 -2.5076 0.9608
6.6789 7.0136 -2.5076 0.9608
6.3909 7.2750 -2.5072 0.9608
5.7469 7.7112 -2.4901 0.9610
5.2887 7.7254 -2.4241 0.9621
5.0682 7.7320 -2.3937 0.9625
4.3583 7.9798 -2.3542 0.9631
4.0342 8.1479 -2.3541 0.9631
3.8696 8.2270 -2.3540 0.9631
2.3271 8.7860 -2.3533 0.9631
2.1501 8.8306 -2.3532 0.9631
1.7937 8.9092 -2.3530 0.9631
1.4344 8.9733 -2.3528 0.9631
0.8914 9.0423 -2.3526 0.9632
0.1629 9.0831 -2.3522 0.9632
-0.0195 9.0841 -2.3520 0.9632
-0.2019 9.0815 -2.3519 0.9632
-0.3842 9.0752 -2.3518 0.9632
-0.5663 9.0652 -2.3517 0.9632
-0.7482 9.0516 -2.3516 0.9632
-1.2916 8.9889 -2.3513 0.9632
-1.4400 6.3490 -1.6856 0.9735
-1.5875 5.8915 -1.5798 0.9751
-1.6667 5.7251 -1.5439 0.9757
-1.7550 5.6064 -1.5211 0.9760
-1.9787 5.5315 -1.5211 0.9760
-2.8604 6.0142 -1.7243 0.9729
-3.2024 5.5382 -1.6564 0.9739
-3.3565 5.5447 -1.6782 0.9736
-3.5156 5.5526 -1.7016 0.9732
-3.6786 5.5599 -1.7261 0.9728
-3.8463 5.5671 -1.7520 0.9724
-4.0160 5.5701 -1.7780 0.9720
-4.1899 5.5719 -1.8050 0.9716
-4.3680 5.5723 -1.8332 0.9712
-4.7342 5.5639 -1.8915 0.9703
-4.9247 5.5577 -1.9226 0.9698
-5.1219 5.5516 -1.9557 0.9693
-5.3201 5.5390 -1.9885 0.9688
-5.5945 5.5953 -2.0487 0.9678
-7.9598 3.8100 -2.4982 0.9640
-8.1738 3.3235 -2.4979 0.9640
-8.2386 3.1586 -2.4978 0.9640
-8.3000 2.9924 -2.4977 0.9640
-8.3582 2.8250 -2.4976 0.9640
-8.4129 2.6565 -2.4976 0.9640
-8.4643 2.4870 -2.4975 0.9640
-8.5122 2.3164 -2.4974 0.9640
-8.5567 2.1450 -2.4973 0.9640
-8.5978 1.9726 -2.4972 0.9640
-8.6354 1.7996 -2.4971 0.9640
-8.6696 1.6257 -2.4971 0.9640
-8.7509 1.1007 -2.4969 0.9640
-8.7710 0.9247 -2.4968 0.9640
-8.7876 0.7484 -2.4967 0.9640
-8.8006 0.5718 -2.4966 0.9640
-8.8101 0.3949 -2.4966 0.9640
-8.8160 0.2179 -2.4965 0.9640
-8.8184 0.0409 -2.4965 0.9640
-8.8043 -0.4901 -2.4963 0.9640
-8.7925 -0.6668 -2.4963 0.9640
-8.7583 -1.0193 -2.4962 0.9640
-8.7359 -1.1949 -2.4961 0.9640
-8.7100 -1.3700 -2.4961 0.9640
-8.6806 -1.5447 -2.4960 0.9640
-8.6477 -1.7186 -2.4960 0.9640
-8.5282 -2.2361 -2.4959 0.9640
-8.4815 -2.4069 -2.4959 0.9640
-8.4314 -2.5767 -2.4958 0.9640
-8.3779 -2.7454 -2.4958 0.9640
-8.1972 -3.2448 -2.4958 0.9640
-8.1303 -3.4087 -2.4957 0.9640
-8.0602 -3.5712 -2.4957 0.9640
-7.7475 -4.2064 -2.4957 0.9640
-7.6615 -4.3612 -2.4957 0.9640
-7.3851 -4.8146 -2.4957 0.9640
-6.8654 -5.5307 -2.4958 0.9640
-6.6379 -5.8020 -2.4958 0.9640
-6.2768 -6.1914 -2.4959 0.9640
-6.1513 -6.3162 -2.4959 0.9640
-6.0233 -6.4386 -2.4960 0.9640
-5.8929 -6.5583 -2.4960 0.9640
-5.6249 -6.7898 -2.4961 0.9640
-5.3480 -7.0104 -2.4962 0.9640
-5.2062 -7.1166 -2.4962 0.9640
-5.0624 -7.2198 -2.4962 0.9640
-4.9165 -7.3202 -2.4963 0.9640
-4.7686 -7.4175 -2.4964 0.9640
-4.6188 -7.5120 -2.4964 0.9640
-4.0015 -7.8591 -2.4966 0.9640
-3.8430 -7.9381 -2.4967 0.9640
-3.6829 -8.0139 -2.4968 0.9640
-3.5213 -8.0865 -2.4968 0.9640
-3.0284 -8.2845 -2.4971 0.9640
-2.8615 -8.3439 -2.4971 0.9640
-2.3541 -8.5019 -2.4974 0.9640
-2.1830 -8.5477 -2.4975 0.9640
-2.0110 -8.5901 -2.4975 0.9640
-1.8382 -8.6291 -2.4976 0.9640
-1.4904 -8.6965 -2.4978 0.9640
-1.3154 -8.7250 -2.4979 0.9640
-1.1400 -8.7500 -2.4980 0.9640
-0.7878 -8.7894 -2.4982 0.9640
-0.6112 -8.8038 -2.4983 0.9640
-0.4343 -8.8146 -2.4984 0.9640
-0.2572 -8.8219 -2.4985 0.9640
0.0972 -8.8258 -2.4987 0.9640
0.4515 -8.8155 -2.4989 0.9640
0.6285 -8.8050 -2.4990 0.9640
0.8052 -8.7910 -2.4991 0.9640
0.9816 -8.7734 -2.4992 0.9640
1.5082 -8.6996 -2.4995 0.9640
1.6827 -8.6679 -2.4996 0.9640
1.8565 -8.6328 -2.4997 0.9640
2.2018 -8.5520 -2.5000 0.9640
2.3732 -8.5065 -2.5001 0.9640
2.5437 -8.4575 -2.5002 0.9640
3.2147 -8.2276 -2.5007 0.9639
3.5428 -8.0926 -2.5009 0.9639
3.8652 -7.9446 -2.5011 0.9639
4.3371 -7.6986 -2.5015 0.9639
4.6432 -7.5189 -2.5017 0.9639
4.7935 -7.4245 -2.5018 0.9639
4.9418 -7.3271 -2.5019 0.9639
5.2325 -7.1234 -2.5022 0.9639
5.3748 -7.0172 -2.5023 0.9639
5.6527 -6.7964 -2.5025 0.9639
5.7883 -6.6818 -2.5026 0.9639
5.9216 -6.5645 -2.5027 0.9639
6.1809 -6.3221 -2.5030 0.9639
6.3069 -6.1969 -2.5031 0.9639
6.4304 -6.0693 -2.5032 0.9639
6.6695 -5.8068 -2.5034 0.9639
6.7850 -5.6719 -2.5035 0.9639
7.0079 -5.3954 -2.5037 0.9639
7.1152 -5.2538 -2.5039 0.9639
7.3210 -4.9643 -2.5041 0.9639
7.4195 -4.8165 -2.5042 0.9639
7.6970 -4.3615 -2.5045 0.9639
7.7833 -4.2063 -2.5046 0.9639
7.9466 -3.8907 -2.5048 0.9639
8.0970 -3.5687 -2.5050 0.9639
8.2981 -3.0751 -2.5052 0.9639
8.3584 -2.9080 -2.5053 0.9639
8.4154 -2.7396 -2.5054 0.9639
8.5660 -2.2282 -2.5057 0.9639
8.6093 -2.0558 -2.5058 0.9639
8.7733 -1.1826 -2.5061 0.9639
8.8293 -0.6523 -2.5063 0.9639
8.8409 -0.4749 -2.5064 0.9639
8.8489 -0.2973 -2.5065 0.9639
8.8533 -0.1196 -2.5065 0.9639
8.8541 0.0583 -2.5066 0.9639
8.8513 0.2360 -2.5066 0.9639
8.8450 0.4137 -2.5067 0.9639
8.8216 0.7686 -2.5068 0.9639
8.8046 0.9456 -2.5068 0.9639
8.7598 1.2984 -2.5069 0.9639
8.7321 1.4741 -2.5070 0.9639
8.7009 1.6491 -2.5070 0.9639
8.6661 1.8235 -2.5070 0.9639
8.6279 1.9972 -2.5071 0.9639
8.5862 2.1701 -2.5071 0.9639
8.5410 2.3421 -2.5071 0.9639
8.4923 2.5132 -2.5072 0.9639
8.4402 2.6832 -2.5072 0.9639
8.3847 2.8522 -2.5072 0.9639
8.2636 3.1866 -2.5073 0.9639
8.1290 3.5158 -2.5073 0.9639
8.0568 3.6784 -2.5073 0.9639
7.9814 3.8394 -2.5073 0.9638
7.9027 3.9989 -2.5073 0.9638
7.7358 4.3131 -2.5073 0.9638
7.6476 4.4675 -2.5073 0.9638
7.5564 4.6202 -2.5073 0.9638
7.4620 4.7710 -2.5073 0.9638
7.3647 4.9199 -2.5073 0.9638
7.2644 5.0667 -2.5073 0.9639
7.1612 5.2115 -2.5073 0.9639
6.9461 5.4948 -2.5073 0.9639
6.8343 5.6331 -2.5072 0.9639
6.7197 5.7692 -2.5072 0.9639
6.4825 6.0342 -2.5072 0.9639
6.2349 6.2895 -2.5071 0.9639
6.1072 6.4133 -2.5071 0.9639
5.8446 6.6532 -2.5070 0.9639
5.7098 6.7691 -2.5070 0.9639
5.4332 6.9927 -2.5069 0.9639
5.2916 7.1002 -2.5068 0.9639
5.1478 7.2049 -2.5068 0.9639
5.0006 7.3046 -2.5060 0.9639
4.5431 7.5780 -2.5013 0.9639
3.8265 7.7284 -2.4413 0.9648
3.4516 7.7380 -2.3986 0.9654
3.0887 7.7466 -2.3609 0.9659
2.9231 7.7819 -2.3533 0.9660
2.6082 7.8925 -2.3532 0.9660
2.1280 8.0345 -2.3529 0.9660
1.9662 8.0753 -2.3529 0.9660
1.6403 8.1472 -2.3527 0.9660
1.4763 8.1782 -2.3526 0.9660
1.3117 8.2059 -2.3525 0.9660
1.1466 8.2303 -2.3524 0.9660
0.9811 8.2513 -2.3523 0.9660
0.6489 8.2834 -2.3522 0.9660
0.3158 8.3022 -2.3520 0.9661
0.1490 8.3065 -2.3519 0.9661
-0.3513 8.2994 -2.3516 0.9661
-0.5179 8.2903 -2.3515 0.9661
-0.8503 8.2621 -2.3513 0.9661
-1.3460 8.1949 -2.3510 0.9661
-1.4200 6.9002 -1.9943 0.9711
-1.4092 6.2130 -1.8035 0.9739
-1.4715 5.9329 -1.7304 0.9749
-1.6349 5.6158 -1.6558 0.9760
-1.7371 5.5495 -1.6462 0.9761
-2.1371 5.6162 -1.7011 0.9753
-2.2298 5.5233 -1.6862 0.9755
-2.6238 5.5168 -1.7294 0.9749
-2.9041 5.5229 -1.7665 0.9744
-3.0523 5.5320 -1.7886 0.9741
-3.2054 5.5434 -1.8128 0.9737
-3.6803 5.5625 -1.8882 0.9727
-3.8412 5.5597 -1.9130 0.9723
-3.9958 5.5422 -1.9342 0.9720
-4.3510 5.5506 -1.9966 0.9711
-4.5806 5.6078 -2.0498 0.9703
-4.9242 5.5571 -2.1019 0.9696
-5.3242 5.5432 -2.1758 0.9686
-5.5714 5.5722 -2.2307 0.9678
-7.3269 3.5071 -2.4984 0.9666
-7.3956 3.3591 -2.4984 0.9666
-7.4613 3.2098 -2.4983 0.9666
-7.5836 2.9074 -2.4981 0.9666
-7.6937 2.6004 -2.4979 0.9666
-7.7442 2.4453 -2.4979 0.9666
-7.9144 1.8159 -2.4976 0.9666
-8.0337 1.1748 -2.4973 0.9666
-8.0555 1.0132 -2.4972 0.9666
-8.0893 0.6889 -2.4971 0.9666
-8.1013 0.5263 -2.4970 0.9666
-8.1100 0.3635 -2.4970 0.9666
-8.1177 0.0376 -2.4969 0.9666
-8.1124 -0.2883 -2.4968 0.9666
-8.1048 -0.4512 -2.4967 0.9666
-8.0939 -0.6138 -2.4967 0.9666
-8.0419 -1.1000 -2.4965 0.9666
-7.9910 -1.4219 -2.4965 0.9666
-7.9607 -1.5821 -2.4964 0.9666
-7.9272 -1.7416 -2.4964 0.9666
-7.8906 -1.9004 -2.4964 0.9666
-7.8507 -2.0585 -2.4963 0.9666
-7.8077 -2.2157 -2.4963 0.9666
-7.4845 -3.1379 -2.4962 0.9666
-7.2819 -3.5828 -2.4962 0.9666
-7.2084 -3.7283 -2.4962 0.9666
-7.1321 -3.8723 -2.4962 0.9666
-7.0529 -4.0147 -2.4962 0.9666
-6.9709 -4.1555 -2.4962 0.9666
-6.8860 -4.2947 -2.4962 0.9666
-6.7081 -4.5677 -2.4962 0.9666
-6.6150 -4.7015 -2.4962 0.9666
-6.0022 -5.4628 -2.4963 0.9666
-5.6626 -5.8145 -2.4964 0.9666
-5.4247 -6.0373 -2.4964 0.9666
-4.9231 -6.4535 -2.4966 0.9666
-4.7926 -6.5511 -2.4966 0.9666
-4.5258 -6.7385 -2.4967 0.9666
-4.3897 -6.8282 -2.4968 0.9666
-4.1122 -6.9992 -2.4969 0.9666
-3.5376 -7.3073 -2.4971 0.9666
-3.2415 -7.4438 -2.4972 0.9666
-2.9402 -7.5684 -2.4973 0.9666
-2.7877 -7.6261 -2.4974 0.9666
-2.4794 -7.7323 -2.4976 0.9666
-2.1670 -7.8261 -2.4977 0.9666
-2.0095 -7.8683 -2.4978 0.9666
-1.6921 -7.9431 -2.4979 0.9666
-1.5323 -7.9757 -2.4980 0.9666
-1.3718 -8.0051 -2.4981 0.9666
-0.8875 -8.0740 -2.4984 0.9666
-0.7252 -8.0905 -2.4984 0.9666
-0.5626 -8.1037 -2.4985 0.9666
-0.3998 -8.1137 -2.4986 0.9666
-0.0737 -8.1238 -2.4988 0.9666
0.4156 -8.1144 -2.4991 0.9666
0.5785 -8.1047 -2.4992 0.9666
0.9035 -8.0756 -2.4994 0.9666
1.5489 -7.9784 -2.4998 0.9666
1.7088 -7.9460 -2.4999 0.9666
1.8681 -7.9104 -2.5000 0.9666
2.1844 -7.8296 -2.5002 0.9666
2.4972 -7.7363 -2.5004 0.9666
2.6522 -7.6849 -2.5005 0.9666
2.8061 -7.6304 -2.5006 0.9665
2.9589 -7.5728 -2.5007 0.9665
3.1105 -7.5122 -2.5008 0.9665
3.2608 -7.4486 -2.5009 0.9665
3.5576 -7.3122 -2.5011 0.9665
4.6830 -6.6513 -2.5020 0.9665
4.8159 -6.5562 -2.5021 0.9665
4.9468 -6.4584 -2.5022 0.9665
5.0757 -6.3581 -2.5023 0.9665
5.3273 -6.1497 -2.5025 0.9665
5.4500 -6.0417 -2.5026 0.9665
5.5704 -5.9313 -2.5027 0.9665
5.6886 -5.8185 -2.5029 0.9665
5.8046 -5.7033 -2.5030 0.9665
5.9182 -5.5859 -2.5031 0.9665
6.0294 -5.4661 -2.5032 0.9665
6.1382 -5.3442 -2.5033 0.9665
6.6443 -4.7029 -2.5038 0.9665
6.8283 -4.4327 -2.5040 0.9665
7.0836 -4.0140 -2.5042 0.9665
7.2396 -3.7266 -2.5044 0.9665
7.4516 -3.2843 -2.5047 0.9665
7.5163 -3.1341 -2.5048 0.9665
7.5780 -2.9826 -2.5049 0.9665
7.7446 -2.5212 -2.5051 0.9665
7.7939 -2.3653 -2.5052 0.9665
7.8400 -2.2084 -2.5053 0.9665
7.8830 -2.0506 -2.5053 0.9665
7.9228 -1.8919 -2.5054 0.9665
7.9595 -1.7325 -2.5055 0.9665
7.9929 -1.5723 -2.5056 0.9665
8.0231 -1.4116 -2.5056 0.9665
8.0737 -1.0883 -2.5058 0.9665
8.0941 -0.9260 -2.5058 0.9665
8.1113 -0.7633 -2.5059 0.9665
8.1358 -0.4370 -2.5060 0.9665
8.1431 -0.2736 -2.5061 0.9665
8.1472 -0.1100 -2.5061 0.9665
8.1479 0.0536 -2.5062 0.9665
8.1454 0.2172 -2.5062 0.9665
8.1395 0.3807 -2.5063 0.9665
8.1304 0.5441 -2.5063 0.9665
8.1180 0.7073 -2.5064 0.9665
8.1023 0.8702 -2.5064 0.9665
8.0611 1.1948 -2.5065 0.9665
8.0356 1.3565 -2.5065 0.9665
8.0068 1.5176 -2.5066 0.9665
7.9396 1.8379 -2.5066 0.9665
7.9012 1.9970 -2.5067 0.9665
7.6043 2.9324 -2.5068 0.9665
7.4805 3.2354 -2.5068 0.9665
7.3447 3.5331 -2.5068 0.9665
7.2722 3.6799 -2.5069 0.9665
7.1186 3.9690 -2.5069 0.9665
6.9535 4.2516 -2.5069 0.9665
6.6849 4.6625 -2.5068 0.9665
6.5899 4.7958 -2.5068 0.9665
6.1837 5.3090 -2.5068 0.9665
5.7375 5.7878 -2.5067 0.9665
5.2543 6.2292 -2.5065 0.9665
5.1281 6.3333 -2.5065 0.9665
4.8695 6.5339 -2.5064 0.9665
4.7372 6.6302 -2.5064 0.9665
4.6031 6.7239 -2.5063 0.9665
4.4670 6.8148 -2.5063 0.9665
4.3292 6.9030 -2.5062 0.9665
4.1896 6.9884 -2.5062 0.9665
4.0484 7.0710 -2.5061 0.9665
3.9055 7.1507 -2.5061 0.9665
3.6143 7.2999 -2.5054 0.9665
3.4653 7.3675 -2.5042 0.9665
3.3151 7.4322 -2.5031 0.9665
3.0115 7.5528 -2.5009 0.9665
2.7036 7.6616 -2.4990 0.9666
2.3822 7.7261 -2.4868 0.9667
2.0480 7.7325 -2.4603 0.9671
1.3977 7.7427 -2.4200 0.9676
1.0793 7.7467 -2.4057 0.9678
0.9213 7.7484 -2.4000 0.9679
0.7640 7.7500 -2.3953 0.9679
0.6073 7.7514 -2.3915 0.9680
0.4509 7.7526 -2.3886 0.9680
0.2949 7.7536 -2.3866 0.9680
0.1391 7.7545 -2.3855 0.9681
-0.0166 7.7551 -2.3853 0.9681
-0.1724 7.7557 -2.3861 0.9681
-0.3283 7.7560 -2.3877 0.9680
-0.4845 7.7562 -2.3903 0.9680
-1.2737 7.7546 -2.4171 0.9676
-1.4340 7.7537 -2.4253 0.9675
-1.5955 7.7527 -2.4345 0.9674
-1.5349 5.6964 -1.8146 0.9756
-2.0167 5.6378 -1.8417 0.9753
-2.0985 5.5147 -1.8149 0.9756
-2.2434 5.5571 -1.8433 0.9752
-2.5019 5.5450 -1.8711 0.9749
-2.6351 5.5407 -1.8871 0.9747
-3.0521 5.5316 -1.9432 0.9739
-3.3478 5.5304 -1.9884 0.9733
-3.5149 5.5517 -2.0210 0.9729
-3.7049 5.5996 -2.0652 0.9723
-3.8979 5.6417 -2.1092 0.9717
-4.0189 5.5742 -2.1136 0.9717
-4.1740 5.5499 -2.1358 0.9714
-5.2683 6.1916 -2.5005 0.9666
-5.3913 6.0843 -2.5004 0.9666
-5.5122 5.9746 -2.5003 0.9666
-6.8438 3.1085 -2.4986 0.9688
-6.9046 2.9704 -2.4985 0.9688
-6.9627 2.8310 -2.4984 0.9688
-7.1665 2.2630 -2.4981 0.9688
-7.2103 2.1185 -2.4981 0.9688
-7.3854 1.3849 -2.4977 0.9688
-7.4115 1.2363 -2.4977 0.9688
-7.4346 1.0872 -2.4976 0.9688
-7.4548 0.9377 -2.4975 0.9688
-7.4719 0.7878 -2.4975 0.9688
-7.4861 0.6376 -2.4974 0.9688
-7.5104 0.1857 -2.4973 0.9688
-7.5125 0.0348 -2.4972 0.9688
-7.5115 -0.1160 -2.4972 0.9688
-7.5075 -0.2668 -2.4971 0.9688
-7.5005 -0.4175 -2.4971 0.9688
-7.4905 -0.5681 -2.4970 0.9688
-7.4774 -0.7183 -2.4970 0.9688
-7.4614 -0.8683 -2.4969 0.9688
-7.4423 -1.0180 -2.4969 0.9688
-7.4203 -1.1672 -2.4969 0.9688
-7.3363 -1.6118 -2.4968 0.9688
-7.2257 -2.0505 -2.4967 0.9688
-7.1830 -2.1951 -2.4967 0.9688
-7.0376 -2.6236 -2.4966 0.9688
-6.9835 -2.7644 -2.4966 0.9688
-6.8668 -3.0425 -2.4966 0.9688
-6.7391 -3.3158 -2.4966 0.9688
-6.6711 -3.4504 -2.4966 0.9688
-6.6005 -3.5836 -2.4966 0.9688
-6.4512 -3.8458 -2.4966 0.9688
-6.2916 -4.1017 -2.4966 0.9688
-6.2080 -4.2272 -2.4966 0.9688
-6.0333 -4.4731 -2.4966 0.9688
-5.9423 -4.5934 -2.4966 0.9688
-5.7532 -4.8284 -2.4966 0.9688
-5.6551 -4.9429 -2.4967 0.9688
-5.5548 -5.0556 -2.4967 0.9688
-5.2405 -5.3810 -2.4967 0.9688
-5.0203 -5.5872 -2.4968 0.9688
-4.6750 -5.8796 -2.4969 0.9688
-4.5560 -5.9723 -2.4969 0.9688
-4.3127 -6.1507 -2.4970 0.9688
-4.1884 -6.2361 -2.4971 0.9688
-3.8055 -6.4774 -2.4972 0.9688
-3.1374 -6.8269 -2.4975 0.9688
-2.9998 -6.8887 -2.4975 0.9688
-1.7131 -7.3175 -2.4981 0.9688
-1.5658 -7.3506 -2.4982 0.9688
-1.2695 -7.4080 -2.4984 0.9688
-1.1205 -7.4322 -2.4984 0.9688
-0.8213 -7.4717 -2.4986 0.9688
0.0828 -7.5177 -2.4991 0.9688
0.3846 -7.5089 -2.4993 0.9688
1.7287 -7.3199 -2.5001 0.9688
1.8754 -7.2840 -2.5002 0.9688
2.3108 -7.1587 -2.5005 0.9688
2.4542 -7.1111 -2.5006 0.9688
2.5966 -7.0607 -2.5007 0.9688
2.7379 -7.0074 -2.5008 0.9688
2.8782 -6.9513 -2.5009 0.9688
3.0173 -6.8923 -2.5010 0.9688
3.1552 -6.8306 -2.5011 0.9688
3.5612 -6.6291 -2.5014 0.9688
3.6937 -6.5565 -2.5015 0.9688
4.0823 -6.3229 -2.5018 0.9688
4.4561 -6.0664 -2.5021 0.9688
4.5772 -5.9759 -2.5022 0.9688
4.8138 -5.7878 -2.5024 0.9688
4.9293 -5.6902 -2.5025 0.9688
5.0427 -5.5903 -2.5026 0.9688
5.2635 -5.3837 -2.5028 0.9688
5.4759 -5.1684 -2.5029 0.9688
5.5788 -5.0576 -2.5030 0.9688
6.0588 -4.4738 -2.5035 0.9688
6.1476 -4.3513 -2.5036 0.9688
6.2340 -4.2272 -2.5037 0.9687
6.6274 -3.5816 -2.5041 0.9687
6.6983 -3.4479 -2.5042 0.9687
6.8317 -3.1764 -2.5044 0.9687
6.8944 -3.0387 -2.5044 0.9687
6.9542 -2.8997 -2.5045 0.9687
7.0113 -2.7596 -2.5046 0.9687
7.1168 -2.4760 -2.5048 0.9687
7.1653 -2.3327 -2.5048 0.9687
7.2536 -2.0432 -2.5050 0.9687
7.3641 -1.6029 -2.5052 0.9687
7.3950 -1.4547 -2.5053 0.9687
7.4229 -1.3060 -2.5053 0.9687
7.4478 -1.1567 -2.5054 0.9687
7.5045 -0.7062 -2.5056 0.9687
7.5173 -0.5554 -2.5056 0.9687
7.5339 -0.2531 -2.5057 0.9687
7.5383 0.0496 -2.5058 0.9687
7.5221 0.5034 -2.5060 0.9687
7.4579 1.1054 -2.5061 0.9687
7.4077 1.4040 -2.5062 0.9687
7.3781 1.5525 -2.5062 0.9687
7.3455 1.7004 -2.5063 0.9687
7.3100 1.8475 -2.5063 0.9687
7.1384 2.4282 -2.5064 0.9687
7.0883 2.5711 -2.5064 0.9687
7.0353 2.7129 -2.5064 0.9687
6.9794 2.8537 -2.5064 0.9687
6.8592 3.1316 -2.5064 0.9687
6.7950 3.2687 -2.5064 0.9687
6.7280 3.4045 -2.5065 0.9687
6.6583 3.5390 -2.5065 0.9687
6.5859 3.6719 -2.5065 0.9687
6.5108 3.8034 -2.5065 0.9687
6.4331 3.9334 -2.5065 0.9687
6.3529 4.0618 -2.5065 0.9687
6.2700 4.1885 -2.5064 0.9687
6.1846 4.3136 -2.5064 0.9687
5.9136 4.6781 -2.5064 0.9687
5.5190 5.1373 -2.5063 0.9687
5.4147 5.2471 -2.5063 0.9687
5.3082 5.3547 -2.5063 0.9687
5.1995 5.4601 -2.5063 0.9687
4.8611 5.7630 -2.5062 0.9687
4.3828 6.1341 -2.5060 0.9687
4.2586 6.2208 -2.5060 0.9687
4.1328 6.3050 -2.5059 0.9687
4.0053 6.3865 -2.5059 0.9687
3.8762 6.4656 -2.5058 0.9687
3.7455 6.5420 -2.5058 0.9687
3.4796 6.6868 -2.5057 0.9687
3.2082 6.8208 -2.5056 0.9687
2.9316 6.9438 -2.5054 0.9687
2.7915 7.0011 -2.5054 0.9687
2.3647 7.1559 -2.5052 0.9687
2.2205 7.2018 -2.5051 0.9687
2.0754 7.2447 -2.5050 0.9687
1.9293 7.2843 -2.5048 0.9687
1.4862 7.3819 -2.5030 0.9688
1.3374 7.4087 -2.5025 0.9688
1.1881 7.4326 -2.5020 0.9688
1.0384 7.4537 -2.5016 0.9688
0.7381 7.4873 -2.5009 0.9688
0.4368 7.5093 -2.5004 0.9688
0.2859 7.5160 -2.5002 0.9688
-0.0161 7.5207 -2.4999 0.9688
-0.1671 7.5188 -2.4999 0.9688
-0.3181 7.5139 -2.4999 0.9688
-0.4689 7.5062 -2.5000 0.9688
-0.7700 7.4821 -2.5002 0.9688
-0.9202 7.4657 -2.5004 0.9688
-1.5170 7.3715 -2.5017 0.9688
-1.6650 7.3408 -2.5021 0.9688
-1.4460 5.8301 -1.9967 0.9750
-1.5418 5.7220 -1.9699 0.9753
-1.8542 5.5312 -1.9391 0.9757
-2.2492 5.5715 -1.9972 0.9750
-2.6359 5.5424 -2.0401 0.9745
-3.0960 5.6113 -2.1303 0.9733
-3.2065 5.5452 -2.1292 0.9734
-3.8969 6.4374 -2.5014 0.9688
-4.0252 6.3576 -2.5013 0.9688
-4.2769 6.1904 -2.5011 0.9688
-4.4002 6.1030 -2.5010 0.9688
-4.6413 5.9209 -2.5008 0.9688
-4.9888 5.6301 -2.5005 0.9688
-5.1007 5.5285 -2.5004 0.9688
-6.5239 2.5012 -2.4986 0.9708
-6.5726 2.3696 -2.4985 0.9708
-6.7408 1.8344 -2.4982 0.9708
-6.8385 1.4251 -2.4981 0.9708
-6.8656 1.2875 -2.4980 0.9708
-6.8899 1.1493 -2.4979 0.9708
-6.9302 0.8717 -2.4978 0.9708
-6.9462 0.7323 -2.4978 0.9708
-6.9593 0.5927 -2.4977 0.9708
-6.9697 0.4528 -2.4977 0.9708
-6.9772 0.3128 -2.4976 0.9708
-6.9820 0.1726 -2.4976 0.9708
-6.9839 0.0324 -2.4975 0.9708
-6.9514 -0.6678 -2.4973 0.9708
-6.9187 -0.9464 -2.4972 0.9708
-6.8983 -1.0851 -2.4972 0.9708
-6.8490 -1.3612 -2.4971 0.9708
-6.8202 -1.4984 -2.4971 0.9708
-6.7886 -1.6350 -2.4971 0.9708
-6.7544 -1.7710 -2.4971 0.9708
-6.7174 -1.9062 -2.4970 0.9708
-6.6777 -2.0407 -2.4970 0.9708
-6.5903 -2.3072 -2.4970 0.9708
-6.4922 -2.5699 -2.4969 0.9708
-6.4393 -2.6997 -2.4969 0.9708
-6.2018 -3.2077 -2.4969 0.9708
-6.1362 -3.3316 -2.4969 0.9708
-6.0680 -3.4541 -2.4969 0.9708
-5.9244 -3.6950 -2.4969 0.9708
-5.6913 -4.0450 -2.4969 0.9708
-5.6089 -4.1585 -2.4969 0.9708
-5.3485 -4.4887 -2.4970 0.9708
-5.2573 -4.5952 -2.4970 0.9708
-5.1640 -4.6999 -2.4970 0.9708
-4.9712 -4.9036 -2.4971 0.9708
-4.6671 -5.1941 -2.4971 0.9708
-4.5619 -5.2869 -2.4972 0.9708
-4.4549 -5.3775 -2.4972 0.9708
-4.2355 -5.5522 -2.4973 0.9708
-4.0093 -5.7179 -2.4973 0.9708
-3.6579 -5.9492 -2.4975 0.9708
-3.5378 -6.0216 -2.4975 0.9708
-3.2933 -6.1590 -2.4976 0.9708
-3.0434 -6.2866 -2.4977 0.9708
-2.9167 -6.3465 -2.4978 0.9708
-2.6596 -6.4588 -2.4979 0.9708
-2.3982 -6.5607 -2.4980 0.9708
-2.2661 -6.6077 -2.4980 0.9708
-1.8642 -6.7327 -2.4982 0.9708
-1.7287 -6.7689 -2.4983 0.9708
-1.5925 -6.8024 -2.4984 0.9708
-1.1801 -6.8865 -2.4986 0.9708
-1.0417 -6.9090 -2.4986 0.9708
-0.6238 -6.9599 -2.4989 0.9708
-0.4840 -6.9712 -2.4989 0.9708
0.2173 -6.9857 -2.4993 0.9707
0.3575 -6.9802 -2.4994 0.9707
0.6376 -6.9606 -2.4996 0.9707
0.7772 -6.9467 -2.4997 0.9707
1.0556 -6.9103 -2.4998 0.9707
1.3323 -6.8629 -2.5000 0.9707
2.0139 -6.6959 -2.5005 0.9707
2.1480 -6.6544 -2.5006 0.9707
2.2813 -6.6101 -2.5006 0.9707
2.4136 -6.5632 -2.5007 0.9707
2.5450 -6.5137 -2.5008 0.9707
3.0599 -6.2894 -2.5012 0.9707
3.3102 -6.1619 -2.5014 0.9707
3.4334 -6.0944 -2.5015 0.9707
3.5552 -6.0245 -2.5016 0.9707
3.6756 -5.9521 -2.5017 0.9707
3.9120 -5.8001 -2.5018 0.9707
4.1420 -5.6388 -2.5020 0.9707
4.3654 -5.4683 -2.5022 0.9707
4.6872 -5.1962 -2.5025 0.9707
4.7908 -5.1012 -2.5026 0.9707
4.8924 -5.0041 -2.5027 0.9707
5.4596 -4.3807 -2.5032 0.9707
5.7943 -3.9291 -2.5035 0.9707
5.9478 -3.6935 -2.5037 0.9707
6.0209 -3.5734 -2.5038 0.9707
6.2257 -3.2047 -2.5040 0.9707
6.2890 -3.0792 -2.5041 0.9707
6.4080 -2.8243 -2.5042 0.9707
6.4636 -2.6951 -2.5043 0.9707
6.5166 -2.5649 -2.5044 0.9707
6.5670 -2.4336 -2.5045 0.9707
6.6598 -2.1681 -2.5046 0.9707
6.7021 -2.0340 -2.5047 0.9707
6.7787 -1.7633 -2.5048 0.9707
6.8991 -1.2138 -2.5050 0.9707
6.9426 -0.9359 -2.5052 0.9707
6.9748 -0.6564 -2.5053 0.9707
7.0021 -0.2353 -2.5054 0.9707
7.0056 -0.0946 -2.5055 0.9707
7.0040 0.1868 -2.5056 0.9707
6.9989 0.3274 -2.5056 0.9707
6.9804 0.6082 -2.5057 0.9707
6.9095 1.1664 -2.5058 0.9707
6.8572 1.4429 -2.5059 0.9707
6.8269 1.5803 -2.5059 0.9707
6.7939 1.7171 -2.5059 0.9707
6.7581 1.8532 -2.5060 0.9707
6.7196 1.9886 -2.5060 0.9707
6.6344 2.2568 -2.5060 0.9707
6.5878 2.3896 -2.5060 0.9707
6.5385 2.5214 -2.5061 0.9707
6.4866 2.6522 -2.5061 0.9707
6.4321 2.7819 -2.5061 0.9707
6.3750 2.9105 -2.5061 0.9707
6.1209 3.4127 -2.5061 0.9707
5.9789 3.6557 -2.5061 0.9707
5.7480 4.0090 -2.5061 0.9707
5.6663 4.1236 -2.5061 0.9707
5.4076 4.4572 -2.5060 0.9707
5.3170 4.5649 -2.5060 0.9707
5.0324 4.8766 -2.5060 0.9707
4.7295 5.1706 -2.5059 0.9707
4.6247 5.2645 -2.5059 0.9707
4.5180 5.3562 -2.5058 0.9707
4.2991 5.5331 -2.5058 0.9707
4.1871 5.6183 -2.5057 0.9707
4.0734 5.7011 -2.5057 0.9707
3.7226 5.9357 -2.5056 0.9707
3.3582 6.1488 -2.5054 0.9707
3.1085 6.2784 -2.5053 0.9707
2.9818 6.3394 -2.5053 0.9707
2.4633 6.5576 -2.5050 0.9707
2.3310 6.6056 -2.5050 0.9707
2.1979 6.6509 -2.5049 0.9707
1.7933 6.7707 -2.5047 0.9707
1.5199 6.8369 -2.5046 0.9707
1.3823 6.8658 -2.5045 0.9707
1.2441 6.8920 -2.5045 0.9707
0.9663 6.9360 -2.5043 0.9707
0.5469 6.9809 -2.5041 0.9707
0.4066 6.9903 -2.5040 0.9707
0.1256 7.0006 -2.5039 0.9707
-0.2961 6.9948 -2.5036 0.9707
-0.4365 6.9871 -2.5035 0.9707
-1.1345 6.9070 -2.5031 0.9707
-1.4108 6.8554 -2.5029 0.9707
-1.5389 5.7112 -2.1152 0.9752
-1.6337 5.6118 -2.0901 0.9755
-1.8659 5.5661 -2.0993 0.9754
-2.1061 5.5347 -2.1177 0.9752
-2.2398 5.5482 -2.1397 0.9749
-2.5285 5.6039 -2.1985 0.9742
-2.6358 5.5421 -2.1946 0.9743
-3.2558 6.1917 -2.5017 0.9707
-3.6223 5.9838 -2.5014 0.9707
-4.0902 5.6730 -2.5010 0.9707
-4.3143 5.5038 -2.5008 0.9707
-4.4238 5.4158 -2.5007 0.9707
-4.6374 5.2335 -2.5006 0.9707
-4.8434 5.0427 -2.5004 0.9707
-4.9435 4.9442 -2.5003 0.9707
-5.9373 2.6968 -2.4990 0.9725
-6.0405 2.4561 -2.4988 0.9725
-6.0884 2.3342 -2.4988 0.9725
-6.2174 1.9632 -2.4986 0.9725
-6.2554 1.8380 -2.4985 0.9725
-6.2909 1.7119 -2.4985 0.9725
-6.4826 0.6835 -2.4980 0.9725
-6.5045 0.4226 -2.4979 0.9725
-6.5178 0.0302 -2.4978 0.9725
-6.5170 -0.1007 -2.4977 0.9725
-6.5136 -0.2315 -2.4977 0.9725
-6.5075 -0.3623 -2.4977 0.9725
-6.4988 -0.4929 -2.4976 0.9725
-6.4875 -0.6232 -2.4976 0.9725
-6.4571 -0.8832 -2.4975 0.9725
-6.4380 -1.0127 -2.4975 0.9725
-6.4163 -1.1417 -2.4975 0.9725
-6.3920 -1.2703 -2.4974 0.9725
-6.3651 -1.3984 -2.4974 0.9725
-6.3357 -1.5259 -2.4974 0.9725
-6.3037 -1.6528 -2.4974 0.9725
-6.2322 -1.9046 -2.4973 0.9725
-6.1506 -2.1533 -2.4973 0.9725
-6.0591 -2.3984 -2.4972 0.9725
-6.0097 -2.5196 -2.4972 0.9725
-5.9036 -2.7589 -2.4972 0.9725
-5.8470 -2.8768 -2.4972 0.9725
-5.5973 -3.3367 -2.4972 0.9725
-5.3863 -3.6677 -2.4972 0.9725
-5.3116 -3.7751 -2.4972 0.9725
-5.2347 -3.8810 -2.4972 0.9725
-5.0747 -4.0882 -2.4973 0.9725
-4.9916 -4.1892 -2.4973 0.9725
-4.5467 -4.6687 -2.4974 0.9725
-4.4521 -4.7591 -2.4974 0.9725
-4.3557 -4.8476 -2.4974 0.9725
-4.1576 -5.0187 -2.4975 0.9725
-4.0561 -5.1012 -2.4975 0.9725
-3.7417 -5.3364 -2.4976 0.9725
-3.6339 -5.4105 -2.4977 0.9725
-3.4138 -5.5522 -2.4977 0.9725
-3.3017 -5.6198 -2.4978 0.9725
-3.0735 -5.7480 -2.4979 0.9725
-2.9575 -5.8087 -2.4979 0.9725
-2.8403 -5.8670 -2.4980 0.9725
-2.7220 -5.9230 -2.4980 0.9725
-2.4821 -6.0278 -2.4981 0.9725
-2.3606 -6.0765 -2.4982 0.9725
-2.2382 -6.1228 -2.4982 0.9725
-1.7398 -6.2832 -2.4985 0.9725
-1.4862 -6.3483 -2.4986 0.9725
-1.3585 -6.3771 -2.4986 0.9725
-0.8425 -6.4662 -2.4989 0.9725
-0.5822 -6.4952 -2.4990 0.9725
-0.4517 -6.5057 -2.4991 0.9725
-0.3209 -6.5137 -2.4992 0.9725
0.3337 -6.5140 -2.4996 0.9724
0.4644 -6.5062 -2.4996 0.9724
0.5950 -6.4958 -2.4997 0.9724
0.8554 -6.4671 -2.4999 0.9724
0.9851 -6.4488 -2.5000 0.9724
1.1144 -6.4279 -2.5000 0.9724
1.4996 -6.3498 -2.5003 0.9724
1.7534 -6.2849 -2.5005 0.9724
1.8793 -6.2486 -2.5005 0.9724
2.0045 -6.2098 -2.5006 0.9724
2.3750 -6.0785 -2.5009 0.9724
2.4966 -6.0298 -2.5010 0.9724
2.8555 -5.8691 -2.5012 0.9724
2.9728 -5.8108 -2.5013 0.9724
3.0890 -5.7501 -2.5014 0.9724
3.2040 -5.6871 -2.5015 0.9724
3.3176 -5.6218 -2.5016 0.9724
3.6505 -5.4125 -2.5018 0.9724
3.7586 -5.3382 -2.5019 0.9724
3.8651 -5.2619 -2.5020 0.9724
3.9701 -5.1834 -2.5021 0.9724
4.0736 -5.1028 -2.5022 0.9724
4.1753 -5.0201 -2.5022 0.9724
4.2755 -4.9354 -2.5023 0.9724
4.3738 -4.8488 -2.5024 0.9724
4.7494 -4.4828 -2.5028 0.9724
4.9259 -4.2887 -2.5029 0.9724
5.0945 -4.0878 -2.5031 0.9724
5.1757 -3.9847 -2.5032 0.9724
5.3319 -3.7740 -2.5033 0.9724
5.6182 -3.3344 -2.5036 0.9724
5.7479 -3.1063 -2.5038 0.9724
5.8093 -2.9903 -2.5038 0.9724
5.8683 -2.8731 -2.5039 0.9724
5.9793 -2.6354 -2.5041 0.9724
6.0312 -2.5148 -2.5041 0.9724
6.0806 -2.3933 -2.5042 0.9724
6.2142 -2.0230 -2.5044 0.9724
6.2537 -1.8979 -2.5045 0.9724
6.3864 -1.3901 -2.5047 0.9724
6.4132 -1.2616 -2.5048 0.9724
6.4374 -1.1326 -2.5048 0.9724
6.5080 -0.6125 -2.5050 0.9724
6.5192 -0.4817 -2.5051 0.9724
6.5335 -0.2195 -2.5052 0.9724
6.5131 0.5675 -2.5054 0.9724
6.4853 0.8285 -2.5055 0.9724
6.4674 0.9586 -2.5055 0.9724
6.4239 1.2176 -2.5056 0.9724
6.3982 1.3463 -2.5056 0.9724
6.3699 1.4745 -2.5056 0.9724
6.3391 1.6021 -2.5056 0.9724
6.1468 2.2296 -2.5057 0.9724
6.1008 2.3526 -2.5058 0.9724
6.0015 2.5957 -2.5058 0.9724
5.9482 2.7157 -2.5058 0.9724
5.8344 2.9523 -2.5058 0.9724
5.6461 3.2983 -2.5058 0.9724
5.5091 3.5223 -2.5058 0.9724
5.4372 3.6322 -2.5058 0.9724
5.2869 3.8475 -2.5058 0.9724
5.2086 3.9529 -2.5058 0.9724
4.9611 4.2593 -2.5057 0.9724
4.8745 4.3580 -2.5057 0.9724
4.7860 4.4550 -2.5057 0.9724
4.6955 4.5502 -2.5057 0.9724
4.5089 4.7349 -2.5056 0.9724
4.4129 4.8245 -2.5056 0.9724
4.2155 4.9977 -2.5055 0.9724
4.1143 5.0812 -2.5055 0.9724
3.9068 5.2422 -2.5054 0.9724
3.8007 5.3195 -2.5054 0.9724
3.6931 5.3947 -2.5054 0.9724
3.5840 5.4677 -2.5053 0.9724
3.4734 5.5384 -2.5053 0.9724
3.2481 5.6733 -2.5052 0.9724
3.1335 5.7372 -2.5052 0.9724
2.9005 5.8582 -2.5051 0.9724
2.7822 5.9151 -2.5050 0.9724
2.1750 6.1636 -2.5048 0.9724
2.0508 6.2059 -2.5047 0.9724
1.9257 6.2457 -2.5046 0.9724
1.7999 6.2829 -2.5046 0.9724
1.6733 6.3176 -2.5045 0.9724
1.5461 6.3498 -2.5045 0.9724
1.4182 6.3794 -2.5044 0.9724
1.1609 6.4309 -2.5043 0.9724
1.0315 6.4527 -2.5042 0.9724
0.9017 6.4720 -2.5041 0.9724
0.7715 6.4886 -2.5041 0.9724
0.2483 6.5288 -2.5038 0.9724
0.1172 6.5323 -2.5037 0.9724
-0.0140 6.5331 -2.5036 0.9724
-0.2763 6.5269 -2.5035 0.9724
-0.4073 6.5198 -2.5034 0.9724
-0.5381 6.5101 -2.5033 0.9724
-0.6687 6.4978 -2.5032 0.9724
-0.7990 6.4829 -2.5032 0.9724
-0.9290 6.4653 -2.5031 0.9724
-1.0586 6.4451 -2.5030 0.9724
-1.3165 6.3970 -2.5028 0.9724
-1.4446 6.3691 -2.5027 0.9724
-1.5722 6.3386 -2.5027 0.9724
-2.0754 6.1912 -2.5023 0.9724
-2.1992 6.1480 -2.5022 0.9724
-2.0955 5.5066 -2.2579 0.9751
-2.6247 5.5187 -2.3419 0.9742
-3.1535 5.7155 -2.5016 0.9724
-3.2675 5.6508 -2.5015 0.9724
-3.3802 5.5839 -2.5014 0.9724
-3.4916 5.5147 -2.5013 0.9724
-3.6015 5.4433 -2.5012 0.9724
-3.8169 5.2939 -2.5010 0.9724
-3.9223 5.2160 -2.5010 0.9724
-4.1282 5.0540 -2.5008 0.9724
-4.2288 4.9699 -2.5007 0.9724
-4.3276 4.8838 -2.5006 0.9724
-4.4246 4.7958 -2.5005 0.9724
-4.5199 4.7058 -2.5004 0.9724
-4.6133 4.6139 -2.5004 0.9724
-5.6563 2.2998 -2.4990 0.9740
-5.7438 2.0708 -2.4989 0.9740
-5.7840 1.9550 -2.4988 0.9740
-5.8220 1.8384 -2.4988 0.9740
-5.8908 1.6031 -2.4987 0.9740
-5.9763 1.2454 -2.4985 0.9740
-5.9999 1.1251 -2.4984 0.9740
-6.0212 1.0044 -2.4984 0.9740
-6.0400 0.8833 -2.4983 0.9740
-6.0564 0.7618 -2.4983 0.9740
-6.0704 0.6400 -2.4982 0.9740
-6.0976 0.2733 -2.4981 0.9740
-6.1027 -0.0943 -2.4980 0.9740
-6.0751 -0.5836 -2.4978 0.9740
-6.0621 -0.7055 -2.4978 0.9740
-6.0084 -1.0692 -2.4977 0.9740
-5.9329 -1.4289 -2.4976 0.9740
-5.9030 -1.5478 -2.4976 0.9740
-5.8360 -1.7835 -2.4976 0.9740
-5.7990 -1.9003 -2.4976 0.9740
-5.7179 -2.1316 -2.4975 0.9740
-5.6739 -2.2460 -2.4975 0.9740
-5.5791 -2.4720 -2.4975 0.9740
-5.4754 -2.6940 -2.4975 0.9740
-5.4202 -2.8034 -2.4975 0.9740
-5.3628 -2.9117 -2.4975 0.9740
-5.3032 -3.0187 -2.4975 0.9740
-5.2415 -3.1246 -2.4975 0.9740
-5.1119 -3.3326 -2.4975 0.9740
-5.0439 -3.4346 -2.4975 0.9740
-4.7521 -3.8283 -2.4975 0.9740
-4.5946 -4.0160 -2.4976 0.9740
-4.5131 -4.1075 -2.4976 0.9740
-4.4298 -4.1973 -2.4976 0.9740
-4.1691 -4.4566 -2.4977 0.9740
-3.8933 -4.6996 -2.4977 0.9740
-3.7016 -4.8523 -2.4978 0.9740
-3.6035 -4.9257 -2.4978 0.9740
-3.5039 -4.9971 -2.4979 0.9740
-3.4029 -5.0666 -2.4979 0.9740
-3.3005 -5.1339 -2.4979 0.9740
-3.1968 -5.1992 -2.4980 0.9740
-2.8781 -5.3826 -2.4981 0.9740
-2.7695 -5.4394 -2.4981 0.9740
-2.5489 -5.5464 -2.4982 0.9740
-2.3243 -5.6445 -2.4983 0.9740
-2.0958 -5.7335 -2.4984 0.9740
-1.9803 -5.7745 -2.4985 0.9740
-1.7470 -5.8496 -2.4986 0.9740
-1.5107 -5.9153 -2.4987 0.9740
-1.2721 -5.9715 -2.4988 0.9740
-1.0313 -6.0181 -2.4989 0.9740
-0.9103 -6.0377 -2.4990 0.9740
-0.7889 -6.0549 -2.4991 0.9740
-0.5452 -6.0820 -2.4992 0.9740
-0.3005 -6.0993 -2.4993 0.9740
-0.1780 -6.1043 -2.4994 0.9740
-0.0554 -6.1068 -2.4995 0.9740
0.4349 -6.0923 -2.4998 0.9739
0.5571 -6.0825 -2.4998 0.9739
0.8009 -6.0556 -2.5000 0.9739
1.0435 -6.0189 -2.5001 0.9739
1.1642 -5.9969 -2.5002 0.9739
