ply
format ascii 1.0
element vertex 1596
property float32 x
property float32 y
property float32 z
property float32 I
end_header
13.5321 -7.0351 -2.5125 0.9400
14.0494 -5.9209 -2.5116 0.9401
14.1644 -5.6361 -2.5114 0.9401
14.3772 -5.0600 -2.5109 0.9401
14.4747 -4.7689 -2.5106 0.9401
14.5664 -4.4759 -2.5104 0.9401
14.6521 -4.1811 -2.5101 0.9401
14.7318 -3.8847 -2.5099 0.9401
14.8732 -3.2875 -2.5093 0.9401
14.9348 -2.9869 -2.5091 0.9401
14.9903 -2.6851 -2.5088 0.9401
15.1759 -1.1635 -2.5074 0.9402
15.1945 -0.8575 -2.5071 0.9402
15.2070 -0.5511 -2.5068 0.9402
15.2071 0.3682 -2.5059 0.9402
15.0410 2.1976 -2.5041 0.9402
14.9366 2.8010 -2.5035 0.9403
14.7348 3.6967 -2.5026 0.9403
14.6555 3.9923 -2.5023 0.9403
14.5703 4.2862 -2.5020 0.9403
14.2796 5.1565 -2.5011 0.9403
14.0569 5.7261 -2.5005 0.9403
13.9346 6.0064 -2.4998 0.9403
13.5997 6.5237 -2.4848 0.9407
13.1489 6.6365 -2.4264 0.9420
12.7183 6.7440 -2.3715 0.9433
12.1549 7.4187 -2.3459 0.9439
11.8434 7.9004 -2.3453 0.9439
11.5128 8.3691 -2.3448 0.9439
10.7968 9.2644 -2.3437 0.9440
10.6069 9.4790 -2.3435 0.9440
10.4126 9.6897 -2.3432 0.9440
10.2142 9.8964 -2.3429 0.9440
10.0117 10.0990 -2.3427 0.9440
9.8052 10.2975 -2.3424 0.9440
9.3804 10.6819 -2.3419 0.9440
8.9407 11.0488 -2.3415 0.9440
8.7154 11.2255 -2.3412 0.9440
8.2546 11.5652 -2.3408 0.9440
7.7805 11.8860 -2.3403 0.9440
6.7960 12.4692 -2.3395 0.9441
6.5429 12.6024 -2.3392 0.9441
6.0290 12.8536 -2.3389 0.9441
5.7683 12.9714 -2.3387 0.9441
4.9732 13.2930 -2.3381 0.9441
4.4330 13.4806 -2.3378 0.9441
4.1603 13.5662 -2.3376 0.9441
3.3031 13.6676 -2.3164 0.9446
2.7433 13.7565 -2.3108 0.9447
2.2111 14.0088 -2.3364 0.9441
1.3174 13.6654 -2.2617 0.9459
1.0508 13.8067 -2.2811 0.9454
-0.0631 13.6628 -2.2508 0.9461
-0.3381 13.6475 -2.2490 0.9462
-1.1714 13.7151 -2.2676 0.9457
-1.4455 13.6704 -2.2646 0.9458
-2.0572 14.0253 -2.3352 0.9442
-2.2754 13.5993 -2.2715 0.9456
-2.6039 13.8429 -2.3205 0.9445
-2.9005 13.8753 -2.3352 0.9442
-3.4570 13.7469 -2.3352 0.9442
-9.2128 -9.6539 -2.5082 0.9471
-9.0173 -9.8385 -2.5085 0.9471
-8.8181 -10.0190 -2.5087 0.9471
-8.1991 -10.5362 -2.5094 0.9471
-7.7694 -10.8598 -2.5098 0.9471
-7.5497 -11.0151 -2.5100 0.9471
-7.3218 -11.1580 -2.5085 0.9471
-7.0883 -11.2917 -2.5059 0.9472
-6.8527 -11.4211 -2.5035 0.9472
-6.2234 -11.3883 -2.4393 0.9486
-5.6142 -11.3360 -2.3777 0.9498
-5.3414 -11.3549 -2.3586 0.9502
-4.8804 -11.5625 -2.3590 0.9502
-4.6468 -11.6592 -2.3591 0.9502
-4.4113 -11.7512 -2.3593 0.9502
-3.2083 -12.1390 -2.3600 0.9502
-1.7217 -12.4412 -2.3607 0.9502
-1.2193 -12.5015 -2.3609 0.9502
-0.9672 -12.5241 -2.3610 0.9502
-0.7148 -12.5415 -2.3611 0.9502
-0.2090 -12.5610 -2.3613 0.9502
0.2971 -12.5600 -2.3615 0.9502
1.0553 -12.5202 -2.3616 0.9501
1.8097 -12.4343 -2.3618 0.9501
2.3092 -12.3517 -2.3619 0.9501
2.5575 -12.3028 -2.3619 0.9501
2.8049 -12.2489 -2.3619 0.9501
3.0511 -12.1900 -2.3619 0.9501
3.2960 -12.1262 -2.3619 0.9501
4.0224 -11.9050 -2.3619 0.9501
4.7341 -11.6401 -2.3619 0.9501
4.9675 -11.5422 -2.3619 0.9501
6.3026 -11.3434 -2.4391 0.9486
6.9444 -11.3920 -2.5077 0.9471
7.4142 -11.1279 -2.5133 0.9470
7.8599 -10.8250 -2.5145 0.9470
8.0761 -10.6641 -2.5144 0.9470
8.2890 -10.4989 -2.5143 0.9470
8.7044 -10.1556 -2.5141 0.9470
8.9068 -9.9778 -2.5140 0.9470
9.3007 -9.6100 -2.5137 0.9470
9.6792 -9.2267 -2.5135 0.9470
9.8626 -9.0294 -2.5133 0.9470
10.0419 -8.8283 -2.5132 0.9470
10.2172 -8.6238 -2.5131 0.9470
10.3882 -8.4157 -2.5129 0.9470
10.5550 -8.2042 -2.5128 0.9470
11.1782 -7.3261 -2.5121 0.9471
11.4626 -6.8690 -2.5118 0.9471
11.8539 -6.1627 -2.5112 0.9471
11.9748 -5.9222 -2.5110 0.9471
12.3076 -5.1868 -2.5104 0.9471
12.5952 -4.4329 -2.5098 0.9471
12.7614 -3.9213 -2.5093 0.9471
12.9066 -3.4034 -2.5089 0.9471
12.9714 -3.1424 -2.5086 0.9471
13.1772 -2.0873 -2.5077 0.9471
13.2153 -1.8213 -2.5074 0.9472
13.2481 -1.5546 -2.5072 0.9472
13.2754 -1.2873 -2.5070 0.9472
13.2973 -1.0195 -2.5067 0.9472
13.3138 -0.7513 -2.5065 0.9472
13.3249 -0.4829 -2.5062 0.9472
13.3305 -0.2144 -2.5059 0.9472
13.3256 0.3227 -2.5054 0.9472
13.3150 0.5910 -2.5052 0.9472
13.2776 1.1266 -2.5046 0.9472
13.2509 1.3937 -2.5044 0.9472
13.1812 1.9259 -2.5038 0.9472
13.1383 2.1908 -2.5036 0.9472
13.0901 2.4548 -2.5033 0.9472
12.9778 2.9794 -2.5028 0.9472
12.8445 3.4990 -2.5022 0.9473
12.5158 4.5196 -2.5012 0.9473
12.1062 5.5100 -2.5001 0.9473
11.9915 5.7522 -2.4998 0.9473
11.3187 6.9084 -2.4924 0.9475
11.0492 7.0532 -2.4639 0.9480
10.6840 7.1270 -2.4140 0.9491
10.3330 7.1978 -2.3670 0.9500
10.0929 7.3369 -2.3453 0.9505
9.7872 7.7359 -2.3449 0.9505
9.6284 7.9308 -2.3446 0.9505
9.2993 8.3105 -2.3442 0.9505
8.9553 8.6766 -2.3437 0.9505
8.2247 9.3658 -2.3428 0.9505
8.0337 9.5287 -2.3426 0.9505
6.1791 10.8129 -2.3409 0.9506
5.5134 11.1639 -2.3403 0.9506
4.5956 11.5682 -2.3397 0.9506
4.3613 11.6576 -2.3395 0.9506
3.6486 11.8975 -2.3391 0.9506
3.4080 11.9679 -2.3389 0.9506
3.1660 12.0334 -2.3388 0.9506
2.9228 12.0941 -2.3387 0.9506
2.6784 12.1498 -2.3385 0.9506
1.9394 12.2876 -2.3382 0.9506
1.6914 12.3236 -2.3381 0.9506
0.9439 12.4017 -2.3378 0.9506
0.6938 12.4177 -2.3377 0.9506
0.1931 12.4346 -2.3375 0.9506
-0.0575 12.4356 -2.3374 0.9506
-0.5583 12.4225 -2.3373 0.9506
-0.8084 12.4084 -2.3372 0.9506
-1.0582 12.3893 -2.3372 0.9507
-1.3075 12.3652 -2.3371 0.9507
-1.5563 12.3361 -2.3371 0.9507
-2.5441 12.1701 -2.3369 0.9507
-3.0322 12.0575 -2.3369 0.9507
-2.3253 8.5174 -1.6595 0.9647
-7.4748 -9.2163 -2.5083 0.9526
-7.2883 -9.3657 -2.5085 0.9526
-7.0987 -9.5114 -2.5087 0.9526
-6.9061 -9.6532 -2.5089 0.9526
-6.1085 -10.1808 -2.5097 0.9526
-4.3902 -11.0153 -2.5065 0.9527
-4.1649 -11.0948 -2.5050 0.9527
-3.9373 -11.1673 -2.5030 0.9527
-3.6809 -11.1514 -2.4823 0.9531
-3.4296 -11.1391 -2.4637 0.9535
-3.1822 -11.1279 -2.4465 0.9538
-2.6969 -11.1053 -2.4157 0.9544
-2.4586 -11.0939 -2.4019 0.9546
-2.2238 -11.0868 -2.3902 0.9548
-1.7602 -11.0723 -2.3699 0.9552
-1.3071 -11.0859 -2.3596 0.9554
-0.8596 -11.1304 -2.3597 0.9554
-0.1858 -11.1631 -2.3600 0.9554
0.0392 -11.1649 -2.3600 0.9554
0.4889 -11.1548 -2.3602 0.9554
0.7135 -11.1430 -2.3602 0.9554
0.9379 -11.1266 -2.3603 0.9554
1.1618 -11.1057 -2.3603 0.9554
1.3853 -11.0802 -2.3604 0.9554
1.6083 -11.0508 -2.3605 0.9554
2.0647 -11.0438 -2.3749 0.9551
2.2966 -11.0474 -2.3851 0.9549
3.0078 -11.0656 -2.4239 0.9542
3.7486 -11.0946 -2.4754 0.9532
4.2457 -11.0734 -2.5068 0.9527
4.9167 -10.8185 -2.5119 0.9526
5.1370 -10.7243 -2.5135 0.9525
5.3519 -10.6185 -2.5135 0.9525
5.9831 -10.2753 -2.5134 0.9526
6.1888 -10.1524 -2.5133 0.9526
6.3919 -10.0254 -2.5133 0.9526
6.5924 -9.8944 -2.5132 0.9526
6.7902 -9.7593 -2.5131 0.9526
7.9158 -8.8675 -2.5126 0.9526
8.4358 -8.3722 -2.5123 0.9526
8.7654 -8.0248 -2.5121 0.9526
8.9249 -7.8463 -2.5119 0.9526
9.0806 -7.6645 -2.5118 0.9526
9.3810 -7.2917 -2.5115 0.9526
9.6660 -6.9072 -2.5113 0.9526
9.9352 -6.5114 -2.5110 0.9526
10.4244 -5.6891 -2.5103 0.9526
10.5362 -5.4776 -2.5101 0.9526
10.6437 -5.2639 -2.5100 0.9526
10.7468 -5.0481 -2.5098 0.9526
10.9399 -4.6104 -2.5094 0.9526
11.0297 -4.3888 -2.5092 0.9526
11.1150 -4.1654 -2.5091 0.9526
11.2721 -3.7137 -2.5087 0.9526
11.4107 -3.2562 -2.5083 0.9526
11.4731 -3.0254 -2.5081 0.9526
11.6320 -2.3263 -2.5075 0.9527
11.6755 -2.0914 -2.5072 0.9527
11.7142 -1.8556 -2.5070 0.9527
11.7774 -1.3820 -2.5066 0.9527
11.8463 -0.4293 -2.5057 0.9527
11.8514 -0.1906 -2.5055 0.9527
11.8473 0.2869 -2.5050 0.9527
11.8381 0.5254 -2.5048 0.9527
11.8240 0.7637 -2.5046 0.9527
11.6817 1.9479 -2.5034 0.9527
11.4827 2.8808 -2.5024 0.9528
11.4212 3.1113 -2.5022 0.9528
11.2845 3.5681 -2.5017 0.9528
11.0452 4.2420 -2.5010 0.9528
10.9565 4.4632 -2.5008 0.9528
10.8633 4.6825 -2.5005 0.9528
10.7658 4.8999 -2.5003 0.9528
10.6638 5.1153 -2.5000 0.9528
10.5576 5.3286 -2.4998 0.9528
10.2136 5.9549 -2.4991 0.9528
10.0907 6.1588 -2.4989 0.9528
9.8326 6.5591 -2.4984 0.9528
9.6976 6.7552 -2.4982 0.9528
9.5521 6.9438 -2.4962 0.9529
9.3994 7.1265 -2.4933 0.9529
8.3702 7.4802 -2.3729 0.9551
7.9652 7.7174 -2.3443 0.9557
7.8075 7.8756 -2.3441 0.9557
7.6466 8.0306 -2.3440 0.9557
7.4827 8.1824 -2.3438 0.9557
6.7976 8.7553 -2.3430 0.9557
6.6193 8.8898 -2.3428 0.9557
6.4384 9.0206 -2.3426 0.9557
6.2549 9.1478 -2.3425 0.9557
6.0689 9.2712 -2.3423 0.9557
5.8805 9.3909 -2.3421 0.9557
5.4967 9.6188 -2.3418 0.9557
5.3014 9.7269 -2.3416 0.9557
5.1041 9.8311 -2.3415 0.9557
4.5001 10.1194 -2.3410 0.9557
4.2950 10.2074 -2.3409 0.9557
3.6700 10.4463 -2.3405 0.9557
2.6003 10.7596 -2.3398 0.9558
2.3829 10.8092 -2.3397 0.9558
2.1646 10.8546 -2.3396 0.9558
1.9454 10.8955 -2.3395 0.9558
1.7254 10.9320 -2.3394 0.9558
1.5048 10.9641 -2.3393 0.9558
1.2836 10.9917 -2.3392 0.9558
1.0619 11.0149 -2.3391 0.9558
0.8397 11.0337 -2.3390 0.9558
0.1718 11.0632 -2.3388 0.9558
-0.4967 11.0525 -2.3386 0.9558
-0.7193 11.0400 -2.3386 0.9558
-1.1633 11.0016 -2.3385 0.9558
-1.6055 10.9454 -2.3384 0.9558
-1.8256 10.9107 -2.3384 0.9558
-7.2078 -7.8641 -2.5071 0.9571
-6.3828 -8.5521 -2.5080 0.9571
-6.0339 -8.8035 -2.5084 0.9571
-5.8558 -8.9239 -2.5085 0.9571
-5.3071 -9.2631 -2.5090 0.9571
-4.9303 -9.4705 -2.5093 0.9571
-3.9541 -9.9211 -2.5101 0.9571
-3.5516 -10.0734 -2.5103 0.9571
-3.3482 -10.1434 -2.5105 0.9571
-2.9372 -10.2711 -2.5107 0.9571
-2.3117 -10.4311 -2.5110 0.9570
-2.1012 -10.4760 -2.5111 0.9570
-1.8898 -10.5167 -2.5112 0.9570
-1.2510 -10.6105 -2.5110 0.9570
-0.8224 -10.6495 -2.5103 0.9571
-0.6077 -10.6629 -2.5101 0.9571
-0.1777 -10.6777 -2.5099 0.9571
0.0375 -10.6792 -2.5099 0.9571
0.2526 -10.6767 -2.5100 0.9571
0.8972 -10.6448 -2.5106 0.9571
1.9645 -10.5079 -2.5124 0.9570
2.1758 -10.4663 -2.5124 0.9570
2.5956 -10.3703 -2.5125 0.9570
2.8040 -10.3160 -2.5125 0.9570
3.0113 -10.2574 -2.5125 0.9570
4.0274 -9.9025 -2.5124 0.9570
4.4229 -9.7321 -2.5124 0.9570
4.6180 -9.6409 -2.5124 0.9570
5.0025 -9.4468 -2.5123 0.9570
5.3787 -9.2373 -2.5122 0.9570
5.5636 -9.1269 -2.5121 0.9570
5.9265 -8.8950 -2.5120 0.9570
6.1043 -8.7736 -2.5120 0.9570
6.9545 -8.1140 -2.5116 0.9570
7.5840 -7.5268 -2.5112 0.9570
7.7338 -7.3722 -2.5111 0.9570
8.1638 -6.8907 -2.5108 0.9571
8.3006 -6.7245 -2.5107 0.9571
8.8132 -6.0333 -2.5102 0.9571
8.9324 -5.8542 -2.5100 0.9571
9.0480 -5.6728 -2.5099 0.9571
9.1600 -5.4891 -2.5097 0.9571
9.2681 -5.3031 -2.5096 0.9571
9.3725 -5.1151 -2.5094 0.9571
9.4731 -4.9249 -2.5093 0.9571
9.6626 -4.5388 -2.5090 0.9571
9.8363 -4.1453 -2.5087 0.9571
9.9939 -3.7453 -2.5083 0.9571
10.0667 -3.5429 -2.5082 0.9571
10.2601 -2.9278 -2.5076 0.9571
10.4159 -2.3022 -2.5071 0.9571
10.4594 -2.0918 -2.5069 0.9571
10.5906 -1.2427 -2.5061 0.9571
10.6126 -1.0290 -2.5059 0.9571
10.6303 -0.8150 -2.5057 0.9571
10.6580 0.0433 -2.5049 0.9572
10.6333 0.6868 -2.5043 0.9572
10.5952 1.1144 -2.5039 0.9572
10.5399 1.5400 -2.5034 0.9572
10.4676 1.9629 -2.5030 0.9572
10.2128 3.0043 -2.5019 0.9572
10.1493 3.2091 -2.5017 0.9572
10.0817 3.4127 -2.5015 0.9572
9.8546 4.0143 -2.5009 0.9572
9.7710 4.2117 -2.5006 0.9572
9.2940 5.1707 -2.4996 0.9572
9.1872 5.3564 -2.4994 0.9572
9.0766 5.5399 -2.4992 0.9572
8.8446 5.9000 -2.4987 0.9573
8.7233 6.0765 -2.4985 0.9573
8.5984 6.2505 -2.4983 0.9573
8.2032 6.7568 -2.4977 0.9573
8.0648 6.9202 -2.4975 0.9573
7.9222 7.0798 -2.4971 0.9573
7.7704 7.2309 -2.4946 0.9573
7.6158 7.3788 -2.4922 0.9574
7.4586 7.5237 -2.4899 0.9574
7.2310 7.5941 -2.4645 0.9578
6.4808 7.6869 -2.3630 0.9595
6.1154 7.8767 -2.3436 0.9599
5.9551 7.9977 -2.3435 0.9599
5.7924 8.1155 -2.3433 0.9599
5.6273 8.2299 -2.3432 0.9599
5.4600 8.3411 -2.3430 0.9599
5.2906 8.4488 -2.3428 0.9599
5.1190 8.5531 -2.3427 0.9599
4.9453 8.6540 -2.3425 0.9599
4.7697 8.7513 -2.3424 0.9599
4.4128 8.9352 -2.3421 0.9599
4.2316 9.0218 -2.3420 0.9599
3.4909 9.3311 -2.3415 0.9599
2.9205 9.5235 -2.3411 0.9599
2.1441 9.7259 -2.3407 0.9599
1.9476 9.7667 -2.3406 0.9599
1.5525 9.8364 -2.3404 0.9599
1.1550 9.8902 -2.3402 0.9599
0.9555 9.9112 -2.3402 0.9599
0.7556 9.9281 -2.3401 0.9599
0.5554 9.9410 -2.3400 0.9599
0.1546 9.9547 -2.3399 0.9599
-0.0460 9.9556 -2.3398 0.9599
-0.2465 9.9524 -2.3398 0.9599
-0.4470 9.9452 -2.3397 0.9599
-0.8472 9.9187 -2.3396 0.9599
-1.2460 9.8762 -2.3395 0.9599
-1.6427 9.8177 -2.3395 0.9599
-2.4276 9.6533 -2.3394 0.9599
-2.2766 8.3390 -2.0316 0.9651
-6.5413 -7.1370 -2.5066 0.9608
-6.3966 -7.2678 -2.5068 0.9608
-5.9472 -7.6423 -2.5073 0.9608
-5.1501 -8.2042 -2.5081 0.9608
-4.9841 -8.3068 -2.5082 0.9608
-4.6460 -8.5018 -2.5085 0.9608
-4.3002 -8.6829 -2.5088 0.9608
-3.4062 -9.0737 -2.5094 0.9607
-3.2228 -9.1409 -2.5095 0.9607
-3.0382 -9.2044 -2.5097 0.9607
-2.8523 -9.2641 -2.5098 0.9607
-2.4770 -9.3723 -2.5100 0.9607
-2.2878 -9.4207 -2.5101 0.9607
-2.0977 -9.4652 -2.5102 0.9607
-1.5223 -9.5757 -2.5105 0.9607
-1.3292 -9.6048 -2.5105 0.9607
-1.1354 -9.6299 -2.5106 0.9607
-0.9413 -9.6511 -2.5107 0.9607
-0.7467 -9.6684 -2.5108 0.9607
-0.5518 -9.6818 -2.5109 0.9607
-0.1613 -9.6966 -2.5110 0.9607
0.0340 -9.6981 -2.5110 0.9607
0.4247 -9.6893 -2.5111 0.9607
0.6198 -9.6790 -2.5112 0.9607
1.2033 -9.6243 -2.5113 0.9607
1.3970 -9.5983 -2.5114 0.9607
1.5900 -9.5683 -2.5114 0.9607
2.1651 -9.4550 -2.5114 0.9607
2.3551 -9.4096 -2.5115 0.9607
2.9192 -9.2502 -2.5115 0.9607
3.1050 -9.1895 -2.5115 0.9607
3.2894 -9.1251 -2.5115 0.9607
3.4725 -9.0569 -2.5115 0.9607
3.8345 -8.9096 -2.5114 0.9607
4.3655 -8.6614 -2.5113 0.9607
4.7107 -8.4783 -2.5113 0.9607
4.8805 -8.3816 -2.5112 0.9607
5.0482 -8.2814 -2.5112 0.9607
5.2139 -8.1779 -2.5111 0.9607
5.3775 -8.0709 -2.5111 0.9607
5.5388 -7.9608 -2.5110 0.9607
5.6980 -7.8475 -2.5110 0.9607
5.8547 -7.7309 -2.5109 0.9607
6.6015 -7.1019 -2.5105 0.9607
6.7429 -6.9673 -2.5104 0.9607
7.0176 -6.6895 -2.5103 0.9607
7.6531 -5.9487 -2.5097 0.9607
7.7711 -5.7930 -2.5096 0.9607
8.2106 -5.1477 -2.5091 0.9607
8.3122 -4.9810 -2.5090 0.9608
8.4104 -4.8123 -2.5089 0.9608
8.6842 -4.2949 -2.5085 0.9608
8.7685 -4.1188 -2.5083 0.9608
8.9262 -3.7618 -2.5080 0.9608
9.0694 -3.3988 -2.5077 0.9608
9.1355 -3.2152 -2.5076 0.9608
9.3112 -2.6571 -2.5071 0.9608
9.4528 -2.0894 -2.5066 0.9608
9.5877 -1.3213 -2.5059 0.9608
9.6117 -1.1279 -2.5057 0.9608
9.6317 -0.9340 -2.5055 0.9608
9.6685 -0.3504 -2.5050 0.9608
9.6698 0.2341 -2.5044 0.9608
9.6511 0.6234 -2.5040 0.9608
9.6358 0.8176 -2.5038 0.9608
9.6167 1.0115 -2.5037 0.9608
9.5936 1.2049 -2.5035 0.9608
9.5666 1.3978 -2.5033 0.9608
9.5011 1.7817 -2.5029 0.9608
9.4625 1.9726 -2.5027 0.9608
9.3740 2.3518 -2.5023 0.9609
9.3239 2.5399 -2.5021 0.9609
9.2702 2.7270 -2.5019 0.9609
9.0864 3.2812 -2.5013 0.9609
8.8696 3.8231 -2.5007 0.9609
8.3400 4.8625 -2.4996 0.9609
8.1362 5.1937 -2.4992 0.9609
7.8058 5.6744 -2.4987 0.9609
7.4473 6.1341 -2.4981 0.9609
7.1931 6.4282 -2.4978 0.9609
7.0616 6.5713 -2.4976 0.9609
6.9273 6.7118 -2.4974 0.9609
6.7903 6.8495 -2.4972 0.9609
6.6505 6.9844 -2.4971 0.9609
6.2097 7.3654 -2.4943 0.9610
6.0554 7.4831 -2.4924 0.9610
5.7405 7.7095 -2.4887 0.9611
5.5281 7.7452 -2.4638 0.9614
5.3092 7.7646 -2.4354 0.9619
5.0940 7.7820 -2.4082 0.9623
4.1695 8.0310 -2.3429 0.9633
3.8422 8.1916 -2.3427 0.9633
3.3399 8.4074 -2.3423 0.9633
3.1697 8.4726 -2.3422 0.9633
2.8256 8.5925 -2.3420 0.9633
2.4770 8.6986 -2.3418 0.9633
2.3012 8.7464 -2.3417 0.9633
2.1244 8.7906 -2.3416 0.9633
1.7685 8.8684 -2.3414 0.9633
1.5894 8.9019 -2.3413 0.9633
1.4097 8.9318 -2.3412 0.9633
1.2295 8.9581 -2.3411 0.9633
1.0487 8.9807 -2.3411 0.9633
0.1403 9.0394 -2.3407 0.9633
-0.4059 9.0308 -2.3406 0.9633
-0.5877 9.0206 -2.3405 0.9633
-0.7693 9.0068 -2.3405 0.9633
-1.1314 8.9682 -2.3404 0.9633
-1.3118 8.9435 -2.3404 0.9633
-1.4917 8.9151 -2.3404 0.9633
-1.6710 8.8832 -2.3404 0.9633
-2.0274 8.8085 -2.3403 0.9633
-6.1116 -6.4042 -2.5061 0.9639
-5.8494 -6.6460 -2.5064 0.9639
-5.4383 -6.9884 -2.5068 0.9639
-5.2967 -7.0969 -2.5070 0.9639
-5.1529 -7.2026 -2.5071 0.9639
-4.8592 -7.4052 -2.5074 0.9638
-4.7093 -7.5020 -2.5075 0.9638
-4.4037 -7.6864 -2.5078 0.9638
-4.2482 -7.7739 -2.5079 0.9638
-4.0910 -7.8583 -2.5080 0.9638
-3.9321 -7.9395 -2.5082 0.9638
-3.6094 -8.0923 -2.5084 0.9638
-3.4458 -8.1637 -2.5085 0.9638
-3.2808 -8.2318 -2.5086 0.9638
-3.1145 -8.2966 -2.5088 0.9638
-2.9468 -8.3581 -2.5089 0.9638
-2.7780 -8.4161 -2.5090 0.9638
-2.4369 -8.5218 -2.5092 0.9638
-2.2649 -8.5695 -2.5093 0.9638
-1.9180 -8.6544 -2.5095 0.9638
-1.7433 -8.6916 -2.5095 0.9638
-1.5679 -8.7253 -2.5096 0.9638
-1.3919 -8.7554 -2.5097 0.9638
-1.2153 -8.7819 -2.5098 0.9638
-1.0382 -8.8049 -2.5099 0.9638
-0.5045 -8.8522 -2.5101 0.9638
-0.3261 -8.8608 -2.5101 0.9638
0.2097 -8.8649 -2.5103 0.9638
0.5667 -8.8496 -2.5104 0.9638
0.7448 -8.8365 -2.5104 0.9638
0.9227 -8.8199 -2.5105 0.9638
1.2772 -8.7758 -2.5105 0.9638
1.4538 -8.7483 -2.5106 0.9638
1.9796 -8.6447 -2.5106 0.9638
2.1533 -8.6032 -2.5106 0.9638
2.3262 -8.5581 -2.5106 0.9638
2.6690 -8.4574 -2.5106 0.9638
2.8389 -8.4020 -2.5106 0.9638
3.0075 -8.3430 -2.5106 0.9638
3.5059 -8.1460 -2.5106 0.9638
3.8311 -7.9981 -2.5106 0.9638
3.9914 -7.9192 -2.5105 0.9638
4.3070 -7.7518 -2.5105 0.9638
4.4623 -7.6633 -2.5104 0.9638
4.7671 -7.4771 -2.5103 0.9638
4.9167 -7.3794 -2.5103 0.9638
5.0642 -7.2787 -2.5102 0.9638
5.2097 -7.1751 -2.5102 0.9638
5.9041 -6.6140 -2.5098 0.9638
6.0359 -6.4935 -2.5098 0.9638
6.1653 -6.3704 -2.5097 0.9638
6.4165 -6.1165 -2.5095 0.9638
6.5381 -5.9857 -2.5094 0.9638
6.6572 -5.8526 -2.5093 0.9638
6.7734 -5.7171 -2.5092 0.9638
6.8870 -5.5793 -2.5091 0.9638
6.9977 -5.4392 -2.5090 0.9638
7.4115 -4.8575 -2.5086 0.9638
7.5075 -4.7069 -2.5085 0.9638
7.7770 -4.2443 -2.5081 0.9638
7.8605 -4.0865 -2.5080 0.9638
7.9408 -3.9272 -2.5079 0.9638
8.0917 -3.6038 -2.5076 0.9638
8.1622 -3.4398 -2.5075 0.9638
8.3537 -2.9401 -2.5071 0.9639
8.4107 -2.7710 -2.5069 0.9639
8.4644 -2.6009 -2.5068 0.9639
8.5612 -2.2576 -2.5065 0.9639
8.6044 -2.0845 -2.5063 0.9639
8.6803 -1.7360 -2.5060 0.9639
8.7677 -1.2083 -2.5055 0.9639
8.7897 -1.0314 -2.5054 0.9639
8.8229 -0.6764 -2.5050 0.9639
8.8418 -0.3204 -2.5047 0.9639
8.8459 -0.1423 -2.5045 0.9639
8.8464 0.0360 -2.5044 0.9639
8.8432 0.2142 -2.5042 0.9639
8.8262 0.5701 -2.5038 0.9639
8.8123 0.7477 -2.5037 0.9639
8.7738 1.1019 -2.5033 0.9639
8.7211 1.4542 -2.5030 0.9639
8.6542 1.8041 -2.5026 0.9639
8.6155 1.9779 -2.5024 0.9639
8.5733 2.1509 -2.5023 0.9639
8.4785 2.4941 -2.5019 0.9639
8.2479 3.1676 -2.5012 0.9639
8.0398 3.6592 -2.5007 0.9639
7.9639 3.8202 -2.5005 0.9639
7.8847 3.9795 -2.5003 0.9639
7.3443 4.8992 -2.4993 0.9640
7.1400 5.1903 -2.4989 0.9640
6.9242 5.4730 -2.4986 0.9640
6.6973 5.7467 -2.4983 0.9640
6.4595 6.0111 -2.4979 0.9640
6.3367 6.1396 -2.4978 0.9640
6.2114 6.2656 -2.4976 0.9640
6.0835 6.3890 -2.4975 0.9640
5.6855 6.7436 -2.4970 0.9640
5.2668 7.0734 -2.4966 0.9640
5.1230 7.1776 -2.4964 0.9640
4.9771 7.2790 -2.4963 0.9640
4.3657 7.6398 -2.4910 0.9641
3.6785 7.8425 -2.4523 0.9646
2.5970 7.8971 -2.3534 0.9660
2.4261 7.9111 -2.3425 0.9662
2.2661 7.9580 -2.3424 0.9662
1.9436 8.0422 -2.3422 0.9662
1.1248 8.1955 -2.3418 0.9662
0.9595 8.2163 -2.3418 0.9662
0.7937 8.2337 -2.3417 0.9662
0.4614 8.2586 -2.3416 0.9662
-0.0382 8.2708 -2.3414 0.9662
-1.0351 8.2050 -2.3412 0.9662
-1.3648 8.1565 -2.3411 0.9662
-1.5288 8.1272 -2.3411 0.9662
-1.6922 8.0948 -2.3411 0.9662
-1.8549 8.0590 -2.3411 0.9662
-2.0168 8.0199 -2.3411 0.9662
-5.6243 -5.8936 -2.5057 0.9665
-5.5047 -6.0060 -2.5059 0.9665
-5.1328 -6.3286 -2.5063 0.9665
-5.0045 -6.4310 -2.5064 0.9665
-4.8742 -6.5309 -2.5065 0.9665
-4.6077 -6.7226 -2.5068 0.9665
-4.3336 -6.9035 -2.5071 0.9665
-4.1939 -6.9897 -2.5072 0.9665
-3.6040 -7.2771 -2.4977 0.9666
-3.3214 -7.4465 -2.5079 0.9665
-3.1708 -7.5122 -2.5080 0.9665
-3.0190 -7.5749 -2.5081 0.9665
-2.8659 -7.6345 -2.5082 0.9664
-2.5563 -7.7443 -2.5084 0.9664
-2.2424 -7.8416 -2.5086 0.9664
-1.9249 -7.9261 -2.5088 0.9664
-1.7649 -7.9635 -2.5088 0.9664
-1.6041 -7.9977 -2.5089 0.9664
-0.7919 -8.1196 -2.5093 0.9664
-0.6282 -8.1342 -2.5093 0.9664
-0.4642 -8.1454 -2.5094 0.9664
1.0123 -8.0968 -2.5098 0.9664
1.1752 -8.0749 -2.5098 0.9664
1.3377 -8.0497 -2.5099 0.9664
1.8215 -7.9543 -2.5099 0.9664
2.2986 -7.8299 -2.5099 0.9664
2.4559 -7.7820 -2.5099 0.9664
2.7673 -7.6767 -2.5099 0.9664
2.9214 -7.6194 -2.5099 0.9664
3.3762 -7.4289 -2.5099 0.9664
3.5251 -7.3593 -2.5098 0.9664
3.6726 -7.2867 -2.5098 0.9664
3.8186 -7.2112 -2.5098 0.9664
3.9631 -7.1327 -2.5098 0.9664
4.3865 -6.8800 -2.5096 0.9664
4.5241 -6.7901 -2.5096 0.9664
4.6598 -6.6975 -2.5096 0.9664
4.7937 -6.6021 -2.5095 0.9664
4.9256 -6.5041 -2.5094 0.9664
5.0555 -6.4034 -2.5094 0.9664
5.1834 -6.3001 -2.5093 0.9664
5.3091 -6.1942 -2.5093 0.9664
5.4327 -6.0859 -2.5092 0.9664
5.5540 -5.9750 -2.5091 0.9664
5.9042 -5.6281 -2.5089 0.9664
6.0162 -5.5079 -2.5088 0.9664
6.2327 -5.2607 -2.5086 0.9664
6.5384 -4.8741 -2.5084 0.9664
6.8200 -4.4698 -2.5081 0.9665
6.9939 -4.1911 -2.5079 0.9665
7.0766 -4.0492 -2.5077 0.9665
7.2333 -3.7605 -2.5075 0.9665
7.3782 -3.4657 -2.5073 0.9665
7.4462 -3.3162 -2.5072 0.9665
7.5111 -3.1654 -2.5070 0.9665
7.5729 -3.0133 -2.5069 0.9665
7.6874 -2.7055 -2.5066 0.9665
7.8355 -2.2359 -2.5062 0.9665
7.9549 -1.7583 -2.5058 0.9665
8.0183 -1.4363 -2.5055 0.9665
8.0452 -1.2744 -2.5054 0.9665
8.0890 -0.9492 -2.5051 0.9665
8.1060 -0.7860 -2.5049 0.9665
8.1197 -0.6225 -2.5048 0.9665
8.1372 -0.2949 -2.5045 0.9665
8.1325 0.3610 -2.5038 0.9665
8.1103 0.6882 -2.5035 0.9665
8.0943 0.8513 -2.5034 0.9665
8.0750 1.0142 -2.5032 0.9665
7.9974 1.4997 -2.5027 0.9665
7.8487 2.1381 -2.5021 0.9665
7.8035 2.2956 -2.5019 0.9665
7.7037 2.6077 -2.5016 0.9665
7.6491 2.7622 -2.5014 0.9665
7.5914 2.9155 -2.5012 0.9665
7.5306 3.0676 -2.5011 0.9665
7.4668 3.2185 -2.5009 0.9665
7.4000 3.3681 -2.5007 0.9665
6.9372 4.2341 -2.4998 0.9666
6.7602 4.5096 -2.4995 0.9666
6.6675 4.6445 -2.4993 0.9666
6.4742 4.9087 -2.4990 0.9666
6.3736 5.0378 -2.4988 0.9666
6.2705 5.1649 -2.4987 0.9666
6.1648 5.2898 -2.4985 0.9666
6.0566 5.4126 -2.4984 0.9666
5.6000 5.8812 -2.4978 0.9666
5.4800 5.9925 -2.4977 0.9666
5.2336 6.2076 -2.4974 0.9666
4.7160 6.6074 -2.4968 0.9666
4.5817 6.7007 -2.4967 0.9666
4.4455 6.7912 -2.4966 0.9666
3.8837 7.1257 -2.4961 0.9666
3.5932 7.2757 -2.4959 0.9666
2.6850 7.6424 -2.4915 0.9667
2.5295 7.6922 -2.4906 0.9667
2.2162 7.7828 -2.4890 0.9667
2.0584 7.8235 -2.4882 0.9667
1.8998 7.8613 -2.4876 0.9667
1.5738 7.8920 -2.4752 0.9669
1.4099 7.8963 -2.4671 0.9670
1.0846 7.9023 -2.4534 0.9672
0.9229 7.9031 -2.4473 0.9672
0.4417 7.9044 -2.4350 0.9674
0.2821 7.9045 -2.4328 0.9674
0.1227 7.9045 -2.4315 0.9675
-0.3552 7.9029 -2.4332 0.9674
-0.5146 7.8993 -2.4348 0.9674
-0.6744 7.8955 -2.4373 0.9674
-0.8345 7.8915 -2.4408 0.9673
-0.9950 7.8874 -2.4452 0.9673
-1.1563 7.8830 -2.4506 0.9672
-1.3182 7.8785 -2.4569 0.9671
-1.4811 7.8737 -2.4643 0.9670
-1.6449 7.8688 -2.4726 0.9669
-1.8099 7.8637 -2.4819 0.9668
-1.9715 7.8395 -2.4863 0.9667
-2.1294 7.8000 -2.4869 0.9667
-5.2036 -5.4527 -2.5054 0.9687
-4.9803 -5.6585 -2.5057 0.9687
-4.8655 -5.7579 -2.5058 0.9687
-4.6301 -5.9499 -2.5061 0.9687
-4.5095 -6.0422 -2.5062 0.9687
-4.3871 -6.1322 -2.5063 0.9687
-4.2629 -6.2196 -2.5064 0.9687
-4.1369 -6.3045 -2.5065 0.9687
-4.0093 -6.3868 -2.5067 0.9687
-3.8800 -6.4666 -2.5068 0.9687
-3.6167 -6.6182 -2.5070 0.9687
-3.3475 -6.7591 -2.5072 0.9687
-3.0727 -6.8890 -2.5074 0.9687
-2.9334 -6.9498 -2.5075 0.9687
-2.6513 -7.0629 -2.5077 0.9687
-2.0745 -7.2544 -2.5081 0.9687
-1.9280 -7.2950 -2.5082 0.9687
-1.7807 -7.3326 -2.5082 0.9687
-1.6327 -7.3672 -2.5083 0.9687
-1.3347 -7.4274 -2.5085 0.9687
-0.8837 -7.4951 -2.5087 0.9687
-0.7326 -7.5115 -2.5087 0.9687
-0.5811 -7.5249 -2.5088 0.9687
-0.4294 -7.5353 -2.5088 0.9687
-0.2776 -7.5425 -2.5089 0.9687
-0.1256 -7.5468 -2.5089 0.9687
0.0265 -7.5479 -2.5090 0.9687
0.1785 -7.5460 -2.5090 0.9687
0.3305 -7.5410 -2.5091 0.9687
0.7854 -7.5075 -2.5092 0.9687
0.9365 -7.4903 -2.5092 0.9687
1.5364 -7.3908 -2.5093 0.9687
1.8329 -7.3230 -2.5093 0.9687
1.9800 -7.2846 -2.5093 0.9687
2.4164 -7.1517 -2.5093 0.9687
2.5600 -7.1016 -2.5093 0.9687
2.7025 -7.0486 -2.5093 0.9687
2.8440 -6.9927 -2.5093 0.9687
3.2611 -6.8080 -2.5092 0.9687
3.3975 -6.7408 -2.5092 0.9687
3.5326 -6.6710 -2.5092 0.9687
3.6662 -6.5984 -2.5092 0.9687
3.7983 -6.5231 -2.5091 0.9687
4.0579 -6.3646 -2.5091 0.9687
4.1852 -6.2815 -2.5090 0.9687
4.3108 -6.1958 -2.5090 0.9687
4.5567 -6.0169 -2.5089 0.9687
4.9115 -5.7303 -2.5087 0.9687
5.2482 -5.4228 -2.5085 0.9687
5.3562 -5.3158 -2.5084 0.9687
5.5657 -5.0954 -2.5083 0.9687
5.7660 -4.8668 -2.5081 0.9687
6.1382 -4.3863 -2.5078 0.9687
6.2251 -4.2616 -2.5077 0.9687
6.3094 -4.1352 -2.5076 0.9687
6.3912 -4.0071 -2.5075 0.9687
6.7603 -3.3434 -2.5070 0.9687
6.8260 -3.2064 -2.5069 0.9687
7.0063 -2.7879 -2.5065 0.9687
7.2065 -2.2144 -2.5060 0.9687
7.2891 -1.9221 -2.5058 0.9687
7.3260 -1.7748 -2.5056 0.9687
7.3599 -1.6268 -2.5055 0.9687
7.4186 -1.3288 -2.5052 0.9687
7.4435 -1.1791 -2.5051 0.9687
7.5126 -0.5760 -2.5045 0.9687
7.5288 -0.2729 -2.5043 0.9687
7.5328 0.0306 -2.5040 0.9687
7.5302 0.1823 -2.5038 0.9687
7.5246 0.3340 -2.5037 0.9687
7.4894 0.7877 -2.5032 0.9688
7.2624 1.9784 -2.5020 0.9688
7.0245 2.6978 -2.5013 0.9688
6.9683 2.8386 -2.5011 0.9688
6.9093 2.9782 -2.5010 0.9688
6.8475 3.1166 -2.5008 0.9688
6.7156 3.3895 -2.5005 0.9688
6.6456 3.5238 -2.5004 0.9688
6.4975 3.7882 -2.5001 0.9688
6.3388 4.0464 -2.4998 0.9688
6.0818 4.4211 -2.4993 0.9688
5.9912 4.5425 -2.4992 0.9688
5.8027 4.7796 -2.4989 0.9688
5.7049 4.8952 -2.4988 0.9688
5.3979 5.2300 -2.4984 0.9688
5.2912 5.3374 -2.4982 0.9688
5.0714 5.5456 -2.4980 0.9688
4.6076 5.9346 -2.4974 0.9688
4.3644 6.1148 -2.4972 0.9688
4.2401 6.2012 -2.4971 0.9688
3.9865 6.3663 -2.4969 0.9688
3.8573 6.4450 -2.4967 0.9688
3.7265 6.5211 -2.4966 0.9688
3.4605 6.6653 -2.4964 0.9688
3.1889 6.7988 -2.4962 0.9688
3.0512 6.8613 -2.4961 0.9688
2.9123 6.9212 -2.4960 0.9688
2.7722 6.9781 -2.4959 0.9688
2.6309 7.0323 -2.4958 0.9688
2.4886 7.0836 -2.4957 0.9688
2.0560 7.2202 -2.4955 0.9689
1.7634 7.2967 -2.4953 0.9689
1.4680 7.3614 -2.4951 0.9689
1.3194 7.3893 -2.4951 0.9689
-0.3368 7.4942 -2.4936 0.9689
-0.4877 7.4860 -2.4937 0.9689
-0.6384 7.4750 -2.4938 0.9689
-1.2383 7.4009 -2.4943 0.9689
-1.3872 7.3744 -2.4943 0.9689
-1.5354 7.3449 -2.4943 0.9689
-4.5221 -5.3516 -2.5055 0.9707
-4.4136 -5.4418 -2.5056 0.9707
-4.1912 -5.6157 -2.5059 0.9707
-4.0774 -5.6993 -2.5060 0.9707
-3.9620 -5.7805 -2.5061 0.9707
-3.7262 -5.9359 -2.5063 0.9707
-3.6060 -6.0100 -2.5064 0.9707
-3.3613 -6.1509 -2.5066 0.9707
-3.2369 -6.2177 -2.5067 0.9707
-2.9840 -6.3435 -2.5069 0.9707
-2.4641 -6.5640 -2.5073 0.9707
-2.1978 -6.6584 -2.5075 0.9707
-2.0633 -6.7016 -2.5075 0.9707
-1.9280 -6.7420 -2.5076 0.9707
-1.5174 -6.8467 -2.5078 0.9706
-1.3792 -6.8761 -2.5079 0.9706
-0.8213 -6.9655 -2.5082 0.9706
-0.5401 -6.9932 -2.5083 0.9706
-0.1167 -7.0135 -2.5084 0.9706
0.0246 -7.0146 -2.5085 0.9706
0.3071 -7.0081 -2.5085 0.9706
0.4483 -7.0006 -2.5086 0.9706
0.5892 -6.9902 -2.5086 0.9706
1.0104 -6.9421 -2.5087 0.9706
1.1500 -6.9204 -2.5087 0.9706
1.7034 -6.8055 -2.5088 0.9706
2.1113 -6.6902 -2.5088 0.9706
2.2457 -6.6463 -2.5088 0.9706
2.5115 -6.5504 -2.5088 0.9706
2.7733 -6.4439 -2.5087 0.9706
2.9026 -6.3867 -2.5087 0.9706
3.4071 -6.1321 -2.5086 0.9706
3.5299 -6.0621 -2.5086 0.9706
3.7711 -5.9149 -2.5085 0.9706
4.0062 -5.7580 -2.5085 0.9706
4.2347 -5.5917 -2.5084 0.9706
4.5645 -5.3255 -2.5082 0.9706
4.6707 -5.2323 -2.5082 0.9706
4.9778 -4.9403 -2.5080 0.9706
5.1725 -4.7355 -2.5078 0.9706
5.3587 -4.5230 -2.5077 0.9707
5.5362 -4.3032 -2.5075 0.9707
5.9398 -3.7241 -2.5071 0.9707
6.0846 -3.4815 -2.5069 0.9707
6.2194 -3.2334 -2.5067 0.9707
6.4584 -2.7218 -2.5063 0.9707
6.5116 -2.5910 -2.5062 0.9707
6.6101 -2.3264 -2.5060 0.9707
6.6553 -2.1927 -2.5058 0.9707
6.6978 -2.0581 -2.5057 0.9707
6.7376 -1.9226 -2.5056 0.9707
6.8090 -1.6496 -2.5054 0.9707
6.8405 -1.5120 -2.5052 0.9707
6.8692 -1.3738 -2.5051 0.9707
6.8951 -1.2351 -2.5050 0.9707
6.9183 -1.0959 -2.5049 0.9707
6.9561 -0.8162 -2.5046 0.9707
6.9708 -0.6759 -2.5045 0.9707
6.9916 -0.3946 -2.5042 0.9707
7.0011 -0.1126 -2.5040 0.9707
7.0015 0.0285 -2.5038 0.9707
6.9939 0.3104 -2.5035 0.9707
6.9750 0.5918 -2.5033 0.9707
6.9447 0.8722 -2.5030 0.9707
6.9254 1.0119 -2.5029 0.9707
6.9032 1.1511 -2.5027 0.9707
6.8782 1.2899 -2.5026 0.9707
6.8505 1.4281 -2.5024 0.9707
6.8199 1.5657 -2.5023 0.9707
6.7505 1.8389 -2.5020 0.9707
6.5791 2.3758 -2.5014 0.9707
6.5296 2.5077 -2.5013 0.9707
6.4774 2.6386 -2.5012 0.9707
6.2426 3.1507 -2.5006 0.9707
6.1775 3.2756 -2.5005 0.9707
6.1099 3.3992 -2.5003 0.9707
6.0399 3.5214 -2.5002 0.9707
5.9674 3.6422 -2.5001 0.9707
5.8925 3.7614 -2.4999 0.9707
5.8152 3.8792 -2.4998 0.9707
5.7355 3.9953 -2.4996 0.9707
5.5694 4.2226 -2.4994 0.9707
5.4829 4.3337 -2.4992 0.9707
5.3942 4.4431 -2.4991 0.9707
4.9188 4.9617 -2.4985 0.9708
4.8176 5.0595 -2.4983 0.9708
4.6095 5.2490 -2.4981 0.9708
4.5026 5.3405 -2.4980 0.9708
4.3939 5.4299 -2.4979 0.9708
4.2834 5.5170 -2.4978 0.9708
4.1712 5.6019 -2.4976 0.9708
3.9418 5.7649 -2.4974 0.9708
3.8247 5.8429 -2.4973 0.9708
3.5860 5.9917 -2.4971 0.9708
3.0915 6.2599 -2.4967 0.9708
2.9647 6.3206 -2.4966 0.9708
2.8366 6.3788 -2.4965 0.9708
2.7075 6.4344 -2.4964 0.9708
2.4459 6.5378 -2.4962 0.9708
2.3136 6.5855 -2.4961 0.9708
2.1804 6.6306 -2.4961 0.9708
1.9115 6.7126 -2.4959 0.9708
1.6394 6.7837 -2.4957 0.9708
1.2266 6.8698 -2.4955 0.9708
1.0879 6.8929 -2.4955 0.9708
0.9488 6.9133 -2.4954 0.9708
0.8094 6.9308 -2.4954 0.9708
-0.1728 6.9749 -2.4950 0.9708
-0.8732 6.9217 -2.4949 0.9708
-1.0125 6.9027 -2.4948 0.9708
-1.2897 6.8562 -2.4948 0.9708
-1.4275 6.8287 -2.4948 0.9708
-1.5648 6.7986 -2.4948 0.9708
-1.7014 6.7656 -2.4948 0.9708
-4.5127 -4.7288 -2.5049 0.9724
-4.4168 -4.8190 -2.5050 0.9724
-4.2195 -4.9934 -2.5053 0.9724
-4.1182 -5.0776 -2.5054 0.9724
-4.0153 -5.1598 -2.5055 0.9724
-3.9107 -5.2398 -2.5056 0.9724
-3.8045 -5.3178 -2.5057 0.9724
-3.4768 -5.5385 -2.5060 0.9724
-3.2511 -5.6745 -2.5062 0.9724
-2.7842 -5.9187 -2.5066 0.9724
-2.5437 -6.0265 -2.5068 0.9724
-2.0506 -6.2125 -2.5071 0.9724
-1.6718 -6.3255 -2.5073 0.9724
-1.4157 -6.3881 -2.5074 0.9724
-1.1573 -6.4403 -2.5076 0.9724
-1.0274 -6.4624 -2.5076 0.9724
-0.8970 -6.4820 -2.5077 0.9724
-0.7663 -6.4989 -2.5077 0.9724
-0.2407 -6.5400 -2.5079 0.9724
-0.1089 -6.5436 -2.5080 0.9724
0.1548 -6.5429 -2.5081 0.9724
0.2866 -6.5385 -2.5081 0.9724
0.4182 -6.5315 -2.5081 0.9724
0.5497 -6.5218 -2.5082 0.9724
0.8120 -6.4946 -2.5082 0.9724
0.9427 -6.4769 -2.5082 0.9724
1.0729 -6.4567 -2.5083 0.9724
1.2028 -6.4338 -2.5083 0.9724
1.4610 -6.3802 -2.5083 0.9724
1.7168 -6.3162 -2.5083 0.9724
1.8437 -6.2803 -2.5083 0.9724
1.9699 -6.2419 -2.5083 0.9724
2.3432 -6.1115 -2.5083 0.9724
2.4659 -6.0631 -2.5083 0.9724
2.7081 -5.9587 -2.5083 0.9724
3.0630 -5.7842 -2.5082 0.9724
3.4066 -5.5884 -2.5081 0.9724
3.6289 -5.4465 -2.5080 0.9724
3.7378 -5.3722 -2.5080 0.9724
3.8452 -5.2957 -2.5080 0.9724
4.3578 -4.8818 -2.5077 0.9724
4.4552 -4.7929 -2.5077 0.9724
4.7362 -4.5147 -2.5075 0.9724
4.9998 -4.2201 -2.5073 0.9724
5.0836 -4.1184 -2.5072 0.9724
5.2451 -3.9100 -2.5071 0.9724
5.3226 -3.8035 -2.5070 0.9724
5.3980 -3.6954 -2.5069 0.9724
5.4712 -3.5857 -2.5068 0.9724
5.6108 -3.3622 -2.5066 0.9724
5.6772 -3.2484 -2.5066 0.9724
5.8030 -3.0169 -2.5064 0.9724
5.8623 -2.8992 -2.5063 0.9724
6.0757 -2.4176 -2.5059 0.9724
6.2099 -2.0459 -2.5056 0.9724
6.2495 -1.9203 -2.5055 0.9724
6.2867 -1.7940 -2.5053 0.9724
6.3213 -1.6669 -2.5052 0.9724
6.4744 -0.8923 -2.5045 0.9724
6.4907 -0.7616 -2.5044 0.9724
6.5328 -0.1051 -2.5038 0.9724
6.5332 0.0266 -2.5037 0.9724
6.5187 0.4211 -2.5033 0.9724
6.4623 0.9442 -2.5028 0.9724
6.4417 1.0742 -2.5026 0.9724
6.4184 1.2036 -2.5025 0.9724
6.3640 1.4610 -2.5023 0.9724
6.3330 1.5888 -2.5021 0.9724
6.1395 2.2171 -2.5015 0.9724
5.9934 2.5834 -2.5011 0.9724
5.9399 2.7035 -2.5009 0.9724
5.7018 3.1721 -2.5004 0.9724
5.4989 3.5102 -2.5000 0.9724
5.2761 3.8354 -2.4997 0.9724
5.1168 4.0444 -2.4994 0.9724
4.9493 4.2468 -2.4992 0.9725
4.8625 4.3454 -2.4990 0.9725
4.7737 4.4423 -2.4989 0.9725
4.6830 4.5373 -2.4988 0.9725
4.3998 4.8112 -2.4985 0.9725
4.3018 4.8987 -2.4983 0.9725
4.1006 5.0675 -2.4981 0.9725
3.9976 5.1489 -2.4980 0.9725
3.8929 5.2281 -2.4979 0.9725
3.7866 5.3053 -2.4978 0.9725
3.6788 5.3803 -2.4977 0.9725
3.4588 5.5236 -2.4975 0.9725
3.1185 5.7217 -2.4972 0.9725
3.0025 5.7832 -2.4971 0.9725
2.6474 5.9533 -2.4968 0.9725
2.2828 6.1018 -2.4966 0.9725
2.1594 6.1463 -2.4965 0.9725
1.6574 6.2995 -2.4962 0.9725
1.4022 6.3608 -2.4961 0.9725
1.2738 6.3875 -2.4960 0.9725
1.1448 6.4117 -2.4960 0.9725
1.0154 6.4334 -2.4959 0.9725
0.3633 6.5022 -2.4956 0.9725
0.2322 6.5081 -2.4956 0.9725
0.1011 6.5113 -2.4956 0.9725
-0.0301 6.5119 -2.4955 0.9725
-0.1613 6.5099 -2.4955 0.9725
-0.2924 6.5052 -2.4954 0.9725
-1.0746 6.4221 -2.4953 0.9725
-1.2037 6.3991 -2.4953 0.9725
-1.3323 6.3736 -2.4953 0.9725
-1.4605 6.3454 -2.4952 0.9725
-1.5880 6.3146 -2.4952 0.9725
-4.2251 -4.4274 -2.5047 0.9739
-4.1352 -4.5118 -2.5048 0.9739
-3.8556 -4.7539 -2.5051 0.9739
-3.7593 -4.8308 -2.5052 0.9739
-3.6613 -4.9058 -2.5054 0.9739
-3.5619 -4.9787 -2.5055 0.9739
-3.4610 -5.0497 -2.5055 0.9739
-3.3587 -5.1185 -2.5056 0.9739
-3.1501 -5.2501 -2.5058 0.9739
-2.9362 -5.3731 -2.5060 0.9739
-2.8275 -5.4313 -2.5061 0.9739
-2.6066 -5.5412 -2.5063 0.9739
-2.4946 -5.5928 -2.5064 0.9739
-2.3815 -5.6421 -2.5064 0.9739
-2.2674 -5.6891 -2.5065 0.9739
-2.1524 -5.7338 -2.5066 0.9739
-2.0365 -5.7761 -2.5067 0.9739
-1.9198 -5.8162 -2.5067 0.9739
-1.8023 -5.8538 -2.5068 0.9739
-1.5651 -5.9220 -2.5069 0.9739
-1.4456 -5.9525 -2.5070 0.9739
-1.3254 -5.9805 -2.5071 0.9739
-1.0835 -6.0293 -2.5072 0.9739
-0.9618 -6.0501 -2.5073 0.9739
-0.4717 -6.1084 -2.5075 0.9739
-0.3486 -6.1167 -2.5075 0.9739
-0.2253 -6.1226 -2.5075 0.9739
-0.1019 -6.1260 -2.5076 0.9739
0.0215 -6.1269 -2.5076 0.9739
0.1449 -6.1253 -2.5077 0.9739
0.2683 -6.1213 -2.5077 0.9739
0.5146 -6.1056 -2.5077 0.9739
0.7602 -6.0801 -2.5078 0.9739
1.0045 -6.0446 -2.5078 0.9739
1.1260 -6.0232 -2.5079 0.9739
1.4878 -5.9443 -2.5079 0.9739
1.6073 -5.9131 -2.5079 0.9739
1.7261 -5.8795 -2.5079 0.9739
1.8441 -5.8436 -2.5079 0.9739
2.0780 -5.7645 -2.5079 0.9739
2.1937 -5.7215 -2.5079 0.9739
2.6471 -5.5262 -2.5078 0.9739
3.0832 -5.2950 -2.5077 0.9739
3.1892 -5.2318 -2.5077 0.9739
3.3973 -5.0989 -2.5076 0.9739
3.6989 -4.8842 -2.5075 0.9739
3.7965 -4.8086 -2.5075 0.9739
3.9869 -4.6516 -2.5074 0.9739
4.0797 -4.5703 -2.5073 0.9739
4.5181 -4.1364 -2.5071 0.9739
4.6808 -3.9508 -2.5069 0.9739
4.9105 -3.6606 -2.5067 0.9739
4.9831 -3.5608 -2.5066 0.9739
5.0537 -3.4596 -2.5066 0.9739
5.1222 -3.3570 -2.5065 0.9739
5.2529 -3.1478 -2.5063 0.9739
5.3151 -3.0412 -2.5063 0.9739
5.4329 -2.8245 -2.5061 0.9739
5.5929 -2.4909 -2.5058 0.9739
5.6418 -2.3776 -2.5057 0.9739
5.7744 -2.0323 -2.5054 0.9739
5.8511 -1.7979 -2.5052 0.9739
5.9483 -1.4410 -2.5049 0.9739
6.0237 -1.0790 -2.5046 0.9739
6.0439 -0.9574 -2.5045 0.9739
6.0617 -0.8354 -2.5044 0.9739
6.0770 -0.7131 -2.5043 0.9739
6.0899 -0.5905 -2.5041 0.9739
6.1136 -0.2216 -2.5038 0.9739
6.1166 -0.0984 -2.5037 0.9739
6.1150 0.1481 -2.5034 0.9739
6.1035 0.3942 -2.5032 0.9739
6.0940 0.5171 -2.5031 0.9739
6.0314 1.0057 -2.5026 0.9739
6.0096 1.1270 -2.5025 0.9739
5.9297 1.4877 -2.5021 0.9739
5.8644 1.7252 -2.5019 0.9739
5.8282 1.8429 -2.5017 0.9739
5.7896 1.9598 -2.5016 0.9739
5.7487 2.0759 -2.5015 0.9739
5.6598 2.3056 -2.5012 0.9739
5.6119 2.4190 -2.5011 0.9739
5.5618 2.5314 -2.5010 0.9739
5.5094 2.6428 -2.5009 0.9739
5.4548 2.7531 -2.5007 0.9739
5.3980 2.8623 -2.5006 0.9739
5.3390 2.9703 -2.5005 0.9739
5.2778 3.0771 -2.5004 0.9739
5.1491 3.2869 -2.5001 0.9739
5.0816 3.3898 -2.5000 0.9739
5.0120 3.4913 -2.4999 0.9739
4.9404 3.5914 -2.4998 0.9739
4.8669 3.6900 -2.4997 0.9739
4.7913 3.7871 -2.4996 0.9739
4.6345 3.9767 -2.4993 0.9740
4.5532 4.0691 -2.4992 0.9740
4.2986 4.3361 -2.4989 0.9740
4.2102 4.4216 -2.4988 0.9740
4.1201 4.5053 -2.4987 0.9740
4.0283 4.5872 -2.4986 0.9740
3.9349 4.6672 -2.4985 0.9740
3.8399 4.7453 -2.4984 0.9740
3.7434 4.8215 -2.4983 0.9740
3.6454 4.8957 -2.4982 0.9740
3.3426 5.1064 -2.4979 0.9740
3.2390 5.1725 -2.4978 0.9740
3.1340 5.2365 -2.4977 0.9740
2.9203 5.3581 -2.4975 0.9740
2.8117 5.4156 -2.4974 0.9740
2.1377 5.7141 -2.4969 0.9740
2.0221 5.7558 -2.4968 0.9740
1.9057 5.7952 -2.4968 0.9740
1.5521 5.8992 -2.4966 0.9740
0.7074 6.0578 -2.4962 0.9740
0.5852 6.0707 -2.4961 0.9740
0.3402 6.0892 -2.4960 0.9740
0.2175 6.0947 -2.4960 0.9740
-0.0282 6.0983 -2.4959 0.9740
-0.2738 6.0920 -2.4958 0.9740
-0.3965 6.0852 -2.4958 0.9740
-0.6412 6.0642 -2.4958 0.9740
-0.7632 6.0500 -2.4957 0.9740
-0.8850 6.0334 -2.4957 0.9740
-1.0063 6.0142 -2.4957 0.9740
-1.3677 5.9424 -2.4957 0.9740
-3.9675 -4.1574 -2.5045 0.9752
-3.7971 -4.3142 -2.5047 0.9752
-3.7096 -4.3900 -2.5048 0.9752
-3.4381 -4.6066 -2.5051 0.9752
-3.2500 -4.7417 -2.5053 0.9752
-3.1539 -4.8064 -2.5054 0.9752
-2.9579 -4.9298 -2.5056 0.9752
-2.8581 -4.9886 -2.5057 0.9752
-2.7571 -5.0454 -2.5058 0.9752
-2.6550 -5.1000 -2.5058 0.9752
-2.5518 -5.1526 -2.5059 0.9752
-2.3424 -5.2516 -2.5061 0.9752
-1.8027 -5.4613 -2.5064 0.9752
-1.6923 -5.4967 -2.5065 0.9752
-1.5813 -5.5298 -2.5066 0.9752
-0.9031 -5.6809 -2.5069 0.9752
-0.7885 -5.6980 -2.5070 0.9752
-0.6736 -5.7129 -2.5070 0.9752
-0.5584 -5.7254 -2.5071 0.9752
0.0202 -5.7530 -2.5073 0.9752
0.4832 -5.7329 -2.5074 0.9752
0.5986 -5.7221 -2.5074 0.9752
0.7138 -5.7089 -2.5074 0.9752
0.8286 -5.6934 -2.5074 0.9752
0.9432 -5.6756 -2.5075 0.9752
1.1710 -5.6331 -2.5075 0.9752
1.2843 -5.6084 -2.5075 0.9752
1.7316 -5.4868 -2.5075 0.9752
1.8417 -5.4508 -2.5075 0.9752
1.9512 -5.4127 -2.5075 0.9752
2.0598 -5.3722 -2.5075 0.9752
2.2745 -5.2849 -2.5075 0.9752
2.3805 -5.2379 -2.5075 0.9752
3.0929 -4.8510 -2.5073 0.9752
3.2857 -4.7224 -2.5073 0.9752
3.3801 -4.6552 -2.5072 0.9752
3.7436 -4.3677 -2.5071 0.9752
3.8307 -4.2913 -2.5070 0.9752
4.0003 -4.1334 -2.5069 0.9752
4.0827 -4.0519 -2.5068 0.9752
4.1634 -3.9687 -2.5068 0.9752
4.2424 -3.8840 -2.5067 0.9752
4.3197 -3.7976 -2.5067 0.9752
4.5408 -3.5295 -2.5065 0.9752
4.6109 -3.4373 -2.5064 0.9752
4.9324 -2.9558 -2.5061 0.9752
5.0472 -2.7545 -2.5059 0.9752
5.1537 -2.5488 -2.5057 0.9752
5.3414 -2.1254 -2.5054 0.9752
5.3829 -2.0173 -2.5053 0.9752
5.4223 -1.9084 -2.5052 0.9752
5.4943 -1.6883 -2.5050 0.9752
5.5270 -1.5772 -2.5049 0.9752
5.5856 -1.3532 -2.5047 0.9752
5.6565 -1.0132 -2.5044 0.9752
5.6922 -0.7845 -2.5042 0.9752
5.7066 -0.6696 -2.5041 0.9752
5.7285 -0.4392 -2.5039 0.9752
5.7359 -0.3237 -2.5038 0.9752
5.7438 -0.0924 -2.5036 0.9752
5.7442 0.0234 -2.5034 0.9752
5.7423 0.1391 -2.5033 0.9752
5.7381 0.2547 -2.5032 0.9752
5.7316 0.3702 -2.5031 0.9753
5.7115 0.6007 -2.5029 0.9753
5.6979 0.7156 -2.5028 0.9753
5.6821 0.8302 -2.5027 0.9753
5.6640 0.9445 -2.5025 0.9753
5.6435 1.0583 -2.5024 0.9753
5.5686 1.3971 -2.5021 0.9753
5.5390 1.5089 -2.5020 0.9753
5.4370 1.8404 -2.5016 0.9753
5.3986 1.9495 -2.5015 0.9753
5.2232 2.3773 -2.5010 0.9753
5.1740 2.4819 -2.5009 0.9753
5.1227 2.5855 -2.5008 0.9753
5.0694 2.6881 -2.5007 0.9753
5.0140 2.7895 -2.5006 0.9753
4.9565 2.8898 -2.5005 0.9753
4.3525 3.7347 -2.4995 0.9753
4.1184 3.9903 -2.4992 0.9753
3.9540 4.1526 -2.4990 0.9753
3.7833 4.3082 -2.4988 0.9753
3.6956 4.3833 -2.4987 0.9753
3.5157 4.5283 -2.4985 0.9753
3.3302 4.6659 -2.4983 0.9753
3.2354 4.7318 -2.4982 0.9753
3.1394 4.7959 -2.4981 0.9753
3.0420 4.8580 -2.4980 0.9753
2.9434 4.9181 -2.4979 0.9753
2.8436 4.9762 -2.4978 0.9753
2.7428 5.0323 -2.4978 0.9753
2.4336 5.1883 -2.4975 0.9753
2.3285 5.2361 -2.4974 0.9753
2.1155 5.3253 -2.4973 0.9753
2.0078 5.3667 -2.4972 0.9753
1.8992 5.4059 -2.4971 0.9753
1.7899 5.4429 -2.4971 0.9753
1.6798 5.4777 -2.4970 0.9753
1.5691 5.5103 -2.4969 0.9753
1.4578 5.5407 -2.4969 0.9753
1.3458 5.5688 -2.4968 0.9753
1.2333 5.5946 -2.4968 0.9753
0.7789 5.6753 -2.4966 0.9753
0.6644 5.6897 -2.4965 0.9753
0.2043 5.7243 -2.4963 0.9753
0.0889 5.7272 -2.4963 0.9753
-0.0265 5.7277 -2.4963 0.9753
-0.1418 5.7260 -2.4962 0.9753
-0.2572 5.7219 -2.4962 0.9753
-0.3724 5.7155 -2.4962 0.9753
-0.6023 5.6957 -2.4961 0.9753
-0.7169 5.6824 -2.4961 0.9753
-1.0588 5.6286 -2.4960 0.9753
-1.2846 5.5813 -2.4960 0.9753
-1.5084 5.5250 -2.4960 0.9753
-3.7352 -3.9141 -2.5044 0.9764
-3.5748 -4.0617 -2.5046 0.9764
-3.4086 -4.2027 -2.5048 0.9764
-3.3233 -4.2706 -2.5048 0.9764
-3.1488 -4.4013 -2.5050 0.9764
-3.0596 -4.4640 -2.5051 0.9764
-2.4995 -4.8013 -2.5056 0.9764
-2.3043 -4.8984 -2.5057 0.9764
-2.2052 -4.9440 -2.5058 0.9764
-2.1052 -4.9875 -2.5059 0.9764
-2.0044 -5.0291 -2.5060 0.9764
-1.8003 -5.1060 -2.5061 0.9764
-1.6971 -5.1414 -2.5062 0.9764
-1.4887 -5.2058 -2.5063 0.9764
-1.2778 -5.2618 -2.5064 0.9764
-0.7423 -5.3642 -2.5067 0.9764
-0.6341 -5.3781 -2.5067 0.9764
-0.5257 -5.3899 -2.5068 0.9764
-0.3081 -5.4069 -2.5068 0.9764
-0.1992 -5.4121 -2.5069 0.9764
-0.0901 -5.4151 -2.5069 0.9764
0.1281 -5.4144 -2.5070 0.9764
0.2371 -5.4108 -2.5070 0.9764
0.4549 -5.3970 -2.5071 0.9764
0.6719 -5.3744 -2.5071 0.9764
0.8879 -5.3430 -2.5071 0.9764
0.9954 -5.3241 -2.5071 0.9764
1.5257 -5.1971 -2.5072 0.9764
1.6301 -5.1653 -2.5072 0.9764
2.1412 -4.9751 -2.5072 0.9764
2.2410 -4.9310 -2.5071 0.9764
2.5347 -4.7865 -2.5071 0.9764
2.7254 -4.6804 -2.5070 0.9764
2.8191 -4.6246 -2.5070 0.9764
3.0931 -4.4457 -2.5069 0.9764
3.1820 -4.3824 -2.5069 0.9764
3.2696 -4.3174 -2.5069 0.9764
3.4408 -4.1820 -2.5068 0.9764
3.5242 -4.1118 -2.5067 0.9764
3.6063 -4.0399 -2.5067 0.9764
3.7660 -3.8912 -2.5066 0.9764
3.8435 -3.8145 -2.5066 0.9764
4.0666 -3.5751 -2.5064 0.9764
4.1377 -3.4924 -2.5063 0.9764
4.2071 -3.4083 -2.5063 0.9764
4.3408 -3.2359 -2.5061 0.9764
4.4050 -3.1477 -2.5061 0.9764
4.5279 -2.9676 -2.5059 0.9764
4.5867 -2.8757 -2.5059 0.9764
4.6435 -2.7826 -2.5058 0.9764
4.7516 -2.5932 -2.5057 0.9764
4.9443 -2.2020 -2.5053 0.9764
5.1048 -1.7966 -2.5050 0.9764
5.1397 -1.6934 -2.5049 0.9764
5.1726 -1.5894 -2.5048 0.9764
5.2034 -1.4848 -2.5047 0.9764
5.2830 -1.1677 -2.5044 0.9764
5.3052 -1.0610 -2.5044 0.9764
5.3253 -0.9539 -2.5043 0.9764
5.3433 -0.8464 -2.5042 0.9764
5.3590 -0.7386 -2.5041 0.9764
5.3726 -0.6304 -2.5040 0.9764
5.4050 -0.1959 -2.5036 0.9764
5.4077 -0.0870 -2.5035 0.9764
5.4081 0.0220 -2.5033 0.9764
5.4063 0.1309 -2.5032 0.9764
5.3962 0.3486 -2.5030 0.9764
5.3879 0.4571 -2.5029 0.9764
5.3497 0.7817 -2.5026 0.9765
5.2429 1.3154 -2.5021 0.9765
5.1532 1.6294 -2.5017 0.9765
5.1191 1.7328 -2.5016 0.9765
5.0447 1.9374 -2.5014 0.9765
5.0044 2.0386 -2.5013 0.9765
4.8715 2.3368 -2.5010 0.9765
4.8233 2.4344 -2.5009 0.9765
4.6668 2.7209 -2.5005 0.9765
4.6109 2.8142 -2.5004 0.9765
4.5531 2.9064 -2.5003 0.9765
4.3687 3.1757 -2.5000 0.9765
4.3036 3.2630 -2.4999 0.9765
4.1683 3.4334 -2.4997 0.9765
4.0982 3.5165 -2.4996 0.9765
3.3957 4.1964 -2.4988 0.9765
2.9560 4.5158 -2.4983 0.9765
2.8644 4.5743 -2.4982 0.9765
2.7715 4.6309 -2.4981 0.9765
2.6776 4.6856 -2.4981 0.9765
2.4865 4.7894 -2.4979 0.9765
2.2915 4.8854 -2.4978 0.9765
2.0927 4.9734 -2.4976 0.9765
1.8906 5.0534 -2.4975 0.9765
1.7884 5.0903 -2.4974 0.9765
1.6854 5.1252 -2.4974 0.9765
1.4775 5.1886 -2.4972 0.9765
1.3727 5.2172 -2.4972 0.9765
1.1613 5.2681 -2.4971 0.9765
1.0550 5.2903 -2.4970 0.9765
0.0837 5.3930 -2.4966 0.9765
-0.0249 5.3935 -2.4966 0.9765
-0.1336 5.3918 -2.4966 0.9765
-0.6750 5.3508 -2.4964 0.9765
-0.8900 5.3192 -2.4964 0.9765
-0.9970 5.3002 -2.4964 0.9765
-1.2096 5.2556 -2.4964 0.9765
-1.4204 5.2026 -2.4963 0.9765
-3.4496 -3.7637 -2.5043 0.9775
-3.3732 -3.8326 -2.5044 0.9775
-3.1359 -4.0297 -2.5047 0.9775
-3.0542 -4.0922 -2.5048 0.9775
-2.6276 -4.3793 -2.5052 0.9775
-2.5389 -4.4315 -2.5052 0.9775
-2.2668 -4.5771 -2.5055 0.9775
-2.1742 -4.6220 -2.5055 0.9775
-2.0807 -4.6650 -2.5056 0.9775
-1.7953 -4.7825 -2.5058 0.9775
-1.6987 -4.8178 -2.5059 0.9775
-1.3054 -4.9394 -2.5061 0.9775
-1.2057 -4.9648 -2.5061 0.9775
-1.1055 -4.9882 -2.5062 0.9775
-1.0048 -5.0096 -2.5062 0.9775
-0.9037 -5.0289 -2.5063 0.9775
-0.7004 -5.0614 -2.5064 0.9775
-0.2908 -5.1017 -2.5065 0.9775
0.1209 -5.1088 -2.5067 0.9775
0.3266 -5.0999 -2.5067 0.9775
0.5317 -5.0827 -2.5068 0.9775
0.6340 -5.0709 -2.5068 0.9775
0.9392 -5.0235 -2.5068 0.9775
1.0402 -5.0036 -2.5069 0.9775
1.2409 -4.9576 -2.5069 0.9775
1.4396 -4.9037 -2.5069 0.9775
1.5381 -4.8737 -2.5069 0.9775
1.8296 -4.7718 -2.5069 0.9775
2.2077 -4.6090 -2.5068 0.9775
2.3001 -4.5636 -2.5068 0.9775
2.6599 -4.3635 -2.5067 0.9775
2.7473 -4.3090 -2.5067 0.9775
2.8335 -4.2527 -2.5067 0.9775
3.2465 -3.9460 -2.5065 0.9775
3.5534 -3.6716 -2.5063 0.9775
3.6982 -3.5253 -2.5062 0.9775
3.7684 -3.4500 -2.5062 0.9775
3.9042 -3.2953 -2.5061 0.9775
3.9697 -3.2159 -2.5060 0.9775
4.0335 -3.1352 -2.5060 0.9775
4.0958 -3.0533 -2.5059 0.9775
4.1564 -2.9701 -2.5058 0.9775
4.2152 -2.8857 -2.5058 0.9775
4.2724 -2.8001 -2.5057 0.9775
4.3278 -2.7134 -2.5056 0.9775
4.4334 -2.5367 -2.5055 0.9775
4.4835 -2.4468 -2.5054 0.9775
4.8498 -1.5978 -2.5047 0.9775
4.8808 -1.4998 -2.5046 0.9775
4.9369 -1.3019 -2.5045 0.9775
4.9620 -1.2021 -2.5044 0.9775
4.9850 -1.1019 -2.5043 0.9775
5.0250 -0.9001 -2.5041 0.9775
5.0419 -0.7987 -2.5040 0.9775
5.0568 -0.6969 -2.5039 0.9775
5.0696 -0.5949 -2.5038 0.9775
5.0891 -0.3902 -2.5036 0.9775
5.1003 -0.1848 -2.5035 0.9775
5.1028 -0.0821 -2.5034 0.9775
5.1032 0.0207 -2.5033 0.9775
5.1015 0.1235 -2.5032 0.9775
5.0978 0.2263 -2.5031 0.9775
5.0842 0.4314 -2.5029 0.9775
5.0742 0.5337 -2.5028 0.9775
5.0623 0.6358 -2.5027 0.9775
5.0482 0.7376 -2.5026 0.9775
5.0321 0.8391 -2.5025 0.9775
5.0140 0.9403 -2.5024 0.9775
4.9212 1.3406 -2.5019 0.9775
4.8930 1.4394 -2.5018 0.9775
4.8628 1.5376 -2.5017 0.9775
4.7966 1.7321 -2.5015 0.9775
4.7605 1.8283 -2.5014 0.9775
4.7225 1.9237 -2.5013 0.9775
4.6408 2.1122 -2.5011 0.9775
4.5971 2.2052 -2.5010 0.9775
4.5042 2.3884 -2.5008 0.9775
4.4550 2.4785 -2.5007 0.9775
4.4040 2.5677 -2.5006 0.9775
4.2967 2.7428 -2.5004 0.9775
4.1824 2.9134 -2.5002 0.9775
4.1227 2.9969 -2.5001 0.9775
4.0613 3.0792 -2.5000 0.9775
3.9337 3.2401 -2.4998 0.9776
3.8674 3.3185 -2.4997 0.9776
3.6595 3.5457 -2.4995 0.9776
3.5872 3.6185 -2.4994 0.9776
3.5135 3.6899 -2.4993 0.9776
3.4383 3.7598 -2.4992 0.9776
3.3618 3.8282 -2.4991 0.9776
3.2839 3.8950 -2.4990 0.9776
3.1241 4.0238 -2.4988 0.9776
3.0423 4.0858 -2.4988 0.9776
2.7897 4.2617 -2.4985 0.9776
2.7032 4.3169 -2.4984 0.9776
2.6156 4.3703 -2.4984 0.9776
2.5270 4.4220 -2.4983 0.9776
2.3466 4.5199 -2.4981 0.9776
1.9750 4.6936 -2.4979 0.9776
1.8800 4.7323 -2.4978 0.9776
1.5906 4.8369 -2.4976 0.9776
1.4928 4.8678 -2.4975 0.9776
1.3944 4.8968 -2.4975 0.9776
0.8948 5.0117 -2.4972 0.9776
0.6922 5.0435 -2.4971 0.9776
0.5905 5.0563 -2.4971 0.9776
0.3863 5.0758 -2.4970 0.9776
0.0790 5.0897 -2.4969 0.9776
-0.3309 5.0793 -2.4968 0.9776
-0.4332 5.0715 -2.4968 0.9776
-0.5352 5.0618 -2.4967 0.9776
-0.6371 5.0499 -2.4967 0.9776
-0.9409 5.0021 -2.4967 0.9776
-3.2615 -3.5585 -2.5042 0.9785
-3.1893 -3.6236 -2.5043 0.9785
-3.1157 -3.6873 -2.5043 0.9785
-3.0409 -3.7494 -2.5044 0.9785
-2.9649 -3.8100 -2.5045 0.9785
-2.8876 -3.8691 -2.5046 0.9785
-2.7296 -3.9825 -2.5047 0.9785
-2.3156 -4.2374 -2.5051 0.9785
-2.2299 -4.2833 -2.5052 0.9785
-2.1432 -4.3275 -2.5053 0.9785
-2.0556 -4.3699 -2.5053 0.9785
-1.9672 -4.4105 -2.5054 0.9785
-1.7881 -4.4864 -2.5055 0.9785
-1.6974 -4.5216 -2.5056 0.9785
-1.6060 -4.5550 -2.5056 0.9785
-1.5140 -4.5866 -2.5057 0.9785
-1.0452 -4.7160 -2.5060 0.9785
-0.9500 -4.7362 -2.5060 0.9785
-0.8544 -4.7545 -2.5060 0.9785
-0.7584 -4.7708 -2.5061 0.9785
-0.6622 -4.7852 -2.5061 0.9785
-0.5657 -4.7977 -2.5062 0.9785
-0.4689 -4.8082 -2.5062 0.9785
-0.1777 -4.8279 -2.5063 0.9785
-0.0804 -4.8306 -2.5063 0.9785
0.1143 -4.8300 -2.5064 0.9785
0.2115 -4.8268 -2.5064 0.9785
0.3087 -4.8216 -2.5065 0.9785
0.4058 -4.8144 -2.5065 0.9785
0.7920 -4.7663 -2.5065 0.9785
0.9834 -4.7305 -2.5066 0.9785
1.2673 -4.6625 -2.5066 0.9785
1.4541 -4.6077 -2.5066 0.9785
1.5466 -4.5775 -2.5066 0.9785
1.8203 -4.4757 -2.5066 0.9785
1.9991 -4.3987 -2.5066 0.9785
2.1746 -4.3146 -2.5065 0.9785
2.2611 -4.2698 -2.5065 0.9785
2.3466 -4.2234 -2.5065 0.9785
2.5973 -4.0738 -2.5064 0.9785
2.6788 -4.0206 -2.5064 0.9785
2.7593 -3.9658 -2.5064 0.9785
2.9167 -3.8513 -2.5063 0.9785
3.1438 -3.6680 -2.5062 0.9785
3.2171 -3.6039 -2.5062 0.9785
3.5628 -3.2618 -2.5059 0.9785
3.8135 -2.9642 -2.5057 0.9785
3.9853 -2.7283 -2.5056 0.9785
4.0394 -2.6474 -2.5055 0.9785
4.0918 -2.5654 -2.5054 0.9785
4.1425 -2.4824 -2.5054 0.9785
4.1916 -2.3984 -2.5053 0.9785
4.3284 -2.1407 -2.5051 0.9785
4.4109 -1.9644 -2.5049 0.9785
4.4862 -1.7851 -2.5048 0.9785
4.5854 -1.5107 -2.5046 0.9785
4.6678 -1.2309 -2.5043 0.9785
4.6915 -1.1366 -2.5042 0.9785
4.7132 -1.0418 -2.5042 0.9785
4.7331 -0.9466 -2.5041 0.9785
4.7812 -0.6589 -2.5038 0.9785
4.7933 -0.5624 -2.5037 0.9785
4.8035 -0.4658 -2.5036 0.9785
4.8117 -0.3689 -2.5035 0.9785
