ply
format ascii 1.0
element vertex 1533
property float32 x
property float32 y
property float32 z
property float32 I
end_header
21.1672 -39.6448 -1.2655 0.8354
24.0645 -39.1777 -1.2946 0.8319
24.1774 -37.6404 -1.2597 0.8361
27.8218 -39.7025 -1.3651 0.8237
27.8793 -36.5589 -1.2946 0.8320
29.0767 -36.5775 -1.3157 0.8295
31.5953 -36.6166 -1.3618 0.8240
32.8451 -36.5504 -1.3837 0.8215
34.3013 -36.6585 -1.4136 0.8180
35.7342 -36.6807 -1.4419 0.8147
38.6908 -36.6410 -1.5005 0.8080
40.4089 -36.7532 -1.5381 0.8037
42.1111 -36.7797 -1.5743 0.7995
45.7723 -36.8364 -1.6544 0.7905
49.7145 -36.8120 -1.7419 0.7807
52.0378 -36.9336 -1.7968 0.7746
76.2090 -49.5997 -2.5604 0.6950
79.1133 -44.9358 -2.5619 0.6948
26.9995 -13.2473 -0.8468 0.8866
27.3525 -12.7438 -0.8497 0.8863
79.8920 -35.2824 -2.4592 0.7051
79.5702 -31.3756 -2.4084 0.7102
76.0713 -28.2397 -2.2848 0.7227
74.9097 -24.4246 -2.2186 0.7296
73.8846 -22.4550 -2.1744 0.7342
83.5128 -19.9630 -2.4178 0.7092
84.6122 -16.6564 -2.4282 0.7082
85.1079 -14.9800 -2.4333 0.7077
85.5651 -13.2914 -2.4382 0.7072
85.9859 -11.5867 -2.4431 0.7067
86.3659 -9.8726 -2.4477 0.7062
87.2585 -4.6650 -2.4605 0.7049
87.4591 -2.9106 -2.4640 0.7046
87.7247 0.6147 -2.4702 0.7040
87.8030 2.3842 -2.4733 0.7036
87.7420 7.7017 -2.4801 0.7030
87.6289 9.4732 -2.4818 0.7028
87.0507 14.7725 -2.4862 0.7024
86.5892 18.3086 -2.4921 0.7018
86.3122 20.0738 -2.4952 0.7015
85.9866 21.8320 -2.4980 0.7012
85.5535 23.5655 -2.4987 0.7011
85.1013 25.2952 -2.4999 0.7010
5.5316 48.5537 -2.4783 0.8222
4.5520 48.6469 -2.4779 0.8223
3.5709 48.7190 -2.4774 0.8223
1.6056 48.7993 -2.4762 0.8224
0.6225 48.8074 -2.4754 0.8224
-0.3603 48.7941 -2.4746 0.8225
-1.3422 48.7602 -2.4738 0.8225
-2.3228 48.7045 -2.4728 0.8226
-3.3017 48.6275 -2.4718 0.8227
-4.2782 48.5294 -2.4707 0.8227
-5.2520 48.4105 -2.4695 0.8228
-3.5214 20.7031 -1.0650 0.9193
-3.8717 20.2831 -1.0472 0.9206
-4.5353 16.4410 -0.8649 0.9340
-5.0294 16.8971 -0.8941 0.9318
-6.5581 16.9159 -0.9201 0.9299
-8.8117 16.4937 -0.9484 0.9278
-9.9573 16.9579 -0.9973 0.9243
-10.9060 16.9696 -1.0230 0.9224
-11.3994 16.9757 -1.0370 0.9214
-11.9066 16.9820 -1.0518 0.9203
-12.3919 16.9379 -1.0643 0.9194
-12.6203 16.5407 -1.0551 0.9200
-13.7196 16.5543 -1.0904 0.9175
-17.9248 19.9368 -1.3596 0.8982
-16.3882 17.5055 -1.2161 0.9084
-16.3966 16.8224 -1.1913 0.9102
-19.0388 16.6200 -1.2817 0.9037
-20.2649 16.9836 -1.3409 0.8995
-21.4860 17.2825 -1.3984 0.8954
-22.7186 16.8136 -1.4334 0.8930
-24.9334 16.9427 -1.5288 0.8863
-26.5608 17.2772 -1.6069 0.8808
-26.7893 16.6680 -1.6001 0.8813
-13.3433 6.2127 -0.7464 0.9428
-13.4325 5.9281 -0.7446 0.9429
-14.6488 5.7720 -0.7985 0.9389
-43.4495 14.1547 -2.3175 0.8327
-43.2719 12.1932 -2.2800 0.8352
-33.0797 8.6062 -1.7335 0.8721
-44.1353 10.5384 -2.3012 0.8338
-44.8215 8.8113 -2.3166 0.8328
-48.0563 7.4518 -2.4663 0.8230
-48.4307 4.5380 -2.4669 0.8230
-48.5133 3.5620 -2.4669 0.8230
-48.6198 1.6059 -2.4671 0.8230
-48.6440 0.6266 -2.4671 0.8230
-48.6488 -0.3530 -2.4672 0.8230
-48.4730 -4.2671 -2.4678 0.8229
-48.3805 -5.2426 -2.4679 0.8229
-47.9871 -8.1559 -2.4685 0.8229
-41.9701 -8.8853 -2.1757 0.8421
-41.4734 -10.5412 -2.1702 0.8425
-30.7869 -9.1595 -1.6290 0.8793
-33.1528 -12.0860 -1.7896 0.8682
-42.3334 -17.3942 -2.3211 0.8325
-41.9807 -18.2457 -2.3214 0.8325
-41.6110 -19.0902 -2.3218 0.8325
-41.2247 -19.9273 -2.3221 0.8324
-39.3906 -21.0378 -2.2647 0.8362
-37.5906 -21.0600 -2.1852 0.8415
-33.2182 -21.3428 -2.0024 0.8537
-30.4965 -21.3764 -1.8887 0.8614
-26.9391 -21.4203 -1.7454 0.8712
-25.8688 -21.4335 -1.7037 0.8741
-24.8481 -21.4461 -1.6646 0.8768
-23.8728 -21.4582 -1.6279 0.8794
-22.6004 -22.0228 -1.6003 0.8813
-21.1379 -21.4443 -1.5271 0.8864
-19.5604 -21.5114 -1.4745 0.8901
-17.6488 -21.9357 -1.4278 0.8934
-16.9183 -21.9172 -1.4041 0.8950
-15.9223 -21.5087 -1.3572 0.8984
-14.6624 -21.5718 -1.3228 0.9008
-14.0408 -21.5795 -1.3057 0.9020
-13.4349 -21.5870 -1.2895 0.9032
-12.9912 -21.8425 -1.2888 0.9032
-13.4775 -24.8896 -1.4354 0.8928
-11.1232 -21.5679 -1.2307 0.9074
-9.5513 -21.6349 -1.1994 0.9096
-9.0379 -21.6412 -1.1894 0.9103
-8.5720 -21.7470 -1.1855 0.9106
-8.0447 -21.6790 -1.1727 0.9115
-7.2072 -22.1139 -1.1795 0.9111
-6.7196 -22.1199 -1.1724 0.9116
-3.2969 -11.6944 -0.6162 0.9525
-5.7609 -22.1317 -1.1598 0.9125
-5.2888 -22.1375 -1.1543 0.9129
-4.2688 -21.7001 -1.1216 0.9152
-3.8176 -21.7057 -1.1177 0.9155
-2.9506 -21.9164 -1.1215 0.9152
-2.5316 -22.1716 -1.1317 0.9145
-0.7358 -22.1937 -1.1262 0.9149
-0.2887 -22.1992 -1.1259 0.9149
0.1551 -21.7547 -1.1033 0.9166
1.8817 -39.6643 -2.0138 0.8530
2.6702 -39.4740 -2.0065 0.8535
3.4707 -39.4837 -2.0101 0.8532
4.1441 -38.2880 -1.9531 0.8571
4.8049 -37.3478 -1.9097 0.8600
2.6301 -15.4864 -0.7966 0.9390
2.9528 -15.4904 -0.7997 0.9388
3.6083 -15.5059 -0.8074 0.9382
3.9385 -15.5039 -0.8112 0.9379
4.6157 -15.5216 -0.8212 0.9372
13.5537 -39.6581 -2.1254 0.8455
14.2918 -36.8922 -2.0064 0.8535
26.0544 -37.1804 -2.3025 0.8337
26.6851 -36.4941 -2.2928 0.8344
29.8599 -36.0481 -2.3739 0.8290
30.5855 -35.4462 -2.3743 0.8290
33.3621 -32.8939 -2.3760 0.8289
34.0233 -32.2208 -2.3764 0.8289
34.6708 -31.5343 -2.3768 0.8289
36.5281 -29.3969 -2.3779 0.8288
37.6927 -27.9102 -2.3786 0.8287
38.7959 -26.3769 -2.3792 0.8287
40.3317 -23.9949 -2.3800 0.8286
24.0244 -13.0130 -1.3856 0.8963
26.9993 -13.2473 -1.5252 0.8865
27.3520 -12.7436 -1.5303 0.8862
42.9537 -18.9694 -2.3813 0.8286
43.3300 -18.1020 -2.3815 0.8285
36.5756 -12.7459 -1.9643 0.8563
44.6567 -14.5604 -2.3821 0.8285
47.8585 -14.5451 -2.5367 0.8185
48.1437 -13.5791 -2.5368 0.8184
48.4088 -12.6073 -2.5369 0.8184
48.8798 -10.6486 -2.5370 0.8184
49.2702 -8.6721 -2.5371 0.8184
49.4350 -7.6783 -2.5371 0.8184
49.8908 -3.6758 -2.5370 0.8184
49.9535 -2.6703 -2.5370 0.8184
49.9955 -1.6639 -2.5369 0.8184
50.0171 -0.6569 -2.5368 0.8185
49.8979 3.3689 -2.5363 0.8185
47.0469 5.0861 -2.3998 0.8274
46.5718 5.9857 -2.3813 0.8286
46.1136 8.7842 -2.3807 0.8286
45.4852 11.5487 -2.3799 0.8287
3.7350 32.7841 -2.4193 0.8760
3.0738 32.8491 -2.4191 0.8761
2.4114 32.9004 -2.4188 0.8761
1.0845 32.9599 -2.4180 0.8761
-0.2434 32.9634 -2.4170 0.8762
-1.5696 32.9110 -2.4159 0.8762
-4.2074 32.6377 -2.4129 0.8764
-3.4892 23.3489 -1.7310 0.9097
-3.5217 20.7049 -1.5399 0.9192
-3.8282 16.4323 -1.2371 0.9346
-4.2054 16.5369 -1.2511 0.9339
-4.5353 16.4410 -1.2505 0.9339
-6.9172 16.8289 -1.3341 0.9296
-7.5737 16.5030 -1.3314 0.9298
-8.3866 16.4885 -1.3564 0.9285
-8.8117 16.4938 -1.3711 0.9277
-9.2733 16.5473 -1.3908 0.9267
-10.2709 16.7118 -1.4383 0.9243
-10.7441 16.7176 -1.4571 0.9234
-11.2301 16.7236 -1.4770 0.9224
-13.1609 16.5475 -1.5502 0.9187
-13.7196 16.5543 -1.5765 0.9174
-15.0218 16.7079 -1.6474 0.9138
-17.5926 16.6522 -1.7761 0.9074
-18.1604 16.5091 -1.7995 0.9063
-18.9227 16.5186 -1.8417 0.9042
-21.5599 17.3419 -2.0288 0.8950
-22.5838 16.7138 -2.0600 0.8934
-23.3636 16.5734 -2.1003 0.8915
-24.6337 16.7391 -2.1837 0.8874
-25.8546 16.8179 -2.2615 0.8836
-26.4382 16.4495 -2.2831 0.8826
-12.9444 7.3480 -1.0914 0.9420
-12.9713 6.0395 -1.0491 0.9442
-13.2928 5.5494 -1.0562 0.9439
-14.3555 5.6564 -1.1313 0.9400
-15.2308 5.6497 -1.1911 0.9369
-16.2575 5.6608 -1.2622 0.9333
-20.4709 6.2158 -1.5686 0.9178
-21.0052 5.9189 -1.6001 0.9162
-22.4547 5.8419 -1.7012 0.9111
-28.7187 6.2488 -2.1550 0.8888
-33.3892 5.1775 -2.4774 0.8733
-33.5707 3.8289 -2.4774 0.8733
-33.6413 3.1522 -2.4775 0.8733
-33.6983 2.4742 -2.4775 0.8733
-33.7718 1.1155 -2.4776 0.8733
-33.7883 0.4352 -2.4776 0.8733
-33.7561 -1.6056 -2.4779 0.8732
-33.6669 -2.9637 -2.4781 0.8732
-33.6019 -3.6412 -2.4782 0.8732
-33.4316 -4.9917 -2.4785 0.8732
-33.3263 -5.6642 -2.4786 0.8732
-33.2075 -6.3344 -2.4787 0.8732
-33.0755 -7.0022 -2.4789 0.8732
-32.7713 -8.3294 -2.4793 0.8732
-32.5995 -8.9883 -2.4795 0.8732
-32.2163 -10.2952 -2.4799 0.8731
-29.6228 -11.4800 -2.3294 0.8804
-29.3886 -12.0754 -2.3296 0.8804
-29.1423 -12.6659 -2.3299 0.8803
-28.8844 -13.2515 -2.3301 0.8803
-28.3337 -14.4069 -2.3306 0.8803
-28.0410 -14.9762 -2.3309 0.8803
-27.7370 -15.5396 -2.3312 0.8803
-27.4218 -16.0969 -2.3314 0.8803
-27.0955 -16.6478 -2.3317 0.8803
-26.4099 -17.7298 -2.3323 0.8802
-26.0510 -18.2603 -2.3326 0.8802
-25.6815 -18.7837 -2.3329 0.8802
-25.3016 -19.2997 -2.3333 0.8802
-24.1006 -20.8010 -2.3343 0.8801
-23.6804 -21.2852 -2.3346 0.8801
-22.9919 -21.5190 -2.3090 0.8813
-21.1379 -21.4442 -2.2078 0.8862
-18.0899 -21.5795 -2.0647 0.8932
-17.4461 -21.6838 -2.0406 0.8944
-15.9223 -21.5086 -1.9622 0.8982
-15.3360 -21.6135 -1.9432 0.8992
-14.5950 -21.4726 -1.9037 0.9011
-13.9763 -21.4802 -1.8790 0.9023
-12.8731 -21.6439 -1.8465 0.9039
-13.4780 -24.8904 -2.0754 0.8927
-11.1232 -21.5678 -1.7793 0.9073
-10.1344 -21.7592 -1.7600 0.9082
-9.0379 -21.6412 -1.7196 0.9102
-8.5327 -21.6474 -1.7061 0.9109
-7.0611 -21.6656 -1.6708 0.9127
-3.2964 -11.6927 -0.8908 0.9524
-4.7233 -21.6944 -1.6279 0.9148
-4.2688 -21.7000 -1.6216 0.9151
-3.8176 -21.7056 -1.6159 0.9154
-3.3849 -21.8110 -1.6184 0.9153
-2.9406 -21.8421 -1.6160 0.9154
-2.0574 -21.9274 -1.6148 0.9155
-1.1700 -21.9383 -1.6109 0.9157
-0.7276 -21.9438 -1.6098 0.9157
0.5962 -21.8601 -1.6034 0.9160
1.5210 -32.0620 -2.3535 0.8792
2.1667 -32.0310 -2.3539 0.8792
3.4559 -31.9300 -2.3548 0.8791
4.7405 -31.7769 -2.3557 0.8791
2.9528 -15.4904 -1.1562 0.9387
3.6066 -15.4985 -1.1667 0.9382
4.6155 -15.5208 -1.1873 0.9371
10.4074 -30.4518 -2.3596 0.8789
11.6290 -30.0185 -2.3604 0.8789
12.2332 -29.7833 -2.3608 0.8789
13.4268 -29.2764 -2.3616 0.8788
14.0159 -29.0048 -2.3620 0.8788
14.5995 -28.7214 -2.3624 0.8788
15.7491 -28.1192 -2.3631 0.8787
16.3146 -27.8007 -2.3635 0.8787
16.8736 -27.4707 -2.3638 0.8787
17.9713 -26.7770 -2.3645 0.8787
18.5095 -26.4135 -2.3649 0.8787
19.0403 -26.0392 -2.3652 0.8786
19.5634 -25.6540 -2.3655 0.8786
20.0788 -25.2584 -2.3659 0.8786
20.5860 -24.8523 -2.3662 0.8786
21.0850 -24.4359 -2.3665 0.8786
21.5755 -24.0094 -2.3668 0.8786
22.5302 -23.1270 -2.3674 0.8785
23.4485 -22.2063 -2.3679 0.8785
24.3290 -21.2488 -2.3684 0.8785
25.9702 -19.2301 -2.3694 0.8784
26.3545 -18.7050 -2.3696 0.8784
27.0909 -17.6318 -2.3700 0.8784
27.4426 -17.0841 -2.3702 0.8784
28.1125 -15.9677 -2.3706 0.8784
28.4303 -15.3995 -2.3707 0.8784
28.7364 -14.8248 -2.3709 0.8784
29.0310 -14.2441 -2.3710 0.8784
29.5842 -13.0651 -2.3713 0.8783
29.8428 -12.4675 -2.3714 0.8783
30.8030 -11.4349 -2.4091 0.8765
32.4532 -11.3094 -2.5199 0.8712
32.7495 -10.6781 -2.5257 0.8710
32.9588 -10.0168 -2.5258 0.8710
33.3371 -8.6821 -2.5259 0.8710
34.0429 -5.2876 -2.5260 0.8709
34.2280 -3.9126 -2.5260 0.8709
34.2996 -3.2226 -2.5260 0.8709
34.3571 -2.5313 -2.5260 0.8709
34.4333 0.9348 -2.5257 0.8710
34.3651 2.3202 -2.5255 0.8710
34.3099 3.0116 -2.5254 0.8710
34.2407 3.7016 -2.5252 0.8710
33.8241 6.4432 -2.5247 0.8710
33.6586 7.1168 -2.5225 0.8711
32.2135 7.4919 -2.4250 0.8758
31.3335 7.9556 -2.3703 0.8784
31.1645 8.5842 -2.3702 0.8784
1.3187 24.8449 -2.3886 0.9049
0.8181 24.8631 -2.3883 0.9049
0.3172 24.8710 -2.3879 0.9049
-0.1836 24.8684 -2.3876 0.9049
-0.6842 24.8554 -2.3871 0.9049
-2.6796 24.6988 -2.3851 0.9050
-3.4896 23.3512 -2.2667 0.9095
-3.5220 20.7068 -2.0165 0.9191
-3.5480 18.5874 -1.8167 0.9268
-3.5694 16.8496 -1.6535 0.9331
-4.1799 16.4366 -1.6282 0.9341
-4.5354 16.4410 -1.6374 0.9338
-5.2591 16.4500 -1.6580 0.9330
-3.0591 8.3880 -0.8572 0.9648
-6.7691 16.4686 -1.7094 0.9310
-7.1622 16.4734 -1.7245 0.9304
-8.3866 16.4886 -1.7760 0.9284
-9.2464 16.4992 -1.8158 0.9268
-9.6912 16.5047 -1.8375 0.9260
-11.5884 16.5281 -1.9379 0.9221
-12.0603 16.4848 -1.9609 0.9212
-12.6204 16.5408 -1.9974 0.9198
-13.6359 16.4534 -2.0516 0.9177
-14.2105 16.4604 -2.0877 0.9163
-14.9423 16.6195 -2.1456 0.9141
-16.1471 17.2481 -2.2683 0.9094
-16.3973 16.8232 -2.2554 0.9099
-16.7886 16.5446 -2.2629 0.9096
-18.9836 15.2697 -2.3389 0.9067
-19.8288 14.0658 -2.3340 0.9069
-20.3735 13.2525 -2.3334 0.9070
-11.6836 7.2694 -1.3211 0.9462
-11.5832 6.5753 -1.2787 0.9479
-11.6140 6.2870 -1.2679 0.9483
-12.1301 5.6478 -1.2846 0.9477
-13.3496 5.5731 -1.3888 0.9435
-15.0697 5.5899 -1.5431 0.9375
-16.0807 5.5993 -1.6347 0.9339
-19.3291 5.8692 -1.9393 0.9220
-20.8383 5.8718 -2.0785 0.9167
-25.3784 4.9891 -2.4831 0.9013
-25.5585 3.9632 -2.4831 0.9013
-25.7514 2.4129 -2.4831 0.9013
-25.7950 1.8939 -2.4831 0.9013
-25.8511 0.8538 -2.4832 0.9013
-25.8383 -1.2290 -2.4834 0.9013
-25.7195 -2.7870 -2.4837 0.9013
-25.5075 -4.3353 -2.4840 0.9013
-25.4163 -4.8482 -2.4841 0.9012
-24.8072 -7.3804 -2.4848 0.9012
-24.4931 -8.3743 -2.4851 0.9012
-24.3212 -8.8664 -2.4853 0.9012
-24.1395 -9.3550 -2.4855 0.9012
-23.5192 -10.7901 -2.4842 0.9012
-23.0334 -11.1339 -2.4561 0.9023
-21.9140 -11.1427 -2.3602 0.9059
-21.2219 -11.8895 -2.3354 0.9069
-20.4712 -13.1529 -2.3360 0.9069
-20.2042 -13.5637 -2.3363 0.9068
-19.6457 -14.3691 -2.3367 0.9068
-19.0553 -15.1517 -2.3372 0.9068
-17.7824 -16.6432 -2.3383 0.9068
-17.4458 -16.9999 -2.3386 0.9068
-17.1019 -17.3498 -2.3388 0.9067
-16.0292 -18.3574 -2.3397 0.9067
-15.2810 -18.9927 -2.3403 0.9067
-14.5076 -19.5977 -2.3409 0.9067
-14.1119 -19.8884 -2.3412 0.9067
-13.7105 -20.1712 -2.3415 0.9066
-12.8907 -20.7125 -2.3422 0.9066
-11.1232 -21.5678 -2.3298 0.9071
-9.0378 -21.6412 -2.2516 0.9101
-4.5966 -11.6616 -1.2034 0.9509
-4.2392 -11.4238 -1.1698 0.9522
-7.5275 -21.6098 -2.1969 0.9121
-7.0449 -21.6157 -2.1827 0.9127
-6.5682 -21.6216 -2.1694 0.9132
-3.2959 -11.6911 -1.1661 0.9524
-0.2822 -21.6992 -2.0834 0.9165
0.1551 -21.7546 -2.0886 0.9163
0.5935 -21.7600 -2.0898 0.9162
1.1611 -24.4759 -2.3525 0.9062
1.6540 -24.4512 -2.3528 0.9062
2.1463 -24.4165 -2.3531 0.9062
2.6379 -24.3718 -2.3535 0.9062
3.1285 -24.3173 -2.3538 0.9062
3.6180 -24.2529 -2.3542 0.9062
4.1062 -24.1786 -2.3545 0.9062
3.6066 -15.4984 -1.5277 0.9381
6.0417 -23.7831 -2.3558 0.9061
4.6152 -15.5200 -1.5545 0.9370
7.4697 -23.3846 -2.3568 0.9061
7.9400 -23.2325 -2.3571 0.9061
5.3363 -14.6436 -1.4963 0.9393
8.8713 -22.9001 -2.3577 0.9060
9.7887 -22.5301 -2.3583 0.9060
10.2417 -22.3313 -2.3586 0.9060
12.0111 -21.4453 -2.3598 0.9059
12.4420 -21.2016 -2.3601 0.9059
13.2886 -20.6882 -2.3606 0.9059
13.7040 -20.4187 -2.3609 0.9059
14.1139 -20.1409 -2.3611 0.9059
14.5181 -19.8548 -2.3614 0.9059
15.3090 -19.2582 -2.3619 0.9059
16.0752 -18.6299 -2.3624 0.9059
16.8154 -17.9710 -2.3628 0.9058
18.2134 -16.5657 -2.3636 0.9058
18.8686 -15.8215 -2.3640 0.9058
19.1849 -15.4395 -2.3642 0.9058
19.7938 -14.6567 -2.3646 0.9058
20.0864 -14.2562 -2.3647 0.9058
20.3707 -13.8498 -2.3649 0.9058
20.6468 -13.4377 -2.3650 0.9058
20.9144 -13.0200 -2.3652 0.9057
21.1736 -12.5970 -2.3653 0.9057
21.6660 -11.7355 -2.3656 0.9057
24.0067 -10.6020 -2.5195 0.8999
24.2162 -10.1168 -2.5196 0.8999
24.4159 -9.6275 -2.5197 0.8999
24.6056 -9.1343 -2.5198 0.8999
25.1142 -7.6327 -2.5200 0.8999
25.2633 -7.1256 -2.5200 0.8999
25.4021 -6.6156 -2.5201 0.8999
25.8531 -4.5505 -2.5202 0.8999
26.0154 -3.5058 -2.5202 0.8999
26.0806 -2.9813 -2.5202 0.8999
26.2175 1.2404 -2.5198 0.8999
26.0292 3.3454 -2.5195 0.8999
25.9554 3.8687 -2.5194 0.8999
25.5549 5.9433 -2.5189 0.8999
1.8595 19.8724 -2.3709 0.9227
1.0577 19.9276 -2.3705 0.9228
0.6562 19.9429 -2.3702 0.9228
-0.1473 19.9484 -2.3697 0.9228
-0.5488 19.9387 -2.3693 0.9228
-0.9501 19.9205 -2.3690 0.9228
-1.7507 19.8593 -2.3682 0.9228
-2.1499 19.8163 -2.3677 0.9228
-3.5696 16.8508 -2.0461 0.9330
-3.8283 16.4323 -2.0042 0.9343
-4.1799 16.4367 -2.0146 0.9340
-4.5354 16.4411 -2.0259 0.9336
-6.7485 16.4184 -2.1086 0.9310
-7.1404 16.4232 -2.1273 0.9304
-8.3866 16.4886 -2.1974 0.9282
-9.6912 16.5047 -2.2735 0.9258
-10.1470 16.5103 -2.3020 0.9249
-11.0234 16.4158 -2.3488 0.9234
-11.3465 16.1831 -2.3477 0.9235
-11.6646 15.9438 -2.3466 0.9235
-11.9775 15.6982 -2.3455 0.9235
-12.8843 14.9243 -2.3420 0.9237
-13.1755 14.6544 -2.3408 0.9237
-14.0177 13.8140 -2.3378 0.9238
-14.2920 13.5280 -2.3376 0.9238
-15.0797 12.6380 -2.3371 0.9238
-15.3302 12.3310 -2.3370 0.9238
-15.5744 12.0191 -2.3369 0.9238
-15.8124 11.7024 -2.3367 0.9238
-16.2690 11.0551 -2.3365 0.9238
-11.6548 7.5812 -1.6515 0.9455
-11.4969 6.5263 -1.5704 0.9481
-11.5183 6.2352 -1.5558 0.9486
-11.7055 5.7397 -1.5486 0.9488
-11.9390 5.5588 -1.5644 0.9483
-16.0724 5.5964 -2.0216 0.9337
-20.0315 6.0825 -2.4867 0.9191
-20.7465 2.7905 -2.4866 0.9191
-20.8774 1.5329 -2.4866 0.9191
-20.9326 0.2696 -2.4867 0.9191
-20.9273 -0.5734 -2.4868 0.9191
-20.8882 -1.4156 -2.4869 0.9191
-20.8154 -2.2556 -2.4871 0.9191
-20.7664 -2.6743 -2.4871 0.9191
-20.7091 -3.0921 -2.4872 0.9191
-20.5693 -3.9237 -2.4874 0.9191
-20.4870 -4.3372 -2.4875 0.9191
-20.3964 -4.7490 -2.4876 0.9191
-20.0753 -5.9726 -2.4880 0.9191
-19.9520 -6.3760 -2.4881 0.9191
-19.8206 -6.7768 -2.4882 0.9191
-19.5340 -7.5702 -2.4885 0.9191
-19.2157 -8.3516 -2.4888 0.9191
-19.0449 -8.7373 -2.4890 0.9191
-18.8663 -9.1197 -2.4891 0.9191
-18.6802 -9.4983 -2.4893 0.9191
-18.2852 -10.2442 -2.4897 0.9190
-17.8245 -10.9517 -2.4850 0.9192
-16.5682 -11.1228 -2.3704 0.9228
-16.1236 -11.3017 -2.3389 0.9237
-15.1672 -12.5667 -2.3397 0.9237
-14.6516 -13.1696 -2.3401 0.9237
-14.3848 -13.4632 -2.3404 0.9237
-14.1121 -13.7514 -2.3406 0.9237
-13.8337 -14.0342 -2.3408 0.9237
-13.5496 -14.3112 -2.3410 0.9237
-12.9650 -14.8482 -2.3415 0.9237
-12.6647 -15.1078 -2.3417 0.9237
-12.3592 -15.3613 -2.3420 0.9237
-10.7583 -16.5346 -2.3432 0.9236
-10.4244 -16.7497 -2.3435 0.9236
-9.3973 -17.3543 -2.3443 0.9236
-9.0469 -17.5420 -2.3445 0.9236
-8.3352 -17.8961 -2.3451 0.9236
-7.9741 -18.0624 -2.3453 0.9235
-7.6097 -18.2215 -2.3456 0.9235
-4.5612 -11.5717 -1.4775 0.9511
-6.8715 -18.5175 -2.3462 0.9235
-6.4980 -18.6542 -2.3465 0.9235
-3.6913 -12.1511 -1.5085 0.9501
-3.2954 -11.6894 -1.4427 0.9523
-4.9784 -19.1257 -2.3476 0.9235
-4.5929 -19.2244 -2.3479 0.9235
-4.2053 -19.3153 -2.3481 0.9235
-3.0326 -19.5410 -2.3490 0.9234
-2.6389 -19.6005 -2.3493 0.9234
-1.0537 -19.7588 -2.3504 0.9234
-0.2574 -19.7899 -2.3510 0.9234
1.7341 -19.7273 -2.3524 0.9233
4.2734 -15.5066 -1.9106 0.9373
4.5964 -15.4566 -1.9155 0.9371
6.4131 -18.7647 -2.3556 0.9232
7.9054 -18.1955 -2.3566 0.9232
8.2710 -18.0345 -2.3568 0.9232
9.3476 -17.5074 -2.3575 0.9232
9.6991 -17.3173 -2.3577 0.9232
10.3905 -16.9160 -2.3582 0.9231
10.7300 -16.7049 -2.3584 0.9231
11.0651 -16.4869 -2.3586 0.9231
11.3959 -16.2622 -2.3588 0.9231
11.7220 -16.0309 -2.3590 0.9231
12.0435 -15.7929 -2.3592 0.9231
12.6717 -15.2978 -2.3596 0.9231
12.9782 -15.0407 -2.3598 0.9231
13.5753 -14.5082 -2.3602 0.9231
13.8658 -14.2330 -2.3603 0.9231
14.1506 -13.9520 -2.3605 0.9231
14.7029 -13.3728 -2.3608 0.9231
14.9702 -13.0749 -2.3610 0.9231
15.4864 -12.4631 -2.3613 0.9230
15.7352 -12.1495 -2.3614 0.9230
17.9411 -11.1690 -2.5104 0.9184
18.1990 -10.8273 -2.5154 0.9182
18.4141 -10.4591 -2.5156 0.9182
18.6218 -10.0866 -2.5157 0.9182
19.1990 -8.9450 -2.5159 0.9182
19.3759 -8.5569 -2.5160 0.9182
19.8588 -7.3721 -2.5162 0.9182
20.0037 -6.9709 -2.5163 0.9182
20.2690 -6.1601 -2.5164 0.9182
20.3893 -5.7508 -2.5165 0.9182
20.5012 -5.3392 -2.5165 0.9182
20.7000 -4.5096 -2.5165 0.9182
20.9348 -3.2516 -2.5166 0.9182
20.9960 -2.8294 -2.5166 0.9182
21.0928 -1.9818 -2.5166 0.9182
21.1282 -1.5567 -2.5165 0.9182
21.1551 -1.1309 -2.5165 0.9182
21.1733 -0.7047 -2.5165 0.9182
21.1012 1.8522 -2.5162 0.9182
21.0590 2.2766 -2.5161 0.9182
20.8810 3.5435 -2.5158 0.9182
20.8046 3.9631 -2.5157 0.9182
1.5509 16.5739 -2.3586 0.9350
1.2168 16.6007 -2.3585 0.9350
0.8822 16.6206 -2.3583 0.9350
0.2122 16.6397 -2.3579 0.9350
-0.4578 16.6311 -2.3573 0.9350
-0.7925 16.6164 -2.3570 0.9350
-1.7934 16.5309 -2.3560 0.9350
-2.7867 16.3837 -2.3547 0.9351
-3.4427 16.2516 -2.3538 0.9351
-3.0581 8.3854 -1.2647 0.9646
-6.3009 15.3294 -2.3483 0.9352
-6.9087 15.0540 -2.3469 0.9353
-8.0868 14.4300 -2.3437 0.9354
-8.3727 14.2592 -2.3429 0.9354
-8.6550 14.0826 -2.3421 0.9354
-9.7548 13.3335 -2.3408 0.9354
-10.5398 12.7176 -2.3403 0.9354
-10.7930 12.5019 -2.3402 0.9355
-11.0419 12.2813 -2.3400 0.9355
-11.9913 11.3502 -2.3395 0.9355
-12.2167 11.1059 -2.3393 0.9355
-12.4371 10.8570 -2.3392 0.9355
-12.6526 10.6038 -2.3391 0.9355
-12.8628 10.3464 -2.3389 0.9355
-13.0679 10.0848 -2.3388 0.9355
-11.6706 7.5915 -1.9727 0.9453
-11.4302 6.7964 -1.8842 0.9477
-11.4199 6.4826 -1.8606 0.9483
-11.4462 6.1962 -1.8442 0.9488
-11.4770 5.9172 -1.8296 0.9492
-11.9258 5.5527 -1.8639 0.9482
-12.7016 5.6055 -1.9672 0.9455
-16.3456 6.4405 -2.4893 0.9315
-16.5910 5.7770 -2.4892 0.9315
-16.8096 5.1041 -2.4891 0.9315
-16.9087 4.7645 -2.4891 0.9315
-17.0010 4.4231 -2.4890 0.9315
-17.0865 4.0798 -2.4890 0.9315
-17.2366 3.3885 -2.4890 0.9315
-17.3013 3.0407 -2.4890 0.9315
-17.3590 2.6917 -2.4890 0.9315
-17.4097 2.3416 -2.4890 0.9315
-17.4533 1.9906 -2.4890 0.9315
-17.5574 0.5799 -2.4891 0.9315
-17.5670 -0.1275 -2.4891 0.9315
-17.3224 -2.9441 -2.4896 0.9315
-17.2601 -3.2924 -2.4897 0.9315
-17.1909 -3.6394 -2.4898 0.9315
-16.8450 -5.0116 -2.4901 0.9315
-16.7414 -5.3500 -2.4902 0.9315
-16.5139 -6.0202 -2.4905 0.9315
-16.3901 -6.3518 -2.4906 0.9314
-16.2598 -6.6809 -2.4907 0.9314
-15.9793 -7.3309 -2.4910 0.9314
-15.8293 -7.6516 -2.4911 0.9314
-15.6729 -7.9693 -2.4913 0.9314
-15.5102 -8.2837 -2.4914 0.9314
-14.9846 -9.2067 -2.4919 0.9314
-14.7971 -9.5072 -2.4921 0.9314
-14.6037 -9.8039 -2.4922 0.9314
-14.4043 -10.0967 -2.4924 0.9314
-14.1991 -10.3854 -2.4926 0.9314
-13.9875 -10.6695 -2.4926 0.9314
-13.7467 -10.9305 -2.4884 0.9315
-12.8995 -11.1334 -2.4143 0.9335
-12.4008 -11.1465 -2.3625 0.9349
-11.8379 -11.5354 -2.3419 0.9354
-11.6041 -11.7723 -2.3421 0.9354
-11.1226 -12.2320 -2.3425 0.9354
-10.3665 -12.8845 -2.3431 0.9354
-10.1058 -13.0918 -2.3433 0.9354
-9.8410 -13.2938 -2.3435 0.9354
-9.5722 -13.4905 -2.3437 0.9354
-9.2995 -13.6817 -2.3440 0.9354
-9.0229 -13.8675 -2.3442 0.9353
-8.4589 -14.2221 -2.3446 0.9353
-7.8809 -14.5539 -2.3451 0.9353
-7.5869 -14.7110 -2.3453 0.9353
-7.2899 -14.8622 -2.3455 0.9353
-5.7619 -15.5273 -2.3466 0.9353
-4.1308 -11.8585 -1.7792 0.9505
-3.2759 -11.6200 -1.7106 0.9524
-4.1741 -16.0358 -2.3478 0.9352
-3.8508 -16.1183 -2.3481 0.9352
-2.8715 -16.3263 -2.3488 0.9352
-1.8811 -16.4748 -2.3495 0.9352
-1.5492 -16.5110 -2.3497 0.9352
-1.2165 -16.5406 -2.3500 0.9352
-0.8833 -16.5634 -2.3502 0.9352
-0.5497 -16.5795 -2.3504 0.9352
-0.2158 -16.5889 -2.3507 0.9352
0.7864 -16.5766 -2.3514 0.9352
1.1201 -16.5590 -2.3516 0.9351
1.4535 -16.5348 -2.3518 0.9351
2.1184 -16.4661 -2.3523 0.9351
2.4498 -16.4217 -2.3525 0.9351
2.7802 -16.3706 -2.3528 0.9351
3.1096 -16.3129 -2.3530 0.9351
3.7047 -15.9202 -2.3160 0.9361
4.0249 -15.8438 -2.3162 0.9361
4.5955 -15.4537 -2.2844 0.9369
4.9755 -15.5762 -2.3168 0.9361
5.2886 -15.4743 -2.3171 0.9361
5.5996 -15.3661 -2.3173 0.9361
6.3153 -15.3754 -2.3551 0.9351
6.6242 -15.2465 -2.3553 0.9350
6.9304 -15.1113 -2.3555 0.9350
7.5345 -14.8225 -2.3559 0.9350
7.8321 -14.6690 -2.3561 0.9350
8.1265 -14.5095 -2.3563 0.9350
8.4177 -14.3440 -2.3565 0.9350
8.7055 -14.1728 -2.3567 0.9350
8.9898 -13.9957 -2.3569 0.9350
9.5474 -13.6244 -2.3572 0.9350
10.0897 -13.2309 -2.3576 0.9350
10.3548 -13.0259 -2.3577 0.9350
11.6154 -11.9231 -2.3585 0.9350
11.8539 -11.6875 -2.3587 0.9350
12.0875 -11.4471 -2.3588 0.9350
12.4389 -11.3136 -2.3824 0.9343
12.9464 -11.3073 -2.4355 0.9329
13.4769 -11.3004 -2.4920 0.9314
14.0356 -10.8372 -2.5125 0.9309
14.2516 -10.5529 -2.5126 0.9309
14.4619 -10.2643 -2.5127 0.9309
15.0572 -9.3737 -2.5131 0.9309
15.2435 -9.0689 -2.5132 0.9308
15.4236 -8.7605 -2.5133 0.9308
15.5974 -8.4484 -2.5134 0.9308
16.0806 -7.4921 -2.5136 0.9308
16.3701 -6.8389 -2.5137 0.9308
16.5048 -6.5081 -2.5138 0.9308
16.6329 -6.1746 -2.5139 0.9308
16.7542 -5.8385 -2.5139 0.9308
16.8687 -5.5001 -2.5139 0.9308
17.0770 -4.8166 -2.5140 0.9308
17.1707 -4.4718 -2.5141 0.9308
17.2574 -4.1252 -2.5141 0.9308
17.3371 -3.7769 -2.5141 0.9308
17.4097 -3.4271 -2.5141 0.9308
17.4753 -3.0759 -2.5141 0.9308
17.5337 -2.7234 -2.5141 0.9308
17.5850 -2.3698 -2.5141 0.9308
17.6660 -1.6598 -2.5141 0.9308
17.6957 -1.3038 -2.5141 0.9308
17.7183 -0.9472 -2.5141 0.9308
17.7336 -0.5902 -2.5140 0.9308
17.7424 0.1243 -2.5140 0.9308
17.6383 1.9068 -2.5137 0.9308
17.5462 2.6153 -2.5136 0.9308
17.4895 2.9680 -2.5135 0.9308
17.4256 3.3194 -2.5134 0.9308
17.3547 3.6695 -2.5133 0.9308
17.2766 4.0180 -2.5132 0.9308
17.1916 4.3649 -2.5131 0.9309
17.0005 5.0532 -2.5129 0.9309
1.3289 14.2017 -2.3498 0.9438
0.7559 14.2420 -2.3495 0.9438
0.4690 14.2533 -2.3494 0.9438
0.1819 14.2587 -2.3492 0.9438
-0.3923 14.2518 -2.3487 0.9438
-0.6791 14.2395 -2.3485 0.9438
-0.9656 14.2212 -2.3482 0.9439
-1.5370 14.1671 -2.3476 0.9439
-2.1055 14.0896 -2.3469 0.9439
-2.3884 14.0420 -2.3465 0.9439
-2.9508 13.9296 -2.3457 0.9439
-3.5085 13.7966 -2.3452 0.9439
-3.7853 13.7220 -2.3450 0.9439
-4.0605 13.6420 -2.3448 0.9439
-3.0577 8.3841 -1.4702 0.9645
-5.6725 13.0472 -2.3437 0.9440
-6.1923 12.8063 -2.3434 0.9440
-7.2007 12.2631 -2.3427 0.9440
-7.9263 11.8037 -2.3423 0.9440
-8.3941 11.4735 -2.3420 0.9440
-9.0698 10.9439 -2.3416 0.9440
-9.2878 10.7584 -2.3414 0.9440
-9.5020 10.5686 -2.3413 0.9440
-9.7124 10.3746 -2.3412 0.9440
-10.1212 9.9741 -2.3409 0.9440
-10.3194 9.7678 -2.3408 0.9440
-10.5135 9.5575 -2.3407 0.9440
-10.7033 9.3435 -2.3406 0.9440
-11.7484 7.9833 -2.3400 0.9440
-11.9868 7.7971 -2.3557 0.9437
-12.0885 7.5213 -2.3454 0.9439
-13.1408 7.4595 -2.4893 0.9406
-13.2995 7.1994 -2.4914 0.9405
-13.4414 6.9300 -2.4913 0.9405
-12.6389 5.5778 -2.2759 0.9455
-14.0682 5.5432 -2.4910 0.9405
-14.1767 5.2587 -2.4910 0.9405
-14.8353 2.9164 -2.4907 0.9405
-14.8910 2.6171 -2.4907 0.9405
-14.9406 2.3167 -2.4907 0.9405
-15.0218 1.7133 -2.4907 0.9405
-15.0981 0.8033 -2.4908 0.9405
-15.1114 0.4991 -2.4908 0.9405
-15.1195 -0.1097 -2.4908 0.9405
-15.1145 -0.4141 -2.4909 0.9405
-15.0861 -1.0224 -2.4910 0.9405
-15.0627 -1.3260 -2.4910 0.9405
-14.9562 -2.2331 -2.4912 0.9405
-14.8549 -2.8336 -2.4913 0.9405
-14.7953 -3.1323 -2.4914 0.9405
-14.7297 -3.4296 -2.4915 0.9405
-14.5807 -4.0202 -2.4916 0.9405
-14.4973 -4.3131 -2.4917 0.9405
-14.3129 -4.8937 -2.4919 0.9405
-14.2121 -5.1811 -2.4920 0.9405
-13.9931 -5.7496 -2.4922 0.9405
-13.8752 -6.0305 -2.4923 0.9405
-13.6224 -6.5848 -2.4926 0.9405
-13.4877 -6.8581 -2.4927 0.9405
-13.3476 -7.1287 -2.4928 0.9405
-12.5669 -8.4366 -2.4935 0.9405
-12.3952 -8.6884 -2.4937 0.9405
-12.2185 -8.9367 -2.4938 0.9405
-12.0368 -9.1815 -2.4940 0.9405
-11.8503 -9.4226 -2.4941 0.9405
-11.6589 -9.6599 -2.4943 0.9405
-11.2619 -10.1228 -2.4946 0.9405
-10.8467 -10.5695 -2.4949 0.9405
-10.3934 -10.9776 -2.4904 0.9406
-9.7365 -11.1507 -2.4387 0.9418
-8.9871 -11.1701 -2.3618 0.9435
-8.6948 -11.2639 -2.3441 0.9439
-8.2355 -11.6066 -2.3445 0.9439
-8.0008 -11.7710 -2.3447 0.9439
-7.7628 -11.9306 -2.3449 0.9439
-7.0300 -12.3805 -2.3454 0.9439
-6.7798 -12.5206 -2.3456 0.9439
-6.5269 -12.6556 -2.3458 0.9439
-5.7523 -13.0298 -2.3464 0.9439
-4.8302 -11.5660 -2.0649 0.9505
-4.1089 -11.7958 -2.0577 0.9506
-3.9075 -11.9895 -2.0774 0.9502
-3.6789 -12.1105 -2.0851 0.9500
-3.2726 -11.6082 -1.9869 0.9523
-2.7518 -13.9884 -2.3486 0.9438
-2.1867 -14.0903 -2.3490 0.9438
-1.6179 -14.1694 -2.3494 0.9438
-1.0463 -14.2255 -2.3498 0.9438
-0.1856 -14.2664 -2.3504 0.9438
0.6763 -14.2553 -2.3510 0.9438
0.9632 -14.2400 -2.3512 0.9438
1.2499 -14.2189 -2.3514 0.9438
1.5361 -14.1921 -2.3516 0.9438
1.8217 -14.1595 -2.3518 0.9438
2.1066 -14.1211 -2.3520 0.9438
2.3907 -14.0770 -2.3522 0.9438
2.6739 -14.0272 -2.3524 0.9438
2.9560 -13.9716 -2.3526 0.9438
3.2370 -13.9104 -2.3528 0.9437
3.5167 -13.8435 -2.3530 0.9437
4.0719 -13.6929 -2.3534 0.9437
4.3471 -13.6092 -2.3536 0.9437
4.6206 -13.5200 -2.3538 0.9437
4.8923 -13.4252 -2.3539 0.9437
5.1620 -13.3250 -2.3541 0.9437
5.4297 -13.2194 -2.3543 0.9437
5.9584 -12.9920 -2.3546 0.9437
6.4776 -12.7433 -2.3550 0.9437
6.7334 -12.6112 -2.3551 0.9437
7.2367 -12.3316 -2.3555 0.9437
7.4840 -12.1842 -2.3556 0.9437
7.7284 -12.0318 -2.3558 0.9437
9.7345 -11.2816 -2.4548 0.9414
10.1333 -11.2764 -2.4975 0.9404
10.3904 -11.1044 -2.5053 0.9402
10.8506 -10.6983 -2.5102 0.9401
11.0643 -10.4782 -2.5104 0.9401
11.6784 -9.7925 -2.5107 0.9401
11.8738 -9.5558 -2.5108 0.9401
12.2500 -9.0707 -2.5111 0.9401
12.6062 -8.5708 -2.5113 0.9401
12.7767 -8.3156 -2.5114 0.9401
13.1021 -7.7949 -2.5115 0.9401
13.2568 -7.5298 -2.5116 0.9401
13.5500 -6.9903 -2.5118 0.9401
13.6884 -6.7162 -2.5118 0.9401
14.0700 -5.8780 -2.5120 0.9401
14.2958 -5.3070 -2.5121 0.9401
14.4000 -5.0181 -2.5122 0.9401
14.4983 -4.7272 -2.5122 0.9401
14.5908 -4.4344 -2.5122 0.9401
14.6773 -4.1398 -2.5123 0.9401
14.9632 -2.9455 -2.5123 0.9400
15.0196 -2.6436 -2.5123 0.9400
15.1139 -2.0367 -2.5123 0.9400
15.1518 -1.7320 -2.5123 0.9400
15.1835 -1.4266 -2.5123 0.9400
15.2091 -1.1206 -2.5123 0.9400
15.2284 -0.8141 -2.5123 0.9400
15.2438 0.4138 -2.5122 0.9401
15.2322 0.7207 -2.5121 0.9401
15.1903 1.3333 -2.5121 0.9401
15.1600 1.6389 -2.5120 0.9401
15.0810 2.2478 -2.5119 0.9401
15.0323 2.5510 -2.5118 0.9401
14.8496 3.4536 -2.5116 0.9401
14.7765 3.7517 -2.5115 0.9401
14.6125 4.3433 -2.5113 0.9401
1.4145 12.4159 -2.3488 0.9504
1.1641 12.4409 -2.3486 0.9504
0.9133 12.4609 -2.3484 0.9504
0.6622 12.4758 -2.3483 0.9504
0.4108 12.4856 -2.3481 0.9504
0.1593 12.4904 -2.3479 0.9504
-0.0922 12.4901 -2.3477 0.9504
-0.8459 12.4590 -2.3472 0.9504
-1.3467 12.4130 -2.3468 0.9505
-1.5962 12.3825 -2.3467 0.9505
-1.8451 12.3469 -2.3465 0.9505
-2.3404 12.2608 -2.3462 0.9505
-2.5866 12.2103 -2.3460 0.9505
-2.8317 12.1549 -2.3458 0.9505
-3.0757 12.0946 -2.3457 0.9505
-3.3184 12.0294 -2.3455 0.9505
-3.7995 11.8843 -2.3452 0.9505
-4.9731 11.4384 -2.3444 0.9505
-5.4289 11.2275 -2.3441 0.9505
-6.0958 10.8773 -2.3437 0.9505
-6.3132 10.7517 -2.3435 0.9505
-6.5280 10.6217 -2.3434 0.9505
-6.7401 10.4875 -2.3432 0.9505
-7.5604 9.9091 -2.3427 0.9505
-7.7580 9.7543 -2.3426 0.9505
-7.9525 9.5956 -2.3425 0.9505
-8.6970 8.9229 -2.3420 0.9506
-9.0484 8.5647 -2.3418 0.9506
-9.2187 8.3804 -2.3417 0.9506
-9.3851 8.1928 -2.3416 0.9506
-10.4975 7.7690 -2.4547 0.9482
-11.1178 7.2318 -2.4929 0.9475
-11.2608 7.0063 -2.4928 0.9475
-11.5331 6.5468 -2.4927 0.9475
-11.7867 6.0769 -2.4925 0.9475
-11.9064 5.8382 -2.4925 0.9475
-12.8315 3.3383 -2.4921 0.9475
-12.9553 2.8189 -2.4921 0.9475
-13.0582 2.2950 -2.4920 0.9475
-13.1400 1.7674 -2.4920 0.9475
-13.2398 0.7044 -2.4921 0.9475
-13.2514 0.4377 -2.4921 0.9475
-13.2577 0.1708 -2.4921 0.9475
-13.2586 -0.0962 -2.4922 0.9475
-13.2541 -0.3632 -2.4922 0.9475
-13.2443 -0.6300 -2.4922 0.9475
-13.2291 -0.8966 -2.4923 0.9475
-13.1828 -1.4285 -2.4923 0.9475
-13.0733 -2.2219 -2.4925 0.9475
-12.9163 -3.0074 -2.4927 0.9475
-12.8535 -3.2670 -2.4928 0.9475
-12.6340 -4.0374 -2.4930 0.9474
-12.1665 -5.2878 -2.4935 0.9474
-12.0580 -5.5320 -2.4936 0.9474
-11.9447 -5.7739 -2.4937 0.9474
-11.5758 -6.4853 -2.4940 0.9474
-11.4435 -6.7174 -2.4941 0.9474
-11.0187 -7.3971 -2.4945 0.9474
-10.8680 -7.6179 -2.4946 0.9474
-10.2221 -8.4695 -2.4952 0.9474
-10.0501 -8.6741 -2.4953 0.9474
-9.6938 -9.0728 -2.4956 0.9474
-9.3218 -9.4569 -2.4959 0.9474
-8.7355 -10.0043 -2.4964 0.9474
-8.5328 -10.1788 -2.4965 0.9474
-8.3267 -10.3492 -2.4967 0.9474
-8.1171 -10.5155 -2.4969 0.9474
-7.9043 -10.6775 -2.4970 0.9474
-7.6819 -10.8264 -2.4952 0.9474
-5.2709 -11.3170 -2.3466 0.9505
-5.0424 -11.4216 -2.3467 0.9505
-4.3446 -11.7079 -2.3472 0.9504
-4.1083 -11.7938 -2.3474 0.9504
-3.6306 -11.9515 -2.3478 0.9504
-3.1470 -12.0898 -2.3481 0.9504
-2.9031 -12.1516 -2.3483 0.9504
-2.6581 -12.2085 -2.3485 0.9504
-2.4119 -12.2605 -2.3487 0.9504
-1.9166 -12.3496 -2.3490 0.9504
-1.6676 -12.3866 -2.3492 0.9504
-1.4180 -12.4186 -2.3494 0.9504
-1.1677 -12.4456 -2.3496 0.9504
-0.6658 -12.4844 -2.3499 0.9504
-0.1626 -12.5030 -2.3503 0.9504
0.5927 -12.4929 -2.3508 0.9504
0.8442 -12.4793 -2.3510 0.9504
1.3461 -12.4371 -2.3513 0.9504
1.8460 -12.3746 -2.3517 0.9504
2.0950 -12.3358 -2.3518 0.9503
2.3431 -12.2920 -2.3520 0.9503
3.0816 -12.1307 -2.3525 0.9503
3.5680 -11.9985 -2.3529 0.9503
3.8092 -11.9250 -2.3530 0.9503
4.2868 -11.7636 -2.3533 0.9503
4.5231 -11.6757 -2.3535 0.9503
4.7576 -11.5830 -2.3536 0.9503
5.4493 -11.2768 -2.3541 0.9503
5.7280 -11.2686 -2.3760 0.9499
6.0152 -11.2661 -2.4005 0.9493
6.3084 -11.2633 -2.4265 0.9488
6.6080 -11.2602 -2.4540 0.9482
7.1914 -11.1959 -2.5011 0.9473
8.3045 -10.4468 -2.5084 0.9471
8.7193 -10.1050 -2.5087 0.9471
9.3148 -9.5616 -2.5090 0.9471
9.5059 -9.3725 -2.5092 0.9471
9.6931 -9.1796 -2.5093 0.9471
10.0557 -8.7826 -2.5095 0.9471
10.2310 -8.5787 -2.5096 0.9471
10.4020 -8.3713 -2.5097 0.9471
10.7315 -7.9463 -2.5099 0.9471
11.1928 -7.2846 -2.5101 0.9471
11.3375 -7.0580 -2.5102 0.9471
11.4777 -6.8285 -2.5103 0.9471
11.7440 -6.3612 -2.5104 0.9471
12.1075 -5.6410 -2.5106 0.9471
12.2188 -5.3962 -2.5107 0.9471
12.3253 -5.1491 -2.5107 0.9471
12.7814 -3.8845 -2.5109 0.9471
12.8571 -3.6264 -2.5109 0.9471
12.9277 -3.3668 -2.5109 0.9471
12.9929 -3.1058 -2.5110 0.9471
13.1076 -2.5802 -2.5110 0.9471
13.1569 -2.3158 -2.5110 0.9471
13.2727 -1.5172 -2.5110 0.9471
13.3229 -0.9816 -2.5110 0.9471
13.3399 -0.7131 -2.5110 0.9471
13.3582 0.0936 -2.5109 0.9471
13.3535 0.3625 -2.5109 0.9471
13.3433 0.6313 -2.5108 0.9471
13.2802 1.4357 -2.5107 0.9471
13.2111 1.9692 -2.5106 0.9471
13.1204 2.4993 -2.5105 0.9471
0.5888 11.0940 -2.3483 0.9556
0.3653 11.1029 -2.3482 0.9556
-0.0820 11.1071 -2.3479 0.9556
-0.5291 11.0933 -2.3476 0.9556
-0.7523 11.0796 -2.3474 0.9556
-0.9752 11.0615 -2.3472 0.9556
-2.0814 10.9039 -2.3465 0.9556
-2.3004 10.8591 -2.3463 0.9556
-2.5184 10.8099 -2.3462 0.9556
-2.7354 10.7563 -2.3460 0.9556
-2.9512 10.6984 -2.3459 0.9556
-3.0283 8.3035 -1.8683 0.9645
-4.6268 10.0817 -2.3448 0.9557
-5.0284 9.8861 -2.3445 0.9557
-5.6152 9.5630 -2.3441 0.9557
-5.8063 9.4475 -2.3440 0.9557
-6.7248 8.8138 -2.3434 0.9557
-6.9006 8.6762 -2.3433 0.9557
-7.0736 8.5351 -2.3432 0.9557
-7.2437 8.3906 -2.3431 0.9557
-7.4109 8.2427 -2.3430 0.9557
-7.5750 8.0915 -2.3429 0.9557
-7.7361 7.9370 -2.3428 0.9557
-7.8940 7.7793 -2.3427 0.9557
-8.2047 7.7661 -2.3880 0.9549
-8.5351 7.7590 -2.4382 0.9539
-8.8637 7.7376 -2.4871 0.9530
-9.0279 7.5661 -2.4899 0.9530
-9.4842 7.0190 -2.4941 0.9529
-10.0170 6.2325 -2.4938 0.9529
-10.1402 6.0293 -2.4937 0.9529
-10.3742 5.6159 -2.4936 0.9529
-10.5915 5.1934 -2.4935 0.9529
-10.6937 4.9790 -2.4934 0.9529
-11.1391 3.8786 -2.4932 0.9529
-11.2148 3.6535 -2.4932 0.9529
-11.4720 2.7392 -2.4931 0.9529
-11.5248 2.5077 -2.4931 0.9529
-11.5729 2.2751 -2.4931 0.9529
-11.6163 2.0416 -2.4931 0.9529
-11.6891 1.5722 -2.4931 0.9529
-11.7430 1.1003 -2.4931 0.9529
-11.7628 0.8636 -2.4931 0.9529
-11.7945 -0.0856 -2.4932 0.9529
-11.7905 -0.3231 -2.4932 0.9529
-11.7818 -0.5604 -2.4932 0.9529
-11.7683 -0.7975 -2.4933 0.9529
-11.7500 -1.0344 -2.4933 0.9529
-11.7270 -1.2708 -2.4934 0.9529
-11.6992 -1.5067 -2.4934 0.9529
-11.6667 -1.7420 -2.4934 0.9529
-11.5410 -2.4433 -2.4936 0.9529
-11.4898 -2.6752 -2.4937 0.9529
-11.3733 -3.1358 -2.4938 0.9529
-11.2385 -3.5914 -2.4939 0.9529
-11.1642 -3.8171 -2.4940 0.9529
-11.0022 -4.2638 -2.4942 0.9529
-10.9145 -4.4846 -2.4943 0.9529
-10.7258 -4.9208 -2.4944 0.9529
-10.6250 -5.1359 -2.4945 0.9529
-10.5198 -5.3490 -2.4946 0.9529
-10.4104 -5.5600 -2.4947 0.9529
-10.2968 -5.7687 -2.4948 0.9529
-10.1789 -5.9751 -2.4949 0.9529
-10.0570 -6.1792 -2.4950 0.9529
-9.8009 -6.5796 -2.4953 0.9529
-9.3871 -7.1604 -2.4956 0.9529
-9.2415 -7.3483 -2.4957 0.9529
-8.9390 -7.7152 -2.4960 0.9529
-8.7823 -7.8940 -2.4961 0.9529
-8.6221 -8.0697 -2.4963 0.9529
-8.4583 -8.2421 -2.4964 0.9529
-8.2911 -8.4112 -2.4965 0.9529
-7.9466 -8.7392 -2.4968 0.9529
-7.7694 -8.8979 -2.4969 0.9529
-7.5891 -9.0531 -2.4971 0.9529
-7.2193 -9.3524 -2.4974 0.9528
-7.0299 -9.4964 -2.4975 0.9528
-6.8377 -9.6366 -2.4977 0.9528
-6.6427 -9.7729 -2.4978 0.9528
-6.2446 -10.0337 -2.4981 0.9528
-6.0417 -10.1580 -2.4983 0.9528
-5.8363 -10.2783 -2.4984 0.9528
-5.6285 -10.3944 -2.4986 0.9528
-5.2061 -10.6139 -2.4989 0.9528
-4.7724 -10.8101 -2.4978 0.9528
-4.5514 -10.8983 -2.4965 0.9529
-4.1050 -11.0621 -2.4941 0.9529
-3.8797 -11.1377 -2.4930 0.9529
-3.6449 -11.1837 -2.4864 0.9530
-3.3987 -11.1881 -2.4717 0.9533
-3.1553 -11.1923 -2.4581 0.9536
-2.9144 -11.1963 -2.4455 0.9538
-2.6758 -11.2001 -2.4341 0.9540
-2.4393 -11.2036 -2.4237 0.9542
-2.2046 -11.2070 -2.4143 0.9544
-1.9717 -11.2101 -2.4060 0.9545
-1.7402 -11.2131 -2.3986 0.9547
-1.5100 -11.2159 -2.3922 0.9548
-1.0528 -11.2208 -2.3823 0.9550
-0.3722 -11.2270 -2.3745 0.9551
0.5329 -11.2327 -2.3770 0.9551
0.7599 -11.2337 -2.3800 0.9550
1.2160 -11.2352 -2.3888 0.9548
4.4989 -10.9533 -2.5030 0.9527
4.9424 -10.7766 -2.5061 0.9527
5.1587 -10.6755 -2.5062 0.9527
5.7947 -10.3462 -2.5066 0.9527
6.2073 -10.1056 -2.5069 0.9527
6.6098 -9.8485 -2.5072 0.9527
6.8071 -9.7139 -2.5073 0.9527
7.0017 -9.5754 -2.5074 0.9527
7.1934 -9.4329 -2.5075 0.9527
7.3822 -9.2865 -2.5077 0.9527
7.7508 -8.9826 -2.5079 0.9527
7.9305 -8.8251 -2.5080 0.9526
8.1069 -8.6640 -2.5081 0.9526
8.2801 -8.4994 -2.5082 0.9526
8.7791 -7.9849 -2.5085 0.9526
8.9385 -7.8068 -2.5086 0.9526
9.0942 -7.6255 -2.5087 0.9526
9.9489 -6.4751 -2.5092 0.9526
10.0775 -6.2737 -2.5092 0.9526
10.2021 -6.0696 -2.5093 0.9526
10.3225 -5.8631 -2.5094 0.9526
10.9553 -4.5768 -2.5097 0.9526
11.1310 -4.1321 -2.5098 0.9526
11.2886 -3.6807 -2.5098 0.9526
11.3606 -3.4527 -2.5099 0.9526
11.4279 -3.2233 -2.5099 0.9526
11.5486 -2.7606 -2.5099 0.9526
11.6943 -2.0583 -2.5099 0.9526
11.8220 -1.1107 -2.5099 0.9526
11.8419 -0.8725 -2.5099 0.9526
11.8673 -0.3950 -2.5099 0.9526
11.8727 -0.1559 -2.5099 0.9526
11.8691 0.3222 -2.5098 0.9526
11.8601 0.5611 -2.5098 0.9526
11.8462 0.7998 -2.5098 0.9526
11.8275 1.0382 -2.5097 0.9526
11.8040 1.2761 -2.5097 0.9526
11.7757 1.5135 -2.5096 0.9526
11.7426 1.7502 -2.5096 0.9526
11.7048 1.9863 -2.5095 0.9526
11.6622 2.2215 -2.5095 0.9526
11.6148 2.4558 -2.5094 0.9526
11.5627 2.6892 -2.5094 0.9526
11.5059 2.9213 -2.5093 0.9526
11.3783 3.3821 -2.5092 0.9526
1.1313 9.9299 -2.3489 0.9598
0.9311 9.9500 -2.3487 0.9598
0.3286 9.9863 -2.3483 0.9598
0.1274 9.9903 -2.3481 0.9598
-0.0738 9.9902 -2.3480 0.9598
-0.2749 9.9861 -2.3479 0.9598
-0.4759 9.9779 -2.3477 0.9598
-0.6767 9.9657 -2.3476 0.9598
-0.8771 9.9495 -2.3474 0.9598
-1.2769 9.9050 -2.3472 0.9598
-1.4759 9.8767 -2.3470 0.9598
-1.8722 9.8081 -2.3467 0.9598
-2.0692 9.7678 -2.3466 0.9598
-2.2653 9.7237 -2.3465 0.9598
-2.4605 9.6755 -2.3463 0.9598
-2.6547 9.6235 -2.3462 0.9598
-2.8478 9.5676 -2.3461 0.9598
-3.0397 9.5077 -2.3460 0.9598
-3.0250 8.2947 -2.0750 0.9644
-4.1621 9.0692 -2.3452 0.9598
-4.3437 8.9831 -2.3451 0.9598
-4.5234 8.8933 -2.3450 0.9598
-4.8774 8.7032 -2.3447 0.9598
-5.0514 8.6028 -2.3446 0.9598
-5.3931 8.3916 -2.3444 0.9598
-6.0498 7.9291 -2.3440 0.9598
-7.2354 7.7287 -2.4882 0.9574
-7.3964 7.5884 -2.4905 0.9574
-7.5548 7.4450 -2.4928 0.9574
-7.7106 7.2984 -2.4952 0.9573
-8.4040 6.4855 -2.4949 0.9573
-8.5326 6.3148 -2.4948 0.9573
-8.6578 6.1416 -2.4947 0.9573
-8.7795 5.9658 -2.4947 0.9573
-8.8976 5.7877 -2.4946 0.9573
-9.0121 5.6072 -2.4946 0.9573
-9.1230 5.4245 -2.4945 0.9573
-9.2301 5.2396 -2.4944 0.9573
-9.3336 5.0526 -2.4944 0.9573
-9.4332 4.8635 -2.4943 0.9573
-9.5290 4.6725 -2.4943 0.9573
-9.6210 4.4796 -2.4942 0.9573
-9.7091 4.2849 -2.4942 0.9573
-9.8734 3.8904 -2.4941 0.9573
-9.9497 3.6907 -2.4941 0.9573
-10.1540 3.0832 -2.4940 0.9573
-10.2139 2.8781 -2.4940 0.9573
-10.2697 2.6718 -2.4940 0.9573
-10.4122 2.0469 -2.4939 0.9573
-10.5167 1.4145 -2.4939 0.9573
-10.5431 1.2025 -2.4939 0.9573
-10.5652 0.9900 -2.4939 0.9573
-10.6058 0.3503 -2.4940 0.9573
-10.6108 0.1367 -2.4940 0.9573
-10.5879 -0.7175 -2.4941 0.9573
-10.4630 -1.7783 -2.4943 0.9573
-10.4252 -1.9886 -2.4943 0.9573
-10.3833 -2.1982 -2.4944 0.9573
-10.3372 -2.4069 -2.4945 0.9573
-10.2868 -2.6146 -2.4945 0.9573
-10.2323 -2.8212 -2.4946 0.9573
-10.1110 -3.2311 -2.4947 0.9573
-10.0441 -3.4341 -2.4948 0.9573
-9.9732 -3.6358 -2.4948 0.9573
-9.8983 -3.8360 -2.4949 0.9573
-9.8194 -4.0346 -2.4950 0.9573
-9.7364 -4.2317 -2.4951 0.9573
-9.3657 -5.0020 -2.4954 0.9573
-9.0476 -5.5590 -2.4957 0.9573
-8.3137 -6.6106 -2.4963 0.9573
-8.1793 -6.7769 -2.4964 0.9573
-8.0416 -6.9406 -2.4965 0.9573
-7.9005 -7.1014 -2.4967 0.9573
-7.7563 -7.2594 -2.4968 0.9573
-7.4585 -7.5666 -2.4970 0.9573
-6.9891 -8.0043 -2.4974 0.9573
-6.4941 -8.4129 -2.4978 0.9573
-6.1508 -8.6685 -2.4981 0.9573
-5.7974 -8.9101 -2.4983 0.9573
-5.6172 -9.0255 -2.4985 0.9573
-5.2498 -9.2454 -2.4988 0.9573
-5.0629 -9.3498 -2.4989 0.9573
-4.6828 -9.5471 -2.4992 0.9572
-4.4899 -9.6401 -2.4993 0.9572
-4.2952 -9.7291 -2.4995 0.9572
-3.7006 -9.9724 -2.4999 0.9572
-3.2965 -10.1146 -2.5002 0.9572
-2.8869 -10.2403 -2.5005 0.9572
-2.6803 -10.2970 -2.5007 0.9572
-2.0541 -10.4419 -2.5011 0.9572
-1.6322 -10.5175 -2.5014 0.9572
-1.2076 -10.5759 -2.5017 0.9572
-0.5670 -10.6315 -2.5022 0.9572
-0.3528 -10.6414 -2.5023 0.9572
-0.1385 -10.6470 -2.5025 0.9572
0.0759 -10.6483 -2.5027 0.9572
0.2903 -10.6452 -2.5028 0.9572
0.7188 -10.6262 -2.5031 0.9572
0.9327 -10.6102 -2.5032 0.9572
1.1462 -10.5899 -2.5034 0.9572
1.5718 -10.5364 -2.5037 0.9572
1.9950 -10.4658 -2.5040 0.9572
2.2055 -10.4241 -2.5041 0.9572
2.4150 -10.3781 -2.5043 0.9572
2.6237 -10.3280 -2.5044 0.9572
2.8313 -10.2736 -2.5046 0.9572
3.4469 -10.0856 -2.5050 0.9571
3.6495 -10.0147 -2.5051 0.9571
3.8506 -9.9398 -2.5052 0.9571
4.0502 -9.8607 -2.5054 0.9571
4.6388 -9.5997 -2.5058 0.9571
5.7637 -8.9732 -2.5065 0.9571
5.9435 -8.8557 -2.5066 0.9571
6.1209 -8.7346 -2.5067 0.9571
6.8050 -8.2153 -2.5071 0.9571
7.1308 -7.9352 -2.5073 0.9571
7.2894 -7.7903 -2.5074 0.9571
7.4451 -7.6423 -2.5075 0.9571
7.5977 -7.4911 -2.5076 0.9571
7.7473 -7.3369 -2.5077 0.9571
7.8937 -7.1796 -2.5078 0.9571
8.3136 -6.6906 -2.5080 0.9571
8.5768 -6.3508 -2.5082 0.9571
8.8260 -6.0007 -2.5083 0.9571
8.9453 -5.8219 -2.5084 0.9571
9.0609 -5.6408 -2.5085 0.9571
9.2811 -5.2716 -2.5086 0.9571
9.4862 -4.8938 -2.5087 0.9571
9.6759 -4.5081 -2.5088 0.9571
9.8499 -4.1150 -2.5089 0.9571
10.0808 -3.5130 -2.5090 0.9571
10.4312 -2.2725 -2.5091 0.9571
10.5494 -1.6386 -2.5091 0.9571
10.6291 -0.9986 -2.5091 0.9571
10.6470 -0.7844 -2.5091 0.9571
10.6606 -0.5699 -2.5091 0.9571
10.6698 -0.3551 -2.5090 0.9571
10.6747 -0.1402 -2.5090 0.9571
10.6753 0.0748 -2.5090 0.9571
10.6342 0.9334 -2.5089 0.9571
10.5239 1.7859 -2.5087 0.9571
10.3452 2.6267 -2.5085 0.9571
10.2900 2.8343 -2.5084 0.9571
10.2305 3.0409 -2.5084 0.9571
0.4808 9.0576 -2.3485 0.9632
-0.0670 9.0686 -2.3481 0.9632
-0.4320 9.0576 -2.3478 0.9632
-0.6142 9.0466 -2.3477 0.9632
-1.5200 8.9366 -2.3471 0.9632
-1.8784 8.8673 -2.3468 0.9632
-2.4100 8.7363 -2.3465 0.9632
-2.5853 8.6856 -2.3464 0.9632
-2.8770 8.4111 -2.3017 0.9639
-3.0218 8.2858 -2.2836 0.9642
-3.2751 8.4478 -2.3459 0.9633
-3.4443 8.3797 -2.3458 0.9633
-3.9434 8.1554 -2.3455 0.9633
-4.5860 7.8102 -2.3450 0.9633
-4.7627 7.7494 -2.3551 0.9631
-4.9779 7.7455 -2.3839 0.9627
-5.1984 7.7414 -2.4144 0.9622
-5.8344 7.6469 -2.4904 0.9610
-7.1326 6.4840 -2.4958 0.9610
-7.2615 6.3389 -2.4957 0.9610
-7.5104 6.0411 -2.4956 0.9610
-7.6303 5.8884 -2.4955 0.9610
-7.8608 5.5762 -2.4954 0.9610
-7.9712 5.4166 -2.4953 0.9610
-8.3805 4.7573 -2.4951 0.9610
-8.4744 4.5875 -2.4950 0.9610
-8.6519 4.2424 -2.4949 0.9610
-8.9647 3.5323 -2.4948 0.9610
-9.0994 3.1684 -2.4947 0.9610
-9.2739 2.6132 -2.4947 0.9610
-9.3246 2.4259 -2.4947 0.9610
-9.3715 2.2377 -2.4947 0.9610
-9.5210 1.4764 -2.4946 0.9610
-9.5728 1.0918 -2.4946 0.9610
-9.6213 0.5119 -2.4947 0.9610
-9.6297 0.3181 -2.4947 0.9610
-9.6342 0.1241 -2.4947 0.9610
-9.6244 -0.4578 -2.4948 0.9610
-9.6134 -0.6515 -2.4948 0.9610
-9.5984 -0.8449 -2.4948 0.9610
-9.5796 -1.0380 -2.4948 0.9610
-9.5569 -1.2308 -2.4949 0.9610
-9.5303 -1.4230 -2.4949 0.9610
-9.4999 -1.6146 -2.4950 0.9610
-9.4656 -1.8056 -2.4950 0.9610
-9.4275 -1.9958 -2.4951 0.9610
-9.2904 -2.5616 -2.4952 0.9610
-9.1802 -2.9337 -2.4953 0.9610
-9.1195 -3.1180 -2.4954 0.9610
-9.0551 -3.3011 -2.4955 0.9610
-8.9870 -3.4828 -2.4955 0.9610
-8.9153 -3.6632 -2.4956 0.9610
-8.8400 -3.8421 -2.4957 0.9610
-8.6786 -4.1951 -2.4958 0.9610
-8.4104 -4.7119 -2.4961 0.9610
-8.2144 -5.0470 -2.4962 0.9609
-8.1114 -5.2116 -2.4963 0.9609
-8.0051 -5.3741 -2.4964 0.9609
-7.8956 -5.5344 -2.4965 0.9609
-7.7828 -5.6924 -2.4966 0.9609
-7.5479 -6.0017 -2.4968 0.9609
-7.3008 -6.3012 -2.4970 0.9609
-7.0417 -6.5906 -2.4972 0.9609
-6.9079 -6.7314 -2.4973 0.9609
-6.6319 -7.0046 -2.4975 0.9609
-6.4898 -7.1371 -2.4977 0.9609
-6.3451 -7.2667 -2.4978 0.9609
-6.1977 -7.3933 -2.4979 0.9609
-6.0479 -7.5169 -2.4980 0.9609
-5.8956 -7.6376 -2.4981 0.9609
-5.4245 -7.9807 -2.4985 0.9609
-4.7658 -8.3930 -2.4990 0.9609
-4.2510 -8.6668 -2.4994 0.9609
-3.8991 -8.8319 -2.4997 0.9609
-3.3593 -9.0526 -2.5001 0.9609
-3.1765 -9.1189 -2.5002 0.9609
-2.8071 -9.2404 -2.5005 0.9609
-2.6206 -9.2956 -2.5006 0.9609
-2.4330 -9.3470 -2.5007 0.9609
-2.2444 -9.3946 -2.5009 0.9609
-2.0549 -9.4384 -2.5010 0.9609
-1.6734 -9.5146 -2.5013 0.9609
-1.0961 -9.5998 -2.5017 0.9609
-0.9027 -9.6205 -2.5019 0.9609
-0.5146 -9.6501 -2.5021 0.9609
0.0689 -9.6651 -2.5025 0.9609
0.4581 -9.6556 -2.5028 0.9608
0.6524 -9.6449 -2.5030 0.9608
0.8465 -9.6304 -2.5031 0.9608
1.0403 -9.6119 -2.5032 0.9608
1.4266 -9.5632 -2.5035 0.9608
1.8107 -9.4990 -2.5038 0.9608
2.0017 -9.4611 -2.5039 0.9608
2.1919 -9.4194 -2.5040 0.9608
2.5697 -9.3245 -2.5043 0.9608
2.9433 -9.2144 -2.5045 0.9608
3.4947 -9.0212 -2.5049 0.9608
3.6759 -8.9494 -2.5050 0.9608
4.5578 -8.5366 -2.5056 0.9608
5.0656 -8.2469 -2.5059 0.9608
5.2308 -8.1436 -2.5060 0.9608
5.3940 -8.0370 -2.5061 0.9608
5.5549 -7.9270 -2.5062 0.9608
5.8700 -7.6976 -2.5064 0.9608
6.1757 -7.4555 -2.5066 0.9608
6.6152 -7.0698 -2.5069 0.9608
7.0307 -6.6582 -2.5071 0.9608
7.4205 -6.2222 -2.5074 0.9608
7.6655 -5.9187 -2.5075 0.9608
7.7833 -5.7633 -2.5076 0.9608
7.8980 -5.6056 -2.5076 0.9608
8.1177 -5.2833 -2.5078 0.9608
8.3242 -4.9524 -2.5079 0.9608
8.7806 -4.0910 -2.5081 0.9608
8.9385 -3.7342 -2.5082 0.9608
9.0818 -3.3714 -2.5082 0.9608
9.1479 -3.1879 -2.5083 0.9608
9.2104 -3.0031 -2.5083 0.9608
9.3751 -2.4416 -2.5083 0.9608
9.4224 -2.2523 -2.5084 0.9608
9.4659 -2.0622 -2.5084 0.9608
9.5055 -1.8712 -2.5084 0.9608
9.6012 -1.2939 -2.5084 0.9608
9.6455 -0.9062 -2.5084 0.9608
9.6617 -0.7118 -2.5084 0.9608
9.6740 -0.5171 -2.5084 0.9608
9.6824 -0.3222 -2.5083 0.9608
9.6869 -0.1272 -2.5083 0.9608
9.6654 0.6526 -2.5082 0.9608
9.6501 0.8471 -2.5082 0.9608
9.5810 1.4281 -2.5081 0.9608
9.5154 1.8126 -2.5080 0.9608
9.4768 2.0038 -2.5080 0.9608
9.4343 2.1942 -2.5079 0.9608
0.9392 8.2439 -2.3489 0.9661
0.4397 8.2843 -2.3485 0.9661
0.1058 8.2945 -2.3483 0.9661
-0.0612 8.2945 -2.3482 0.9661
-0.2282 8.2912 -2.3481 0.9661
-0.3951 8.2845 -2.3479 0.9661
-0.5618 8.2745 -2.3478 0.9661
-0.8944 8.2443 -2.3476 0.9661
-1.2255 8.2008 -2.3474 0.9661
-1.5546 8.1440 -2.3471 0.9661
-1.7181 8.1107 -2.3470 0.9661
-2.0431 8.0342 -2.3468 0.9661
-2.2044 7.9911 -2.3467 0.9661
-2.3647 7.9447 -2.3466 0.9661
-2.6824 7.8423 -2.3464 0.9661
-2.8397 7.7864 -2.3463 0.9661
-3.0012 7.7414 -2.3505 0.9661
-3.3626 7.7342 -2.3875 0.9655
-3.7371 7.7287 -2.4303 0.9649
-4.1256 7.7224 -2.4786 0.9643
-4.6120 7.5043 -2.4936 0.9640
-4.9162 7.3211 -2.4965 0.9640
-5.2082 7.1189 -2.4971 0.9640
-5.4902 6.9030 -2.4969 0.9640
-5.6279 6.7908 -2.4968 0.9640
-5.7633 6.6759 -2.4967 0.9640
-5.8964 6.5583 -2.4967 0.9640
-6.0271 6.4380 -2.4966 0.9640
-6.2810 6.1897 -2.4964 0.9640
-6.4042 6.0618 -2.4963 0.9640
-6.7579 5.6637 -2.4961 0.9640
-7.0870 5.2449 -2.4959 0.9640
-7.2921 4.9551 -2.4958 0.9640
-7.5775 4.5055 -2.4957 0.9640
-7.6665 4.3520 -2.4956 0.9640
-7.8352 4.0396 -2.4955 0.9640
-7.9913 3.7208 -2.4955 0.9640
-8.0645 3.5590 -2.4954 0.9640
-8.1344 3.3959 -2.4954 0.9640
-8.2010 3.2314 -2.4954 0.9640
-8.2643 3.0656 -2.4953 0.9640
-8.3809 2.7303 -2.4953 0.9640
-8.4839 2.3906 -2.4953 0.9640
-8.5303 2.2193 -2.4952 0.9640
-8.6126 1.8740 -2.4952 0.9640
-8.6811 1.5257 -2.4952 0.9640
-8.7100 1.3506 -2.4952 0.9640
-8.7354 1.1750 -2.4952 0.9640
-8.7573 0.9988 -2.4952 0.9640
-8.8017 0.4683 -2.4952 0.9640
-8.8094 0.2910 -2.4953 0.9640
-8.8136 0.1135 -2.4953 0.9640
-8.7807 -0.7730 -2.4954 0.9640
-8.7635 -0.9496 -2.4954 0.9640
-8.7427 -1.1259 -2.4954 0.9640
-8.6592 -1.6518 -2.4956 0.9640
-8.6243 -1.8258 -2.4956 0.9640
-8.5441 -2.1716 -2.4957 0.9640
-8.4989 -2.3433 -2.4957 0.9640
-8.4501 -2.5140 -2.4958 0.9640
-8.3980 -2.6837 -2.4958 0.9640
-8.2212 -3.1860 -2.4960 0.9640
-8.1556 -3.3510 -2.4961 0.9640
-8.0145 -3.6769 -2.4962 0.9640
-7.8604 -3.9968 -2.4964 0.9640
-7.6936 -4.3103 -2.4965 0.9640
-7.5143 -4.6169 -2.4967 0.9640
-7.4200 -4.7674 -2.4968 0.9640
-7.3228 -4.9160 -2.4968 0.9640
-7.1194 -5.2072 -2.4970 0.9640
