ply
format ascii 1.0
element vertex 1557
property float32 x
property float32 y
property float32 z
property float32 I
end_header
22.7308 -11.3987 -2.4413 0.9029
22.9529 -10.9376 -2.4410 0.9029
23.1622 -10.4706 -2.4403 0.9029
23.3623 -9.9998 -2.4397 0.9029
23.5530 -9.5251 -2.4391 0.9029
23.7344 -9.0470 -2.4385 0.9030
23.9063 -8.5656 -2.4380 0.9030
24.0687 -8.0809 -2.4375 0.9030
24.4983 -6.6098 -2.4361 0.9031
24.9351 -4.6152 -2.4345 0.9031
25.0197 -4.1118 -2.4342 0.9031
25.0944 -3.6070 -2.4339 0.9031
25.1593 -3.1008 -2.4337 0.9032
25.3193 -1.0669 -2.4329 0.9032
25.3344 -0.5571 -2.4328 0.9032
25.3395 -0.0470 -2.4327 0.9032
25.3197 0.9728 -2.4326 0.9032
25.2949 1.4822 -2.4326 0.9032
25.2153 2.4991 -2.4327 0.9032
25.1607 3.0062 -2.4327 0.9032
25.0961 3.5122 -2.4328 0.9032
24.7391 5.5208 -2.4335 0.9032
24.6254 6.0182 -2.4337 0.9032
24.5019 6.5133 -2.4340 0.9031
23.3342 7.2201 -2.3450 0.9065
22.4554 7.9518 -2.2870 0.9087
22.2944 8.4035 -2.2874 0.9087
21.9460 9.2973 -2.2882 0.9087
-10.0708 9.6735 -1.6587 0.9453
-14.7799 13.6355 -2.3887 0.9222
-15.5914 12.7313 -2.3910 0.9221
-15.8495 12.4189 -2.3918 0.9221
-16.1013 12.1011 -2.3926 0.9221
-16.5852 11.4502 -2.3940 0.9220
-17.0423 10.7795 -2.3954 0.9220
-17.2605 10.4372 -2.3960 0.9220
-17.8728 9.3837 -2.3979 0.9219
-18.0624 9.0242 -2.3984 0.9219
-18.5866 7.9231 -2.4001 0.9218
-20.4222 6.8230 -2.5577 0.9169
-20.5589 6.4117 -2.5581 0.9169
-20.8069 5.5808 -2.5589 0.9169
-20.9181 5.1617 -2.5593 0.9169
-21.0206 4.7402 -2.5597 0.9169
-21.1995 3.8913 -2.5603 0.9168
-21.4021 2.6056 -2.5610 0.9168
-21.4519 2.1745 -2.5612 0.9168
-21.4928 1.7424 -2.5614 0.9168
-21.5249 1.3095 -2.5616 0.9168
-21.5509 -0.8600 -2.5620 0.9168
-21.3538 -3.0207 -2.5618 0.9168
-21.2877 -3.4497 -2.5617 0.9168
-21.2128 -3.8773 -2.5615 0.9168
-21.1291 -4.3032 -2.5614 0.9168
-21.0367 -4.7273 -2.5612 0.9168
-20.8257 -5.5691 -2.5607 0.9168
-20.7073 -5.9866 -2.5605 0.9168
-20.4448 -6.8135 -2.5599 0.9169
-19.9880 -8.0316 -2.5588 0.9169
-19.6422 -8.8267 -2.5580 0.9169
-19.4572 -9.2186 -2.5575 0.9169
-19.0632 -9.9905 -2.5566 0.9170
-18.8544 -10.3701 -2.5561 0.9170
-16.9031 -11.1558 -2.4057 0.9217
-16.6193 -11.4553 -2.3977 0.9219
-15.6276 -12.7414 -2.3951 0.9220
-15.0934 -13.3523 -2.3938 0.9220
-14.8172 -13.6493 -2.3930 0.9221
-14.5350 -13.9405 -2.3923 0.9221
-14.2470 -14.2258 -2.3916 0.9221
-13.9534 -14.5051 -2.3908 0.9221
-13.3494 -15.0450 -2.3892 0.9222
-13.0395 -15.3054 -2.3884 0.9222
-12.7244 -15.5594 -2.3876 0.9222
-12.4042 -15.8067 -2.3867 0.9223
-12.0792 -16.0474 -2.3859 0.9223
-10.6611 -15.4187 -2.2271 0.9273
-10.1478 -15.3261 -2.1834 0.9286
-10.2210 -16.8749 -2.3435 0.9236
-9.5260 -17.2589 -2.3417 0.9237
-9.1730 -17.4401 -2.3407 0.9237
-8.9225 -17.8257 -2.3679 0.9228
-8.5934 -18.0679 -2.3766 0.9226
-8.2245 -18.2296 -2.3756 0.9226
-7.8527 -18.3837 -2.3746 0.9226
-6.3377 -18.9230 -2.3705 0.9228
-4.7867 -19.3371 -2.3663 0.9229
-4.0010 -19.4965 -2.3642 0.9230
-3.2101 -19.6238 -2.3620 0.9230
-2.8132 -19.6754 -2.3609 0.9231
-2.4155 -19.7189 -2.3598 0.9231
-2.0172 -19.7544 -2.3587 0.9231
-1.6184 -19.7818 -2.3577 0.9232
-0.4210 -19.8157 -2.3544 0.9233
-0.0221 -19.8109 -2.3533 0.9233
1.1719 -19.7484 -2.3500 0.9234
1.5684 -19.7116 -2.3489 0.9234
1.9639 -19.6669 -2.3478 0.9235
2.3583 -19.6142 -2.3467 0.9235
3.1429 -19.4853 -2.3445 0.9236
3.5328 -19.4091 -2.3434 0.9236
4.3071 -19.2334 -2.3412 0.9237
4.6912 -19.1340 -2.3402 0.9237
6.2037 -18.6609 -2.3359 0.9238
8.0295 -17.9036 -2.3308 0.9240
8.3846 -17.7307 -2.3298 0.9240
9.4274 -17.1706 -2.3268 0.9241
10.7602 -16.3300 -2.3230 0.9242
11.3997 -15.8711 -2.3212 0.9243
9.0533 -12.0834 -1.7935 0.9410
10.2346 -13.1020 -1.9749 0.9352
10.6810 -13.1203 -2.0096 0.9341
12.6201 -14.8803 -2.3177 0.9244
12.9124 -14.6179 -2.3168 0.9244
13.4806 -14.0764 -2.3152 0.9245
13.7565 -13.7974 -2.3144 0.9245
14.0266 -13.5131 -2.3136 0.9245
14.5494 -12.9290 -2.3120 0.9246
14.8020 -12.6295 -2.3113 0.9246
15.2888 -12.0161 -2.3099 0.9247
15.5229 -11.7024 -2.3092 0.9247
15.7506 -11.3843 -2.3085 0.9247
17.0639 -11.3166 -2.4322 0.9208
17.4350 -11.0641 -2.4528 0.9202
17.6733 -10.7225 -2.4555 0.9201
17.8809 -10.3619 -2.4549 0.9201
18.0814 -9.9975 -2.4543 0.9201
18.9731 -8.1210 -2.4515 0.9202
19.1289 -7.7360 -2.4510 0.9202
19.2771 -7.3480 -2.4506 0.9203
19.4175 -6.9572 -2.4501 0.9203
19.5502 -6.5638 -2.4497 0.9203
19.6751 -6.1680 -2.4493 0.9203
19.7921 -5.7698 -2.4489 0.9203
19.9013 -5.3695 -2.4485 0.9203
20.0025 -4.9671 -2.4482 0.9203
20.1811 -4.1570 -2.4476 0.9204
20.3277 -3.3408 -2.4470 0.9204
20.3889 -2.9306 -2.4468 0.9204
20.4420 -2.5194 -2.4466 0.9204
20.4870 -2.1073 -2.4464 0.9204
20.5526 -1.2809 -2.4461 0.9204
20.5732 -0.8669 -2.4460 0.9204
20.5856 -0.4526 -2.4459 0.9204
20.5899 -0.0382 -2.4458 0.9204
20.4892 2.0307 -2.4457 0.9204
20.4446 2.4428 -2.4458 0.9204
20.3920 2.8538 -2.4459 0.9204
20.1009 4.4857 -2.4464 0.9204
20.0081 4.8898 -2.4466 0.9204
19.9074 5.2920 -2.4468 0.9204
19.5579 6.4858 -2.4476 0.9204
-10.0513 10.4644 -2.0559 0.9431
-10.5358 10.5359 -2.1112 0.9416
-12.3580 11.4012 -2.3824 0.9343
-12.5886 11.1533 -2.3830 0.9343
-12.8141 10.9007 -2.3837 0.9343
-13.2495 10.3816 -2.3850 0.9343
-13.4593 10.1155 -2.3856 0.9342
-13.6636 9.8450 -2.3862 0.9342
-14.0557 9.2917 -2.3874 0.9342
-14.2432 9.0090 -2.3879 0.9342
-14.4249 8.7225 -2.3885 0.9342
-14.6008 8.4323 -2.3890 0.9342
-14.7707 8.1384 -2.3895 0.9341
-14.9347 7.8411 -2.3900 0.9341
-15.5622 7.7751 -2.4649 0.9321
-16.1920 7.6865 -2.5396 0.9301
-16.6772 6.7158 -2.5474 0.9299
-17.1740 5.3560 -2.5490 0.9299
-17.4727 4.3115 -2.5499 0.9299
-17.5579 3.9594 -2.5502 0.9299
-17.7067 3.2502 -2.5508 0.9299
-17.7701 2.8934 -2.5510 0.9298
-17.8262 2.5353 -2.5512 0.9298
-17.8750 2.1762 -2.5514 0.9298
-18.0120 0.0068 -2.5521 0.9298
-17.9801 -1.0803 -2.5522 0.9298
-17.9547 -1.4420 -2.5522 0.9298
-17.8815 -2.1634 -2.5521 0.9298
-17.7787 -2.8811 -2.5519 0.9298
-17.4854 -4.3007 -2.5513 0.9298
-17.3939 -4.6514 -2.5511 0.9298
-17.0768 -5.6911 -2.5504 0.9299
-16.9569 -6.0330 -2.5501 0.9299
-16.8301 -6.3723 -2.5498 0.9299
-16.6964 -6.7089 -2.5495 0.9299
-16.5558 -7.0427 -2.5492 0.9299
-16.4084 -7.3735 -2.5488 0.9299
-16.0935 -8.0255 -2.5481 0.9299
-15.7522 -8.6638 -2.5472 0.9299
-15.1923 -9.5934 -2.5458 0.9300
-14.5768 -10.4864 -2.5443 0.9300
-14.3523 -10.7698 -2.5424 0.9301
-11.9101 -11.8924 -2.3848 0.9343
-11.1615 -12.5792 -2.3828 0.9343
-10.1018 -13.4204 -2.3800 0.9344
-9.8267 -13.6169 -2.3793 0.9344
-8.0989 -14.6732 -2.3747 0.9345
-7.7993 -14.8282 -2.3739 0.9346
-7.4967 -14.9771 -2.3731 0.9346
-6.5722 -15.3861 -2.3706 0.9346
-5.6256 -15.7377 -2.3681 0.9347
-4.3352 -16.1154 -2.3646 0.9348
-4.0085 -16.1933 -2.3637 0.9348
-3.6804 -16.2646 -2.3628 0.9348
-3.3510 -16.3292 -2.3619 0.9349
-3.0205 -16.3870 -2.3610 0.9349
-2.6890 -16.4382 -2.3601 0.9349
-2.0237 -16.5204 -2.3583 0.9350
-1.6901 -16.5513 -2.3573 0.9350
-1.0218 -16.5930 -2.3555 0.9350
-0.6873 -16.6038 -2.3546 0.9351
-0.3529 -16.6077 -2.3537 0.9351
0.6493 -16.5793 -2.3509 0.9352
0.9825 -16.5563 -2.3500 0.9352
1.3150 -16.5267 -2.3491 0.9352
1.6467 -16.4905 -2.3481 0.9352
1.9775 -16.4475 -2.3472 0.9353
1.6767 -11.9165 -1.7051 0.9525
2.6358 -16.3419 -2.3454 0.9353
2.9631 -16.2792 -2.3445 0.9353
3.2889 -16.2100 -2.3436 0.9354
3.9356 -16.0521 -2.3418 0.9354
5.5180 -15.5459 -2.3373 0.9355
7.6270 -14.5797 -2.3314 0.9357
8.2019 -14.2509 -2.3297 0.9357
8.4841 -14.0781 -2.3289 0.9358
9.0477 -13.1471 -2.2613 0.9376
9.5761 -13.3322 -2.3258 0.9358
10.3532 -12.7177 -2.3236 0.9359
10.6038 -12.5028 -2.3228 0.9359
10.8500 -12.2831 -2.3221 0.9359
11.0917 -12.0586 -2.3214 0.9360
11.3288 -11.8294 -2.3207 0.9360
11.7889 -11.3573 -2.3194 0.9360
12.2192 -11.3066 -2.3588 0.9350
12.7157 -11.2995 -2.4102 0.9336
14.1013 -10.1921 -2.4653 0.9321
14.4932 -9.6118 -2.4641 0.9322
14.6804 -9.3160 -2.4635 0.9322
15.3690 -8.0982 -2.4614 0.9322
15.9587 -6.8308 -2.4596 0.9323
16.0903 -6.5071 -2.4592 0.9323
16.2154 -6.1809 -2.4588 0.9323
16.3340 -5.8524 -2.4584 0.9323
16.5516 -5.1888 -2.4577 0.9323
16.6505 -4.8540 -2.4574 0.9323
16.8283 -4.1789 -2.4568 0.9323
16.9071 -3.8389 -2.4565 0.9324
17.0446 -3.1547 -2.4560 0.9324
17.1031 -2.8108 -2.4558 0.9324
17.1548 -2.4658 -2.4556 0.9324
17.2378 -1.7731 -2.4553 0.9324
17.2690 -1.4257 -2.4552 0.9324
17.3214 -0.3809 -2.4549 0.9324
17.3251 -0.0321 -2.4548 0.9324
17.3219 0.3166 -2.4547 0.9324
17.3119 0.6652 -2.4547 0.9324
17.2404 1.7088 -2.4547 0.9324
16.7497 4.4526 -2.4557 0.9324
16.3434 5.7874 -2.4566 0.9324
16.2254 6.1159 -2.4569 0.9323
15.9700 6.7656 -2.4575 0.9323
-10.2010 10.2011 -2.3766 0.9432
-10.9992 9.3567 -2.3789 0.9431
-11.1879 9.1356 -2.3795 0.9431
-11.5517 8.6818 -2.3806 0.9431
-11.8969 8.2134 -2.3816 0.9431
-13.3066 7.6848 -2.5314 0.9396
-13.4845 7.4297 -2.5363 0.9395
-13.6456 7.1643 -2.5390 0.9394
-13.7894 6.8894 -2.5394 0.9394
-14.3079 5.7617 -2.5410 0.9394
-14.5322 5.1826 -2.5417 0.9394
-14.6355 4.8897 -2.5420 0.9394
-14.9882 3.6984 -2.5432 0.9393
-15.0611 3.3963 -2.5434 0.9393
-15.2904 2.1747 -2.5443 0.9393
-15.3320 1.8666 -2.5444 0.9393
-15.3964 1.2482 -2.5447 0.9393
-15.4354 0.6275 -2.5449 0.9393
-15.4489 0.0058 -2.5450 0.9393
-15.4462 -0.3052 -2.5451 0.9393
-15.4371 -0.6160 -2.5451 0.9393
-15.4216 -0.9266 -2.5451 0.9393
-15.3997 -1.2368 -2.5451 0.9393
-15.2490 -2.4712 -2.5449 0.9393
-15.0700 -3.3865 -2.5445 0.9393
-14.8352 -4.2889 -2.5440 0.9393
-14.7447 -4.5863 -2.5438 0.9393
-14.4370 -5.4662 -2.5431 0.9393
-14.2022 -6.0415 -2.5426 0.9393
-14.0761 -6.3254 -2.5423 0.9394
-13.9442 -6.6066 -2.5419 0.9394
-13.8065 -6.8850 -2.5416 0.9394
-13.3601 -7.7024 -2.5405 0.9394
-13.2003 -7.9685 -2.5401 0.9394
-13.0351 -8.2312 -2.5397 0.9394
-12.6889 -8.7462 -2.5388 0.9394
-12.5080 -8.9981 -2.5384 0.9394
-12.3221 -9.2464 -2.5379 0.9395
-12.1311 -9.4906 -2.5374 0.9395
-11.9353 -9.7310 -2.5369 0.9395
-11.7346 -9.9672 -2.5364 0.9395
-11.5292 -10.1993 -2.5358 0.9395
-11.1046 -10.6504 -2.5347 0.9395
-10.8748 -10.8586 -2.5317 0.9396
-9.5324 -11.1889 -2.4215 0.9422
-9.1585 -11.1990 -2.3833 0.9430
-8.6730 -11.5221 -2.3758 0.9432
-8.4371 -11.6913 -2.3752 0.9432
-7.4613 -12.3186 -2.3726 0.9433
-5.9124 -13.1048 -2.3684 0.9434
-5.1061 -13.4255 -2.3663 0.9434
-4.8334 -13.5213 -2.3655 0.9435
-4.5588 -13.6116 -2.3648 0.9435
-4.2825 -13.6962 -2.3640 0.9435
-3.7255 -13.8487 -2.3625 0.9435
-2.3114 -14.1298 -2.3587 0.9436
-2.0259 -14.1688 -2.3579 0.9436
-1.4530 -14.2294 -2.3563 0.9437
-0.8785 -14.2668 -2.3547 0.9437
-0.5910 -14.2768 -2.3540 0.9437
-0.3034 -14.2810 -2.3532 0.9437
0.5584 -14.2588 -2.3508 0.9438
1.6750 -11.9047 -1.9805 0.9524
2.2677 -14.0593 -2.3461 0.9439
2.5493 -14.0061 -2.3453 0.9439
2.8298 -13.9473 -2.3445 0.9439
4.2099 -13.5700 -2.3406 0.9440
4.4807 -13.4782 -2.3399 0.9440
4.7495 -13.3809 -2.3391 0.9441
5.0163 -13.2784 -2.3384 0.9441
5.2808 -13.1705 -2.3376 0.9441
5.5431 -13.0574 -2.3369 0.9441
5.8030 -12.9391 -2.3361 0.9441
6.0604 -12.8157 -2.3354 0.9442
6.3151 -12.6872 -2.3347 0.9442
6.8165 -12.4152 -2.3333 0.9442
7.3063 -12.1236 -2.3319 0.9442
9.5661 -11.2793 -2.4364 0.9418
9.9259 -11.2369 -2.4699 0.9410
10.1606 -11.0464 -2.4725 0.9410
10.3921 -10.8513 -2.4752 0.9409
11.0216 -10.1984 -2.4737 0.9409
11.6089 -9.5080 -2.4720 0.9410
11.7953 -9.2704 -2.4715 0.9410
11.9769 -9.0291 -2.4709 0.9410
12.4922 -8.2847 -2.4694 0.9410
12.8105 -7.7722 -2.4684 0.9411
12.9619 -7.5114 -2.4680 0.9411
13.1081 -7.2477 -2.4675 0.9411
13.2491 -6.9812 -2.4671 0.9411
13.3847 -6.7120 -2.4667 0.9411
13.6396 -6.1659 -2.4659 0.9411
13.7588 -5.8892 -2.4655 0.9411
13.8726 -5.6103 -2.4652 0.9411
13.9808 -5.3291 -2.4648 0.9411
14.1802 -4.7609 -2.4642 0.9412
14.2715 -4.4740 -2.4639 0.9412
14.3570 -4.1854 -2.4636 0.9412
14.6414 -3.0159 -2.4626 0.9412
14.6979 -2.7204 -2.4624 0.9412
14.7933 -2.1263 -2.4621 0.9412
14.8322 -1.8280 -2.4619 0.9412
14.9133 -0.9294 -2.4616 0.9412
14.9376 -0.3284 -2.4614 0.9412
14.9409 -0.0277 -2.4614 0.9412
14.9382 0.2730 -2.4613 0.9412
14.9295 0.5736 -2.4613 0.9412
14.9149 0.8740 -2.4613 0.9412
14.8679 1.4736 -2.4613 0.9412
14.8354 1.7726 -2.4614 0.9412
14.7971 2.0709 -2.4614 0.9412
14.7529 2.3683 -2.4615 0.9412
14.5850 3.2548 -2.4618 0.9412
14.5173 3.5479 -2.4620 0.9412
14.4439 3.8396 -2.4621 0.9412
14.3647 4.1299 -2.4623 0.9412
14.2798 4.4185 -2.4625 0.9412
14.1891 4.7054 -2.4627 0.9412
14.0928 4.9905 -2.4629 0.9412
13.9909 5.2736 -2.4631 0.9412
13.8833 5.5547 -2.4634 0.9412
-8.7448 9.1042 -2.3728 0.9499
-8.9282 8.9283 -2.3733 0.9499
-9.1082 8.7488 -2.3738 0.9499
-9.2844 8.5655 -2.3743 0.9499
-9.6257 8.1883 -2.3753 0.9499
-9.7905 7.9946 -2.3758 0.9499
-10.3139 7.7515 -2.4251 0.9488
-10.7451 7.7422 -2.4893 0.9475
-11.0589 7.6349 -2.5259 0.9468
-11.2285 7.4228 -2.5300 0.9467
-11.3880 7.2031 -2.5327 0.9466
-11.5326 6.9736 -2.5332 0.9466
-12.0638 6.0273 -2.5348 0.9466
-12.3002 5.5384 -2.5355 0.9466
-12.6169 4.7879 -2.5365 0.9466
-12.7122 4.5335 -2.5368 0.9466
-12.8024 4.2772 -2.5371 0.9465
-12.9669 3.7593 -2.5376 0.9465
-13.1101 3.2350 -2.5381 0.9465
-13.1737 2.9707 -2.5383 0.9465
-13.2319 2.7052 -2.5385 0.9465
-13.2846 2.4385 -2.5387 0.9465
-13.3319 2.1708 -2.5389 0.9465
-13.4101 1.6326 -2.5392 0.9465
-13.4409 1.3624 -2.5393 0.9465
-13.4662 1.0917 -2.5394 0.9465
-13.5001 0.5489 -2.5396 0.9465
-13.4879 -0.8104 -2.5398 0.9465
-13.4688 -1.0817 -2.5398 0.9465
-13.4442 -1.3526 -2.5397 0.9465
-13.3784 -1.8925 -2.5396 0.9465
-13.2384 -2.6962 -2.5394 0.9465
-13.1808 -2.9619 -2.5393 0.9465
-13.1179 -3.2265 -2.5391 0.9465
-13.0495 -3.4896 -2.5390 0.9465
-12.9758 -3.7514 -2.5388 0.9465
-12.8968 -4.0115 -2.5386 0.9465
-12.8125 -4.2699 -2.5385 0.9465
-12.7229 -4.5266 -2.5382 0.9465
-12.0775 -6.0228 -2.5367 0.9466
-11.8224 -6.5024 -2.5361 0.9466
-11.6876 -6.7381 -2.5357 0.9466
-11.4037 -7.2011 -2.5350 0.9466
-11.1013 -7.6519 -2.5343 0.9466
-10.7809 -8.0899 -2.5335 0.9466
-10.4430 -8.5143 -2.5326 0.9466
-10.2677 -8.7212 -2.5321 0.9466
-10.0882 -8.9245 -2.5317 0.9467
-9.3305 -9.6994 -2.5297 0.9467
-8.7227 -10.2384 -2.5281 0.9467
-8.5130 -10.4096 -2.5276 0.9467
-8.2999 -10.5765 -2.5270 0.9468
-8.0829 -10.7383 -2.5263 0.9468
-7.6258 -11.0283 -2.5202 0.9469
-7.3936 -11.1665 -2.5172 0.9470
-7.0883 -11.1882 -2.4895 0.9475
-6.7808 -11.1951 -2.4601 0.9481
-6.4803 -11.2017 -2.4324 0.9487
-6.1863 -11.2080 -2.4063 0.9492
-5.8983 -11.2140 -2.3816 0.9497
-5.1770 -11.4747 -2.3662 0.9501
-4.9437 -11.5736 -2.3655 0.9501
-4.7085 -11.6676 -2.3649 0.9501
-4.4715 -11.7568 -2.3643 0.9501
-3.5075 -12.0650 -2.3616 0.9501
-3.2631 -12.1298 -2.3610 0.9502
-2.0249 -12.3786 -2.3576 0.9502
-1.2731 -12.4673 -2.3556 0.9503
-0.7698 -12.5011 -2.3542 0.9503
-0.5179 -12.5104 -2.3535 0.9503
-0.0140 -12.5138 -2.3521 0.9503
0.2379 -12.5078 -2.3514 0.9504
0.4894 -12.4968 -2.3507 0.9504
1.2416 -12.4334 -2.3486 0.9504
1.4912 -12.4023 -2.3479 0.9504
1.6734 -11.8929 -2.2574 0.9523
1.9186 -11.8952 -2.2647 0.9521
2.2350 -12.2789 -2.3459 0.9505
2.4809 -12.2278 -2.3452 0.9505
2.9693 -12.1110 -2.3438 0.9505
3.2116 -12.0453 -2.3431 0.9505
3.4523 -11.9748 -2.3425 0.9505
3.6916 -11.8995 -2.3418 0.9506
4.3993 -11.6451 -2.3398 0.9506
4.6315 -11.5509 -2.3391 0.9506
4.8617 -11.4522 -2.3385 0.9506
5.8956 -11.2699 -2.3906 0.9496
6.1858 -11.2666 -2.4159 0.9490
6.4823 -11.2631 -2.4426 0.9485
6.7854 -11.2593 -2.4709 0.9479
7.4873 -10.8798 -2.4824 0.9477
7.9188 -10.5692 -2.4823 0.9477
8.5361 -10.0649 -2.4806 0.9477
8.9302 -9.7087 -2.4794 0.9477
9.1217 -9.5248 -2.4789 0.9477
10.0219 -8.5510 -2.4762 0.9478
10.1900 -8.3459 -2.4757 0.9478
10.3539 -8.1375 -2.4753 0.9478
10.6690 -7.7113 -2.4743 0.9478
10.8201 -7.4937 -2.4739 0.9478
10.9667 -7.2731 -2.4734 0.9479
11.1090 -7.0496 -2.4730 0.9479
11.2467 -6.8235 -2.4726 0.9479
11.3800 -6.5946 -2.4722 0.9479
11.6325 -6.1294 -2.4714 0.9479
11.7518 -5.8932 -2.4711 0.9479
11.8664 -5.6546 -2.4707 0.9479
12.0811 -5.1710 -2.4700 0.9479
12.1811 -4.9262 -2.4697 0.9479
12.2763 -4.6795 -2.4694 0.9479
12.5322 -3.9288 -2.4686 0.9479
12.6075 -3.6754 -2.4683 0.9480
12.6777 -3.4205 -2.4681 0.9480
12.7428 -3.1644 -2.4679 0.9480
12.9076 -2.3890 -2.4673 0.9480
12.9916 -1.8674 -2.4670 0.9480
13.0258 -1.6054 -2.4669 0.9480
13.0549 -1.3428 -2.4668 0.9480
13.0973 -0.8163 -2.4666 0.9480
13.1107 -0.5525 -2.4665 0.9480
13.1217 -0.0244 -2.4664 0.9480
13.1117 0.5038 -2.4663 0.9480
13.0989 0.7676 -2.4663 0.9480
13.0808 1.0311 -2.4663 0.9480
12.9954 1.8187 -2.4664 0.9480
12.8632 2.5999 -2.4667 0.9480
12.8088 2.8584 -2.4668 0.9480
12.4606 4.1322 -2.4675 0.9480
12.2862 4.6311 -2.4679 0.9480
12.1916 4.8779 -2.4682 0.9480
-8.3921 7.7423 -2.4135 0.9544
-8.7301 7.7347 -2.4655 0.9534
-9.2423 7.5469 -2.5222 0.9524
-9.5593 7.1844 -2.5277 0.9523
-9.8440 6.7961 -2.5285 0.9523
-9.9804 6.5977 -2.5290 0.9523
-10.2410 6.1926 -2.5297 0.9522
-10.3651 5.9861 -2.5301 0.9522
-10.4850 5.7771 -2.5305 0.9522
-10.9214 4.9177 -2.5318 0.9522
-11.1131 4.4752 -2.5324 0.9522
-11.2867 4.0251 -2.5330 0.9522
-11.5124 3.3376 -2.5337 0.9522
-11.6393 2.8721 -2.5341 0.9522
-11.8358 1.9272 -2.5348 0.9522
-11.8728 1.6886 -2.5349 0.9522
-11.9547 0.9691 -2.5353 0.9521
-11.9722 0.7283 -2.5354 0.9521
-11.9848 0.4872 -2.5354 0.9521
-11.9952 0.0045 -2.5355 0.9521
-11.9930 -0.2369 -2.5356 0.9521
-11.9350 -1.2008 -2.5356 0.9521
-11.9083 -1.4407 -2.5355 0.9521
-11.7987 -2.1566 -2.5353 0.9521
-11.7525 -2.3935 -2.5352 0.9521
-11.6456 -2.8643 -2.5350 0.9522
-11.5850 -3.0980 -2.5349 0.9522
-11.5197 -3.3304 -2.5347 0.9522
-11.4496 -3.5613 -2.5346 0.9522
-11.1228 -4.4693 -2.5338 0.9522
-10.9319 -4.9125 -2.5334 0.9522
-10.8297 -5.1310 -2.5331 0.9522
-10.6122 -5.5616 -2.5326 0.9522
-10.4970 -5.7734 -2.5323 0.9522
-10.3774 -5.9828 -2.5320 0.9522
-10.1257 -6.3940 -2.5314 0.9522
-9.9936 -6.5957 -2.5311 0.9522
-9.2737 -7.5609 -2.5292 0.9523
-9.1181 -7.7448 -2.5288 0.9523
-8.9590 -7.9255 -2.5284 0.9523
-8.7962 -8.1029 -2.5280 0.9523
-8.6298 -8.2768 -2.5276 0.9523
-7.9304 -8.9377 -2.5257 0.9523
-7.5614 -9.2461 -2.5248 0.9523
-7.3723 -9.3945 -2.5243 0.9523
-7.1803 -9.5391 -2.5238 0.9524
-6.7878 -9.8163 -2.5227 0.9524
-6.1790 -10.2015 -2.5211 0.9524
-5.7609 -10.4373 -2.5200 0.9524
-5.5484 -10.5488 -2.5194 0.9524
-5.3337 -10.6559 -2.5189 0.9524
-4.8948 -10.8493 -2.5159 0.9525
-4.6716 -10.9366 -2.5139 0.9525
-3.2592 -11.2109 -2.4679 0.9534
-3.0168 -11.2145 -2.4548 0.9536
-2.0694 -11.2270 -2.4131 0.9544
-1.8370 -11.2295 -2.4053 0.9545
-1.6059 -11.2319 -2.3984 0.9547
-1.3761 -11.2342 -2.3924 0.9548
-1.1473 -11.2362 -2.3875 0.9549
-0.6921 -11.2397 -2.3803 0.9550
-0.4653 -11.2412 -2.3782 0.9550
0.2138 -11.2446 -2.3773 0.9551
0.4404 -11.2454 -2.3789 0.9550
0.6674 -11.2461 -2.3814 0.9550
0.8949 -11.2466 -2.3848 0.9549
1.1231 -11.2469 -2.3892 0.9548
1.3523 -11.2470 -2.3945 0.9547
1.5825 -11.2469 -2.4008 0.9546
2.2817 -11.2458 -2.4256 0.9542
2.5182 -11.2450 -2.4358 0.9540
2.7568 -11.2441 -2.4472 0.9538
2.9976 -11.2430 -2.4596 0.9535
3.9377 -11.0936 -2.4883 0.9530
4.3836 -10.9328 -2.4898 0.9530
4.6044 -10.8461 -2.4907 0.9530
4.8222 -10.7522 -2.4909 0.9530
5.0364 -10.6504 -2.4903 0.9530
5.2485 -10.5443 -2.4897 0.9530
5.6659 -10.3196 -2.4885 0.9530
6.0738 -10.0785 -2.4873 0.9530
6.2740 -9.9519 -2.4868 0.9530
6.4716 -9.8214 -2.4862 0.9531
6.6664 -9.6870 -2.4857 0.9531
7.2341 -9.2609 -2.4840 0.9531
7.4175 -9.1115 -2.4835 0.9531
7.5978 -8.9584 -2.4830 0.9531
7.7750 -8.8019 -2.4825 0.9531
7.9489 -8.6419 -2.4820 0.9531
8.2870 -8.3117 -2.4810 0.9531
8.6115 -7.9684 -2.4800 0.9532
8.9220 -7.6125 -2.4791 0.9532
9.2179 -7.2447 -2.4782 0.9532
9.4988 -6.8656 -2.4774 0.9532
9.6335 -6.6719 -2.4770 0.9532
9.7643 -6.4756 -2.4766 0.9532
9.8911 -6.2768 -2.4762 0.9532
10.0140 -6.0755 -2.4759 0.9532
10.1328 -5.8719 -2.4755 0.9532
10.2475 -5.6660 -2.4752 0.9533
10.3580 -5.4578 -2.4748 0.9533
10.5665 -5.0352 -2.4742 0.9533
10.6644 -4.8209 -2.4739 0.9533
10.8473 -4.3868 -2.4733 0.9533
10.9322 -4.1671 -2.4730 0.9533
11.2276 -3.2731 -2.4721 0.9533
11.3484 -2.8181 -2.4717 0.9533
11.4510 -2.3588 -2.4713 0.9533
11.4954 -2.1277 -2.4712 0.9533
11.5352 -1.8957 -2.4710 0.9533
11.5704 -1.6631 -2.4709 0.9533
11.6010 -1.4298 -2.4708 0.9533
11.6269 -1.1960 -2.4707 0.9533
11.6482 -0.9616 -2.4706 0.9533
11.6648 -0.7270 -2.4705 0.9533
11.6840 -0.2569 -2.4704 0.9533
11.6866 -0.0217 -2.4703 0.9533
11.6845 0.2136 -2.4703 0.9533
11.6778 0.4487 -2.4703 0.9533
11.6663 0.6836 -2.4703 0.9533
11.6295 1.1526 -2.4703 0.9533
11.6041 1.3865 -2.4703 0.9533
11.5001 2.0844 -2.4705 0.9533
11.4562 2.3155 -2.4706 0.9533
11.4077 2.5458 -2.4707 0.9533
11.3547 2.7750 -2.4708 0.9533
11.2971 3.0031 -2.4709 0.9533
11.0217 3.9030 -2.4715 0.9533
10.9418 4.1243 -2.4717 0.9533
10.7687 4.5621 -2.4721 0.9533
-7.4104 7.7150 -2.5141 0.9570
-7.8900 7.2791 -2.5230 0.9568
-8.0368 7.1204 -2.5235 0.9568
-8.1798 6.9584 -2.5239 0.9568
-8.3196 6.7934 -2.5243 0.9568
-8.4560 6.6257 -2.5248 0.9568
-8.7185 6.2819 -2.5255 0.9568
-8.8444 6.1061 -2.5259 0.9568
-8.9668 5.9277 -2.5263 0.9568
-9.0856 5.7468 -2.5266 0.9568
-9.2007 5.5635 -2.5270 0.9568
-9.6232 4.8079 -2.5283 0.9568
-9.7192 4.6138 -2.5285 0.9568
-9.8112 4.4177 -2.5288 0.9568
-9.8992 4.2198 -2.5291 0.9567
-9.9832 4.0201 -2.5294 0.9567
-10.1388 3.6158 -2.5299 0.9567
-10.2105 3.4113 -2.5301 0.9567
-10.2780 3.2054 -2.5303 0.9567
-10.4003 2.7896 -2.5307 0.9567
-10.4551 2.5799 -2.5309 0.9567
-10.5056 2.3691 -2.5311 0.9567
-10.6645 1.5168 -2.5316 0.9567
-10.6934 1.3019 -2.5317 0.9567
-10.7379 0.8705 -2.5319 0.9567
-10.7648 0.4376 -2.5321 0.9567
-10.7741 0.0040 -2.5322 0.9567
-10.7550 -0.6462 -2.5322 0.9567
-10.7397 -0.8625 -2.5322 0.9567
-10.7201 -1.0785 -2.5322 0.9567
-10.6961 -1.2941 -2.5322 0.9567
-10.6677 -1.5090 -2.5321 0.9567
-10.5563 -2.1499 -2.5319 0.9567
-10.5105 -2.3619 -2.5318 0.9567
-10.4604 -2.5728 -2.5317 0.9567
-10.2845 -3.1989 -2.5313 0.9567
-10.0708 -3.8130 -2.5308 0.9567
-9.9912 -4.0147 -2.5306 0.9567
-9.9076 -4.2146 -2.5304 0.9567
-9.7283 -4.6092 -2.5300 0.9567
-9.6327 -4.8036 -2.5298 0.9567
-8.8558 -6.1041 -2.5278 0.9568
-8.7301 -6.2803 -2.5275 0.9568
-8.6008 -6.4539 -2.5272 0.9568
-8.1922 -6.9583 -2.5262 0.9568
-8.0493 -7.1208 -2.5258 0.9568
-7.9032 -7.2803 -2.5254 0.9568
-7.7539 -7.4367 -2.5250 0.9568
-7.4459 -7.7403 -2.5242 0.9568
-7.2874 -7.8873 -2.5238 0.9568
-6.7947 -8.3085 -2.5225 0.9569
-6.6249 -8.4421 -2.5221 0.9569
-6.2774 -8.6987 -2.5211 0.9569
-5.7378 -9.0566 -2.5197 0.9569
-5.3665 -9.2765 -2.5187 0.9569
-4.9868 -9.4812 -2.5177 0.9569
-4.5993 -9.6702 -2.5167 0.9570
-4.2046 -9.8433 -2.5156 0.9570
-3.8034 -10.0003 -2.5145 0.9570
-3.6006 -10.0726 -2.5140 0.9570
-3.1909 -10.2048 -2.5129 0.9570
-2.9841 -10.2647 -2.5123 0.9570
-2.7763 -10.3204 -2.5118 0.9570
-2.5674 -10.3718 -2.5112 0.9570
-2.3576 -10.4190 -2.5106 0.9571
-2.1470 -10.4620 -2.5100 0.9571
-1.7233 -10.5351 -2.5089 0.9571
-1.5106 -10.5652 -2.5083 0.9571
-0.8696 -10.6296 -2.5066 0.9571
-0.4409 -10.6510 -2.5054 0.9571
-0.2264 -10.6552 -2.5048 0.9572
-0.0119 -10.6551 -2.5042 0.9572
0.6307 -10.6289 -2.5024 0.9572
0.8443 -10.6115 -2.5018 0.9572
1.0575 -10.5899 -2.5012 0.9572
1.9040 -10.4607 -2.4989 0.9573
2.3224 -10.3707 -2.4977 0.9573
2.5301 -10.3195 -2.4971 0.9573
2.7366 -10.2641 -2.4966 0.9573
3.1461 -10.1410 -2.4954 0.9573
3.3488 -10.0733 -2.4949 0.9573
3.5501 -10.0016 -2.4943 0.9573
3.7498 -9.9259 -2.4937 0.9573
4.3391 -9.6750 -2.4921 0.9574
4.5320 -9.5836 -2.4915 0.9574
4.9119 -9.3894 -2.4904 0.9574
5.2835 -9.1802 -2.4894 0.9574
5.6464 -8.9564 -2.4883 0.9574
5.8243 -8.8391 -2.4878 0.9574
6.3434 -8.4665 -2.4864 0.9575
6.5112 -8.3354 -2.4859 0.9575
6.6764 -8.2011 -2.4854 0.9575
6.9984 -7.9228 -2.4845 0.9575
7.1552 -7.7789 -2.4840 0.9575
7.6076 -7.3291 -2.4827 0.9575
7.7522 -7.1732 -2.4823 0.9575
7.8937 -7.0146 -2.4819 0.9575
8.1670 -6.6890 -2.4811 0.9576
8.4270 -6.3529 -2.4803 0.9576
8.5518 -6.1811 -2.4799 0.9576
8.6733 -6.0069 -2.4796 0.9576
8.9055 -5.6513 -2.4789 0.9576
9.1233 -5.2869 -2.4782 0.9576
9.3264 -4.9142 -2.4776 0.9576
9.5144 -4.5338 -2.4770 0.9576
9.6871 -4.1463 -2.4765 0.9576
9.7675 -3.9501 -2.4762 0.9576
9.8441 -3.7524 -2.4760 0.9576
9.9167 -3.5531 -2.4757 0.9576
10.1105 -2.9474 -2.4751 0.9576
10.2194 -2.5378 -2.4747 0.9577
10.2678 -2.3314 -2.4746 0.9577
10.3520 -1.9160 -2.4743 0.9577
10.3879 -1.7072 -2.4742 0.9577
10.5222 -0.2314 -2.4736 0.9577
10.5227 0.1923 -2.4735 0.9577
10.5166 0.4041 -2.4735 0.9577
10.4503 1.2486 -2.4735 0.9577
10.4232 1.4587 -2.4736 0.9577
10.3919 1.6683 -2.4736 0.9577
10.3170 2.0853 -2.4738 0.9577
10.2733 2.2926 -2.4738 0.9577
10.1735 2.7044 -2.4741 0.9577
10.0575 3.1120 -2.4743 0.9577
9.9934 3.3140 -2.4745 0.9577
9.7772 3.9119 -2.4750 0.9577
9.6972 4.1082 -2.4751 0.9576
-6.7421 7.0192 -2.5200 0.9606
-7.0214 6.7444 -2.5208 0.9606
-7.1569 6.6027 -2.5212 0.9606
-7.2894 6.4583 -2.5216 0.9606
-7.5457 6.1615 -2.5223 0.9605
-7.7898 5.8545 -2.5230 0.9605
-7.9071 5.6973 -2.5234 0.9605
-8.0213 5.5378 -2.5237 0.9605
-8.1322 5.3759 -2.5241 0.9605
-8.2398 5.2118 -2.5244 0.9605
-8.4449 4.8771 -2.5250 0.9605
-8.5424 4.7067 -2.5253 0.9605
-8.6364 4.5343 -2.5256 0.9605
-8.9768 3.8266 -2.5266 0.9605
-9.1939 3.2788 -2.5273 0.9605
-9.2588 3.0933 -2.5275 0.9605
-9.3772 2.7186 -2.5279 0.9605
-9.4803 2.3393 -2.5282 0.9605
-9.5679 1.9561 -2.5285 0.9605
-9.6059 1.7632 -2.5287 0.9604
-9.6699 1.3753 -2.5289 0.9604
-9.7182 0.9851 -2.5291 0.9604
-9.7364 0.7893 -2.5292 0.9604
-9.7506 0.5932 -2.5293 0.9604
-9.7669 0.2003 -2.5294 0.9604
-9.7691 0.0037 -2.5294 0.9604
-9.7673 -0.1930 -2.5294 0.9604
-9.7615 -0.3895 -2.5294 0.9604
-9.7379 -0.7821 -2.5294 0.9604
-9.6984 -1.1734 -2.5294 0.9604
-9.6726 -1.3683 -2.5294 0.9604
-9.5717 -1.9494 -2.5292 0.9604
-9.4848 -2.3329 -2.5290 0.9604
-9.3824 -2.7125 -2.5288 0.9604
-9.2001 -3.2732 -2.5284 0.9605
-9.1318 -3.4575 -2.5282 0.9605
-9.0598 -3.6404 -2.5280 0.9605
-8.9840 -3.8217 -2.5278 0.9605
-8.9046 -4.0015 -2.5277 0.9605
-8.8215 -4.1796 -2.5274 0.9605
-8.6447 -4.5304 -2.5270 0.9605
-8.3531 -5.0425 -2.5263 0.9605
-8.2491 -5.2090 -2.5260 0.9605
-8.1417 -5.3734 -2.5258 0.9605
-8.0310 -5.5356 -2.5255 0.9605
-7.9171 -5.6955 -2.5252 0.9605
-7.7999 -5.8530 -2.5249 0.9605
-7.5562 -6.1606 -2.5243 0.9605
-7.4297 -6.3107 -2.5239 0.9605
-7.1678 -6.6028 -2.5233 0.9605
-7.0324 -6.7448 -2.5229 0.9605
-6.8943 -6.8840 -2.5226 0.9605
-6.7533 -7.0204 -2.5222 0.9605
-6.6097 -7.1538 -2.5218 0.9606
-6.1630 -7.5362 -2.5207 0.9606
-6.0091 -7.6575 -2.5202 0.9606
-5.6942 -7.8905 -2.5194 0.9606
-5.3702 -8.1105 -2.5186 0.9606
-5.2050 -8.2155 -2.5181 0.9606
-5.0377 -8.3171 -2.5177 0.9606
-4.5241 -8.6013 -2.5163 0.9606
-4.3492 -8.6890 -2.5158 0.9606
-3.9945 -8.8537 -2.5149 0.9607
-3.8147 -8.9306 -2.5144 0.9607
-3.2669 -9.1391 -2.5129 0.9607
-3.0817 -9.2012 -2.5124 0.9607
-2.3297 -9.4116 -2.5104 0.9607
-2.1394 -9.4547 -2.5099 0.9607
-1.3709 -9.5881 -2.5078 0.9608
-0.9835 -9.6314 -2.5067 0.9608
-0.7893 -9.6472 -2.5062 0.9608
-0.5948 -9.6591 -2.5056 0.9608
-0.2055 -9.6711 -2.5046 0.9608
-0.0108 -9.6712 -2.5040 0.9608
0.3783 -9.6596 -2.5030 0.9608
0.5725 -9.6480 -2.5024 0.9609
0.7664 -9.6325 -2.5019 0.9609
1.1530 -9.5897 -2.5008 0.9609
1.3455 -9.5625 -2.5003 0.9609
1.7285 -9.4965 -2.4992 0.9609
2.2970 -9.3690 -2.4976 0.9609
2.4846 -9.3189 -2.4971 0.9609
2.8565 -9.2075 -2.4961 0.9609
3.0406 -9.1462 -2.4956 0.9610
3.4048 -9.0128 -2.4945 0.9610
3.5848 -8.9406 -2.4940 0.9610
3.7633 -8.8648 -2.4935 0.9610
3.9402 -8.7855 -2.4930 0.9610
4.2889 -8.6164 -2.4920 0.9610
4.4606 -8.5267 -2.4915 0.9610
5.1280 -8.1341 -2.4896 0.9610
5.9139 -7.5708 -2.4874 0.9611
6.0641 -7.4490 -2.4870 0.9611
6.2117 -7.3242 -2.4865 0.9611
6.6391 -6.9325 -2.4853 0.9611
6.7762 -6.7964 -2.4849 0.9611
6.9105 -6.6575 -2.4845 0.9611
7.0420 -6.5161 -2.4841 0.9611
7.6555 -5.7714 -2.4823 0.9612
7.7691 -5.6154 -2.4820 0.9612
8.1914 -4.9698 -2.4807 0.9612
8.2888 -4.8033 -2.4804 0.9612
8.5607 -4.2929 -2.4796 0.9612
8.7247 -3.9441 -2.4791 0.9612
8.8015 -3.7673 -2.4788 0.9612
9.1867 -2.6781 -2.4776 0.9612
9.2858 -2.3059 -2.4773 0.9612
9.3298 -2.1184 -2.4771 0.9612
9.3700 -1.9301 -2.4770 0.9612
9.4064 -1.7410 -2.4769 0.9612
9.4391 -1.5512 -2.4767 0.9612
9.4680 -1.3609 -2.4766 0.9612
9.5144 -0.9787 -2.4764 0.9613
9.5455 -0.5949 -2.4763 0.9613
9.5563 0.3672 -2.4761 0.9613
9.4108 1.7057 -2.4763 0.9613
9.3748 1.8948 -2.4764 0.9613
9.3350 2.0832 -2.4765 0.9613
9.2916 2.2708 -2.4766 0.9612
9.0186 3.1936 -2.4772 0.9612
8.9530 3.3747 -2.4773 0.9612
-6.1627 6.4160 -2.5185 0.9637
-6.5415 6.0350 -2.5196 0.9637
-6.8967 5.6316 -2.5206 0.9637
-7.2267 5.2071 -2.5216 0.9636
-7.4323 4.9132 -2.5222 0.9636
-7.6257 4.6112 -2.5228 0.9636
-7.8927 4.1439 -2.5236 0.9636
-8.1307 3.6611 -2.5243 0.9636
-8.2035 3.4970 -2.5245 0.9636
-8.2729 3.3314 -2.5248 0.9636
-8.3390 3.1645 -2.5250 0.9636
-8.4016 2.9963 -2.5252 0.9636
-8.5167 2.6561 -2.5255 0.9636
-8.5690 2.4843 -2.5257 0.9636
-8.6178 2.3115 -2.5259 0.9636
-8.6631 2.1377 -2.5260 0.9636
-8.8088 1.4343 -2.5265 0.9636
-8.8362 1.2567 -2.5266 0.9636
-8.8968 0.7212 -2.5269 0.9636
-8.9098 0.5420 -2.5270 0.9636
-8.9247 0.1830 -2.5271 0.9636
-8.9267 0.0033 -2.5271 0.9636
-8.9250 -0.1763 -2.5271 0.9636
-8.9108 -0.5354 -2.5271 0.9636
-8.8114 -1.4279 -2.5270 0.9636
-8.7464 -1.7813 -2.5269 0.9636
-8.7085 -1.9569 -2.5268 0.9636
-8.6220 -2.3057 -2.5266 0.9636
-8.5215 -2.6506 -2.5264 0.9636
-8.4660 -2.8214 -2.5263 0.9636
-8.4071 -2.9911 -2.5261 0.9636
-8.3447 -3.1595 -2.5260 0.9636
-8.2789 -3.3266 -2.5258 0.9636
-8.2097 -3.4924 -2.5257 0.9636
-8.0614 -3.8194 -2.5253 0.9636
-7.9822 -3.9806 -2.5251 0.9636
-7.8999 -4.1401 -2.5249 0.9636
-7.8143 -4.2979 -2.5247 0.9636
-7.4405 -4.9107 -2.5238 0.9636
-7.3395 -5.0589 -2.5235 0.9636
-7.2354 -5.2051 -2.5232 0.9636
-6.7902 -5.7675 -2.5221 0.9636
-6.6720 -5.9023 -2.5218 0.9636
-6.5510 -6.0347 -2.5215 0.9636
-6.4274 -6.1645 -2.5212 0.9637
-6.3012 -6.2918 -2.5208 0.9637
-6.0412 -6.5386 -2.5202 0.9637
-5.7716 -6.7745 -2.5195 0.9637
-5.4927 -6.9993 -2.5187 0.9637
-4.9089 -7.4138 -2.5172 0.9637
-4.7579 -7.5100 -2.5168 0.9637
-4.1358 -7.8631 -2.5151 0.9637
-3.9760 -7.9434 -2.5147 0.9637
-3.4875 -8.1646 -2.5134 0.9638
-3.3219 -8.2317 -2.5129 0.9638
-3.1550 -8.2954 -2.5125 0.9638
-2.8176 -8.4126 -2.5116 0.9638
-2.4758 -8.5161 -2.5106 0.9638
-2.3034 -8.5626 -2.5102 0.9638
-2.1302 -8.6056 -2.5097 0.9638
-1.9562 -8.6451 -2.5092 0.9638
-1.7815 -8.6811 -2.5088 0.9638
-1.0767 -8.7895 -2.5068 0.9639
-0.8994 -8.8077 -2.5064 0.9639
-0.5439 -8.8333 -2.5054 0.9639
-0.0099 -8.8448 -2.5039 0.9639
0.1681 -8.8415 -2.5034 0.9639
0.3460 -8.8346 -2.5029 0.9639
0.5236 -8.8241 -2.5024 0.9639
1.0546 -8.7712 -2.5010 0.9639
1.4062 -8.7183 -2.5000 0.9640
1.5811 -8.6866 -2.4995 0.9640
1.7553 -8.6513 -2.4990 0.9640
2.4435 -8.4756 -2.4971 0.9640
3.4430 -8.1103 -2.4943 0.9640
3.6049 -8.0379 -2.4938 0.9640
3.9240 -7.8834 -2.4929 0.9641
4.3903 -7.6282 -2.4916 0.9641
4.5421 -7.5370 -2.4912 0.9641
4.8402 -7.3455 -2.4903 0.9641
4.9862 -7.2454 -2.4899 0.9641
5.2720 -7.0365 -2.4891 0.9641
5.5492 -6.8165 -2.4883 0.9641
5.8172 -6.5856 -2.4875 0.9641
5.9477 -6.4662 -2.4871 0.9641
6.0757 -6.3442 -2.4868 0.9641
6.2013 -6.2197 -2.4864 0.9641
6.5625 -5.8316 -2.4853 0.9642
6.6777 -5.6976 -2.4850 0.9642
7.0066 -5.2821 -2.4840 0.9642
7.1106 -5.1394 -2.4837 0.9642
7.2117 -4.9947 -2.4834 0.9642
7.4052 -4.6993 -2.4828 0.9642
7.4974 -4.5488 -2.4826 0.9642
7.6728 -4.2424 -2.4820 0.9642
7.7558 -4.0867 -2.4818 0.9642
7.8357 -3.9294 -2.4815 0.9642
7.9861 -3.6102 -2.4811 0.9642
8.3050 -2.7883 -2.4801 0.9642
8.3588 -2.6205 -2.4799 0.9642
8.4564 -2.2816 -2.4796 0.9642
8.5001 -2.1108 -2.4794 0.9642
8.5773 -1.7668 -2.4792 0.9642
8.6107 -1.5937 -2.4790 0.9643
8.6901 -1.0710 -2.4787 0.9643
8.7097 -0.8959 -2.4787 0.9643
8.7257 -0.7204 -2.4786 0.9643
8.7382 -0.5446 -2.4785 0.9643
8.7472 -0.3686 -2.4785 0.9643
8.7547 -0.0162 -2.4784 0.9643
8.7481 0.3361 -2.4784 0.9643
8.7395 0.5121 -2.4783 0.9643
8.7275 0.6879 -2.4784 0.9643
8.6148 1.5615 -2.4785 0.9643
8.5819 1.7346 -2.4786 0.9643
8.5455 1.9070 -2.4787 0.9643
8.3657 2.5885 -2.4791 0.9642
8.3123 2.7565 -2.4792 0.9642
8.1955 3.0892 -2.4794 0.9642
-5.6692 5.9022 -2.5172 0.9663
-5.7876 5.7877 -2.5175 0.9663
-5.9038 5.6708 -2.5179 0.9663
-6.1288 5.4300 -2.5185 0.9663
-6.2377 5.3062 -2.5188 0.9663
-6.3440 5.1803 -2.5192 0.9663
-6.5489 4.9219 -2.5198 0.9663
-6.6474 4.7897 -2.5201 0.9663
-6.7432 4.6554 -2.5203 0.9663
-6.8363 4.5193 -2.5206 0.9663
-6.9266 4.3812 -2.5209 0.9663
-7.5451 3.2163 -2.5228 0.9663
-7.6089 3.0641 -2.5230 0.9663
-7.7272 2.7558 -2.5234 0.9662
-7.7817 2.5999 -2.5235 0.9662
-7.8329 2.4428 -2.5237 0.9662
-7.9675 1.9660 -2.5241 0.9662
-8.0059 1.8054 -2.5243 0.9662
-8.0410 1.6439 -2.5244 0.9662
-8.0728 1.4818 -2.5245 0.9662
-8.1013 1.3191 -2.5246 0.9662
-8.1670 0.8279 -2.5249 0.9662
-8.1822 0.6633 -2.5249 0.9662
-8.1941 0.4985 -2.5250 0.9662
-8.2078 0.1683 -2.5251 0.9662
-8.1950 -0.4924 -2.5251 0.9662
-8.1502 -0.9860 -2.5251 0.9662
-8.1286 -1.1499 -2.5251 0.9662
-8.0439 -1.6382 -2.5249 0.9662
-8.0090 -1.7997 -2.5248 0.9662
-7.9296 -2.1205 -2.5247 0.9662
-7.8850 -2.2796 -2.5246 0.9662
-7.6746 -2.9058 -2.5241 0.9662
-7.6142 -3.0595 -2.5239 0.9662
-7.4839 -3.3631 -2.5236 0.9662
-7.3415 -3.6611 -2.5233 0.9663
-7.2658 -3.8078 -2.5231 0.9663
-7.0211 -4.2383 -2.5225 0.9663
-6.9337 -4.3784 -2.5223 0.9663
-6.7507 -4.6531 -2.5218 0.9663
-6.5567 -4.9200 -2.5213 0.9663
-6.2458 -5.3051 -2.5205 0.9663
-5.9122 -5.6704 -2.5197 0.9663
-5.7962 -5.7876 -2.5194 0.9663
-5.5572 -6.0147 -2.5187 0.9663
-5.4343 -6.1245 -2.5184 0.9663
-4.9215 -6.5383 -2.5171 0.9663
-4.3772 -6.9090 -2.5156 0.9664
-4.2366 -6.9946 -2.5153 0.9664
-4.0943 -7.0774 -2.5149 0.9664
-3.8050 -7.2342 -2.5141 0.9664
-3.5097 -7.3792 -2.5133 0.9664
-3.2088 -7.5121 -2.5125 0.9664
-3.0565 -7.5739 -2.5121 0.9664
-2.9029 -7.6326 -2.5117 0.9664
-2.5925 -7.7407 -2.5109 0.9664
-2.4358 -7.7900 -2.5104 0.9664
-1.4780 -8.0184 -2.5078 0.9665
-1.1536 -8.0685 -2.5069 0.9665
-0.9908 -8.0887 -2.5065 0.9665
-0.8277 -8.1055 -2.5060 0.9665
-0.6642 -8.1191 -2.5056 0.9665
-0.5006 -8.1293 -2.5051 0.9665
-0.1729 -8.1400 -2.5042 0.9665
-0.0091 -8.1404 -2.5038 0.9665
0.3184 -8.1312 -2.5029 0.9665
0.4819 -8.1216 -2.5024 0.9665
0.6452 -8.1088 -2.5020 0.9665
0.8081 -8.0928 -2.5015 0.9665
1.1328 -8.0508 -2.5006 0.9665
1.2944 -8.0249 -2.5002 0.9666
1.6157 -7.9635 -2.4993 0.9666
2.4056 -7.7540 -2.4971 0.9666
2.5607 -7.7026 -2.4967 0.9666
3.0193 -7.5302 -2.4954 0.9666
3.1697 -7.4666 -2.4949 0.9666
3.4665 -7.3305 -2.4941 0.9666
3.6127 -7.2581 -2.4937 0.9666
3.9006 -7.1044 -2.4929 0.9667
4.0422 -7.0234 -2.4925 0.9667
4.1821 -6.9395 -2.4921 0.9667
4.3202 -6.8528 -2.4917 0.9667
4.4566 -6.7634 -2.4913 0.9667
4.7237 -6.5765 -2.4905 0.9667
4.9831 -6.3792 -2.4898 0.9667
5.3567 -6.0642 -2.4887 0.9667
5.5948 -5.8421 -2.4880 0.9667
5.8239 -5.6107 -2.4873 0.9667
6.0434 -5.3703 -2.4867 0.9667
6.3542 -4.9940 -2.4858 0.9667
6.4526 -4.8645 -2.4855 0.9667
6.6417 -4.5998 -2.4849 0.9668
6.8199 -4.3279 -2.4844 0.9668
6.9872 -4.0491 -2.4839 0.9668
7.0666 -3.9072 -2.4836 0.9668
7.1431 -3.7638 -2.4834 0.9668
7.2168 -3.6190 -2.4832 0.9668
7.3553 -3.3250 -2.4828 0.9668
7.4202 -3.1761 -2.4826 0.9668
7.5408 -2.8744 -2.4822 0.9668
7.6990 -2.4136 -2.4817 0.9668
7.7455 -2.2580 -2.4815 0.9668
7.7889 -2.1015 -2.4814 0.9668
7.8664 -1.7861 -2.4811 0.9668
7.9311 -1.4680 -2.4809 0.9668
7.9832 -1.1475 -2.4807 0.9668
8.0044 -0.9865 -2.4806 0.9668
8.0224 -0.8252 -2.4805 0.9668
8.0372 -0.6635 -2.4805 0.9668
8.0487 -0.5016 -2.4804 0.9668
8.0570 -0.3395 -2.4804 0.9668
8.0639 -0.0150 -2.4803 0.9668
8.0625 0.1474 -2.4803 0.9668
8.0500 0.4717 -2.4803 0.9668
8.0389 0.6336 -2.4803 0.9668
8.0070 0.9567 -2.4803 0.9668
7.9862 1.1177 -2.4803 0.9668
7.9622 1.2782 -2.4804 0.9668
7.8344 1.9147 -2.4806 0.9668
7.7946 2.0720 -2.4807 0.9668
7.7055 2.3843 -2.4809 0.9668
7.6563 2.5390 -2.4810 0.9668
7.6040 2.6927 -2.4811 0.9668
7.5486 2.8453 -2.4813 0.9668
7.4903 2.9969 -2.4814 0.9668
-5.2435 5.4590 -2.5161 0.9686
-5.3530 5.3530 -2.5164 0.9686
-5.4603 5.2449 -2.5167 0.9686
-5.5654 5.1345 -2.5170 0.9686
-5.6683 5.0221 -2.5173 0.9686
-5.7690 4.9075 -2.5176 0.9686
-5.8672 4.7910 -2.5179 0.9686
-5.9631 4.6724 -2.5182 0.9686
-6.3223 4.1795 -2.5193 0.9686
-6.4058 4.0518 -2.5195 0.9686
-6.4867 3.9224 -2.5198 0.9686
-6.5649 3.7914 -2.5200 0.9685
-6.7835 3.3892 -2.5207 0.9685
-6.9156 3.1139 -2.5211 0.9685
-6.9774 2.9743 -2.5213 0.9685
-7.0363 2.8335 -2.5214 0.9685
-7.0924 2.6915 -2.5216 0.9685
-7.1960 2.4042 -2.5219 0.9685
-7.2433 2.2590 -2.5221 0.9685
-7.3292 1.9658 -2.5224 0.9685
-7.3677 1.8180 -2.5225 0.9685
-7.4031 1.6694 -2.5226 0.9685
-7.4355 1.5201 -2.5227 0.9685
-7.4649 1.3702 -2.5228 0.9685
-7.4913 1.2198 -2.5229 0.9685
-7.5348 0.9173 -2.5231 0.9685
-7.5520 0.7655 -2.5232 0.9685
-7.5660 0.6134 -2.5232 0.9685
-7.5770 0.4610 -2.5233 0.9685
-7.5849 0.3084 -2.5233 0.9685
-7.5897 0.1557 -2.5234 0.9685
-7.5913 0.0029 -2.5234 0.9685
-7.5854 -0.3027 -2.5234 0.9685
-7.5778 -0.4553 -2.5234 0.9685
-7.5533 -0.7599 -2.5234 0.9685
-7.5364 -0.9118 -2.5234 0.9685
-7.4934 -1.2143 -2.5233 0.9685
-7.4673 -1.3649 -2.5233 0.9685
-7.4059 -1.6642 -2.5232 0.9685
-7.3707 -1.8129 -2.5231 0.9685
-7.1999 -2.3995 -2.5227 0.9685
-7.0969 -2.6871 -2.5225 0.9685
-7.0410 -2.8292 -2.5223 0.9685
-6.9822 -2.9702 -2.5222 0.9685
-6.9206 -3.1099 -2.5220 0.9685
-6.7890 -3.3855 -2.5217 0.9685
-6.7190 -3.5212 -2.5216 0.9685
-6.6463 -3.6555 -2.5214 0.9685
-6.5709 -3.7883 -2.5212 0.9685
-6.4928 -3.9194 -2.5210 0.9685
-6.4121 -4.0490 -2.5208 0.9685
-6.3288 -4.1769 -2.5206 0.9685
-6.2429 -4.3031 -2.5204 0.9685
-6.0635 -4.5500 -2.5199 0.9686
-5.9702 -4.6707 -2.5197 0.9686
-5.8744 -4.7894 -2.5194 0.9686
-5.7762 -4.9062 -2.5192 0.9686
-5.5729 -5.1337 -2.5187 0.9686
-5.2512 -5.4588 -2.5178 0.9686
-5.0260 -5.6644 -2.5172 0.9686
-4.7928 -5.8607 -2.5166 0.9686
-4.6733 -5.9552 -2.5163 0.9686
-4.5519 -6.0473 -2.5160 0.9686
-4.4287 -6.1369 -2.5157 0.9686
-4.3037 -6.2240 -2.5153 0.9686
-4.0487 -6.3904 -2.5146 0.9686
-3.9187 -6.4697 -2.5143 0.9686
-3.3837 -6.7601 -2.5129 0.9686
-2.9683 -6.9489 -2.5118 0.9687
-2.8274 -7.0062 -2.5114 0.9687
-2.6854 -7.0606 -2.5110 0.9687
-2.5423 -7.1121 -2.5106 0.9687
-2.2533 -7.2064 -2.5098 0.9687
-1.8134 -7.3258 -2.5086 0.9687
-1.6653 -7.3596 -2.5082 0.9687
-1.2176 -7.4431 -2.5070 0.9687
-0.3116 -7.5281 -2.5045 0.9687
0.2947 -7.5238 -2.5029 0.9688
0.5970 -7.5033 -2.5020 0.9688
0.8982 -7.4707 -2.5012 0.9688
1.0482 -7.4499 -2.5008 0.9688
1.1978 -7.4260 -2.5004 0.9688
1.6429 -7.3366 -2.4991 0.9688
1.9362 -7.2621 -2.4983 0.9688
2.2262 -7.1760 -2.4975 0.9688
2.5124 -7.0783 -2.4967 0.9688
2.6540 -7.0252 -2.4963 0.9688
2.7944 -6.9692 -2.4959 0.9688
3.2084 -6.7847 -2.4947 0.9689
3.3438 -6.7177 -2.4943 0.9689
3.4778 -6.6480 -2.4940 0.9689
3.8709 -6.4232 -2.4928 0.9689
3.9988 -6.3430 -2.4925 0.9689
4.1251 -6.2603 -2.4921 0.9689
4.6127 -5.9050 -2.4907 0.9689
4.8453 -5.7130 -2.4900 0.9689
5.1792 -5.4081 -2.4891 0.9689
5.3913 -5.1940 -2.4885 0.9689
5.6929 -4.8574 -2.4876 0.9689
6.0625 -4.3819 -2.4865 0.9690
6.3140 -4.0068 -2.4857 0.9690
6.4689 -3.7487 -2.4853 0.9690
6.6134 -3.4847 -2.4848 0.9690
6.6816 -3.3506 -2.4846 0.9690
6.7472 -3.2152 -2.4844 0.9690
6.8100 -3.0785 -2.4842 0.9690
6.9818 -2.6613 -2.4837 0.9690
7.1715 -2.0906 -2.4831 0.9690
7.2117 -1.9458 -2.4829 0.9690
7.2835 -1.6538 -2.4827 0.9690
7.3150 -1.5068 -2.4826 0.9690
7.4114 -0.9134 -2.4822 0.9690
7.4418 -0.6144 -2.4821 0.9690
7.4525 -0.4645 -2.4820 0.9690
7.4602 -0.3144 -2.4820 0.9690
7.4649 -0.1642 -2.4820 0.9690
7.4666 -0.0139 -2.4819 0.9690
7.4653 0.1364 -2.4819 0.9690
7.4537 0.4368 -2.4819 0.9690
7.4301 0.7364 -2.4819 0.9690
7.3724 1.1835 -2.4820 0.9690
7.3472 1.3317 -2.4821 0.9690
7.2540 1.7728 -2.4822 0.9690
7.2171 1.9185 -2.4823 0.9690
7.0890 2.3509 -2.4826 0.9690
6.9893 2.6345 -2.4828 0.9690
6.9352 2.7748 -2.4830 0.9690
6.8783 2.9139 -2.4831 0.9690
-4.8721 5.0723 -2.5151 0.9706
-5.2667 4.6662 -2.5163 0.9706
-5.4514 4.4514 -2.5168 0.9705
-5.6273 4.2293 -2.5173 0.9705
-5.7941 4.0001 -2.5178 0.9705
-5.8740 3.8831 -2.5181 0.9705
-6.0993 3.5225 -2.5187 0.9705
-6.1694 3.3993 -2.5190 0.9705
-6.3023 3.1487 -2.5194 0.9705
-6.3648 3.0215 -2.5196 0.9705
-6.4248 2.8929 -2.5197 0.9705
-6.4822 2.7632 -2.5199 0.9705
-6.5370 2.6324 -2.5201 0.9705
-6.5891 2.5004 -2.5203 0.9705
-6.6852 2.2335 -2.5206 0.9705
-6.8446 1.6889 -2.5211 0.9705
-6.9076 1.4122 -2.5213 0.9705
-6.9810 0.9929 -2.5216 0.9705
-6.9998 0.8522 -2.5216 0.9705
-7.0157 0.7112 -2.5217 0.9705
-7.0287 0.5698 -2.5218 0.9705
-7.0462 0.2865 -2.5219 0.9705
-7.0506 0.1446 -2.5219 0.9705
-7.0522 0.0026 -2.5219 0.9705
-7.0509 -0.1393 -2.5219 0.9705
-7.0467 -0.2812 -2.5220 0.9705
-7.0396 -0.4230 -2.5220 0.9705
-7.0168 -0.7059 -2.5219 0.9705
-6.9612 -1.1281 -2.5218 0.9705
-6.9370 -1.2680 -2.5218 0.9705
-6.8800 -1.5460 -2.5217 0.9705
-6.8473 -1.6842 -2.5216 0.9705
-6.6887 -2.2291 -2.5213 0.9705
-6.5411 -2.6283 -2.5209 0.9705
-6.4294 -2.8892 -2.5207 0.9705
-6.3695 -3.0178 -2.5205 0.9705
-6.1746 -3.3961 -2.5200 0.9705
-6.1046 -3.5194 -2.5199 0.9705
-5.9571 -3.7617 -2.5195 0.9705
-5.7179 -4.1134 -2.5189 0.9705
-5.5467 -4.3394 -2.5185 0.9705
-5.4578 -4.4498 -2.5182 0.9705
-5.2733 -4.6650 -2.5178 0.9705
-5.0802 -4.8725 -2.5173 0.9705
-4.7754 -5.1685 -2.5165 0.9705
-4.6699 -5.2630 -2.5162 0.9706
-4.5625 -5.3554 -2.5159 0.9706
-4.3423 -5.5334 -2.5153 0.9706
-3.6413 -6.0118 -2.5135 0.9706
-3.5191 -6.0831 -2.5131 0.9706
-3.2706 -6.2181 -2.5125 0.9706
-3.0168 -6.3430 -2.5118 0.9706
-2.7583 -6.4575 -2.5111 0.9706
-2.3626 -6.6094 -2.5100 0.9706
-2.0941 -6.6972 -2.5093 0.9706
-1.9586 -6.7370 -2.5089 0.9706
-1.6853 -6.8084 -2.5082 0.9706
-1.4095 -6.8686 -2.5075 0.9707
-0.9920 -6.9380 -2.5063 0.9707
-0.8520 -6.9555 -2.5059 0.9707
-0.5712 -6.9820 -2.5052 0.9707
-0.4305 -6.9910 -2.5048 0.9707
-0.2897 -6.9972 -2.5044 0.9707
-0.1487 -7.0005 -2.5040 0.9707
-0.0078 -7.0010 -2.5036 0.9707
0.1331 -6.9987 -2.5032 0.9707
0.2739 -6.9935 -2.5028 0.9707
0.4145 -6.9855 -2.5024 0.9707
0.5550 -6.9746 -2.5021 0.9707
0.6951 -6.9610 -2.5017 0.9707
0.8350 -6.9445 -2.5013 0.9707
1.2520 -6.8783 -2.5001 0.9707
1.3899 -6.8506 -2.4997 0.9707
1.6640 -6.7871 -2.4990 0.9708
1.9352 -6.7125 -2.4982 0.9708
2.0696 -6.6712 -2.4978 0.9708
2.2032 -6.6272 -2.4975 0.9708
2.5979 -6.4793 -2.4964 0.9708
2.7274 -6.4247 -2.4960 0.9708
2.9829 -6.3079 -2.4953 0.9708
3.1089 -6.2457 -2.4949 0.9708
3.2335 -6.1810 -2.4946 0.9708
3.5991 -5.9721 -2.4935 0.9708
3.9514 -5.7417 -2.4925 0.9708
4.0656 -5.6603 -2.4922 0.9708
4.1782 -5.5766 -2.4919 0.9708
4.5054 -5.3123 -2.4909 0.9708
4.6108 -5.2199 -2.4906 0.9708
4.7144 -5.1254 -2.4903 0.9709
4.9157 -4.9303 -2.4897 0.9709
5.1090 -4.7274 -2.4892 0.9709
5.2025 -4.6231 -2.4889 0.9709
5.2940 -4.5170 -2.4886 0.9709
5.5552 -4.1879 -2.4879 0.9709
5.6378 -4.0749 -2.4876 0.9709
5.7181 -3.9602 -2.4874 0.9709
5.7961 -3.8440 -2.4871 0.9709
5.8718 -3.7262 -2.4869 0.9709
6.0160 -3.4862 -2.4865 0.9709
6.0844 -3.3642 -2.4863 0.9709
6.1504 -3.2407 -2.4861 0.9709
6.2139 -3.1160 -2.4859 0.9709
6.2749 -2.9901 -2.4857 0.9709
6.3892 -2.7348 -2.4853 0.9709
6.5413 -2.3437 -2.4848 0.9709
6.6697 -1.9444 -2.4844 0.9709
6.7740 -1.5381 -2.4841 0.9709
6.8033 -1.4014 -2.4840 0.9709
6.8298 -1.2641 -2.4839 0.9709
6.8930 -0.8495 -2.4836 0.9709
6.9213 -0.5714 -2.4835 0.9709
6.9384 -0.2924 -2.4834 0.9709
6.9444 -0.0129 -2.4834 0.9709
6.9432 0.1269 -2.4834 0.9709
6.9229 0.5457 -2.4833 0.9709
6.8954 0.8239 -2.4834 0.9709
6.8775 0.9625 -2.4834 0.9709
6.8334 1.2386 -2.4835 0.9709
6.7783 1.5126 -2.4836 0.9709
6.7123 1.7843 -2.4837 0.9709
6.4500 2.5806 -2.4843 0.9709
6.3971 2.7101 -2.4845 0.9709
-4.5450 4.7318 -2.5143 0.9723
-4.6398 4.6398 -2.5146 0.9723
-4.7327 4.5460 -2.5148 0.9723
-4.8238 4.4503 -2.5151 0.9723
-4.9129 4.3527 -2.5153 0.9723
-5.0851 4.1523 -2.5159 0.9723
-5.2491 3.9450 -2.5163 0.9723
-5.4791 3.6221 -2.5170 0.9723
-5.5514 3.5113 -2.5172 0.9723
-5.6214 3.3992 -2.5174 0.9723
-5.6892 3.2856 -2.5177 0.9722
-5.7546 3.1707 -2.5179 0.9722
-5.8784 2.9370 -2.5182 0.9722
-5.9368 2.8183 -2.5184 0.9722
-5.9927 2.6984 -2.5186 0.9722
-6.3507 1.7034 -2.5197 0.9722
-6.3840 1.5753 -2.5198 0.9722
-6.4147 1.4465 -2.5199 0.9722
-6.4427 1.3172 -2.5200 0.9722
-6.5111 0.9260 -2.5203 0.9722
-6.5556 0.5315 -2.5205 0.9722
-6.5651 0.3994 -2.5205 0.9722
-6.5775 0.0025 -2.5206 0.9722
-6.5723 -0.2623 -2.5206 0.9722
-6.5657 -0.3945 -2.5206 0.9722
-6.5564 -0.5266 -2.5206 0.9722
-6.5445 -0.6584 -2.5206 0.9722
-6.5126 -0.9213 -2.5206 0.9722
-6.4926 -1.0522 -2.5205 0.9722
-6.4448 -1.3126 -2.5205 0.9722
-6.4169 -1.4420 -2.5204 0.9722
-6.3864 -1.5708 -2.5203 0.9722
-6.3533 -1.6990 -2.5203 0.9722
-6.3176 -1.8265 -2.5202 0.9722
-6.2794 -1.9532 -2.5201 0.9722
-6.1952 -2.2041 -2.5199 0.9722
-6.1010 -2.4515 -2.5197 0.9722
-6.0501 -2.5737 -2.5196 0.9722
-5.9968 -2.6948 -2.5194 0.9722
-5.9410 -2.8148 -2.5193 0.9722
-5.8222 -3.0513 -2.5190 0.9722
-5.5565 -3.5087 -2.5184 0.9722
-5.4843 -3.6196 -2.5182 0.9722
-5.3334 -3.8368 -2.5178 0.9722
-5.2547 -3.9431 -2.5176 0.9723
-5.1738 -4.0477 -2.5174 0.9723
-5.0909 -4.1507 -2.5172 0.9723
-5.0059 -4.2519 -2.5170 0.9723
-4.8298 -4.4491 -2.5165 0.9723
-4.6460 -4.6391 -2.5160 0.9723
-4.4546 -4.8213 -2.5155 0.9723
-4.3562 -4.9095 -2.5153 0.9723
-4.0507 -5.1618 -2.5145 0.9723
-3.9456 -5.2417 -2.5142 0.9723
-3.8388 -5.3195 -2.5139 0.9723
-3.5096 -5.5395 -2.5130 0.9723
-3.2830 -5.6749 -2.5124 0.9723
-3.1677 -5.7391 -2.5121 0.9723
-2.9334 -5.8605 -2.5115 0.9723
-2.5734 -6.0246 -2.5105 0.9723
-2.4513 -6.0744 -2.5102 0.9723
-1.8274 -6.2857 -2.5085 0.9723
-1.7002 -6.3203 -2.5082 0.9724
-1.5725 -6.3524 -2.5078 0.9724
-1.4441 -6.3819 -2.5075 0.9724
-0.7950 -6.4901 -2.5057 0.9724
-0.5330 -6.5150 -2.5050 0.9724
0.2556 -6.5260 -2.5028 0.9724
0.3868 -6.5186 -2.5025 0.9724
0.7792 -6.4806 -2.5014 0.9724
1.0391 -6.4421 -2.5006 0.9724
1.1684 -6.4190 -2.5003 0.9724
1.2971 -6.3933 -2.4999 0.9724
1.4254 -6.3649 -2.4996 0.9724
1.5530 -6.3340 -2.4992 0.9725
1.6799 -6.3006 -2.4989 0.9725
1.9316 -6.2262 -2.4982 0.9725
2.3028 -6.0957 -2.4971 0.9725
2.4247 -6.0473 -2.4968 0.9725
2.6654 -5.9432 -2.4961 0.9725
3.0180 -5.7692 -2.4951 0.9725
3.1331 -5.7065 -2.4948 0.9725
3.3594 -5.5743 -2.4941 0.9725
3.5801 -5.4332 -2.4935 0.9725
3.7949 -5.2834 -2.4929 0.9725
3.9000 -5.2054 -2.4926 0.9725
4.0035 -5.1252 -2.4923 0.9725
4.3041 -4.8725 -2.4914 0.9725
4.4008 -4.7844 -2.4911 0.9725
4.5887 -4.6024 -2.4906 0.9725
4.6800 -4.5086 -2.4903 0.9725
5.0254 -4.1159 -2.4893 0.9726
5.1860 -3.9096 -2.4888 0.9726
5.2631 -3.8041 -2.4886 0.9726
5.4110 -3.5885 -2.4882 0.9726
5.4817 -3.4786 -2.4879 0.9726
5.5501 -3.3673 -2.4877 0.9726
6.2270 -1.8153 -2.4856 0.9726
6.2620 -1.6895 -2.4855 0.9726
6.3244 -1.4360 -2.4853 0.9726
6.3518 -1.3084 -2.4852 0.9726
6.3988 -1.0516 -2.4850 0.9726
6.4356 -0.7932 -2.4849 0.9726
6.4501 -0.6635 -2.4848 0.9726
6.4780 -0.2730 -2.4847 0.9726
6.4821 -0.1425 -2.4847 0.9726
6.4788 0.2489 -2.4846 0.9726
6.4635 0.5095 -2.4846 0.9726
6.4520 0.6395 -2.4846 0.9726
6.4378 0.7692 -2.4846 0.9726
6.4211 0.8986 -2.4847 0.9726
6.4018 1.0277 -2.4847 0.9726
6.2669 1.6659 -2.4850 0.9726
6.1134 2.1648 -2.4853 0.9726
6.0218 2.4093 -2.4855 0.9726
-4.3431 4.3431 -2.5138 0.9738
-4.4300 4.2552 -2.5140 0.9738
-4.5152 4.1656 -2.5143 0.9738
-4.8375 3.7904 -2.5152 0.9738
-4.9132 3.6926 -2.5155 0.9738
-5.0587 3.4925 -2.5159 0.9738
-5.2615 3.1816 -2.5165 0.9738
-5.3861 2.9677 -2.5169 0.9738
-5.5566 2.6378 -2.5174 0.9738
-5.6089 2.5255 -2.5176 0.9738
-5.7952 2.0667 -2.5181 0.9738
-5.8359 1.9498 -2.5183 0.9738
-5.9102 1.7135 -2.5185 0.9738
-5.9438 1.5942 -2.5186 0.9738
-6.0298 1.2328 -2.5189 0.9738
-6.0536 1.1112 -2.5190 0.9737
-6.0750 0.9892 -2.5191 0.9737
-6.0938 0.8667 -2.5191 0.9737
-6.1354 0.4974 -2.5193 0.9737
-6.1545 0.1262 -2.5194 0.9737
-6.1559 0.0023 -2.5195 0.9737
-6.1547 -0.1216 -2.5195 0.9737
-6.1511 -0.2455 -2.5195 0.9737
-6.1250 -0.6162 -2.5195 0.9737
-6.1113 -0.7394 -2.5194 0.9737
-6.0553 -1.1068 -2.5193 0.9737
-6.0317 -1.2284 -2.5193 0.9737
-5.9128 -1.7094 -2.5191 0.9737
-5.7982 -2.0629 -2.5188 0.9738
-5.7553 -2.1791 -2.5187 0.9738
-5.6126 -2.5221 -2.5184 0.9738
-5.5604 -2.6345 -2.5182 0.9738
-5.4493 -2.8558 -2.5180 0.9738
-5.2660 -3.1789 -2.5175 0.9738
-4.9919 -3.5911 -2.5168 0.9738
-4.8426 -3.7886 -2.5164 0.9738
-4.6855 -3.9798 -2.5160 0.9738
-4.5207 -4.1644 -2.5156 0.9738
-4.3487 -4.3422 -2.5152 0.9738
-4.2600 -4.4284 -2.5149 0.9738
-4.0775 -4.5954 -2.5144 0.9738
-3.9838 -4.6761 -2.5142 0.9738
-3.8885 -4.7549 -2.5140 0.9738
-3.7917 -4.8317 -2.5137 0.9738
-3.6933 -4.9065 -2.5134 0.9738
-3.5934 -4.9794 -2.5132 0.9738
-3.4921 -5.0501 -2.5129 0.9738
-3.3893 -5.1188 -2.5126 0.9738
-3.2852 -5.1855 -2.5124 0.9738
-3.1799 -5.2499 -2.5121 0.9738
-3.0732 -5.3123 -2.5118 0.9738
-2.5224 -5.5909 -2.5103 0.9738
-2.4091 -5.6399 -2.5100 0.9738
-1.8291 -5.8497 -2.5085 0.9739
-1.7108 -5.8846 -2.5081 0.9739
