ply
format ascii 1.0
element vertex 1607
property float32 x
property float32 y
property float32 z
property float32 I
end_header
4.3813 -8.6239 -2.5045 0.9608
4.5543 -8.5344 -2.5046 0.9608
4.7254 -8.4413 -2.5048 0.9608
4.8947 -8.3449 -2.5049 0.9608
5.0620 -8.2450 -2.5050 0.9608
5.3905 -8.0352 -2.5052 0.9608
5.5514 -7.9254 -2.5054 0.9608
5.7102 -7.8123 -2.5055 0.9608
6.1723 -7.4543 -2.5058 0.9608
6.3215 -7.3287 -2.5059 0.9608
6.4680 -7.2003 -2.5060 0.9608
6.6120 -7.0688 -2.5061 0.9608
6.7533 -6.9345 -2.5062 0.9608
6.8919 -6.7974 -2.5063 0.9608
7.4176 -6.2217 -2.5067 0.9608
7.5417 -6.0712 -2.5068 0.9608
7.6627 -5.9183 -2.5069 0.9608
7.8953 -5.6053 -2.5070 0.9608
8.1152 -5.2832 -2.5072 0.9608
8.2202 -5.1188 -2.5073 0.9608
9.2678 -2.8175 -2.5080 0.9608
9.3228 -2.6303 -2.5081 0.9608
9.4650 -2.0627 -2.5082 0.9608
9.5048 -1.8716 -2.5082 0.9608
9.5726 -1.4874 -2.5083 0.9608
9.6007 -1.2943 -2.5083 0.9608
9.6452 -0.9067 -2.5083 0.9608
9.6740 -0.5175 -2.5083 0.9608
9.6825 -0.3226 -2.5084 0.9608
9.6876 0.0676 -2.5084 0.9608
9.6658 0.6524 -2.5083 0.9608
9.6086 1.2349 -2.5083 0.9608
9.5510 1.6208 -2.5083 0.9608
9.4354 2.1945 -2.5082 0.9608
9.2853 2.7601 -2.5081 0.9608
9.1012 3.3156 -2.5080 0.9608
9.0324 3.4981 -2.5079 0.9608
8.8838 3.8589 -2.5078 0.9608
8.8041 4.0369 -2.5078 0.9608
7.8165 5.7149 -2.5071 0.9608
7.6995 5.8710 -2.5070 0.9608
7.5795 6.0247 -2.5069 0.9608
7.4563 6.1759 -2.5068 0.9608
7.2011 6.4707 -2.5066 0.9608
7.0690 6.6141 -2.5065 0.9608
6.6560 7.0281 -2.5062 0.9608
6.3658 7.2884 -2.5055 0.9608
6.0568 7.5260 -2.5013 0.9609
5.8991 7.6402 -2.4992 0.9609
5.2491 7.7206 -2.4173 0.9622
4.6452 7.8083 -2.3524 0.9632
4.4868 7.8999 -2.3523 0.9632
4.1646 8.0733 -2.3521 0.9632
4.0010 8.1552 -2.3520 0.9632
3.8358 8.2337 -2.3518 0.9632
3.5007 8.3806 -2.3516 0.9632
3.1601 8.5139 -2.3514 0.9632
2.8144 8.6334 -2.3511 0.9632
2.2876 8.7862 -2.3507 0.9632
1.9317 8.8702 -2.3505 0.9632
1.5727 8.9398 -2.3502 0.9632
1.3923 8.9692 -2.3501 0.9632
1.2113 8.9949 -2.3500 0.9632
0.4834 9.0612 -2.3494 0.9632
0.1181 9.0723 -2.3492 0.9632
-0.0646 9.0724 -2.3491 0.9632
-0.6122 9.0504 -2.3487 0.9632
-0.7943 9.0358 -2.3485 0.9632
-0.9760 9.0174 -2.3484 0.9632
-1.3382 8.9698 -2.3481 0.9632
-2.0553 8.8311 -2.3476 0.9632
-2.2326 8.7874 -2.3475 0.9632
-3.1039 8.5162 -2.3469 0.9632
-3.2746 8.4515 -2.3468 0.9632
-3.6119 8.3120 -2.3465 0.9632
-4.1066 8.0775 -2.3462 0.9633
-4.4281 7.9048 -2.3459 0.9633
-4.5862 7.8136 -2.3458 0.9633
-4.7424 7.7193 -2.3457 0.9633
-5.6207 7.6853 -2.4652 0.9614
-6.5895 7.0406 -2.4968 0.9609
-6.8671 6.7690 -2.4966 0.9609
-7.0017 6.6291 -2.4965 0.9609
-7.1335 6.4865 -2.4964 0.9609
-7.2625 6.3413 -2.4963 0.9609
-7.7481 5.7355 -2.4960 0.9610
-7.8618 5.5781 -2.4959 0.9610
-7.9723 5.4185 -2.4958 0.9610
-8.1835 5.0927 -2.4956 0.9610
-8.2842 4.9267 -2.4956 0.9610
-8.4754 4.5889 -2.4954 0.9610
-8.5659 4.4171 -2.4954 0.9610
-8.6529 4.2436 -2.4953 0.9610
-8.7363 4.0684 -2.4952 0.9610
-8.8927 3.7132 -2.4951 0.9610
-9.0346 3.3519 -2.4950 0.9610
-9.2200 2.8001 -2.4949 0.9610
-9.2744 2.6138 -2.4949 0.9610
-9.3250 2.4264 -2.4948 0.9610
-9.3719 2.2381 -2.4948 0.9610
-9.4542 1.8589 -2.4947 0.9610
-9.4896 1.6681 -2.4947 0.9610
-9.5212 1.4766 -2.4947 0.9610
-9.5489 1.2845 -2.4946 0.9610
-9.5927 0.8990 -2.4946 0.9610
-9.6089 0.7056 -2.4946 0.9610
-9.6211 0.5119 -2.4946 0.9610
-9.6294 0.3181 -2.4946 0.9610
-9.6238 -0.4579 -2.4946 0.9610
-4.6656 -7.4899 -2.4981 0.9640
-4.3606 -7.6724 -2.4983 0.9640
-4.0485 -7.8425 -2.4985 0.9640
-3.7297 -7.9999 -2.4987 0.9640
-3.4048 -8.1443 -2.4990 0.9640
-3.0744 -8.2756 -2.4992 0.9640
-2.9072 -8.3362 -2.4993 0.9640
-2.3989 -8.4978 -2.4997 0.9640
-2.0550 -8.5883 -2.4999 0.9640
-1.7076 -8.6650 -2.5002 0.9640
-1.3574 -8.7276 -2.5004 0.9639
-0.8281 -8.7950 -2.5008 0.9639
-0.6508 -8.8103 -2.5009 0.9639
0.0603 -8.8359 -2.5014 0.9639
0.2383 -8.8333 -2.5016 0.9639
0.5939 -8.8175 -2.5018 0.9639
0.7714 -8.8042 -2.5019 0.9639
0.9485 -8.7873 -2.5021 0.9639
1.1254 -8.7669 -2.5022 0.9639
1.4777 -8.7153 -2.5025 0.9639
1.6530 -8.6842 -2.5026 0.9639
2.0015 -8.6114 -2.5028 0.9639
2.1746 -8.5698 -2.5030 0.9639
2.5182 -8.4761 -2.5032 0.9639
4.1649 -7.8047 -2.5044 0.9639
4.4762 -7.6313 -2.5046 0.9639
4.7803 -7.4456 -2.5048 0.9639
4.9295 -7.3481 -2.5049 0.9639
5.0767 -7.2476 -2.5050 0.9639
5.2218 -7.1442 -2.5051 0.9639
5.3649 -7.0379 -2.5052 0.9639
5.5057 -6.9287 -2.5053 0.9639
5.7807 -6.7019 -2.5055 0.9639
5.9148 -6.5844 -2.5056 0.9639
6.0464 -6.4642 -2.5057 0.9639
6.3023 -6.2159 -2.5059 0.9639
6.6668 -5.8246 -2.5062 0.9639
6.7830 -5.6893 -2.5063 0.9639
7.1148 -5.2699 -2.5065 0.9639
7.2197 -5.1257 -2.5066 0.9639
7.3217 -4.9794 -2.5066 0.9639
7.4207 -4.8311 -2.5067 0.9639
7.5167 -4.6807 -2.5068 0.9639
7.6097 -4.5286 -2.5069 0.9639
7.6995 -4.3745 -2.5069 0.9639
7.9502 -3.9019 -2.5071 0.9639
8.2391 -3.2497 -2.5073 0.9639
8.3636 -2.9154 -2.5074 0.9638
8.5716 -2.2330 -2.5076 0.9638
8.6149 -2.0600 -2.5076 0.9638
8.6911 -1.7114 -2.5076 0.9638
8.7239 -1.5361 -2.5077 0.9638
8.7788 -1.1835 -2.5077 0.9638
8.8009 -1.0065 -2.5077 0.9638
8.8582 0.0618 -2.5078 0.9638
8.8383 0.5966 -2.5078 0.9638
8.8070 0.9520 -2.5077 0.9638
8.7860 1.1292 -2.5077 0.9638
8.7615 1.3059 -2.5077 0.9638
8.7333 1.4820 -2.5077 0.9638
8.7016 1.6576 -2.5077 0.9638
8.5854 2.1800 -2.5076 0.9638
8.3816 2.8636 -2.5074 0.9638
8.3221 3.0318 -2.5074 0.9638
7.9744 3.8527 -2.5072 0.9639
7.8950 4.0124 -2.5071 0.9639
7.8124 4.1705 -2.5070 0.9639
7.7267 4.3269 -2.5070 0.9639
7.6378 4.4815 -2.5069 0.9639
7.4507 4.7852 -2.5068 0.9639
7.3527 4.9341 -2.5067 0.9639
7.1476 5.2259 -2.5066 0.9639
6.4642 6.0483 -2.5061 0.9639
6.3409 6.1770 -2.5060 0.9639
5.9557 6.5479 -2.5057 0.9639
5.4086 7.0049 -2.5053 0.9639
5.2662 7.1121 -2.5052 0.9639
4.9731 7.3148 -2.5040 0.9639
4.6683 7.4991 -2.5007 0.9639
4.3570 7.6713 -2.4975 0.9640
3.7847 7.7143 -2.4325 0.9649
3.4095 7.7213 -2.3895 0.9655
3.2267 7.7245 -2.3699 0.9658
3.0484 7.7321 -2.3529 0.9660
2.8899 7.7862 -2.3512 0.9661
2.4142 7.9454 -2.3508 0.9661
2.2536 7.9920 -2.3507 0.9661
2.0921 8.0354 -2.3506 0.9661
1.9297 8.0755 -2.3505 0.9661
1.1079 8.2265 -2.3499 0.9661
0.7756 8.2636 -2.3497 0.9661
0.6090 8.2771 -2.3495 0.9661
0.4421 8.2873 -2.3494 0.9661
0.2751 8.2941 -2.3493 0.9661
0.1081 8.2976 -2.3492 0.9661
-0.0591 8.2976 -2.3491 0.9661
-0.2262 8.2943 -2.3489 0.9661
-1.7169 8.1140 -2.3479 0.9661
-1.8799 8.0774 -2.3478 0.9661
-2.0421 8.0375 -2.3476 0.9661
-2.3638 7.9479 -2.3474 0.9661
-2.6817 7.8456 -2.3472 0.9661
-2.8390 7.7896 -2.3471 0.9661
-2.9952 7.7304 -2.3470 0.9661
-3.3489 7.7068 -2.3788 0.9657
-4.4563 7.5924 -2.4922 0.9641
-5.3507 7.0151 -2.4977 0.9640
-5.8970 6.5607 -2.4973 0.9640
-6.1559 6.3175 -2.4971 0.9640
-6.2817 6.1920 -2.4970 0.9640
-6.5255 5.9336 -2.4968 0.9640
-6.6434 5.8008 -2.4967 0.9640
-6.7587 5.6656 -2.4967 0.9640
-7.1918 5.1027 -2.4964 0.9640
-7.2929 4.9567 -2.4963 0.9640
-7.5783 4.5069 -2.4961 0.9640
-7.7532 4.1979 -2.4959 0.9640
-7.8360 4.0408 -2.4959 0.9640
-7.9156 3.8821 -2.4958 0.9640
-8.1350 3.3968 -2.4957 0.9640
-8.2016 3.2322 -2.4956 0.9640
-8.2649 3.0663 -2.4956 0.9640
-8.3248 2.8992 -2.4955 0.9640
-8.4843 2.3911 -2.4954 0.9640
-8.6129 1.8744 -2.4953 0.9640
-8.6488 1.7005 -2.4953 0.9640
-8.6812 1.5260 -2.4953 0.9640
-8.7101 1.3508 -2.4952 0.9640
-8.7355 1.1751 -2.4952 0.9640
-8.7573 0.9990 -2.4952 0.9640
-8.7756 0.8224 -2.4952 0.9640
-8.8132 0.1135 -2.4952 0.9640
-4.2947 -6.8944 -2.4983 0.9666
-4.1551 -6.9798 -2.4984 0.9666
-4.0139 -7.0623 -2.4985 0.9666
-3.8710 -7.1420 -2.4986 0.9666
-3.7265 -7.2188 -2.4988 0.9666
-3.5805 -7.2927 -2.4989 0.9666
-3.2842 -7.4316 -2.4991 0.9666
-3.1340 -7.4966 -2.4992 0.9666
-2.8298 -7.6174 -2.4994 0.9666
-2.5210 -7.7258 -2.4996 0.9666
-2.3650 -7.7754 -2.4997 0.9666
-2.2081 -7.8217 -2.4998 0.9666
-1.5717 -7.9755 -2.5003 0.9666
-0.9250 -8.0776 -2.5007 0.9665
-0.7622 -8.0950 -2.5009 0.9665
-0.5990 -8.1091 -2.5010 0.9665
-0.2720 -8.1274 -2.5012 0.9665
0.0555 -8.1325 -2.5014 0.9665
0.3830 -8.1244 -2.5017 0.9665
0.5466 -8.1154 -2.5018 0.9665
0.7099 -8.1032 -2.5019 0.9665
0.8730 -8.0876 -2.5020 0.9665
1.0358 -8.0687 -2.5021 0.9665
1.1981 -8.0466 -2.5023 0.9665
1.3600 -8.0212 -2.5024 0.9665
1.6820 -7.9607 -2.5026 0.9665
2.0014 -7.8872 -2.5028 0.9665
2.3176 -7.8009 -2.5031 0.9665
2.6301 -7.7020 -2.5033 0.9665
2.9384 -7.5905 -2.5035 0.9665
3.0908 -7.5301 -2.5036 0.9665
3.2420 -7.4666 -2.5037 0.9665
3.3918 -7.4001 -2.5038 0.9665
3.5403 -7.3307 -2.5039 0.9665
4.1195 -7.0231 -2.5043 0.9665
4.2602 -6.9390 -2.5044 0.9665
4.6720 -6.6699 -2.5047 0.9665
4.8056 -6.5747 -2.5048 0.9665
4.9372 -6.4769 -2.5049 0.9665
5.1944 -6.2732 -2.5051 0.9665
5.3199 -6.1676 -2.5052 0.9665
5.7997 -5.7202 -2.5056 0.9665
5.9139 -5.6025 -2.5056 0.9665
6.0258 -5.4824 -2.5057 0.9665
6.1352 -5.3601 -2.5058 0.9665
6.2421 -5.2356 -2.5059 0.9665
6.3464 -5.1090 -2.5059 0.9665
6.4482 -4.9803 -2.5060 0.9665
6.6439 -4.7169 -2.5062 0.9665
6.8288 -4.4457 -2.5063 0.9665
7.1651 -3.8821 -2.5065 0.9665
7.3160 -3.5906 -2.5066 0.9665
7.4549 -3.2932 -2.5067 0.9665
7.5199 -3.1425 -2.5068 0.9665
7.6963 -2.6828 -2.5069 0.9665
7.7489 -2.5273 -2.5070 0.9665
7.9276 -1.8956 -2.5071 0.9665
7.9976 -1.5749 -2.5071 0.9665
8.0278 -1.4135 -2.5072 0.9665
8.0547 -1.2515 -2.5072 0.9665
8.0784 -1.0891 -2.5072 0.9665
8.0987 -0.9262 -2.5072 0.9665
8.1157 -0.7629 -2.5072 0.9665
8.1295 -0.5993 -2.5072 0.9665
8.1399 -0.4355 -2.5073 0.9665
8.1509 -0.1073 -2.5073 0.9665
8.1514 0.0569 -2.5073 0.9665
8.1486 0.2210 -2.5073 0.9665
8.1204 0.7126 -2.5072 0.9665
8.1043 0.8760 -2.5072 0.9665
8.0850 1.0391 -2.5072 0.9665
8.0624 1.2017 -2.5072 0.9665
8.0365 1.3638 -2.5072 0.9665
7.9749 1.6863 -2.5071 0.9665
7.9004 2.0060 -2.5071 0.9665
7.8583 2.1647 -2.5071 0.9665
7.8130 2.3225 -2.5070 0.9665
7.7129 2.6351 -2.5070 0.9665
7.6582 2.7899 -2.5069 0.9665
7.6003 2.9435 -2.5069 0.9665
7.5394 3.0959 -2.5068 0.9665
7.4083 3.3969 -2.5068 0.9665
7.3383 3.5453 -2.5067 0.9665
7.2652 3.6923 -2.5067 0.9665
7.1892 3.8378 -2.5066 0.9665
7.1103 3.9817 -2.5065 0.9665
6.9439 4.2646 -2.5064 0.9665
6.7662 4.5406 -2.5063 0.9665
6.6732 4.6758 -2.5062 0.9665
6.4792 4.9404 -2.5061 0.9665
6.3782 5.0698 -2.5060 0.9665
6.1685 5.3222 -2.5059 0.9665
5.9488 5.5659 -2.5057 0.9665
5.8353 5.6844 -2.5056 0.9665
5.7194 5.8006 -2.5056 0.9665
5.4808 6.0258 -2.5054 0.9665
5.2334 6.2412 -2.5052 0.9665
4.8464 6.5451 -2.5049 0.9665
4.5786 6.7345 -2.5048 0.9665
4.4418 6.8250 -2.5047 0.9665
4.0211 7.0799 -2.5044 0.9665
3.8776 7.1592 -2.5043 0.9665
3.5845 7.3063 -2.5031 0.9665
3.4349 7.3733 -2.5019 0.9665
3.2842 7.4374 -2.5007 0.9665
2.6704 7.6644 -2.4964 0.9666
2.5102 7.7003 -2.4911 0.9667
2.0065 7.7068 -2.4495 0.9672
1.6791 7.7102 -2.4271 0.9675
1.5174 7.7115 -2.4174 0.9676
1.3569 7.7128 -2.4087 0.9678
1.1974 7.7138 -2.4010 0.9679
0.7242 7.7158 -2.3837 0.9681
0.5677 7.7162 -2.3797 0.9681
0.4117 7.7164 -2.3768 0.9682
0.1005 7.7162 -2.3735 0.9682
-0.0549 7.7159 -2.3733 0.9682
-0.2103 7.7154 -2.3740 0.9682
-0.5218 7.7139 -2.3780 0.9682
-0.8347 7.7117 -2.3858 0.9681
-1.3090 7.7071 -2.4045 0.9678
-1.9559 7.6983 -2.4431 0.9673
-2.4566 7.6897 -2.4830 0.9668
-3.0821 7.5027 -2.4948 0.9666
-3.2338 7.4418 -2.4957 0.9666
-3.6817 7.2418 -2.4988 0.9666
-3.9702 7.0874 -2.4987 0.9666
-4.1120 7.0057 -2.4986 0.9666
-4.2521 6.9212 -2.4985 0.9666
-4.3904 6.8339 -2.4984 0.9666
-4.6617 6.6511 -2.4982 0.9666
-4.7945 6.5556 -2.4981 0.9666
-4.9254 6.4575 -2.4980 0.9666
-5.1810 6.2534 -2.4978 0.9666
-5.3057 6.1476 -2.4977 0.9666
-5.4283 6.0393 -2.4976 0.9666
-6.1155 5.3398 -2.4971 0.9666
-6.2216 5.2154 -2.4970 0.9666
-6.3252 5.0889 -2.4970 0.9666
-6.4262 4.9603 -2.4969 0.9666
-6.7134 4.5629 -2.4967 0.9666
-6.8038 4.4266 -2.4966 0.9666
-6.8914 4.2886 -2.4966 0.9666
-6.9762 4.1488 -2.4965 0.9666
-7.0581 4.0074 -2.4964 0.9666
-7.1372 3.8644 -2.4964 0.9666
-7.2135 3.7197 -2.4963 0.9666
-7.4888 3.1269 -2.4961 0.9666
-7.6084 2.8227 -2.4960 0.9666
-7.6636 2.6689 -2.4960 0.9666
-7.7156 2.5140 -2.4960 0.9666
-7.8104 2.2012 -2.4959 0.9666
-7.9288 1.7255 -2.4958 0.9666
-8.0417 1.0818 -2.4957 0.9666
-8.0618 0.9196 -2.4957 0.9666
-8.1025 0.4311 -2.4957 0.9666
-8.1095 0.2679 -2.4957 0.9666
-8.1133 0.1045 -2.4957 0.9666
-8.1137 -0.0589 -2.4957 0.9666
-8.1109 -0.2223 -2.4957 0.9666
-8.1048 -0.3856 -2.4957 0.9666
-4.1018 -6.2985 -2.4985 0.9688
-3.9743 -6.3801 -2.4986 0.9688
-3.5822 -6.6091 -2.4989 0.9688
-3.4485 -6.6802 -2.4990 0.9688
-3.1769 -6.8142 -2.4991 0.9688
-2.9001 -6.9371 -2.4993 0.9688
-2.0432 -7.2379 -2.5000 0.9688
-1.6027 -7.3490 -2.5003 0.9688
-1.4544 -7.3801 -2.5004 0.9688
-1.3055 -7.4082 -2.5005 0.9688
-1.1561 -7.4333 -2.5006 0.9688
-0.7052 -7.4905 -2.5009 0.9688
-0.5543 -7.5035 -2.5010 0.9688
-0.1002 -7.5243 -2.5013 0.9688
0.0514 -7.5251 -2.5014 0.9688
0.3544 -7.5176 -2.5017 0.9688
0.5057 -7.5092 -2.5018 0.9688
0.6569 -7.4979 -2.5019 0.9688
0.8078 -7.4834 -2.5020 0.9688
1.5564 -7.3659 -2.5025 0.9688
1.7045 -7.3333 -2.5026 0.9688
1.8519 -7.2978 -2.5027 0.9688
1.9986 -7.2594 -2.5028 0.9688
2.1444 -7.2179 -2.5029 0.9688
2.4336 -7.1263 -2.5031 0.9688
2.5767 -7.0762 -2.5032 0.9688
2.7188 -7.0231 -2.5033 0.9688
3.2757 -6.7826 -2.5037 0.9687
3.4117 -6.7156 -2.5038 0.9687
3.9417 -6.4202 -2.5042 0.9687
4.3226 -6.1711 -2.5045 0.9687
4.4462 -6.0830 -2.5046 0.9687
4.6879 -5.8995 -2.5048 0.9687
4.8059 -5.8040 -2.5048 0.9687
5.0361 -5.6062 -2.5050 0.9687
5.1481 -5.5038 -2.5051 0.9687
5.2581 -5.3992 -2.5052 0.9687
5.3659 -5.2923 -2.5052 0.9687
5.4716 -5.1834 -2.5053 0.9687
5.8716 -4.7268 -2.5056 0.9687
6.0575 -4.4867 -2.5057 0.9687
6.1468 -4.3640 -2.5058 0.9687
6.2336 -4.2394 -2.5059 0.9687
6.3179 -4.1131 -2.5059 0.9687
6.3996 -3.9851 -2.5060 0.9687
6.4787 -3.8555 -2.5060 0.9687
6.5552 -3.7243 -2.5061 0.9687
6.7001 -3.4575 -2.5062 0.9687
6.7685 -3.3219 -2.5063 0.9687
6.8342 -3.1850 -2.5063 0.9687
6.8970 -3.0468 -2.5064 0.9687
6.9571 -2.9073 -2.5064 0.9687
7.0688 -2.6249 -2.5065 0.9687
7.1203 -2.4820 -2.5065 0.9687
7.1690 -2.3381 -2.5066 0.9687
7.2973 -1.9011 -2.5066 0.9687
7.3991 -1.4570 -2.5067 0.9687
7.5083 -0.7058 -2.5068 0.9687
7.5373 -0.2511 -2.5068 0.9687
7.5408 -0.0993 -2.5068 0.9687
7.5413 0.0526 -2.5068 0.9687
7.5387 0.2045 -2.5068 0.9687
7.5243 0.5079 -2.5068 0.9687
7.5126 0.6593 -2.5068 0.9687
7.4798 0.9613 -2.5068 0.9687
7.3450 1.7083 -2.5067 0.9687
7.3091 1.8559 -2.5067 0.9687
7.2701 2.0027 -2.5066 0.9687
7.0850 2.5811 -2.5065 0.9687
7.0315 2.7232 -2.5065 0.9687
6.9159 3.0041 -2.5064 0.9687
6.7891 3.2800 -2.5063 0.9687
6.7215 3.4160 -2.5063 0.9687
6.6512 3.5506 -2.5062 0.9687
6.3434 4.0740 -2.5060 0.9687
6.1739 4.3259 -2.5059 0.9687
5.9944 4.5708 -2.5058 0.9687
5.9010 4.6905 -2.5057 0.9687
5.8052 4.8082 -2.5056 0.9687
5.5038 5.1496 -2.5054 0.9687
5.3988 5.2592 -2.5053 0.9687
5.2916 5.3667 -2.5053 0.9687
5.0709 5.5751 -2.5051 0.9687
4.7245 5.8705 -2.5049 0.9687
4.6052 5.9643 -2.5048 0.9687
4.4840 6.0556 -2.5047 0.9687
4.1097 6.3147 -2.5044 0.9687
3.9816 6.3959 -2.5043 0.9687
3.7205 6.5506 -2.5041 0.9687
3.5877 6.6239 -2.5040 0.9687
3.4534 6.6946 -2.5040 0.9687
3.1808 6.8277 -2.5038 0.9687
2.6206 7.0604 -2.5034 0.9688
2.4778 7.1114 -2.5033 0.9688
2.3340 7.1596 -2.5032 0.9688
2.0436 7.2472 -2.5030 0.9688
1.8967 7.2848 -2.5022 0.9688
1.1533 7.4296 -2.4992 0.9688
1.0033 7.4499 -2.4988 0.9688
0.4003 7.5025 -2.4974 0.9688
0.2491 7.5084 -2.4972 0.9688
-0.2047 7.5087 -2.4969 0.9688
-0.5069 7.4944 -2.4969 0.9688
-0.6578 7.4829 -2.4970 0.9688
-0.8084 7.4686 -2.4971 0.9688
-0.9587 7.4513 -2.4973 0.9688
-1.5560 7.3535 -2.4985 0.9688
-1.8515 7.2875 -2.4994 0.9688
-1.9983 7.2503 -2.4999 0.9688
-2.4323 7.1160 -2.4998 0.9688
-2.5751 7.0653 -2.4997 0.9688
-2.8572 6.9553 -2.4995 0.9688
-3.4072 6.7018 -2.4991 0.9688
-3.6740 6.5586 -2.4989 0.9688
-3.9348 6.4049 -2.4987 0.9688
-4.1893 6.2408 -2.4985 0.9688
-4.3139 6.1549 -2.4984 0.9688
-4.4369 6.0666 -2.4983 0.9688
-4.6772 5.8826 -2.4982 0.9688
-5.0234 5.5888 -2.4979 0.9688
-5.1348 5.4864 -2.4978 0.9688
-5.3512 5.2748 -2.4977 0.9688
-5.7577 4.8265 -2.4974 0.9688
-5.8535 4.7094 -2.4973 0.9688
-5.9470 4.5905 -2.4972 0.9688
-6.0381 4.4697 -2.4972 0.9688
-6.2129 4.2227 -2.4970 0.9688
-6.2965 4.0966 -2.4970 0.9688
-6.4561 3.8395 -2.4969 0.9688
-6.5319 3.7087 -2.4968 0.9688
-6.6052 3.5763 -2.4968 0.9688
-6.6757 3.4425 -2.4967 0.9688
-6.7435 3.3073 -2.4967 0.9688
-6.8087 3.1707 -2.4966 0.9688
-7.0923 2.4700 -2.4964 0.9688
-7.2283 2.0371 -2.4963 0.9688
-7.2677 1.8911 -2.4963 0.9688
-7.3043 1.7443 -2.4963 0.9688
-7.4423 1.0012 -2.4962 0.9688
-7.4765 0.7007 -2.4961 0.9688
-7.4891 0.5499 -2.4961 0.9688
-7.5086 0.0967 -2.4961 0.9688
-7.5090 -0.0545 -2.4961 0.9688
-7.5007 -0.3569 -2.4961 0.9688
-3.4529 -6.0753 -2.4990 0.9708
-2.9532 -6.3344 -2.4993 0.9707
-2.8251 -6.3928 -2.4994 0.9707
-2.3019 -6.6004 -2.4998 0.9707
-2.1685 -6.6457 -2.4999 0.9707
-2.0344 -6.6882 -2.5000 0.9707
-1.8993 -6.7281 -2.5001 0.9707
-1.7635 -6.7653 -2.5002 0.9707
-1.3519 -6.8602 -2.5004 0.9707
-1.0747 -6.9096 -2.5006 0.9707
-0.6556 -6.9627 -2.5009 0.9707
-0.0931 -6.9940 -2.5013 0.9707
0.1886 -6.9927 -2.5015 0.9707
0.6106 -6.9694 -2.5018 0.9707
1.1697 -6.8987 -2.5022 0.9707
1.9932 -6.7090 -2.5028 0.9707
2.5270 -6.5278 -2.5032 0.9707
2.6581 -6.4759 -2.5033 0.9707
3.0446 -6.3042 -2.5036 0.9707
3.1711 -6.2419 -2.5037 0.9707
3.2963 -6.1770 -2.5038 0.9707
3.4201 -6.1096 -2.5039 0.9707
3.5426 -6.0396 -2.5039 0.9707
3.6636 -5.9673 -2.5040 0.9707
3.9012 -5.8153 -2.5042 0.9707
4.0177 -5.7357 -2.5043 0.9707
4.2457 -5.5697 -2.5044 0.9707
4.3571 -5.4832 -2.5045 0.9707
4.6807 -5.2106 -2.5048 0.9707
4.7848 -5.1154 -2.5048 0.9707
4.8870 -5.0182 -2.5049 0.9707
4.9872 -4.9189 -2.5050 0.9707
5.0854 -4.8176 -2.5050 0.9707
5.1815 -4.7143 -2.5051 0.9707
5.4572 -4.3932 -2.5053 0.9707
5.5447 -4.2825 -2.5054 0.9707
5.6300 -4.1700 -2.5054 0.9707
5.7129 -4.0559 -2.5055 0.9707
6.0213 -3.5833 -2.5057 0.9707
6.1610 -3.3381 -2.5058 0.9707
6.2271 -3.2134 -2.5059 0.9707
6.3517 -2.9601 -2.5060 0.9707
6.5697 -2.4395 -2.5061 0.9707
6.6176 -2.3068 -2.5062 0.9707
6.6628 -2.1731 -2.5062 0.9707
6.7451 -1.9030 -2.5063 0.9707
6.8479 -1.4923 -2.5063 0.9707
6.9635 -0.7964 -2.5064 0.9707
6.9781 -0.6560 -2.5064 0.9707
6.9899 -0.5153 -2.5064 0.9707
6.9989 -0.3744 -2.5064 0.9707
7.0088 0.0489 -2.5064 0.9707
7.0064 0.1900 -2.5064 0.9707
6.9930 0.4720 -2.5064 0.9707
6.9683 0.7532 -2.5064 0.9707
6.9517 0.8934 -2.5064 0.9707
6.9322 1.0332 -2.5064 0.9707
6.8264 1.5877 -2.5063 0.9707
6.7930 1.7248 -2.5063 0.9707
6.7179 1.9970 -2.5063 0.9707
6.6762 2.1318 -2.5062 0.9707
6.5848 2.3989 -2.5062 0.9707
6.5350 2.5310 -2.5061 0.9707
6.4276 2.7920 -2.5061 0.9707
6.1817 3.2999 -2.5059 0.9707
6.0436 3.5461 -2.5058 0.9707
5.8180 3.9043 -2.5056 0.9707
5.7381 4.0206 -2.5056 0.9707
5.6558 4.1352 -2.5055 0.9707
5.5713 4.2482 -2.5054 0.9707
5.4845 4.3594 -2.5054 0.9707
5.2108 4.6823 -2.5052 0.9707
5.1153 4.7861 -2.5051 0.9707
5.0178 4.8880 -2.5051 0.9707
4.9182 4.9880 -2.5050 0.9707
4.6076 5.2754 -2.5048 0.9707
4.5003 5.3669 -2.5047 0.9707
4.3911 5.4563 -2.5046 0.9707
4.1676 5.6284 -2.5045 0.9707
4.0533 5.7109 -2.5044 0.9707
3.8198 5.8692 -2.5042 0.9707
3.7006 5.9447 -2.5041 0.9707
3.4580 6.0885 -2.5040 0.9707
3.2098 6.2224 -2.5038 0.9707
3.0837 6.2855 -2.5037 0.9707
2.8279 6.4041 -2.5035 0.9707
2.5675 6.5123 -2.5033 0.9707
2.3030 6.6099 -2.5031 0.9707
1.4891 6.8378 -2.5026 0.9707
1.3510 6.8661 -2.5025 0.9707
1.2124 6.8917 -2.5024 0.9707
1.0733 6.9144 -2.5023 0.9707
0.7940 6.9515 -2.5021 0.9707
0.6538 6.9658 -2.5020 0.9707
0.3727 6.9859 -2.5018 0.9707
0.2319 6.9917 -2.5017 0.9707
0.0911 6.9947 -2.5016 0.9707
-0.0498 6.9948 -2.5015 0.9707
-0.1906 6.9921 -2.5014 0.9707
-0.7526 6.9530 -2.5010 0.9707
-1.5849 6.8100 -2.5004 0.9707
-1.8577 6.7401 -2.5002 0.9707
-2.1274 6.6593 -2.5000 0.9707
-2.2610 6.6148 -2.4999 0.9707
-2.5254 6.5179 -2.4997 0.9707
-2.6560 6.4655 -2.4996 0.9707
-2.7856 6.4104 -2.4995 0.9707
-3.0413 6.2926 -2.4993 0.9707
-3.1673 6.2299 -2.4992 0.9707
-3.5373 6.0266 -2.4990 0.9708
-3.8944 5.8014 -2.4987 0.9708
-4.2371 5.5551 -2.4985 0.9708
-4.3480 5.4685 -2.4984 0.9708
-4.5644 5.2887 -2.4982 0.9708
-4.6699 5.1955 -2.4982 0.9708
-4.7734 5.1002 -2.4981 0.9708
-5.1678 4.6991 -2.4978 0.9708
-5.6133 4.1552 -2.4975 0.9708
-5.6957 4.0412 -2.4974 0.9708
-5.7758 3.9256 -2.4974 0.9708
-5.8535 3.8084 -2.4973 0.9708
-5.9289 3.6896 -2.4972 0.9708
-6.0724 3.4478 -2.4971 0.9708
-6.1405 3.3247 -2.4971 0.9708
-6.2061 3.2003 -2.4970 0.9708
-6.2692 3.0746 -2.4970 0.9708
-6.4431 2.6903 -2.4969 0.9708
-6.4958 2.5600 -2.4968 0.9708
-6.7565 1.7581 -2.4966 0.9708
-6.7905 1.6217 -2.4966 0.9708
-6.8217 1.4846 -2.4966 0.9708
-6.8987 1.0699 -2.4965 0.9708
-6.9805 0.0899 -2.4965 0.9708
-6.9784 -0.1913 -2.4965 0.9708
-3.5585 -5.4642 -2.4989 0.9725
-3.4478 -5.5350 -2.4990 0.9725
-3.3358 -5.6034 -2.4990 0.9725
-3.2223 -5.6697 -2.4991 0.9725
-3.1076 -5.7336 -2.4992 0.9725
-2.9916 -5.7952 -2.4993 0.9724
-2.7560 -5.9114 -2.4995 0.9724
-1.8985 -6.2415 -2.5001 0.9724
-1.7725 -6.2787 -2.5002 0.9724
-1.5183 -6.3454 -2.5003 0.9724
-1.3902 -6.3750 -2.5004 0.9724
-0.8728 -6.4671 -2.5008 0.9724
-0.7424 -6.4836 -2.5009 0.9724
-0.6117 -6.4975 -2.5010 0.9724
-0.3496 -6.5174 -2.5012 0.9724
0.0446 -6.5273 -2.5014 0.9724
0.3074 -6.5207 -2.5016 0.9724
0.5698 -6.5035 -2.5018 0.9724
0.7007 -6.4910 -2.5019 0.9724
0.9616 -6.4580 -2.5021 0.9724
1.4784 -6.3606 -2.5025 0.9724
1.6062 -6.3298 -2.5026 0.9724
1.7334 -6.2964 -2.5027 0.9724
1.8599 -6.2604 -2.5027 0.9724
2.1107 -6.1809 -2.5029 0.9724
2.2348 -6.1373 -2.5030 0.9724
2.7218 -5.9384 -2.5034 0.9724
2.8410 -5.8826 -2.5034 0.9724
3.0758 -5.7638 -2.5036 0.9724
3.1913 -5.7009 -2.5037 0.9724
3.5301 -5.4983 -2.5039 0.9724
3.7489 -5.3520 -2.5041 0.9724
4.0656 -5.1163 -2.5043 0.9724
4.1679 -5.0336 -2.5044 0.9724
4.4646 -4.7731 -2.5046 0.9724
4.6535 -4.5897 -2.5047 0.9724
4.8348 -4.3988 -2.5049 0.9724
5.0920 -4.0991 -2.5051 0.9724
5.3306 -3.7845 -2.5052 0.9724
5.4058 -3.6764 -2.5053 0.9724
5.4789 -3.5669 -2.5053 0.9724
5.5497 -3.4559 -2.5054 0.9724
6.1746 -2.1523 -2.5058 0.9724
6.3600 -1.5208 -2.5060 0.9724
6.4404 -1.1340 -2.5060 0.9724
6.4619 -1.0041 -2.5061 0.9724
6.4809 -0.8737 -2.5061 0.9724
6.4972 -0.7430 -2.5061 0.9724
6.5303 -0.3494 -2.5061 0.9724
6.5360 -0.2178 -2.5061 0.9724
6.5391 -0.0861 -2.5061 0.9724
6.5248 0.4404 -2.5061 0.9724
6.4681 0.9641 -2.5061 0.9724
6.4240 1.2237 -2.5060 0.9724
6.3382 1.6094 -2.5060 0.9724
6.2681 1.8632 -2.5059 0.9724
6.2292 1.9891 -2.5059 0.9724
6.1879 2.1141 -2.5059 0.9724
5.9973 2.6051 -2.5057 0.9724
5.8874 2.8444 -2.5057 0.9724
5.8288 2.9623 -2.5056 0.9724
5.7046 3.1945 -2.5055 0.9724
5.6390 3.3087 -2.5055 0.9724
5.5711 3.4215 -2.5054 0.9724
5.5010 3.5329 -2.5054 0.9724
5.4286 3.6429 -2.5053 0.9724
5.3540 3.7515 -2.5053 0.9724
5.2773 3.8584 -2.5052 0.9724
4.9492 4.2702 -2.5050 0.9724
4.4943 4.7455 -2.5047 0.9724
4.2993 4.9224 -2.5045 0.9724
4.1992 5.0078 -2.5045 0.9724
3.9939 5.1726 -2.5043 0.9724
3.8888 5.2518 -2.5043 0.9724
3.5642 5.4765 -2.5040 0.9724
3.4531 5.5470 -2.5039 0.9724
3.3406 5.6152 -2.5039 0.9724
3.2267 5.6812 -2.5038 0.9724
2.8775 5.8651 -2.5035 0.9724
2.7587 5.9217 -2.5035 0.9724
2.5178 6.0275 -2.5033 0.9724
2.2729 6.1236 -2.5031 0.9724
2.1490 6.1679 -2.5030 0.9724
2.0243 6.2097 -2.5029 0.9724
1.7725 6.2858 -2.5028 0.9724
1.6455 6.3200 -2.5027 0.9724
1.5178 6.3516 -2.5026 0.9724
1.2607 6.4071 -2.5024 0.9724
1.1314 6.4310 -2.5023 0.9724
0.8714 6.4708 -2.5021 0.9724
0.7409 6.4868 -2.5020 0.9724
0.3478 6.5190 -2.5017 0.9724
-0.0465 6.5273 -2.5015 0.9724
-0.3093 6.5197 -2.5013 0.9724
-0.4405 6.5119 -2.5012 0.9724
-0.5715 6.5015 -2.5011 0.9724
-0.8328 6.4727 -2.5009 0.9724
-0.9630 6.4544 -2.5008 0.9724
-1.0927 6.4334 -2.5007 0.9724
-1.4790 6.3550 -2.5004 0.9724
-1.9853 6.2145 -2.5001 0.9724
-2.1100 6.1730 -2.5000 0.9724
-2.2338 6.1290 -2.4999 0.9724
-2.4787 6.0337 -2.4997 0.9724
-2.5996 5.9824 -2.4996 0.9724
-3.4136 5.5564 -2.4990 0.9725
-3.6344 5.4141 -2.4989 0.9725
-3.7425 5.3396 -2.4988 0.9725
-4.3582 4.8487 -2.4984 0.9725
-4.4548 4.7598 -2.4983 0.9725
-4.9101 4.2873 -2.4980 0.9725
-5.3156 3.7715 -2.4977 0.9725
-5.3904 3.6636 -2.4976 0.9725
-5.7308 3.1028 -2.4974 0.9725
-5.8509 2.8695 -2.4973 0.9725
-5.9074 2.7510 -2.4973 0.9725
-5.9615 2.6314 -2.4972 0.9725
-6.0132 2.5108 -2.4972 0.9725
-6.1093 2.2666 -2.4971 0.9725
-6.1536 2.1431 -2.4971 0.9725
-6.2715 1.7675 -2.4970 0.9725
-6.3375 1.5135 -2.4969 0.9725
-6.4172 1.1280 -2.4969 0.9725
-6.4735 0.7384 -2.4968 0.9725
-6.4870 0.6079 -2.4968 0.9725
-6.4979 0.4771 -2.4968 0.9725
-6.5062 0.3462 -2.4968 0.9725
-6.5118 0.2151 -2.4968 0.9725
-6.5129 -0.1785 -2.4968 0.9725
-3.3321 -5.1167 -2.4990 0.9740
-3.1236 -5.2470 -2.4992 0.9740
-3.0174 -5.3090 -2.4993 0.9740
-2.6915 -5.4820 -2.4995 0.9740
-2.4687 -5.5863 -2.4997 0.9739
-2.0114 -5.7676 -2.5000 0.9739
-1.8950 -5.8071 -2.5001 0.9739
-1.4217 -5.9416 -2.5004 0.9739
-1.0604 -6.0172 -2.5007 0.9739
-0.4502 -6.0944 -2.5011 0.9739
0.0417 -6.1117 -2.5014 0.9739
0.7783 -6.0634 -2.5020 0.9739
0.9003 -6.0467 -2.5021 0.9739
1.0220 -6.0276 -2.5021 0.9739
1.1432 -6.0060 -2.5022 0.9739
1.2639 -5.9820 -2.5023 0.9739
1.3842 -5.9555 -2.5024 0.9739
1.5039 -5.9266 -2.5025 0.9739
1.6230 -5.8953 -2.5026 0.9739
1.7415 -5.8616 -2.5027 0.9739
1.8592 -5.8255 -2.5027 0.9739
1.9762 -5.7871 -2.5028 0.9739
2.3223 -5.6578 -2.5031 0.9739
2.4359 -5.6101 -2.5032 0.9739
2.5484 -5.5600 -2.5032 0.9739
2.6600 -5.5078 -2.5033 0.9739
2.9880 -5.3376 -2.5036 0.9739
3.2007 -5.2133 -2.5037 0.9739
3.5100 -5.0109 -2.5039 0.9739
3.8065 -4.7902 -2.5041 0.9739
4.1801 -4.4689 -2.5044 0.9739
4.3568 -4.2971 -2.5045 0.9739
4.4426 -4.2086 -2.5046 0.9739
4.5266 -4.1184 -2.5047 0.9739
4.6087 -4.0265 -2.5047 0.9739
4.7673 -3.8378 -2.5048 0.9739
4.8438 -3.7411 -2.5049 0.9739
4.9907 -3.5432 -2.5050 0.9739
5.0611 -3.4420 -2.5050 0.9739
5.1958 -3.2355 -2.5051 0.9739
5.2600 -3.1303 -2.5052 0.9739
5.3820 -2.9160 -2.5053 0.9739
5.4398 -2.8071 -2.5053 0.9739
5.5996 -2.4736 -2.5054 0.9739
5.6483 -2.3604 -2.5055 0.9739
5.6948 -2.2462 -2.5055 0.9739
5.7808 -2.0151 -2.5056 0.9739
5.8203 -1.8983 -2.5056 0.9739
5.8574 -1.7807 -2.5056 0.9739
5.8921 -1.6624 -2.5056 0.9739
5.9245 -1.5434 -2.5057 0.9739
5.9544 -1.4238 -2.5057 0.9739
6.0296 -1.0617 -2.5057 0.9739
6.0828 -0.6957 -2.5058 0.9739
6.1138 -0.3271 -2.5058 0.9739
6.1192 -0.2039 -2.5058 0.9739
6.1220 -0.0806 -2.5058 0.9739
6.1203 0.1660 -2.5058 0.9739
6.0991 0.5353 -2.5058 0.9739
6.0871 0.6580 -2.5058 0.9739
6.0726 0.7804 -2.5058 0.9739
6.0361 1.0243 -2.5058 0.9739
5.9899 1.2665 -2.5057 0.9739
5.9024 1.6259 -2.5057 0.9739
5.8684 1.7444 -2.5056 0.9739
5.8320 1.8622 -2.5056 0.9739
5.7933 1.9793 -2.5056 0.9739
5.7521 2.0955 -2.5056 0.9739
5.6629 2.3254 -2.5055 0.9739
5.6149 2.4389 -2.5055 0.9739
5.5646 2.5515 -2.5054 0.9739
5.4571 2.7734 -2.5054 0.9739
5.2159 3.2034 -2.5052 0.9739
5.1502 3.3077 -2.5051 0.9739
5.0825 3.4107 -2.5051 0.9739
5.0127 3.5123 -2.5050 0.9739
4.9408 3.6124 -2.5050 0.9739
4.8670 3.7111 -2.5049 0.9739
4.7911 3.8083 -2.5049 0.9739
4.7134 3.9039 -2.5048 0.9739
4.5521 4.0904 -2.5047 0.9739
4.4687 4.1811 -2.5047 0.9739
4.3835 4.2702 -2.5046 0.9739
4.2078 4.4430 -2.5045 0.9739
4.0252 4.6086 -2.5043 0.9739
3.9315 4.6886 -2.5043 0.9739
3.7393 4.8429 -2.5041 0.9739
3.5411 4.9893 -2.5040 0.9739
3.4398 5.0594 -2.5039 0.9739
3.3371 5.1275 -2.5039 0.9739
3.1277 5.2574 -2.5037 0.9739
2.8043 5.4362 -2.5035 0.9739
2.6941 5.4914 -2.5034 0.9739
2.4706 5.5951 -2.5032 0.9739
2.2432 5.6897 -2.5031 0.9739
2.1281 5.7335 -2.5030 0.9739
2.0121 5.7750 -2.5029 0.9739
1.7778 5.8510 -2.5028 0.9739
1.6596 5.8854 -2.5027 0.9739
1.5406 5.9174 -2.5026 0.9739
0.9378 6.0413 -2.5022 0.9739
0.5712 6.0862 -2.5019 0.9739
0.3257 6.1039 -2.5017 0.9739
0.2027 6.1090 -2.5016 0.9739
0.0796 6.1116 -2.5015 0.9739
-0.1666 6.1094 -2.5014 0.9739
-0.2896 6.1046 -2.5013 0.9739
-0.4124 6.0973 -2.5012 0.9739
-0.5351 6.0876 -2.5011 0.9739
-0.7798 6.0607 -2.5009 0.9739
-0.9017 6.0435 -2.5008 0.9739
-1.1442 6.0019 -2.5007 0.9739
-1.2648 5.9775 -2.5006 0.9739
-1.5044 5.9213 -2.5004 0.9739
-1.9758 5.7802 -2.5001 0.9739
-2.2068 5.6956 -2.4999 0.9739
-2.4342 5.6017 -2.4997 0.9739
-2.5464 5.5514 -2.4997 0.9739
-3.1965 5.2030 -2.4992 0.9740
-3.3005 5.1374 -2.4991 0.9740
-3.6044 4.9283 -2.4989 0.9740
-3.7028 4.8546 -2.4988 0.9740
-3.7997 4.7789 -2.4988 0.9740
-3.8951 4.7013 -2.4987 0.9740
-3.9888 4.6218 -2.4986 0.9740
-4.0810 4.5404 -2.4986 0.9740
-4.3474 4.2853 -2.4984 0.9740
-4.4327 4.1968 -2.4983 0.9740
-4.5162 4.1066 -2.4983 0.9740
-4.5979 4.0147 -2.4982 0.9740
-4.6777 3.9212 -2.4981 0.9740
-4.7556 3.8261 -2.4981 0.9740
-4.8316 3.7295 -2.4980 0.9740
-5.1156 3.3283 -2.4978 0.9740
-5.1815 3.2245 -2.4978 0.9740
-5.3665 2.9056 -2.4976 0.9740
-5.5319 2.5761 -2.4975 0.9740
-5.6771 2.2373 -2.4974 0.9740
-5.8016 1.8903 -2.4973 0.9740
-5.8385 1.7731 -2.4973 0.9740
-5.9620 1.2975 -2.4972 0.9740
-5.9869 1.1771 -2.4972 0.9740
-6.0093 1.0563 -2.4972 0.9740
-6.0293 0.9351 -2.4972 0.9740
-6.0469 0.8135 -2.4971 0.9740
-6.0849 0.4468 -2.4971 0.9740
-6.1008 0.0786 -2.4971 0.9740
-6.1011 -0.0443 -2.4971 0.9740
-6.0990 -0.1672 -2.4971 0.9740
-3.1294 -4.8053 -2.4992 0.9753
-2.9335 -4.9277 -2.4993 0.9753
-2.8338 -4.9860 -2.4994 0.9753
-2.6308 -5.0963 -2.4995 0.9753
-2.5277 -5.1484 -2.4996 0.9753
-2.4236 -5.1984 -2.4997 0.9753
-2.3185 -5.2463 -2.4998 0.9753
-2.1055 -5.3358 -2.4999 0.9753
-1.9976 -5.3773 -2.5000 0.9753
-1.7796 -5.4537 -2.5002 0.9753
-1.5586 -5.5212 -2.5003 0.9753
-1.3351 -5.5799 -2.5005 0.9753
-1.1094 -5.6295 -2.5006 0.9753
-0.9958 -5.6509 -2.5007 0.9753
-0.7675 -5.6868 -2.5009 0.9753
-0.5379 -5.7135 -2.5010 0.9753
-0.1920 -5.7361 -2.5013 0.9753
-0.0764 -5.7390 -2.5014 0.9753
0.1548 -5.7378 -2.5015 0.9753
0.3857 -5.7272 -2.5017 0.9753
0.5010 -5.7185 -2.5018 0.9753
0.6161 -5.7075 -2.5019 0.9753
0.9597 -5.6604 -2.5021 0.9753
1.2999 -5.5926 -2.5023 0.9753
1.6354 -5.5045 -2.5026 0.9753
1.7460 -5.4706 -2.5027 0.9753
1.8558 -5.4345 -2.5027 0.9753
1.9650 -5.3962 -2.5028 0.9753
2.0733 -5.3557 -2.5029 0.9753
2.2874 -5.2682 -2.5031 0.9753
2.3931 -5.2212 -2.5031 0.9753
2.7043 -5.0676 -2.5034 0.9752
2.8059 -5.0123 -2.5034 0.9752
2.9063 -4.9549 -2.5035 0.9752
3.1037 -4.8341 -2.5036 0.9752
3.2005 -4.7708 -2.5037 0.9752
3.3902 -4.6383 -2.5038 0.9752
3.5744 -4.4982 -2.5040 0.9752
3.6644 -4.4254 -2.5040 0.9752
3.8398 -4.2745 -2.5042 0.9752
3.9252 -4.1964 -2.5042 0.9752
4.0090 -4.1166 -2.5043 0.9752
4.1717 -3.9520 -2.5044 0.9752
4.2506 -3.8673 -2.5045 0.9752
4.4030 -3.6931 -2.5046 0.9752
4.4766 -3.6038 -2.5046 0.9752
4.6183 -3.4207 -2.5047 0.9752
4.7525 -3.2321 -2.5048 0.9752
4.8167 -3.1358 -2.5049 0.9752
4.8790 -3.0382 -2.5049 0.9752
4.9393 -2.9394 -2.5050 0.9752
5.1080 -2.6359 -2.5051 0.9752
5.2101 -2.4281 -2.5052 0.9752
5.3038 -2.2164 -2.5052 0.9752
5.3475 -2.1092 -2.5053 0.9752
5.3889 -2.0011 -2.5053 0.9752
5.4282 -1.8922 -2.5053 0.9752
5.4653 -1.7825 -2.5053 0.9752
5.5327 -1.5610 -2.5054 0.9752
5.5631 -1.4493 -2.5054 0.9752
5.6618 -0.9969 -2.5055 0.9752
5.6974 -0.7681 -2.5055 0.9752
5.7118 -0.6532 -2.5055 0.9752
5.7409 -0.3071 -2.5055 0.9752
5.7459 -0.1914 -2.5055 0.9752
5.7486 -0.0757 -2.5056 0.9752
5.7427 0.2716 -2.5055 0.9752
5.7360 0.3872 -2.5055 0.9752
5.7270 0.5026 -2.5055 0.9752
5.7157 0.6178 -2.5055 0.9752
5.6862 0.8475 -2.5055 0.9752
5.6474 1.0758 -2.5055 0.9752
5.6245 1.1893 -2.5055 0.9752
5.5994 1.3023 -2.5055 0.9752
5.5720 1.4148 -2.5054 0.9752
5.5423 1.5267 -2.5054 0.9752
5.5104 1.6380 -2.5054 0.9752
5.4013 1.9677 -2.5053 0.9752
5.3605 2.0761 -2.5053 0.9752
5.2724 2.2902 -2.5052 0.9752
5.1758 2.5006 -2.5052 0.9752
5.1243 2.6043 -2.5051 0.9752
5.0707 2.7069 -2.5051 0.9752
5.0151 2.8084 -2.5050 0.9752
4.8361 3.1060 -2.5049 0.9752
4.7725 3.2027 -2.5049 0.9752
4.7070 3.2981 -2.5048 0.9752
4.2746 3.8410 -2.5045 0.9752
4.1962 3.9262 -2.5045 0.9752
4.1162 4.0098 -2.5044 0.9752
3.8663 4.2508 -2.5042 0.9752
3.7798 4.3277 -2.5042 0.9752
3.6918 4.4028 -2.5041 0.9752
3.6023 4.4761 -2.5040 0.9752
3.4190 4.6173 -2.5039 0.9752
3.2301 4.7510 -2.5038 0.9752
2.9371 4.9370 -2.5036 0.9752
2.7357 5.0509 -2.5034 0.9752
2.6334 5.1049 -2.5034 0.9752
2.3201 5.2541 -2.5031 0.9753
2.2137 5.2996 -2.5031 0.9753
2.1065 5.3430 -2.5030 0.9753
1.8895 5.4231 -2.5028 0.9753
1.7799 5.4599 -2.5028 0.9753
1.6695 5.4945 -2.5027 0.9753
1.3345 5.5847 -2.5024 0.9753
1.2218 5.6103 -2.5024 0.9753
1.1085 5.6336 -2.5023 0.9753
0.7662 5.6896 -2.5020 0.9753
0.5364 5.7155 -2.5019 0.9753
0.4212 5.7250 -2.5018 0.9753
0.3058 5.7321 -2.5017 0.9753
0.0747 5.7394 -2.5015 0.9753
-0.7323 5.6917 -2.5010 0.9753
-1.0746 5.6365 -2.5007 0.9753
-1.4128 5.5608 -2.5005 0.9753
-1.5245 5.5310 -2.5004 0.9753
-1.7458 5.4648 -2.5002 0.9753
-1.9644 5.3897 -2.5001 0.9753
-2.0724 5.3489 -2.5000 0.9753
-2.1797 5.3059 -2.4999 0.9753
-2.2861 5.2608 -2.4999 0.9753
-2.4959 5.1642 -2.4997 0.9753
-2.5993 5.1127 -2.4996 0.9753
-2.9030 4.9460 -2.4994 0.9753
-3.0997 4.8248 -2.4993 0.9753
-3.2913 4.6958 -2.4991 0.9753
-3.4775 4.5592 -2.4990 0.9753
-3.6581 4.4153 -2.4989 0.9753
-4.0011 4.1062 -2.4986 0.9753
-4.0829 4.0246 -2.4986 0.9753
-4.1631 3.9415 -2.4985 0.9753
-4.2415 3.8568 -2.4984 0.9753
-4.3182 3.7705 -2.4984 0.9753
-4.5377 3.5026 -2.4982 0.9753
-4.6073 3.4105 -2.4982 0.9753
-4.7407 3.2221 -2.4981 0.9753
-4.9842 2.8299 -2.4979 0.9753
-5.0401 2.7289 -2.4979 0.9753
-5.0940 2.6268 -2.4978 0.9753
-5.1458 2.5237 -2.4978 0.9753
-5.1955 2.4195 -2.4978 0.9753
-5.2431 2.3143 -2.4977 0.9753
-5.3319 2.1012 -2.4977 0.9753
-5.3731 1.9934 -2.4976 0.9753
-5.4488 1.7754 -2.4976 0.9753
-5.5739 1.3311 -2.4975 0.9753
-5.6228 1.1055 -2.4974 0.9753
-5.6439 0.9921 -2.4974 0.9753
-5.6627 0.8782 -2.4974 0.9753
-5.6793 0.7640 -2.4974 0.9753
-5.7054 0.5346 -2.4974 0.9753
-5.7150 0.4197 -2.4974 0.9753
-5.7272 0.1892 -2.4974 0.9753
-5.7298 0.0738 -2.4974 0.9753
-5.7302 -0.0416 -2.4974 0.9753
-2.9466 -4.5246 -2.4993 0.9765
-2.8549 -4.5831 -2.4994 0.9765
-2.6682 -4.6946 -2.4995 0.9765
-2.3800 -4.8476 -2.4997 0.9765
-2.2820 -4.8946 -2.4998 0.9765
-2.1830 -4.9397 -2.4999 0.9765
-1.8809 -5.0630 -2.5001 0.9765
-1.6756 -5.1349 -2.5002 0.9765
-1.4675 -5.1985 -2.5004 0.9765
-1.0445 -5.3004 -2.5007 0.9765
-0.9376 -5.3205 -2.5008 0.9765
-0.7227 -5.3543 -2.5009 0.9765
0.1457 -5.4022 -2.5015 0.9765
0.2545 -5.3984 -2.5016 0.9765
0.4717 -5.3841 -2.5018 0.9765
0.6882 -5.3611 -2.5019 0.9765
0.9036 -5.3293 -2.5021 0.9765
1.0107 -5.3102 -2.5021 0.9765
1.1175 -5.2889 -2.5022 0.9765
1.2238 -5.2655 -2.5023 0.9765
1.4350 -5.2123 -2.5024 0.9765
1.6438 -5.1505 -2.5026 0.9765
1.7472 -5.1166 -2.5027 0.9765
1.8500 -5.0805 -2.5027 0.9764
2.0532 -5.0022 -2.5029 0.9764
2.1536 -4.9599 -2.5030 0.9764
2.4494 -4.8212 -2.5032 0.9764
3.0132 -4.4916 -2.5036 0.9764
3.1918 -4.3668 -2.5037 0.9764
3.5332 -4.0962 -2.5039 0.9764
3.6954 -3.9508 -2.5041 0.9764
3.7743 -3.8756 -2.5041 0.9764
3.8517 -3.7989 -2.5042 0.9764
3.9275 -3.7206 -2.5042 0.9764
4.0017 -3.6409 -2.5043 0.9764
4.0743 -3.5596 -2.5043 0.9764
4.1453 -3.4769 -2.5044 0.9764
4.2821 -3.3073 -2.5045 0.9764
4.4742 -3.0429 -2.5046 0.9764
4.7579 -2.5778 -2.5048 0.9764
4.8089 -2.4815 -2.5049 0.9764
4.8579 -2.3842 -2.5049 0.9764
4.9932 -2.0866 -2.5050 0.9764
5.0343 -1.9857 -2.5050 0.9764
5.1103 -1.7814 -2.5051 0.9764
5.1452 -1.6781 -2.5051 0.9764
5.2087 -1.4696 -2.5052 0.9764
5.3102 -1.0457 -2.5052 0.9764
5.3481 -0.8310 -2.5053 0.9764
5.3886 -0.5065 -2.5053 0.9764
5.3977 -0.3979 -2.5053 0.9764
5.4094 -0.1802 -2.5053 0.9764
5.4119 -0.0713 -2.5053 0.9764
5.4123 0.0378 -2.5053 0.9764
5.4104 0.1467 -2.5053 0.9764
5.4063 0.2557 -2.5053 0.9764
5.3360 0.9055 -2.5053 0.9764
5.3166 1.0128 -2.5052 0.9764
5.2178 1.4373 -2.5052 0.9764
5.1556 1.6462 -2.5051 0.9764
5.1213 1.7497 -2.5051 0.9764
5.0850 1.8525 -2.5051 0.9764
5.0061 2.0557 -2.5050 0.9764
4.9192 2.2555 -2.5050 0.9764
4.7738 2.5484 -2.5049 0.9764
4.7214 2.6440 -2.5048 0.9764
4.5530 2.9241 -2.5047 0.9764
4.4931 3.0151 -2.5047 0.9764
4.1668 3.4512 -2.5044 0.9764
4.0964 3.5344 -2.5044 0.9764
4.0243 3.6161 -2.5043 0.9764
3.8753 3.7751 -2.5042 0.9764
3.7984 3.8523 -2.5042 0.9764
3.7199 3.9279 -2.5041 0.9764
3.6400 4.0019 -2.5041 0.9764
3.5586 4.0743 -2.5040 0.9764
3.4757 4.1451 -2.5040 0.9764
3.2189 4.3471 -2.5038 0.9764
2.8583 4.5915 -2.5035 0.9764
2.7652 4.6480 -2.5035 0.9764
2.5756 4.7554 -2.5033 0.9764
2.3819 4.8550 -2.5032 0.9764
1.7790 5.1058 -2.5027 0.9764
1.5718 5.1730 -2.5026 0.9765
1.3622 5.2318 -2.5025 0.9765
1.2565 5.2580 -2.5024 0.9765
1.0437 5.3040 -2.5022 0.9765
0.9366 5.3238 -2.5022 0.9765
0.8292 5.3414 -2.5021 0.9765
0.7214 5.3569 -2.5020 0.9765
0.1792 5.4014 -2.5016 0.9765
-0.0385 5.4039 -2.5015 0.9765
-0.1473 5.4019 -2.5014 0.9765
-0.2560 5.3977 -2.5013 0.9765
-0.5815 5.3718 -2.5011 0.9765
-0.6895 5.3589 -2.5010 0.9765
-0.9047 5.3264 -2.5008 0.9765
-1.0117 5.3070 -2.5008 0.9765
-1.1184 5.2854 -2.5007 0.9765
-1.3302 5.2357 -2.5005 0.9765
-1.4354 5.2077 -2.5005 0.9765
-1.9513 5.0363 -2.5001 0.9765
-2.0523 4.9958 -2.5000 0.9765
-2.2517 4.9089 -2.4999 0.9765
-2.4474 4.8139 -2.4997 0.9765
-2.6391 4.7112 -2.4996 0.9765
-2.7334 4.6570 -2.4995 0.9765
-3.0990 4.4214 -2.4993 0.9765
-3.9938 3.6315 -2.4986 0.9765
-4.0660 3.5503 -2.4986 0.9765
-4.2055 3.3835 -2.4985 0.9765
-4.4019 3.1232 -2.4983 0.9765
-4.4638 3.0339 -2.4983 0.9765
-4.5822 2.8516 -2.4982 0.9765
-4.6932 2.6646 -2.4981 0.9765
-4.7965 2.4734 -2.4980 0.9765
-4.8453 2.3763 -2.4980 0.9765
-4.8921 2.2782 -2.4980 0.9765
-5.0205 1.9786 -2.4979 0.9765
-5.0960 1.7747 -2.4978 0.9765
-5.1307 1.6717 -2.4978 0.9765
-5.2221 1.3588 -2.4977 0.9765
-5.2484 1.2534 -2.4977 0.9765
-5.3144 0.9342 -2.4977 0.9765
-5.3928 0.1781 -2.4976 0.9765
-5.3956 -0.0392 -2.4976 0.9765
-2.1535 -4.6190 -2.4999 0.9775
-2.0601 -4.6616 -2.5000 0.9775
-1.6784 -4.8128 -2.5002 0.9775
-1.5812 -4.8457 -2.5003 0.9775
-1.4834 -4.8767 -2.5004 0.9775
-1.2858 -4.9328 -2.5005 0.9775
-1.0862 -4.9809 -2.5006 0.9775
-0.6820 -5.0527 -2.5009 0.9775
-0.5801 -5.0655 -2.5010 0.9775
-0.4779 -5.0763 -2.5011 0.9775
-0.2732 -5.0918 -2.5012 0.9775
-0.0679 -5.0989 -2.5014 0.9775
0.0348 -5.0994 -2.5014 0.9775
0.1375 -5.0978 -2.5015 0.9775
0.3427 -5.0885 -2.5017 0.9775
0.4451 -5.0807 -2.5017 0.9775
0.5474 -5.0708 -2.5018 0.9775
0.6494 -5.0589 -2.5019 0.9775
0.8527 -5.0290 -2.5020 0.9775
1.0545 -4.9908 -2.5022 0.9775
1.1549 -4.9687 -2.5022 0.9775
1.3541 -4.9185 -2.5024 0.9775
1.5511 -4.8602 -2.5025 0.9775
1.7457 -4.7941 -2.5027 0.9775
1.9374 -4.7202 -2.5028 0.9775
2.3113 -4.5494 -2.5031 0.9775
2.4025 -4.5021 -2.5031 0.9775
2.4927 -4.4529 -2.5032 0.9775
2.7573 -4.2946 -2.5034 0.9775
3.0942 -4.0591 -2.5036 0.9775
3.2553 -3.9314 -2.5037 0.9775
3.4111 -3.7973 -2.5039 0.9775
3.4870 -3.7279 -2.5039 0.9775
3.7760 -3.4355 -2.5041 0.9775
3.9768 -3.2014 -2.5043 0.9775
4.0405 -3.1207 -2.5043 0.9775
4.1026 -3.0388 -2.5044 0.9775
4.2218 -2.8712 -2.5044 0.9775
4.2789 -2.7857 -2.5045 0.9775
4.3342 -2.6990 -2.5045 0.9775
4.5376 -2.3416 -2.5047 0.9775
4.6709 -2.0634 -2.5048 0.9775
4.7115 -1.9689 -2.5048 0.9775
4.7503 -1.8736 -2.5048 0.9775
4.8220 -1.6809 -2.5049 0.9775
4.8549 -1.5834 -2.5049 0.9775
4.8858 -1.4854 -2.5049 0.9775
4.9148 -1.3867 -2.5049 0.9775
4.9418 -1.2874 -2.5050 0.9775
5.0463 -0.7841 -2.5050 0.9775
5.0997 -0.2728 -2.5051 0.9775
5.1068 0.0356 -2.5051 0.9775
5.1051 0.1385 -2.5051 0.9775
5.0954 0.3439 -2.5051 0.9775
5.0874 0.4465 -2.5051 0.9775
5.0511 0.7529 -2.5051 0.9775
4.9497 1.2568 -2.5050 0.9775
4.9234 1.3562 -2.5050 0.9775
4.8950 1.4551 -2.5050 0.9775
4.8323 1.6510 -2.5049 0.9775
4.7619 1.8442 -2.5049 0.9775
4.5045 2.4046 -2.5047 0.9775
4.4039 2.5840 -2.5046 0.9775
4.2961 2.7591 -2.5045 0.9775
4.2396 2.8451 -2.5045 0.9775
4.1814 2.9298 -2.5045 0.9775
4.0599 3.0957 -2.5044 0.9775
3.9966 3.1768 -2.5043 0.9775
3.8653 3.3350 -2.5042 0.9775
3.7277 3.4879 -2.5041 0.9775
3.5841 3.6350 -2.5040 0.9775
3.5101 3.7064 -2.5040 0.9775
3.4347 3.7762 -2.5039 0.9775
3.2797 3.9113 -2.5038 0.9775
3.2002 3.9765 -2.5038 0.9775
2.8695 4.2207 -2.5035 0.9775
2.7839 4.2775 -2.5035 0.9775
2.6971 4.3326 -2.5034 0.9775
2.5203 4.4375 -2.5033 0.9775
2.4304 4.4872 -2.5032 0.9775
2.2476 4.5812 -2.5031 0.9775
1.8714 4.7467 -2.5028 0.9775
1.7754 4.7833 -2.5027 0.9775
1.6787 4.8180 -2.5027 0.9775
1.4832 4.8814 -2.5025 0.9775
1.2854 4.9369 -2.5024 0.9775
1.1857 4.9616 -2.5023 0.9775
1.0855 4.9844 -2.5023 0.9775
0.8838 5.0238 -2.5021 0.9775
0.7824 5.0404 -2.5020 0.9775
0.6808 5.0550 -2.5020 0.9775
0.3742 5.0864 -2.5017 0.9775
0.2717 5.0928 -2.5017 0.9775
-0.0363 5.0994 -2.5015 0.9775
-0.1390 5.0975 -2.5014 0.9775
-0.2416 5.0936 -2.5013 0.9775
-0.3441 5.0875 -2.5012 0.9775
-0.5487 5.0692 -2.5011 0.9775
-0.6506 5.0570 -2.5010 0.9775
-0.7523 5.0427 -2.5009 0.9775
-0.8537 5.0264 -2.5009 0.9775
-1.0554 4.9877 -2.5007 0.9775
-1.1556 4.9652 -2.5007 0.9775
-1.2553 4.9408 -2.5006 0.9775
-1.3545 4.9144 -2.5005 0.9775
-1.4532 4.8860 -2.5004 0.9775
-1.5512 4.8556 -2.5004 0.9775
-2.1249 4.6324 -2.5000 0.9775
-2.2177 4.5886 -2.4999 0.9775
-2.4006 4.4953 -2.4998 0.9776
-2.4905 4.4460 -2.4997 0.9776
-2.7542 4.2871 -2.4995 0.9776
-2.8400 4.2307 -2.4995 0.9776
-3.0079 4.1127 -2.4993 0.9776
-3.1709 3.9881 -2.4992 0.9776
-3.4057 3.7890 -2.4990 0.9776
-3.4812 3.7196 -2.4990 0.9776
-3.6993 3.5024 -2.4988 0.9776
-4.1541 2.9474 -2.4985 0.9776
-4.2126 2.8631 -2.4985 0.9776
-4.2693 2.7777 -2.4984 0.9776
-4.3243 2.6911 -2.4984 0.9776
-4.3776 2.6034 -2.4983 0.9776
-4.4787 2.4250 -2.4983 0.9776
-4.5266 2.3342 -2.4982 0.9776
-4.5726 2.2426 -2.4982 0.9776
-4.6168 2.1500 -2.4982 0.9776
-4.7380 1.8672 -2.4981 0.9776
-4.8093 1.6749 -2.4980 0.9776
-4.8727 1.4798 -2.4980 0.9776
-4.9759 1.0829 -2.4979 0.9776
-4.9966 0.9824 -2.4979 0.9776
-5.0321 0.7804 -2.4979 0.9776
-5.0700 0.4751 -2.4978 0.9776
-5.0920 -0.0370 -2.4978 0.9776
-5.0902 -0.1395 -2.4978 0.9776
-2.5475 -4.0897 -2.4996 0.9785
-2.2961 -4.2363 -2.4998 0.9785
-2.0363 -4.3676 -2.5000 0.9785
-1.8588 -4.4463 -2.5001 0.9785
-1.5871 -4.5507 -2.5003 0.9785
-1.4026 -4.6112 -2.5004 0.9785
-1.3095 -4.6387 -2.5005 0.9785
-1.1217 -4.6879 -2.5006 0.9785
-1.0271 -4.7096 -2.5007 0.9785
-0.8366 -4.7474 -2.5008 0.9785
-0.6448 -4.7775 -2.5010 0.9785
-0.4519 -4.7999 -2.5011 0.9785
-0.1613 -4.8188 -2.5013 0.9785
0.1300 -4.8202 -2.5015 0.9785
0.2271 -4.8167 -2.5016 0.9785
0.3240 -4.8113 -2.5017 0.9785
0.6140 -4.7833 -2.5019 0.9785
0.8062 -4.7550 -2.5020 0.9785
0.9018 -4.7379 -2.5021 0.9785
0.9971 -4.7189 -2.5021 0.9785
1.0919 -4.6980 -2.5022 0.9785
1.1864 -4.6752 -2.5023 0.9785
1.4666 -4.5954 -2.5025 0.9785
1.6506 -4.5329 -2.5026 0.9785
1.7416 -4.4988 -2.5027 0.9785
2.0102 -4.3858 -2.5029 0.9785
2.0982 -4.3445 -2.5029 0.9785
2.3569 -4.2102 -2.5031 0.9785
2.5246 -4.1121 -2.5032 0.9785
2.6883 -4.0073 -2.5033 0.9785
2.8476 -3.8959 -2.5035 0.9785
3.2252 -3.5903 -2.5037 0.9785
3.3673 -3.4576 -2.5038 0.9785
3.5701 -3.2482 -2.5040 0.9785
3.6349 -3.1757 -2.5040 0.9785
3.8789 -2.8731 -2.5042 0.9785
3.9361 -2.7944 -2.5042 0.9785
3.9916 -2.7146 -2.5043 0.9785
4.0455 -2.6337 -2.5043 0.9785
4.1484 -2.4688 -2.5044 0.9785
4.1974 -2.3848 -2.5044 0.9785
4.2446 -2.2998 -2.5045 0.9785
4.3339 -2.1270 -2.5045 0.9785
4.4161 -1.9508 -2.5046 0.9785
4.5260 -1.6807 -2.5047 0.9785
4.5590 -1.5892 -2.5047 0.9785
4.6468 -1.3110 -2.5048 0.9785
4.6723 -1.2172 -2.5048 0.9785
4.7175 -1.0281 -2.5048 0.9785
4.7373 -0.9329 -2.5048 0.9785
4.7711 -0.7414 -2.5048 0.9785
4.7851 -0.6451 -2.5049 0.9785
4.8153 -0.3550 -2.5049 0.9785
4.8258 -0.1608 -2.5049 0.9785
4.8280 -0.0636 -2.5049 0.9785
4.8267 0.1309 -2.5049 0.9785
4.8230 0.2281 -2.5049 0.9785
4.8175 0.3252 -2.5049 0.9785
4.8004 0.5189 -2.5049 0.9785
4.7028 1.0938 -2.5048 0.9785
4.6280 1.3757 -2.5048 0.9785
4.5994 1.4686 -2.5047 0.9785
4.5688 1.5609 -2.5047 0.9785
4.5364 1.6526 -2.5047 0.9785
4.4661 1.8339 -2.5046 0.9785
4.3885 2.0122 -2.5046 0.9785
4.3038 2.1873 -2.5045 0.9785
4.2588 2.2735 -2.5045 0.9785
4.2121 2.3588 -2.5045 0.9785
4.1637 2.4431 -2.5044 0.9785
4.0618 2.6087 -2.5044 0.9785
3.8967 2.8491 -2.5042 0.9785
3.5903 3.2261 -2.5040 0.9785
3.5245 3.2977 -2.5040 0.9785
3.4573 3.3679 -2.5039 0.9785
3.1748 3.6349 -2.5037 0.9785
3.1009 3.6981 -2.5037 0.9785
3.0257 3.7597 -2.5036 0.9785
2.9493 3.8198 -2.5036 0.9785
2.5501 4.0965 -2.5033 0.9785
2.3830 4.1956 -2.5032 0.9785
2.2979 4.2427 -2.5031 0.9785
2.2120 4.2880 -2.5031 0.9785
2.1251 4.3316 -2.5030 0.9785
2.0374 4.3734 -2.5029 0.9785
1.9489 4.4134 -2.5029 0.9785
1.5872 4.5554 -2.5026 0.9785
1.4951 4.5864 -2.5025 0.9785
1.4024 4.6154 -2.5025 0.9785
1.3091 4.6426 -2.5024 0.9785
1.1210 4.6913 -2.5023 0.9785
0.9312 4.7324 -2.5021 0.9785
0.7398 4.7658 -2.5020 0.9785
0.6437 4.7796 -2.5019 0.9785
0.4506 4.8014 -2.5018 0.9785
0.3538 4.8094 -2.5017 0.9785
-0.3254 4.8104 -2.5012 0.9785
-0.4222 4.8028 -2.5012 0.9785
-0.8072 4.7527 -2.5009 0.9785
-0.9028 4.7353 -2.5008 0.9785
-0.9979 4.7161 -2.5008 0.9785
-1.2808 4.6468 -2.5006 0.9785
-1.3740 4.6200 -2.5005 0.9785
-1.6504 4.5282 -2.5003 0.9785
-1.9206 4.4199 -2.5001 0.9785
-2.0092 4.3803 -2.5000 0.9785
-2.0970 4.3388 -2.5000 0.9785
-2.1839 4.2956 -2.4999 0.9785
-2.2699 4.2506 -2.4999 0.9785
-2.6043 4.0538 -2.4996 0.9785
-2.8442 3.8889 -2.4994 0.9785
-2.9218 3.8307 -2.4994 0.9785
-3.0736 3.7098 -2.4993 0.9785
-3.1476 3.6471 -2.4992 0.9785
-3.2204 3.5829 -2.4992 0.9785
-3.2918 3.5172 -2.4991 0.9785
-3.3619 3.4501 -2.4991 0.9785
-3.4306 3.3817 -2.4990 0.9785
-3.6284 3.1681 -2.4989 0.9785
-3.6914 3.0944 -2.4988 0.9785
-3.9281 2.7871 -2.4987 0.9785
-3.9834 2.7074 -2.4986 0.9785
-4.0371 2.6266 -2.4986 0.9785
-4.1881 2.3779 -2.4985 0.9785
-4.3239 2.1206 -2.4984 0.9785
-4.3657 2.0330 -2.4984 0.9785
-4.4057 1.9447 -2.4983 0.9785
-4.4439 1.8555 -2.4983 0.9785
-4.5149 1.6750 -2.4982 0.9785
-4.6077 1.3993 -2.4982 0.9785
-4.6602 1.2126 -2.4981 0.9785
-4.7052 1.0240 -2.4981 0.9785
-4.7249 0.9290 -2.4981 0.9785
-4.7426 0.8337 -2.4981 0.9785
-4.7723 0.6420 -2.4981 0.9785
-4.7942 0.4493 -2.4980 0.9785
-4.8023 0.3526 -2.4980 0.9785
-4.8084 0.2559 -2.4980 0.9785
-4.8126 0.1590 -2.4980 0.9785
-4.8134 -0.1319 -2.4980 0.9785
-2.4906 -3.8244 -2.4997 0.9794
-2.2552 -3.9680 -2.4998 0.9794
-2.1749 -4.0128 -2.4999 0.9794
-2.0937 -4.0558 -2.4999 0.9794
-1.9288 -4.1371 -2.5001 0.9794
-1.8451 -4.1752 -2.5001 0.9794
-1.7607 -4.2116 -2.5002 0.9794
-1.1516 -4.4180 -2.5006 0.9794
-0.9729 -4.4610 -2.5007 0.9794
-0.8828 -4.4798 -2.5008 0.9794
-0.7018 -4.5119 -2.5009 0.9794
-0.6108 -4.5253 -2.5010 0.9794
-0.3364 -4.5543 -2.5012 0.9794
-0.1527 -4.5644 -2.5013 0.9794
-0.0608 -4.5666 -2.5014 0.9794
0.1232 -4.5656 -2.5015 0.9794
0.2151 -4.5623 -2.5016 0.9794
0.3069 -4.5572 -2.5016 0.9794
0.3986 -4.5502 -2.5017 0.9794
0.4902 -4.5414 -2.5018 0.9794
0.5816 -4.5307 -2.5018 0.9794
0.6727 -4.5182 -2.5019 0.9794
0.7636 -4.5038 -2.5020 0.9794
1.0343 -4.4498 -2.5022 0.9794
1.1237 -4.4282 -2.5022 0.9794
1.2127 -4.4048 -2.5023 0.9794
1.3012 -4.3796 -2.5024 0.9794
1.3891 -4.3526 -2.5024 0.9794
1.5634 -4.2934 -2.5025 0.9794
1.6496 -4.2611 -2.5026 0.9794
1.7351 -4.2271 -2.5027 0.9794
1.9873 -4.1149 -2.5028 0.9794
2.3912 -3.8948 -2.5031 0.9794
3.1893 -3.2749 -2.5037 0.9794
3.4427 -3.0078 -2.5039 0.9794
3.7280 -2.6467 -2.5041 0.9794
3.7806 -2.5711 -2.5041 0.9794
3.8317 -2.4945 -2.5042 0.9794
3.8812 -2.4169 -2.5042 0.9794
3.9291 -2.3382 -2.5042 0.9794
4.2191 -1.7631 -2.5044 0.9794
4.2867 -1.5918 -2.5045 0.9794
4.3179 -1.5052 -2.5045 0.9794
4.3474 -1.4179 -2.5045 0.9794
4.4011 -1.2417 -2.5046 0.9794
4.4868 -0.8835 -2.5046 0.9794
4.5188 -0.7021 -2.5047 0.9794
4.5321 -0.6110 -2.5047 0.9794
4.5435 -0.5196 -2.5047 0.9794
4.5607 -0.3362 -2.5047 0.9794
4.5706 -0.1523 -2.5047 0.9794
4.5727 -0.0602 -2.5047 0.9794
4.5730 0.0319 -2.5047 0.9794
4.5714 0.1240 -2.5047 0.9794
4.5680 0.2160 -2.5047 0.9794
4.5627 0.3080 -2.5047 0.9794
4.4323 1.1254 -2.5046 0.9794
4.4087 1.2144 -2.5046 0.9794
4.3272 1.4784 -2.5045 0.9794
4.2965 1.5652 -2.5045 0.9794
4.2641 1.6514 -2.5045 0.9794
4.2300 1.7370 -2.5045 0.9794
4.1172 1.9892 -2.5044 0.9794
3.8961 2.3928 -2.5042 0.9794
3.8471 2.4708 -2.5042 0.9794
3.7965 2.5477 -2.5042 0.9794
3.6907 2.6985 -2.5041 0.9794
3.5790 2.8448 -2.5040 0.9794
3.5209 2.9162 -2.5040 0.9794
3.3382 3.1234 -2.5039 0.9794
3.2746 3.1899 -2.5038 0.9794
3.2096 3.2552 -2.5038 0.9794
3.0758 3.3816 -2.5037 0.9794
2.9370 3.5026 -2.5036 0.9794
2.8658 3.5610 -2.5035 0.9794
2.7935 3.6179 -2.5035 0.9794
2.6454 3.7273 -2.5034 0.9794
2.5697 3.7797 -2.5033 0.9794
2.4930 3.8306 -2.5033 0.9794
2.3367 3.9278 -2.5031 0.9794
2.2570 3.9739 -2.5031 0.9794
2.1765 4.0185 -2.5030 0.9794
2.0951 4.0614 -2.5030 0.9794
2.0128 4.1027 -2.5029 0.9794
1.9297 4.1423 -2.5029 0.9794
1.7613 4.2164 -2.5027 0.9794
1.6760 4.2509 -2.5027 0.9794
1.4161 4.3441 -2.5025 0.9794
1.3283 4.3716 -2.5024 0.9794
0.8820 4.4824 -2.5021 0.9794
0.7915 4.4992 -2.5020 0.9794
