ply
format ascii 1.0
element vertex 1565
property float32 x
property float32 y
property float32 z
property float32 I
end_header
-6.4345 5.9082 -1.2377 0.9653
-7.4143 5.7815 -1.3322 0.9627
-7.6928 5.7535 -1.3611 0.9619
-8.0157 5.7471 -1.3975 0.9609
-8.3935 5.7659 -1.4428 0.9597
-10.5168 6.9172 -1.7835 0.9504
-10.3623 6.5207 -1.7347 0.9517
-10.2747 6.1805 -1.6989 0.9527
-10.2817 5.3680 -1.6434 0.9542
-10.5800 5.2556 -1.6738 0.9534
-11.2439 5.0319 -1.7454 0.9515
-12.0355 4.8147 -1.8367 0.9490
-12.9152 4.5729 -1.9413 0.9462
-13.4354 4.4548 -2.0056 0.9444
-17.1562 3.8282 -2.4906 0.9314
-17.2943 3.1344 -2.4903 0.9315
-17.4044 2.4357 -2.4900 0.9315
-17.4864 1.7332 -2.4898 0.9315
-17.5565 0.6749 -2.4894 0.9315
-17.5630 -0.3856 -2.4891 0.9315
-17.5510 -0.7389 -2.4890 0.9315
-17.5058 -1.4444 -2.4888 0.9315
-17.4324 -2.1475 -2.4887 0.9315
-17.3851 -2.4979 -2.4886 0.9315
-17.2015 -3.5420 -2.4884 0.9315
-17.1264 -3.8874 -2.4884 0.9315
-16.9555 -4.5732 -2.4883 0.9315
-16.7573 -5.2516 -2.4882 0.9315
-16.6481 -5.5878 -2.4882 0.9315
-16.0023 -7.2317 -2.4881 0.9315
-15.8536 -7.5523 -2.4881 0.9315
-15.6985 -7.8698 -2.4882 0.9315
-15.3694 -8.4953 -2.4882 0.9315
-15.1955 -8.8029 -2.4882 0.9315
-15.0155 -9.1071 -2.4883 0.9315
-14.6374 -9.7042 -2.4884 0.9315
-14.4394 -9.9970 -2.4884 0.9315
-14.2356 -10.2858 -2.4885 0.9315
-13.8109 -10.8509 -2.4886 0.9315
-13.5902 -11.1269 -2.4887 0.9315
-13.1323 -11.6655 -2.4888 0.9315
-12.4059 -12.4380 -2.4891 0.9315
-11.0675 -12.5242 -2.3681 0.9347
-10.6750 -12.5814 -2.3379 0.9355
-10.4202 -12.7943 -2.3380 0.9355
-9.8979 -13.2046 -2.3382 0.9355
-8.8061 -13.9609 -2.3388 0.9355
-8.5239 -14.1362 -2.3389 0.9355
-7.3615 -14.7798 -2.3395 0.9355
-6.7618 -15.0662 -2.3399 0.9355
-6.4578 -15.2003 -2.3400 0.9355
-5.8418 -15.4502 -2.3404 0.9354
-4.9001 -15.7783 -2.3409 0.9354
-4.5819 -15.8750 -2.3411 0.9354
-3.2020 -11.9949 -1.7591 0.9511
-2.9835 -12.1526 -1.7730 0.9507
-3.6167 -16.1267 -2.3417 0.9354
-2.3090 -16.3712 -2.3426 0.9354
-1.6487 -16.4539 -2.3430 0.9354
-0.9422 -15.7853 -2.2406 0.9381
0.6309 -15.3772 -2.1806 0.9397
0.9459 -15.4537 -2.1937 0.9394
1.5879 -15.6095 -2.2231 0.9386
2.2485 -15.7698 -2.2570 0.9377
3.2809 -16.0204 -2.3170 0.9361
3.9737 -16.0811 -2.3471 0.9353
4.6186 -15.9116 -2.3476 0.9353
5.5720 -15.6090 -2.3483 0.9352
5.8857 -15.4954 -2.3486 0.9352
6.1969 -15.3754 -2.3488 0.9352
6.5058 -15.2493 -2.3491 0.9352
6.8121 -15.1169 -2.3493 0.9352
7.1157 -14.9784 -2.3496 0.9352
7.4164 -14.8337 -2.3498 0.9352
8.0091 -14.5264 -2.3503 0.9352
8.8738 -14.0212 -2.3511 0.9352
9.4328 -13.6557 -2.3516 0.9351
9.7067 -13.4646 -2.3518 0.9351
9.9767 -13.2679 -2.3521 0.9351
10.5048 -12.8584 -2.3526 0.9351
10.7625 -12.6457 -2.3528 0.9351
11.0159 -12.4279 -2.3531 0.9351
11.8602 -12.3421 -2.4253 0.9332
12.4738 -12.4683 -2.4989 0.9312
13.0072 -11.9948 -2.5070 0.9310
13.2473 -11.7318 -2.5072 0.9310
13.4820 -11.4640 -2.5075 0.9310
13.9350 -10.9143 -2.5080 0.9310
15.1566 -9.1613 -2.5093 0.9310
15.5156 -8.5455 -2.5098 0.9309
16.0070 -7.5957 -2.5104 0.9309
16.6955 -5.9516 -2.5114 0.9309
17.5049 -2.8485 -2.5129 0.9309
17.6811 -1.4320 -2.5134 0.9308
17.7261 -0.7195 -2.5137 0.9308
17.7378 -0.3626 -2.5138 0.9308
17.7423 -0.0056 -2.5139 0.9308
17.7296 0.7084 -2.5141 0.9308
17.6880 1.4213 -2.5143 0.9308
17.6564 1.7770 -2.5144 0.9308
17.6176 2.1320 -2.5144 0.9308
17.5186 2.8394 -2.5146 0.9308
17.4583 3.1914 -2.5146 0.9308
17.3910 3.5422 -2.5147 0.9308
17.3165 3.8915 -2.5148 0.9308
17.1465 4.5853 -2.5148 0.9308
17.0510 4.9295 -2.5149 0.9308
16.9486 5.2717 -2.5149 0.9308
16.8227 5.6062 -2.5125 0.9309
16.6745 5.9322 -2.5077 0.9310
1.3943 14.2230 -2.3543 0.9437
0.8207 14.2652 -2.3539 0.9437
0.2460 14.2843 -2.3535 0.9437
-0.0415 14.2851 -2.3533 0.9437
-0.3289 14.2802 -2.3531 0.9437
-1.1896 14.2306 -2.3525 0.9438
-1.4756 14.2025 -2.3523 0.9438
-2.0455 14.1291 -2.3519 0.9438
-2.3292 14.0838 -2.3517 0.9438
-2.6119 14.0328 -2.3515 0.9438
-3.7305 13.7723 -2.3506 0.9438
-4.0065 13.6932 -2.3504 0.9438
-4.2809 13.6085 -2.3502 0.9438
-4.5534 13.5184 -2.3499 0.9438
-5.6236 13.1036 -2.3491 0.9438
-5.8856 12.9866 -2.3489 0.9438
-6.4022 12.7369 -2.3484 0.9438
-6.9083 12.4666 -2.3480 0.9439
-7.1571 12.3239 -2.3478 0.9439
-7.6458 12.0237 -2.3473 0.9439
-7.8855 11.8664 -2.3471 0.9439
-8.5848 11.3659 -2.3465 0.9439
-5.6417 7.1650 -1.5023 0.9637
-5.7040 6.9515 -1.4814 0.9642
-5.8657 6.3278 -1.4214 0.9656
-5.9111 6.1249 -1.4023 0.9661
-6.1217 5.8524 -1.3952 0.9662
-6.5602 5.7847 -1.4409 0.9652
-7.0193 5.7042 -1.4900 0.9640
-7.5167 5.6218 -1.5463 0.9627
-8.0526 5.5317 -1.6094 0.9612
-8.3914 5.5192 -1.6546 0.9601
-10.1255 5.5486 -1.9021 0.9543
-12.5367 4.7248 -2.2071 0.9471
-12.9242 4.5760 -2.2586 0.9459
-14.4553 4.4722 -2.4927 0.9405
-14.5415 4.1802 -2.4926 0.9405
-14.7647 3.2946 -2.4921 0.9405
-14.8273 2.9967 -2.4920 0.9405
-14.8838 2.6975 -2.4919 0.9405
-14.9788 2.0963 -2.4916 0.9405
-15.1103 0.5808 -2.4911 0.9405
-15.1059 -0.6360 -2.4907 0.9405
-15.0895 -0.9398 -2.4907 0.9406
-15.0671 -1.2432 -2.4906 0.9406
-14.9168 -2.4505 -2.4903 0.9406
-14.5939 -3.9362 -2.4901 0.9406
-14.5116 -4.2291 -2.4901 0.9406
-14.1241 -5.3821 -2.4900 0.9406
-14.0129 -5.6653 -2.4900 0.9406
-13.8960 -5.9461 -2.4900 0.9406
-13.7736 -6.2245 -2.4900 0.9406
-13.0791 -7.5768 -2.4901 0.9406
-12.9241 -7.8386 -2.4901 0.9406
-12.7639 -8.0972 -2.4901 0.9406
-12.5986 -8.3526 -2.4902 0.9406
-12.4282 -8.6046 -2.4902 0.9406
-12.2528 -8.8531 -2.4903 0.9406
-11.5023 -9.8106 -2.4905 0.9406
-11.3029 -10.0404 -2.4906 0.9406
-11.0989 -10.2661 -2.4907 0.9406
-10.2388 -11.1269 -2.4910 0.9405
-10.0132 -11.3311 -2.4911 0.9405
-9.5427 -11.7169 -2.4894 0.9406
-9.2909 -11.8886 -2.4857 0.9407
-7.8185 -11.8594 -2.3401 0.9440
-7.5786 -12.0150 -2.3402 0.9440
-7.3357 -12.1657 -2.3403 0.9440
-7.0898 -12.3115 -2.3405 0.9440
-6.8410 -12.4524 -2.3406 0.9440
-6.3351 -12.7191 -2.3409 0.9440
-6.0783 -12.8448 -2.3410 0.9440
-5.8189 -12.9653 -2.3411 0.9440
-5.0270 -13.2953 -2.3416 0.9440
-4.7588 -13.3947 -2.3418 0.9440
-4.4886 -13.4887 -2.3419 0.9440
-4.2165 -13.5772 -2.3421 0.9440
-3.9427 -13.6603 -2.3422 0.9440
-3.1987 -11.9824 -2.0431 0.9510
-3.1120 -13.8764 -2.3428 0.9440
-1.9867 -14.0860 -2.3435 0.9440
-1.7030 -14.1243 -2.3437 0.9440
-1.4185 -14.1568 -2.3439 0.9440
-1.1334 -14.1837 -2.3441 0.9439
-0.8479 -14.2048 -2.3442 0.9439
-0.2756 -14.2297 -2.3446 0.9439
0.2972 -14.2318 -2.3450 0.9439
1.1557 -14.1916 -2.3457 0.9439
1.4412 -14.1667 -2.3459 0.9439
1.7261 -14.1361 -2.3461 0.9439
2.0104 -14.0998 -2.3463 0.9439
2.2939 -14.0577 -2.3465 0.9439
2.5766 -14.0100 -2.3467 0.9439
2.8583 -13.9566 -2.3469 0.9439
3.1388 -13.8975 -2.3471 0.9439
3.6962 -13.7624 -2.3476 0.9439
3.9727 -13.6865 -2.3478 0.9439
4.2477 -13.6051 -2.3480 0.9439
4.7926 -13.4256 -2.3484 0.9438
6.1199 -12.8822 -2.3495 0.9438
7.1386 -12.3530 -2.3504 0.9438
8.1118 -11.7433 -2.3512 0.9438
8.7396 -11.6227 -2.3956 0.9428
9.1801 -11.7103 -2.4513 0.9415
9.5931 -11.7424 -2.4979 0.9404
10.3148 -11.1754 -2.5054 0.9402
10.5385 -10.9666 -2.5056 0.9402
10.7579 -10.7532 -2.5058 0.9402
10.9731 -10.5354 -2.5060 0.9402
11.9809 -9.3838 -2.5071 0.9402
12.1683 -9.1415 -2.5073 0.9402
12.5283 -8.6459 -2.5077 0.9402
13.0302 -7.8760 -2.5082 0.9401
13.1870 -7.6128 -2.5084 0.9401
13.3385 -7.3464 -2.5086 0.9401
13.7605 -6.5296 -2.5092 0.9401
14.2448 -5.4034 -2.5098 0.9401
14.3515 -5.1160 -2.5100 0.9401
14.4525 -4.8265 -2.5101 0.9401
14.6368 -4.2416 -2.5105 0.9401
14.7200 -3.9464 -2.5106 0.9401
14.8686 -3.3512 -2.5109 0.9401
14.9338 -3.0515 -2.5110 0.9401
15.0460 -2.4484 -2.5113 0.9401
15.0930 -2.1452 -2.5114 0.9401
15.1685 -1.5363 -2.5116 0.9401
15.2455 -0.3117 -2.5121 0.9401
15.2492 -0.0048 -2.5121 0.9401
15.2233 0.9154 -2.5124 0.9400
15.2023 1.2216 -2.5125 0.9400
15.1751 1.5273 -2.5126 0.9400
15.1416 1.8324 -2.5126 0.9400
15.0564 2.4403 -2.5127 0.9400
15.0046 2.7429 -2.5128 0.9400
14.9466 3.0443 -2.5128 0.9400
14.8826 3.3445 -2.5129 0.9400
14.6543 4.2366 -2.5130 0.9400
14.4722 4.8229 -2.5130 0.9400
14.3723 5.1132 -2.5131 0.9400
0.2156 12.5166 -2.3530 0.9503
-0.0363 12.5175 -2.3528 0.9503
-0.2882 12.5133 -2.3526 0.9503
-0.7914 12.4896 -2.3523 0.9503
-1.0425 12.4702 -2.3521 0.9503
-1.2931 12.4458 -2.3519 0.9503
-1.7925 12.3817 -2.3515 0.9504
-2.0412 12.3421 -2.3513 0.9504
-3.0261 12.1342 -2.3506 0.9504
-3.2694 12.0698 -2.3504 0.9504
-3.5113 12.0006 -2.3502 0.9504
-3.7518 11.9266 -2.3500 0.9504
-3.9907 11.8477 -2.3498 0.9504
-4.2280 11.7641 -2.3496 0.9504
-4.9289 11.4847 -2.3491 0.9504
-5.1585 11.3823 -2.3489 0.9504
-5.3861 11.2752 -2.3487 0.9504
-5.6115 11.1637 -2.3485 0.9504
-5.8345 11.0476 -2.3483 0.9504
-6.0551 10.9270 -2.3481 0.9504
-6.2733 10.8021 -2.3479 0.9504
-6.4889 10.6728 -2.3477 0.9504
-4.8399 6.9746 -1.5957 0.9660
-4.8987 6.7646 -1.5699 0.9666
-4.9864 6.6018 -1.5551 0.9669
-5.2920 6.1910 -1.5309 0.9674
-5.5181 5.9529 -1.5257 0.9675
-5.6732 5.8783 -1.5355 0.9673
-5.8433 5.8158 -1.5496 0.9670
-6.0097 5.7453 -1.5627 0.9667
-6.6743 5.6506 -1.6437 0.9650
-6.9131 5.6180 -1.6744 0.9644
-8.1480 5.5972 -1.8580 0.9606
-8.3553 5.4955 -1.8797 0.9601
-10.9553 6.8939 -2.4329 0.9487
-10.2229 5.8725 -2.2160 0.9531
-10.3544 5.4060 -2.1955 0.9536
-10.5857 5.2584 -2.2217 0.9530
-10.8940 5.1409 -2.2642 0.9522
-12.2203 5.1762 -2.4945 0.9474
-12.3212 4.9290 -2.4943 0.9474
-12.4172 4.6798 -2.4942 0.9474
-12.5082 4.4287 -2.4941 0.9474
-12.5941 4.1759 -2.4939 0.9474
-12.8211 3.4078 -2.4935 0.9474
-12.9466 2.8889 -2.4933 0.9474
-13.0015 2.6277 -2.4932 0.9474
-13.0511 2.3654 -2.4931 0.9474
-13.0955 2.1022 -2.4930 0.9474
-13.1346 1.8382 -2.4929 0.9475
-13.1684 1.5734 -2.4927 0.9475
-13.1969 1.3081 -2.4927 0.9475
-13.2200 1.0422 -2.4926 0.9475
-13.2574 0.2426 -2.4923 0.9475
-13.2592 -0.0242 -2.4922 0.9475
-13.2556 -0.2910 -2.4921 0.9475
-13.2324 -0.8242 -2.4920 0.9475
-13.2128 -1.0902 -2.4919 0.9475
-13.1220 -1.8853 -2.4917 0.9475
-13.0811 -2.1490 -2.4917 0.9475
-12.9836 -2.6735 -2.4916 0.9475
-12.9270 -2.9342 -2.4916 0.9475
-12.7981 -3.4519 -2.4915 0.9475
-12.7259 -3.7087 -2.4915 0.9475
-12.6486 -3.9640 -2.4915 0.9475
-12.4787 -4.4697 -2.4914 0.9475
-12.1862 -5.2144 -2.4914 0.9475
-11.9665 -5.7005 -2.4914 0.9475
-11.6010 -6.4123 -2.4915 0.9475
-11.3338 -6.8741 -2.4915 0.9475
-11.1933 -7.1008 -2.4915 0.9475
-10.8988 -7.5457 -2.4916 0.9475
-10.7449 -7.7636 -2.4917 0.9475
-10.5867 -7.9784 -2.4917 0.9475
-10.0867 -8.6032 -2.4919 0.9475
-9.9118 -8.8047 -2.4919 0.9475
-9.7328 -9.0026 -2.4920 0.9475
-9.3633 -9.3875 -2.4921 0.9475
-8.9785 -9.7572 -2.4923 0.9475
-8.5792 -10.1113 -2.4925 0.9475
-8.3743 -10.2823 -2.4926 0.9475
-7.9544 -10.6118 -2.4928 0.9475
-7.7396 -10.7702 -2.4929 0.9475
-7.3006 -11.0738 -2.4931 0.9474
-5.9126 -11.2954 -2.3964 0.9494
-5.6028 -11.2488 -2.3621 0.9501
-5.3296 -11.2626 -2.3420 0.9506
-4.8726 -11.4692 -2.3423 0.9505
-4.4077 -11.6574 -2.3425 0.9505
-4.1724 -11.7444 -2.3427 0.9505
-3.6969 -11.9042 -2.3429 0.9505
-3.4569 -11.9769 -2.3431 0.9505
-3.1953 -11.9699 -2.3287 0.9508
-2.7284 -12.1661 -2.3435 0.9505
-2.4832 -12.2193 -2.3437 0.9505
-2.2370 -12.2676 -2.3439 0.9505
-1.9898 -12.3110 -2.3440 0.9505
-1.7418 -12.3494 -2.3442 0.9505
-1.2436 -12.4112 -2.3445 0.9505
-0.7433 -12.4530 -2.3448 0.9505
-0.4926 -12.4663 -2.3450 0.9505
0.5116 -12.4693 -2.3457 0.9505
0.7625 -12.4574 -2.3459 0.9505
1.0131 -12.4405 -2.3461 0.9505
1.2633 -12.4186 -2.3463 0.9505
1.7623 -12.3596 -2.3466 0.9505
2.2585 -12.2806 -2.3470 0.9504
2.5054 -12.2337 -2.3472 0.9504
2.7513 -12.1817 -2.3474 0.9504
3.2398 -12.0631 -2.3477 0.9504
3.4822 -11.9965 -2.3479 0.9504
3.7232 -11.9249 -2.3481 0.9504
4.2007 -11.7673 -2.3485 0.9504
4.4370 -11.6814 -2.3487 0.9504
5.1350 -11.3952 -2.3493 0.9504
5.3637 -11.2905 -2.3495 0.9504
5.5902 -11.1812 -2.3497 0.9504
5.8436 -11.1225 -2.3616 0.9501
6.1539 -11.1616 -2.3957 0.9494
7.1033 -11.2237 -2.4966 0.9474
7.5679 -10.9560 -2.5028 0.9472
8.0061 -10.6471 -2.5039 0.9472
8.2194 -10.4847 -2.5041 0.9472
8.4294 -10.3180 -2.5043 0.9472
9.0387 -9.7929 -2.5049 0.9472
9.4268 -9.4227 -2.5053 0.9472
9.9804 -8.8387 -2.5058 0.9472
10.1571 -8.6367 -2.5060 0.9472
10.3295 -8.4312 -2.5062 0.9472
10.4979 -8.2222 -2.5064 0.9472
11.2746 -7.1285 -2.5072 0.9472
11.4165 -6.9006 -2.5074 0.9472
11.5539 -6.6700 -2.5076 0.9471
11.9375 -5.9618 -2.5081 0.9471
12.0558 -5.7208 -2.5082 0.9471
12.1693 -5.4773 -2.5084 0.9471
12.2778 -5.2316 -2.5085 0.9471
12.8956 -3.4572 -2.5095 0.9471
12.9632 -3.1972 -2.5096 0.9471
13.0256 -2.9359 -2.5097 0.9471
13.0826 -2.6733 -2.5098 0.9471
13.1808 -2.1449 -2.5101 0.9471
13.2218 -1.8793 -2.5102 0.9471
13.2575 -1.6129 -2.5103 0.9471
13.2879 -1.3458 -2.5104 0.9471
13.3128 -1.0782 -2.5105 0.9471
13.3463 -0.5417 -2.5107 0.9471
13.3550 -0.2730 -2.5107 0.9471
13.3582 -0.0042 -2.5108 0.9471
13.3560 0.2646 -2.5109 0.9471
13.3354 0.8019 -2.5110 0.9471
13.3169 1.0701 -2.5111 0.9471
13.2930 1.3379 -2.5112 0.9471
13.2637 1.6052 -2.5112 0.9471
13.0927 2.6667 -2.5114 0.9471
12.9752 3.1915 -2.5115 0.9471
12.9085 3.4520 -2.5115 0.9471
12.6770 4.2247 -2.5116 0.9471
1.0861 11.0793 -2.3532 0.9555
-0.0323 11.1287 -2.3524 0.9555
-0.7036 11.1042 -2.3519 0.9555
-1.1497 11.0654 -2.3516 0.9555
-1.3720 11.0393 -2.3514 0.9555
-1.5937 11.0086 -2.3513 0.9555
-2.2546 10.8901 -2.3508 0.9556
-2.6906 10.7890 -2.3504 0.9556
-3.1221 10.6705 -2.3501 0.9556
-3.7594 10.4604 -2.3496 0.9556
-3.9689 10.3819 -2.3494 0.9556
-4.5871 10.1213 -2.3489 0.9556
-4.7895 10.0262 -2.3487 0.9556
-4.9899 9.9271 -2.3486 0.9556
-5.3845 9.7169 -2.3482 0.9556
-5.5786 9.6059 -2.3481 0.9556
-5.7703 9.4910 -2.3479 0.9556
-4.4673 6.7226 -1.7062 0.9675
-4.8052 6.1025 -1.6418 0.9687
-5.2099 5.8524 -1.6562 0.9685
-5.3942 5.8193 -1.6773 0.9681
-5.5916 5.7939 -1.7020 0.9676
-5.9901 5.7265 -1.7517 0.9667
-8.0014 5.4965 -2.0519 0.9611
-8.3813 5.5126 -2.1205 0.9598
-9.9956 6.2899 -2.4964 0.9529
-10.1195 6.0871 -2.4962 0.9529
-10.5738 5.2525 -2.4957 0.9529
-10.9596 4.3843 -2.4951 0.9529
-11.0451 4.1626 -2.4950 0.9529
-11.1260 3.9394 -2.4949 0.9529
-11.2025 3.7145 -2.4948 0.9529
-11.2745 3.4881 -2.4946 0.9529
-11.4047 3.0313 -2.4944 0.9529
-11.5164 2.5698 -2.4942 0.9529
-11.5653 2.3374 -2.4941 0.9529
-11.6095 2.1041 -2.4940 0.9529
-11.6839 1.6351 -2.4938 0.9529
-11.7140 1.3996 -2.4937 0.9529
-11.7600 0.9271 -2.4935 0.9529
-11.7919 -0.2589 -2.4932 0.9529
-11.7713 -0.7332 -2.4930 0.9529
-11.7539 -0.9698 -2.4930 0.9529
-11.7048 -1.4420 -2.4929 0.9529
-11.6369 -1.9117 -2.4928 0.9529
-11.4998 -2.6102 -2.4927 0.9529
-11.2522 -3.5264 -2.4926 0.9529
-11.1011 -3.9762 -2.4925 0.9529
-10.6455 -5.0712 -2.4925 0.9529
-10.4329 -5.4956 -2.4926 0.9529
-10.2034 -5.9110 -2.4926 0.9529
-10.0825 -6.1152 -2.4926 0.9529
-9.8285 -6.5161 -2.4927 0.9529
-9.4179 -7.0976 -2.4928 0.9529
-8.8174 -7.8325 -2.4930 0.9529
-8.6582 -8.0086 -2.4930 0.9529
-8.4955 -8.1814 -2.4931 0.9529
-8.3293 -8.3509 -2.4932 0.9529
-8.1598 -8.5170 -2.4932 0.9529
-7.9870 -8.6798 -2.4933 0.9529
-7.8110 -8.8390 -2.4934 0.9529
-7.4494 -9.1467 -2.4935 0.9529
-7.2641 -9.2951 -2.4936 0.9529
-7.0759 -9.4398 -2.4937 0.9529
-6.8847 -9.5806 -2.4938 0.9529
-6.4942 -9.8506 -2.4940 0.9529
-6.2948 -9.9797 -2.4941 0.9529
-5.8887 -10.2258 -2.4943 0.9529
-5.6820 -10.3426 -2.4944 0.9529
-5.4729 -10.4554 -2.4945 0.9529
-5.0483 -10.6681 -2.4948 0.9529
-4.3863 -10.9306 -2.4896 0.9530
-3.9073 -10.9979 -2.4671 0.9534
-3.6518 -10.9740 -2.4447 0.9538
-3.1553 -10.9322 -2.4052 0.9545
-2.9128 -10.9115 -2.3872 0.9549
-2.6747 -10.8949 -2.3714 0.9552
-1.7698 -10.9497 -2.3446 0.9557
-1.5491 -10.9837 -2.3447 0.9557
-1.1061 -11.0385 -2.3450 0.9557
-0.8838 -11.0593 -2.3452 0.9557
-0.6611 -11.0755 -2.3453 0.9557
-0.4381 -11.0873 -2.3455 0.9556
0.0084 -11.0974 -2.3458 0.9556
0.2317 -11.0957 -2.3459 0.9556
0.4550 -11.0896 -2.3461 0.9556
1.1235 -11.0442 -2.3466 0.9556
1.3456 -11.0201 -2.3467 0.9556
2.2280 -10.8793 -2.3474 0.9556
2.6745 -10.8231 -2.3566 0.9554
4.1442 -10.9105 -2.4670 0.9534
4.4058 -10.9314 -2.4913 0.9530
4.8541 -10.7719 -2.4975 0.9528
6.3323 -10.0054 -2.5029 0.9527
6.5328 -9.8767 -2.5031 0.9527
6.9259 -9.6072 -2.5035 0.9527
7.4946 -9.1737 -2.5040 0.9527
7.6782 -9.0217 -2.5042 0.9527
7.8587 -8.8659 -2.5043 0.9527
8.0361 -8.7066 -2.5045 0.9527
8.2102 -8.5437 -2.5047 0.9527
8.5485 -8.2075 -2.5050 0.9527
8.7125 -8.0344 -2.5052 0.9527
9.0299 -7.6783 -2.5055 0.9527
9.4786 -7.1208 -2.5060 0.9527
9.7586 -6.7345 -2.5063 0.9527
9.8928 -6.5371 -2.5064 0.9527
10.0229 -6.3371 -2.5066 0.9527
10.1490 -6.1345 -2.5067 0.9527
10.5025 -5.5120 -2.5072 0.9527
10.7170 -5.0854 -2.5075 0.9527
10.8177 -4.8690 -2.5076 0.9527
11.0935 -4.2081 -2.5080 0.9526
11.3289 -3.5316 -2.5084 0.9526
11.4628 -3.0731 -2.5086 0.9526
11.5782 -2.6096 -2.5088 0.9526
11.6748 -2.1418 -2.5090 0.9526
11.7160 -1.9065 -2.5091 0.9526
11.7841 -1.4336 -2.5093 0.9526
11.8331 -0.9584 -2.5095 0.9526
11.8629 -0.4815 -2.5096 0.9526
11.8705 -0.2427 -2.5097 0.9526
11.8713 0.2352 -2.5099 0.9526
11.8529 0.7127 -2.5100 0.9526
11.7891 1.4267 -2.5102 0.9526
11.7582 1.6637 -2.5102 0.9526
11.7226 1.9000 -2.5103 0.9526
11.6822 2.1355 -2.5103 0.9526
11.5871 2.6039 -2.5104 0.9526
11.5325 2.8366 -2.5104 0.9526
11.4732 3.0682 -2.5104 0.9526
11.1897 3.9809 -2.5105 0.9526
0.9767 9.9629 -2.3527 0.9597
0.7760 9.9800 -2.3526 0.9597
0.3737 10.0020 -2.3523 0.9597
-0.0290 10.0077 -2.3521 0.9597
-0.2304 10.0045 -2.3519 0.9597
-0.8335 9.9706 -2.3515 0.9597
-1.0339 9.9512 -2.3513 0.9597
-1.6321 9.8688 -2.3509 0.9597
-1.8303 9.8333 -2.3507 0.9597
-2.2242 9.7505 -2.3504 0.9597
-2.6144 9.6518 -2.3501 0.9597
-3.0003 9.5376 -2.3498 0.9597
-3.1914 9.4747 -2.3497 0.9598
-3.3812 9.4079 -2.3495 0.9598
-3.5696 9.3374 -2.3494 0.9598
-3.9419 9.1850 -2.3491 0.9598
-4.3077 9.0177 -2.3488 0.9598
-4.6665 8.8360 -2.3485 0.9598
-4.8430 8.7397 -2.3483 0.9598
-5.1901 8.5366 -2.3480 0.9598
-4.4997 7.0763 -1.9709 0.9661
-4.4306 6.6673 -1.8814 0.9676
-4.4473 6.4089 -1.8334 0.9685
-4.5007 6.2150 -1.8034 0.9690
-4.5799 6.0636 -1.7859 0.9693
-5.0313 5.8860 -1.8199 0.9687
-5.3614 5.7839 -1.8535 0.9681
-5.7746 5.7473 -1.9148 0.9671
-5.9804 5.7173 -1.9445 0.9666
-6.1972 5.6903 -1.9773 0.9660
-6.4258 5.6662 -2.0135 0.9654
-6.6676 5.6450 -2.0532 0.9647
-7.4214 5.5505 -2.1781 0.9626
-7.7872 5.5833 -2.2520 0.9614
-8.1292 5.5843 -2.3179 0.9603
-8.8766 5.8384 -2.4970 0.9573
-8.9919 5.6583 -2.4969 0.9573
-9.1034 5.4759 -2.4968 0.9573
-9.4158 4.9159 -2.4964 0.9573
-9.6050 4.5326 -2.4961 0.9573
-9.7787 4.1420 -2.4959 0.9573
-10.0094 3.5440 -2.4955 0.9573
-10.0783 3.3417 -2.4954 0.9573
-10.2603 2.7272 -2.4951 0.9573
-10.3127 2.5201 -2.4950 0.9573
-10.3609 2.3119 -2.4949 0.9573
-10.4447 1.8930 -2.4947 0.9573
-10.4804 1.6824 -2.4947 0.9573
-10.5117 1.4711 -2.4946 0.9573
-10.5617 1.0469 -2.4944 0.9573
-10.5803 0.8341 -2.4943 0.9573
-10.5947 0.6210 -2.4943 0.9573
-10.6047 0.4077 -2.4942 0.9573
-10.5907 -0.6596 -2.4939 0.9573
-10.5026 -1.5090 -2.4937 0.9573
-10.4699 -1.7200 -2.4937 0.9573
-10.2972 -2.5562 -2.4935 0.9573
-10.2435 -2.7628 -2.4935 0.9573
-10.1858 -2.9684 -2.4935 0.9573
-10.0579 -3.3758 -2.4934 0.9573
-9.9139 -3.7778 -2.4934 0.9573
-9.8359 -3.9765 -2.4934 0.9573
-9.5780 -4.5627 -2.4934 0.9573
-9.4843 -4.7546 -2.4934 0.9573
-9.3867 -4.9445 -2.4934 0.9573
-9.2854 -5.1324 -2.4935 0.9573
-9.1803 -5.3183 -2.4935 0.9573
-8.9590 -5.6835 -2.4935 0.9573
-8.8429 -5.8627 -2.4936 0.9573
-8.7233 -6.0395 -2.4936 0.9573
-8.6001 -6.2139 -2.4936 0.9573
-8.4734 -6.3858 -2.4937 0.9573
-8.2099 -6.7218 -2.4937 0.9573
-8.0731 -6.8858 -2.4938 0.9573
-7.6434 -7.3608 -2.4939 0.9573
-6.7022 -8.2292 -2.4943 0.9573
-6.5354 -8.3627 -2.4944 0.9573
-6.3660 -8.4928 -2.4945 0.9573
-5.8426 -8.8623 -2.4948 0.9573
-5.6633 -8.9784 -2.4948 0.9573
-4.5416 -9.5975 -2.4954 0.9573
-4.3478 -9.6874 -2.4956 0.9573
-3.7559 -9.9334 -2.4959 0.9573
-3.1501 -10.1434 -2.4963 0.9573
-2.5327 -10.3166 -2.4966 0.9573
-2.3247 -10.3660 -2.4968 0.9573
-1.9049 -10.4465 -2.4957 0.9573
-1.6939 -10.4802 -2.4950 0.9573
-1.4823 -10.5098 -2.4945 0.9573
0.2215 -10.6058 -2.4932 0.9573
0.4349 -10.6002 -2.4934 0.9573
1.0742 -10.5596 -2.4946 0.9573
1.2868 -10.5384 -2.4952 0.9573
1.4990 -10.5132 -2.4958 0.9573
1.7108 -10.4840 -2.4966 0.9573
1.9220 -10.4508 -2.4974 0.9573
2.7594 -10.2746 -2.5003 0.9572
4.3731 -9.7044 -2.5016 0.9572
4.5678 -9.6151 -2.5018 0.9572
4.9516 -9.4247 -2.5021 0.9572
5.5123 -9.1106 -2.5026 0.9572
5.6949 -8.9984 -2.5028 0.9572
5.8752 -8.8825 -2.5029 0.9572
6.4017 -8.5134 -2.5034 0.9572
6.5721 -8.3834 -2.5036 0.9572
6.7399 -8.2500 -2.5037 0.9572
6.9050 -8.1132 -2.5039 0.9572
7.2268 -7.8298 -2.5042 0.9572
7.5369 -7.5336 -2.5045 0.9572
7.9792 -7.0663 -2.5050 0.9572
8.1202 -6.9047 -2.5051 0.9571
8.2580 -6.7403 -2.5052 0.9571
8.6511 -6.2308 -2.5057 0.9571
8.7752 -6.0558 -2.5058 0.9571
9.0128 -5.6985 -2.5061 0.9571
9.1261 -5.5162 -2.5062 0.9571
9.4438 -4.9563 -2.5066 0.9571
9.5421 -4.7655 -2.5067 0.9571
9.6365 -4.5728 -2.5069 0.9571
9.7271 -4.3781 -2.5070 0.9571
9.8137 -4.1817 -2.5071 0.9571
9.9749 -3.7838 -2.5073 0.9571
10.1864 -3.1754 -2.5077 0.9571
10.4972 -1.9258 -2.5083 0.9571
10.5669 -1.5019 -2.5084 0.9571
10.5953 -1.2890 -2.5085 0.9571
10.6195 -1.0756 -2.5086 0.9571
10.6548 -0.6474 -2.5087 0.9571
10.6728 -0.2182 -2.5089 0.9571
10.6674 0.4262 -2.5091 0.9571
10.6420 0.8552 -2.5092 0.9571
10.6229 1.0692 -2.5092 0.9571
10.5994 1.2827 -2.5093 0.9571
10.5396 1.7082 -2.5094 0.9571
10.4626 2.1310 -2.5094 0.9571
10.4177 2.3412 -2.5095 0.9571
10.3153 2.7585 -2.5095 0.9571
10.2578 2.9656 -2.5095 0.9571
10.0604 3.5791 -2.5096 0.9571
0.8864 9.0422 -2.3524 0.9632
0.7043 9.0578 -2.3523 0.9632
0.5218 9.0696 -2.3522 0.9632
0.3392 9.0778 -2.3520 0.9632
-0.2091 9.0802 -2.3517 0.9632
-0.3918 9.0737 -2.3515 0.9632
-0.5743 9.0635 -2.3514 0.9632
-0.9384 9.0320 -2.3511 0.9632
-1.1199 9.0108 -2.3510 0.9632
-1.3009 8.9859 -2.3509 0.9632
-1.4814 8.9574 -2.3507 0.9632
-1.6613 8.9253 -2.3506 0.9632
-1.8404 8.8895 -2.3505 0.9632
-2.0188 8.8501 -2.3503 0.9632
-2.3730 8.7607 -2.3500 0.9632
-2.5487 8.7107 -2.3499 0.9632
-2.8968 8.6001 -2.3496 0.9632
-3.2401 8.4755 -2.3494 0.9632
-3.9102 8.1856 -2.3488 0.9632
-4.4176 7.9719 -2.3598 0.9630
-4.8187 7.9257 -2.4016 0.9624
-4.5374 7.1355 -2.1894 0.9657
-4.4352 6.6744 -2.0749 0.9674
-4.4676 6.1693 -1.9722 0.9690
-5.5685 5.7699 -2.0762 0.9674
-6.6799 5.6554 -2.2661 0.9645
-7.6080 5.9325 -2.4979 0.9609
-7.7255 5.7779 -2.4978 0.9609
-7.8398 5.6210 -2.4977 0.9609
-7.9509 5.4619 -2.4976 0.9609
-8.1634 5.1370 -2.4973 0.9609
-8.2647 4.9715 -2.4972 0.9609
-8.4573 4.6344 -2.4970 0.9609
-8.5484 4.4631 -2.4968 0.9609
-8.6361 4.2900 -2.4967 0.9609
-8.8010 3.9387 -2.4965 0.9609
-8.9516 3.5810 -2.4963 0.9609
-9.0877 3.2176 -2.4961 0.9609
-9.2642 2.6631 -2.4958 0.9610
-9.3156 2.4761 -2.4957 0.9610
-9.4070 2.0991 -2.4955 0.9610
-9.5156 1.5275 -2.4953 0.9610
-9.5687 1.1433 -2.4951 0.9610
-9.6195 0.5638 -2.4949 0.9610
-9.6339 0.1763 -2.4948 0.9610
-9.6353 -0.0176 -2.4947 0.9610
-9.6327 -0.2115 -2.4947 0.9610
-9.6160 -0.5989 -2.4946 0.9610
-9.3496 -2.3210 -2.4943 0.9610
-9.0689 -3.2483 -2.4942 0.9610
-9.0016 -3.4301 -2.4942 0.9610
-8.8563 -3.7896 -2.4942 0.9610
-8.7782 -3.9670 -2.4942 0.9610
-8.6967 -4.1429 -2.4942 0.9610
-8.6115 -4.3171 -2.4942 0.9610
-8.5230 -4.4895 -2.4942 0.9610
-8.2367 -4.9957 -2.4942 0.9610
-7.9205 -5.4837 -2.4943 0.9610
-7.5755 -5.9519 -2.4944 0.9610
-7.3302 -6.2521 -2.4945 0.9610
-7.0729 -6.5422 -2.4946 0.9610
-6.9399 -6.6834 -2.4946 0.9610
-6.0853 -7.4717 -2.4950 0.9610
-5.9338 -7.5929 -2.4951 0.9610
-5.7800 -7.7110 -2.4951 0.9610
-5.6238 -7.8260 -2.4952 0.9610
-5.4654 -7.9378 -2.4953 0.9610
-5.3047 -8.0464 -2.4954 0.9610
-4.9770 -8.2539 -2.4955 0.9610
-4.8100 -8.3527 -2.4956 0.9610
-4.4704 -8.5401 -2.4958 0.9610
-4.1234 -8.7137 -2.4960 0.9610
-3.9474 -8.7953 -2.4961 0.9609
-3.7698 -8.8733 -2.4962 0.9609
-3.5906 -8.9477 -2.4963 0.9609
-3.4099 -9.0186 -2.4964 0.9609
-2.4873 -9.3175 -2.4970 0.9609
-2.2994 -9.3661 -2.4971 0.9609
-2.1105 -9.4110 -2.4972 0.9609
-1.7303 -9.4892 -2.4974 0.9609
-1.3472 -9.5521 -2.4977 0.9609
-1.1548 -9.5778 -2.4978 0.9609
-0.9619 -9.5996 -2.4979 0.9609
-0.7685 -9.6175 -2.4981 0.9609
-0.5749 -9.6315 -2.4982 0.9609
-0.3810 -9.6416 -2.4983 0.9609
0.0073 -9.6502 -2.4986 0.9609
0.2015 -9.6486 -2.4987 0.9609
0.3957 -9.6431 -2.4989 0.9609
0.5896 -9.6337 -2.4990 0.9609
0.9769 -9.6033 -2.4993 0.9609
1.1701 -9.5822 -2.4994 0.9609
1.3627 -9.5573 -2.4996 0.9609
2.1273 -9.4189 -2.5002 0.9609
2.3166 -9.3747 -2.5003 0.9609
2.6922 -9.2750 -2.5006 0.9609
2.8785 -9.2195 -2.5007 0.9609
3.0636 -9.1603 -2.5009 0.9609
3.2475 -9.0973 -2.5010 0.9609
3.7912 -8.8864 -2.5015 0.9609
4.1462 -8.7276 -2.5018 0.9609
4.3212 -8.6429 -2.5019 0.9609
4.6661 -8.4630 -2.5022 0.9609
4.8357 -8.3679 -2.5024 0.9609
5.1691 -8.1675 -2.5027 0.9608
5.3327 -8.0624 -2.5028 0.9608
5.6535 -7.8421 -2.5031 0.9608
5.9651 -7.6092 -2.5034 0.9608
6.4145 -7.2366 -2.5038 0.9608
6.5592 -7.1065 -2.5039 0.9608
6.9772 -6.6989 -2.5044 0.9608
7.1109 -6.5575 -2.5045 0.9608
7.2418 -6.4134 -2.5046 0.9608
7.4948 -6.1174 -2.5049 0.9608
7.7357 -5.8115 -2.5052 0.9608
7.9641 -5.4961 -2.5054 0.9608
8.0735 -5.3350 -2.5055 0.9608
8.1796 -5.1717 -2.5057 0.9608
8.3819 -4.8388 -2.5059 0.9608
8.6598 -4.3249 -2.5062 0.9608
8.7455 -4.1499 -2.5064 0.9608
8.8276 -3.9733 -2.5065 0.9608
8.9062 -3.7950 -2.5066 0.9608
9.1840 -3.0670 -2.5070 0.9608
9.2442 -2.8818 -2.5071 0.9608
9.3007 -2.6952 -2.5072 0.9608
9.4023 -2.3189 -2.5074 0.9608
9.4474 -2.1294 -2.5075 0.9608
9.4886 -1.9389 -2.5075 0.9608
9.5261 -1.7476 -2.5076 0.9608
9.5596 -1.5556 -2.5077 0.9608
9.5893 -1.3630 -2.5078 0.9608
9.6369 -0.9760 -2.5079 0.9608
9.6549 -0.7819 -2.5080 0.9608
9.6689 -0.5875 -2.5081 0.9608
9.6852 -0.1980 -2.5082 0.9608
9.6858 0.1919 -2.5083 0.9608
9.6706 0.5815 -2.5084 0.9608
9.5641 1.5501 -2.5086 0.9608
9.4943 1.9338 -2.5087 0.9608
9.3084 2.6911 -2.5088 0.9608
9.2524 2.8779 -2.5088 0.9608
9.1927 3.0635 -2.5088 0.9608
0.4772 8.2942 -2.3519 0.9661
-0.1912 8.3040 -2.3514 0.9661
-0.6918 8.2761 -2.3511 0.9661
-1.1898 8.2180 -2.3507 0.9661
-1.3548 8.1920 -2.3506 0.9661
-1.5193 8.1626 -2.3505 0.9661
-2.0258 8.1232 -2.3700 0.9658
-2.3706 8.1022 -2.3898 0.9655
-2.5453 8.0914 -2.4013 0.9654
-3.0799 8.0565 -2.4417 0.9648
-3.2607 8.0404 -2.4562 0.9646
-4.1179 7.7971 -2.4962 0.9640
-4.7394 7.4532 -2.5004 0.9639
-4.8882 7.3559 -2.5003 0.9639
-4.4982 6.2115 -2.1711 0.9686
-4.7900 5.8377 -2.1377 0.9691
-4.9895 5.8372 -2.1739 0.9686
-5.2136 5.8565 -2.2197 0.9679
-5.3531 5.7749 -2.2292 0.9678
-6.1304 6.3521 -2.4991 0.9640
-6.3804 6.0997 -2.4988 0.9640
-6.6200 5.8374 -2.4986 0.9640
-6.8489 5.5658 -2.4984 0.9640
-7.0666 5.2852 -2.4981 0.9640
-7.1712 5.1417 -2.4980 0.9640
-7.4674 4.6990 -2.4977 0.9640
-7.6497 4.3943 -2.4975 0.9640
-7.7363 4.2393 -2.4973 0.9640
-7.8197 4.0826 -2.4972 0.9640
-7.8999 3.9243 -2.4971 0.9640
-7.9770 3.7643 -2.4970 0.9640
-8.1213 3.4400 -2.4968 0.9640
-8.1886 3.2758 -2.4967 0.9640
-8.3131 2.9434 -2.4966 0.9640
-8.3704 2.7754 -2.4965 0.9640
-8.4243 2.6063 -2.4964 0.9640
-8.5217 2.2651 -2.4962 0.9640
-8.5653 2.0931 -2.4961 0.9640
-8.6752 1.5723 -2.4959 0.9640
-8.7535 1.0459 -2.4957 0.9640
-8.7880 0.6928 -2.4955 0.9640
-8.8084 0.3386 -2.4954 0.9640
-8.7969 -0.5479 -2.4952 0.9640
-8.7474 -1.0776 -2.4950 0.9640
-8.7238 -1.2534 -2.4950 0.9640
-8.6320 -1.7774 -2.4949 0.9640
-8.5944 -1.9507 -2.4949 0.9640
-8.5533 -2.1233 -2.4949 0.9640
-8.5088 -2.2949 -2.4949 0.9640
-8.3547 -2.8041 -2.4948 0.9640
-8.2965 -2.9717 -2.4948 0.9640
-8.2350 -3.1380 -2.4948 0.9640
-8.1020 -3.4668 -2.4948 0.9640
-8.0306 -3.6292 -2.4948 0.9640
-7.9560 -3.7900 -2.4948 0.9640
-7.8781 -3.9494 -2.4948 0.9640
-7.7129 -4.2632 -2.4948 0.9640
-7.5352 -4.5702 -2.4949 0.9640
-7.4418 -4.7209 -2.4949 0.9640
-7.3453 -4.8698 -2.4949 0.9640
-7.2459 -5.0167 -2.4949 0.9640
-7.1436 -5.1615 -2.4949 0.9640
-6.9303 -5.4449 -2.4950 0.9640
-6.8194 -5.5834 -2.4951 0.9640
-6.4704 -5.9849 -2.4952 0.9640
-6.3488 -6.1141 -2.4952 0.9640
-5.9687 -6.4864 -2.4954 0.9640
-5.8371 -6.6053 -2.4954 0.9640
-5.7031 -6.7216 -2.4955 0.9640
-5.5668 -6.8352 -2.4956 0.9640
-5.4283 -6.9460 -2.4956 0.9640
-4.9997 -7.2615 -2.4958 0.9640
-4.7038 -7.4572 -2.4960 0.9640
-4.2457 -7.7282 -2.4962 0.9640
-3.7720 -7.9711 -2.4965 0.9640
-3.6110 -8.0457 -2.4966 0.9640
-2.1034 -8.5676 -2.4975 0.9640
-1.5828 -8.6800 -2.4978 0.9640
-1.4079 -8.7105 -2.4979 0.9640
-1.2323 -8.7375 -2.4980 0.9640
-0.8798 -8.7809 -2.4982 0.9640
-0.5259 -8.8100 -2.4985 0.9640
-0.3485 -8.8192 -2.4986 0.9640
0.0067 -8.8269 -2.4989 0.9640
0.1843 -8.8254 -2.4990 0.9640
0.5394 -8.8118 -2.4992 0.9640
0.7166 -8.7996 -2.4994 0.9640
0.8936 -8.7838 -2.4995 0.9640
1.2464 -8.7417 -2.4997 0.9640
1.7719 -8.6519 -2.5001 0.9640
1.9457 -8.6150 -2.5003 0.9639
2.1188 -8.5745 -2.5004 0.9639
2.4624 -8.4832 -2.5007 0.9639
2.9703 -8.3206 -2.5011 0.9639
3.3030 -8.1952 -2.5013 0.9639
3.6305 -8.0565 -2.5016 0.9639
3.9522 -7.9048 -2.5019 0.9639
4.1106 -7.8240 -2.5020 0.9639
4.2675 -7.7402 -2.5022 0.9639
4.4226 -7.6531 -2.5023 0.9639
4.5760 -7.5630 -2.5024 0.9639
5.0248 -7.2743 -2.5028 0.9639
5.1704 -7.1720 -2.5030 0.9639
5.7316 -6.7345 -2.5035 0.9639
5.9985 -6.4991 -2.5037 0.9639
6.1284 -6.3773 -2.5039 0.9639
6.3807 -6.1262 -2.5041 0.9639
6.6227 -5.8651 -2.5044 0.9639
6.7397 -5.7309 -2.5045 0.9639
7.1801 -5.1714 -2.5050 0.9639
7.2830 -5.0261 -2.5051 0.9639
7.3830 -4.8787 -2.5052 0.9639
7.4800 -4.7294 -2.5053 0.9639
7.5741 -4.5781 -2.5054 0.9639
7.6650 -4.4249 -2.5055 0.9639
7.8375 -4.1133 -2.5057 0.9639
8.0724 -3.6333 -2.5060 0.9639
8.4532 -2.6351 -2.5066 0.9639
8.6388 -1.9471 -2.5069 0.9639
8.6765 -1.7729 -2.5070 0.9639
8.7685 -1.2463 -2.5072 0.9639
8.7920 -1.0696 -2.5073 0.9638
8.8284 -0.7150 -2.5074 0.9638
8.8561 -0.1810 -2.5076 0.9638
8.8566 0.1755 -2.5077 0.9638
8.7950 1.0644 -2.5080 0.9638
8.5591 2.2889 -2.5082 0.9638
8.5113 2.4607 -2.5082 0.9638
8.4602 2.6315 -2.5082 0.9638
8.4055 2.8012 -2.5082 0.9638
0.7924 8.0831 -2.4981 0.9666
0.6295 8.0963 -2.4977 0.9666
0.4664 8.1063 -2.4975 0.9666
0.3031 8.1134 -2.4972 0.9666
0.1398 8.1172 -2.4970 0.9666
-0.1869 8.1156 -2.4968 0.9666
-0.5133 8.1011 -2.4967 0.9666
-0.6762 8.0892 -2.4967 0.9666
-1.1632 8.0348 -2.4971 0.9666
-1.6465 7.9526 -2.4979 0.9666
-1.8064 7.9188 -2.4982 0.9666
-1.9656 7.8820 -2.4986 0.9666
-2.4390 7.7535 -2.5000 0.9666
-2.5951 7.7046 -2.5006 0.9665
-3.0565 7.5370 -2.5016 0.9665
-3.3570 7.4072 -2.5014 0.9665
-3.5052 7.3378 -2.5012 0.9665
-3.6520 7.2654 -2.5011 0.9665
-3.9410 7.1119 -2.5009 0.9665
-4.4992 6.7706 -2.5004 0.9666
-4.8988 6.4858 -2.5000 0.9666
-5.0281 6.3857 -2.4999 0.9666
-4.9920 5.8400 -2.3631 0.9684
-5.1651 5.8021 -2.3893 0.9680
-5.5243 5.9595 -2.4994 0.9666
-5.6428 5.8469 -2.4993 0.9666
-5.9845 5.4950 -2.4989 0.9666
-6.2002 5.2493 -2.4987 0.9666
-6.5048 4.8649 -2.4984 0.9666
-6.6947 4.5989 -2.4982 0.9666
-6.8737 4.3254 -2.4980 0.9666
-7.0416 4.0450 -2.4978 0.9666
-7.2720 3.6124 -2.4975 0.9666
-7.5379 3.0155 -2.4971 0.9666
-7.5968 2.8631 -2.4970 0.9666
-7.8447 2.0851 -2.4966 0.9666
-7.8848 1.9268 -2.4965 0.9666
-7.9555 1.6078 -2.4964 0.9666
-7.9860 1.4474 -2.4963 0.9666
-8.1087 0.3117 -2.4959 0.9666
-8.1123 -0.1781 -2.4958 0.9666
-8.0982 -0.5044 -2.4957 0.9666
-8.0711 -0.8298 -2.4956 0.9666
-8.0527 -0.9920 -2.4956 0.9666
-8.0310 -1.1539 -2.4955 0.9666
-7.9118 -1.7958 -2.4954 0.9666
-7.8331 -2.1127 -2.4954 0.9666
-7.7889 -2.2699 -2.4954 0.9666
-7.7416 -2.4262 -2.4953 0.9666
-7.6376 -2.7357 -2.4953 0.9666
-7.5214 -3.0408 -2.4953 0.9666
-7.4586 -3.1915 -2.4953 0.9666
-7.1779 -3.7810 -2.4953 0.9666
-7.0200 -4.0668 -2.4954 0.9666
-6.7620 -4.4831 -2.4954 0.9666
-6.5763 -4.7516 -2.4955 0.9666
-6.4794 -4.8830 -2.4955 0.9666
-6.2778 -5.1399 -2.4956 0.9666
-5.8445 -5.6285 -2.4957 0.9666
-5.7302 -5.7450 -2.4958 0.9666
-5.6135 -5.8593 -2.4958 0.9666
-5.3734 -6.0807 -2.4959 0.9666
-5.1246 -6.2922 -2.4960 0.9666
-4.8675 -6.4937 -2.4961 0.9666
-4.6025 -6.6846 -2.4963 0.9666
-4.4672 -6.7761 -2.4963 0.9666
-4.3301 -6.8648 -2.4964 0.9666
-4.1912 -6.9507 -2.4965 0.9666
-3.4723 -7.3377 -2.4969 0.9666
-3.3240 -7.4063 -2.4969 0.9666
-3.0235 -7.5346 -2.4971 0.9666
-2.8714 -7.5942 -2.4972 0.9666
-2.7181 -7.6507 -2.4973 0.9666
-2.5637 -7.7042 -2.4974 0.9666
-2.4082 -7.7545 -2.4975 0.9666
-1.6174 -7.9587 -2.4980 0.9666
-1.1344 -8.0428 -2.4983 0.9666
-0.9723 -8.0644 -2.4984 0.9666
-0.8099 -8.0827 -2.4985 0.9666
-0.6471 -8.0977 -2.4986 0.9666
-0.4840 -8.1094 -2.4987 0.9666
-0.3207 -8.1179 -2.4988 0.9666
0.0062 -8.1250 -2.4991 0.9666
0.1697 -8.1236 -2.4992 0.9666
0.4965 -8.1109 -2.4994 0.9666
1.1473 -8.0462 -2.4999 0.9666
1.3090 -8.0219 -2.5000 0.9666
1.9502 -7.8922 -2.5005 0.9666
2.2664 -7.8081 -2.5007 0.9665
2.7338 -7.6583 -2.5011 0.9665
3.0401 -7.5428 -2.5014 0.9665
3.7833 -7.2010 -2.5020 0.9665
3.9277 -7.1238 -2.5021 0.9665
4.0704 -7.0437 -2.5022 0.9665
4.2116 -6.9607 -2.5024 0.9665
4.3510 -6.8749 -2.5025 0.9665
4.7586 -6.6008 -2.5028 0.9665
5.2750 -6.1980 -2.5033 0.9665
5.5206 -5.9812 -2.5036 0.9665
5.7574 -5.7548 -2.5038 0.9665
6.0949 -5.3977 -2.5041 0.9665
6.4104 -5.0207 -2.5045 0.9665
6.7025 -4.6254 -2.5048 0.9665
6.8837 -4.3523 -2.5050 0.9665
7.0539 -4.0721 -2.5052 0.9665
7.2876 -3.6396 -2.5055 0.9665
7.3596 -3.4923 -2.5056 0.9665
7.4287 -3.3436 -2.5057 0.9665
7.4947 -3.1935 -2.5058 0.9665
7.5578 -3.0422 -2.5059 0.9665
7.6177 -2.8896 -2.5059 0.9665
7.6746 -2.7358 -2.5060 0.9665
7.7283 -2.5809 -2.5061 0.9665
7.7790 -2.4249 -2.5062 0.9665
7.8707 -2.1101 -2.5064 0.9665
7.9118 -1.9513 -2.5064 0.9665
7.9497 -1.7918 -2.5065 0.9665
8.0159 -1.4705 -2.5067 0.9665
8.0906 -0.9843 -2.5068 0.9665
8.1090 -0.8213 -2.5069 0.9665
8.1241 -0.6580 -2.5070 0.9665
8.1358 -0.4944 -2.5070 0.9665
8.1443 -0.3305 -2.5071 0.9665
8.1514 -0.0026 -2.5072 0.9665
8.1371 0.4893 -2.5073 0.9665
8.1258 0.6530 -2.5074 0.9665
8.0932 0.9794 -2.5074 0.9665
7.9886 1.6271 -2.5076 0.9665
7.9543 1.7876 -2.5076 0.9665
7.9168 1.9473 -2.5076 0.9665
7.8321 2.2643 -2.5076 0.9665
7.6813 2.7328 -2.5077 0.9665
0.7350 7.4978 -2.5042 0.9687
0.5840 7.5107 -2.5041 0.9687
0.4327 7.5207 -2.5040 0.9687
0.1297 7.5313 -2.5038 0.9687
-0.0219 7.5321 -2.5037 0.9687
-0.1734 7.5298 -2.5036 0.9688
-0.3249 7.5245 -2.5035 0.9688
-0.4762 7.5161 -2.5034 0.9688
-1.3777 7.4021 -2.5027 0.9688
-2.1139 7.2246 -2.5022 0.9688
-2.8282 6.9741 -2.5016 0.9688
-3.1063 6.8540 -2.5014 0.9688
-3.5137 6.6532 -2.5010 0.9688
-3.9082 6.4281 -2.5007 0.9688
-4.0366 6.3479 -2.5006 0.9688
-4.1633 6.2651 -2.5004 0.9688
-4.2884 6.1798 -2.5003 0.9688
-4.6528 5.9090 -2.5000 0.9688
-4.8863 5.7165 -2.4998 0.9688
-5.0002 5.6168 -2.4997 0.9688
-5.1120 5.5148 -2.4996 0.9688
-5.3293 5.3041 -2.4993 0.9688
-5.5379 5.0850 -2.4991 0.9688
-5.7376 4.8576 -2.4989 0.9688
-5.8339 4.7410 -2.4988 0.9688
-5.9279 4.6224 -2.4987 0.9688
-6.0195 4.5020 -2.4986 0.9688
-6.1086 4.3798 -2.4985 0.9688
-6.3610 4.0028 -2.4982 0.9688
-6.5164 3.7433 -2.4980 0.9688
-6.5902 3.6113 -2.4980 0.9688
-6.6613 3.4778 -2.4979 0.9688
-6.7297 3.3430 -2.4978 0.9688
-6.8583 3.0692 -2.4976 0.9688
-6.9184 2.9305 -2.4975 0.9688
-6.9758 2.7906 -2.4974 0.9688
-7.0303 2.6496 -2.4974 0.9688
-7.1308 2.3644 -2.4972 0.9688
-7.3624 1.4880 -2.4968 0.9688
-7.3907 1.3395 -2.4967 0.9688
-7.4159 1.1905 -2.4967 0.9688
-7.4382 1.0410 -2.4966 0.9688
-7.4575 0.8911 -2.4965 0.9688
-7.4870 0.5902 -2.4964 0.9688
-7.5096 -0.0137 -2.4962 0.9688
-7.5076 -0.1648 -2.4962 0.9688
-7.5027 -0.3159 -2.4961 0.9688
-7.4837 -0.6175 -2.4961 0.9688
-7.4525 -0.9181 -2.4960 0.9688
-7.4325 -1.0679 -2.4960 0.9688
-7.4094 -1.2172 -2.4959 0.9688
-7.3222 -1.6620 -2.4959 0.9688
-7.2873 -1.8090 -2.4959 0.9688
-7.2493 -1.9552 -2.4958 0.9688
-7.1647 -2.2454 -2.4958 0.9688
-7.0161 -2.6735 -2.4958 0.9688
-6.9028 -2.9537 -2.4958 0.9688
-6.8420 -3.0920 -2.4958 0.9688
-6.7784 -3.2291 -2.4958 0.9688
-6.5713 -3.6322 -2.4958 0.9688
-6.4199 -3.8937 -2.4958 0.9688
-6.3403 -4.0222 -2.4959 0.9688
-6.1734 -4.2741 -2.4959 0.9688
-6.0862 -4.3975 -2.4959 0.9688
-5.9965 -4.5191 -2.4959 0.9688
-5.8100 -4.7569 -2.4960 0.9688
-5.7131 -4.8729 -2.4960 0.9688
-5.6140 -4.9869 -2.4961 0.9688
-5.5126 -5.0990 -2.4961 0.9688
-5.0851 -5.5261 -2.4963 0.9688
-4.8588 -5.7265 -2.4964 0.9688
-4.7427 -5.8232 -2.4964 0.9688
-4.5047 -6.0096 -2.4965 0.9688
-4.3830 -6.0992 -2.4966 0.9688
-4.0073 -6.3530 -2.4968 0.9688
-3.8787 -6.4325 -2.4969 0.9688
-3.7486 -6.5094 -2.4969 0.9688
-3.3493 -6.7244 -2.4971 0.9688
-3.0762 -6.8541 -2.4973 0.9688
-2.9377 -6.9148 -2.4974 0.9688
-2.2286 -7.1762 -2.4978 0.9688
-1.9382 -7.2605 -2.4980 0.9688
-1.4967 -7.3651 -2.4982 0.9688
-1.3483 -7.3940 -2.4983 0.9688
-1.1992 -7.4199 -2.4984 0.9688
-0.4479 -7.5043 -2.4989 0.9688
-0.2968 -7.5122 -2.4990 0.9688
0.1570 -7.5173 -2.4994 0.9688
0.3083 -7.5129 -2.4995 0.9688
0.7611 -7.4817 -2.4998 0.9688
0.9116 -7.4651 -2.4999 0.9688
1.3605 -7.3975 -2.5002 0.9688
1.5092 -7.3690 -2.5003 0.9688
1.6572 -7.3375 -2.5005 0.9688
2.0972 -7.2251 -2.5008 0.9688
2.3865 -7.1355 -2.5010 0.9688
2.6719 -7.0343 -2.5013 0.9688
2.9530 -6.9218 -2.5015 0.9688
3.2295 -6.7979 -2.5017 0.9688
3.7663 -6.5175 -2.5022 0.9688
3.8969 -6.4406 -2.5023 0.9688
4.0259 -6.3612 -2.5024 0.9688
4.1533 -6.2792 -2.5025 0.9688
4.2790 -6.1946 -2.5026 0.9688
4.4030 -6.1075 -2.5027 0.9688
4.5252 -6.0180 -2.5029 0.9688
4.7641 -5.8315 -2.5031 0.9688
4.8807 -5.7347 -2.5032 0.9688
4.9953 -5.6356 -2.5033 0.9688
5.3270 -5.3246 -2.5036 0.9688
5.5374 -5.1064 -2.5038 0.9687
5.6393 -4.9941 -2.5039 0.9687
5.7389 -4.8798 -2.5040 0.9687
5.8361 -4.7636 -2.5041 0.9687
5.9311 -4.6454 -2.5042 0.9687
6.0236 -4.5252 -2.5043 0.9687
6.2013 -4.2795 -2.5045 0.9687
6.2864 -4.1540 -2.5046 0.9687
6.5263 -3.7676 -2.5049 0.9687
6.6731 -3.5022 -2.5051 0.9687
6.7425 -3.3673 -2.5052 0.9687
6.8091 -3.2310 -2.5053 0.9687
6.9341 -2.9546 -2.5055 0.9687
6.9924 -2.8146 -2.5055 0.9687
7.0478 -2.6734 -2.5056 0.9687
7.1501 -2.3878 -2.5058 0.9687
7.1969 -2.2435 -2.5058 0.9687
7.2818 -1.9522 -2.5060 0.9687
7.3869 -1.5094 -2.5062 0.9687
7.4421 -1.2110 -2.5063 0.9687
7.4852 -0.9106 -2.5064 0.9687
7.5021 -0.7598 -2.5065 0.9687
7.5161 -0.6087 -2.5066 0.9687
7.5348 -0.3058 -2.5067 0.9687
7.5413 -0.0024 -2.5068 0.9687
7.5399 0.1494 -2.5068 0.9687
7.5281 0.4527 -2.5069 0.9687
7.4873 0.9061 -2.5070 0.9687
7.4450 1.2067 -2.5071 0.9687
7.3589 1.6537 -2.5071 0.9687
7.3241 1.8015 -2.5071 0.9687
7.2864 1.9485 -2.5072 0.9687
7.1557 2.3847 -2.5072 0.9687
0.4022 6.9902 -2.5039 0.9707
0.2614 6.9966 -2.5038 0.9707
-0.1612 6.9988 -2.5035 0.9707
-0.3020 6.9938 -2.5034 0.9707
-0.4426 6.9860 -2.5033 0.9707
-0.5831 6.9754 -2.5032 0.9707
-0.8632 6.9458 -2.5030 0.9707
-1.1419 6.9048 -2.5028 0.9707
-1.6932 6.7895 -2.5023 0.9707
-1.9648 6.7153 -2.5021 0.9707
-2.0995 6.6741 -2.5020 0.9707
-2.2333 6.6302 -2.5019 0.9707
-2.3661 6.5837 -2.5018 0.9707
-2.4981 6.5345 -2.5017 0.9707
-2.6289 6.4826 -2.5016 0.9707
-2.7587 6.4281 -2.5015 0.9707
-2.8874 6.3710 -2.5014 0.9707
-3.2661 6.1844 -2.5011 0.9707
-3.6328 5.9753 -2.5007 0.9707
-3.9863 5.7445 -2.5004 0.9707
-4.6480 5.2212 -2.4998 0.9707
-4.8540 5.0296 -2.4996 0.9707
-4.9540 4.9306 -2.4995 0.9707
-5.0520 4.8298 -2.4994 0.9707
-5.3336 4.5156 -2.4991 0.9707
-5.5957 4.1851 -2.4988 0.9708
-5.8374 3.8394 -2.4986 0.9708
-6.2561 3.1077 -2.4980 0.9708
-6.3172 2.9811 -2.4980 0.9708
-6.3757 2.8533 -2.4979 0.9708
-6.4316 2.7243 -2.4978 0.9708
-6.5356 2.4631 -2.4977 0.9708
-6.6290 2.1980 -2.4975 0.9708
-6.7490 1.7939 -2.4973 0.9708
-6.7836 1.6577 -2.4972 0.9708
-6.8444 1.3833 -2.4971 0.9708
-6.9150 0.9677 -2.4969 0.9708
-6.9329 0.8284 -2.4969 0.9708
-6.9603 0.5487 -2.4968 0.9708
-6.9698 0.4085 -2.4967 0.9708
-6.9804 0.1277 -2.4966 0.9708
-6.9098 -0.9928 -2.4964 0.9708
-6.8883 -1.1316 -2.4963 0.9708
-6.8641 -1.2700 -2.4963 0.9708
-6.7748 -1.6818 -2.4962 0.9708
-6.7395 -1.8177 -2.4962 0.9708
-6.7015 -1.9530 -2.4962 0.9708
-6.6608 -2.0875 -2.4962 0.9708
-6.6175 -2.2210 -2.4962 0.9708
-6.5714 -2.3538 -2.4962 0.9708
-6.4714 -2.6163 -2.4962 0.9708
-6.4174 -2.7460 -2.4962 0.9708
-6.3608 -2.8746 -2.4962 0.9708
-6.2400 -3.1282 -2.4962 0.9708
-6.1758 -3.2531 -2.4962 0.9708
-6.1092 -3.3768 -2.4962 0.9708
-5.8180 -3.8572 -2.4963 0.9708
-5.7392 -3.9735 -2.4963 0.9708
-5.6582 -4.0882 -2.4963 0.9708
-5.3113 -4.5302 -2.4964 0.9708
-5.2192 -4.6362 -2.4965 0.9708
-5.1249 -4.7403 -2.4965 0.9708
-5.0285 -4.8426 -2.4965 0.9708
-4.9301 -4.9429 -2.4966 0.9708
-4.6231 -5.2316 -2.4967 0.9708
-4.0746 -5.6701 -2.4969 0.9708
-3.9598 -5.7511 -2.4970 0.9708
-3.8434 -5.8298 -2.4971 0.9708
-3.7253 -5.9061 -2.4971 0.9708
-3.6058 -5.9800 -2.4972 0.9708
-3.2387 -6.1871 -2.4974 0.9708
-3.1136 -6.2512 -2.4974 0.9708
-2.9873 -6.3128 -2.4975 0.9708
-2.8597 -6.3718 -2.4976 0.9708
-2.7310 -6.4283 -2.4977 0.9708
-2.4703 -6.5334 -2.4978 0.9708
-2.3384 -6.5820 -2.4979 0.9708
-2.0718 -6.6711 -2.4980 0.9708
-1.9372 -6.7117 -2.4981 0.9708
-1.8018 -6.7496 -2.4982 0.9708
-1.3914 -6.8467 -2.4985 0.9708
-1.1148 -6.8976 -2.4986 0.9708
-0.6967 -6.9531 -2.4989 0.9708
-0.4164 -6.9760 -2.4991 0.9707
-0.2759 -6.9832 -2.4992 0.9707
0.0053 -6.9892 -2.4994 0.9707
0.2866 -6.9839 -2.4996 0.9707
0.4271 -6.9770 -2.4997 0.9707
0.5674 -6.9673 -2.4998 0.9707
0.7075 -6.9547 -2.4999 0.9707
1.2646 -6.8764 -2.5003 0.9707
1.8138 -6.7536 -2.5007 0.9707
2.4836 -6.5386 -2.5013 0.9707
2.6148 -6.4876 -2.5014 0.9707
2.7450 -6.4340 -2.5015 0.9707
2.8740 -6.3777 -2.5016 0.9707
3.0019 -6.3188 -2.5017 0.9707
3.1285 -6.2574 -2.5018 0.9707
3.2540 -6.1935 -2.5019 0.9707
3.3781 -6.1270 -2.5020 0.9707
3.6222 -5.9866 -2.5022 0.9707
3.7421 -5.9128 -2.5023 0.9707
4.3180 -5.5081 -2.5029 0.9707
4.4282 -5.4203 -2.5030 0.9707
4.5365 -5.3303 -2.5031 0.9707
4.6431 -5.2382 -2.5032 0.9707
4.7477 -5.1439 -2.5033 0.9707
4.8505 -5.0475 -2.5034 0.9707
5.0501 -4.8486 -2.5036 0.9707
5.1468 -4.7462 -2.5037 0.9707
5.2415 -4.6419 -2.5038 0.9707
5.3341 -4.5356 -2.5039 0.9707
5.4244 -4.4275 -2.5040 0.9707
5.5986 -4.2060 -2.5041 0.9707
5.9196 -3.7427 -2.5045 0.9707
6.0658 -3.5017 -2.5047 0.9707
6.2667 -3.1297 -2.5049 0.9707
6.6454 -2.2193 -2.5055 0.9707
6.6889 -2.0851 -2.5055 0.9707
6.7297 -1.9502 -2.5056 0.9707
6.9167 -1.1255 -2.5060 0.9707
6.9724 -0.7062 -2.5062 0.9707
6.9854 -0.5657 -2.5062 0.9707
6.9955 -0.4251 -2.5063 0.9707
7.0028 -0.2842 -2.5063 0.9707
7.0072 -0.1432 -2.5063 0.9707
7.0034 0.2798 -2.5065 0.9707
6.9867 0.5614 -2.5065 0.9707
6.9741 0.7019 -2.5066 0.9707
6.9586 0.8421 -2.5066 0.9707
6.9192 1.1215 -2.5067 0.9707
6.8954 1.2605 -2.5067 0.9707
6.8392 1.5370 -2.5067 0.9707
6.8069 1.6743 -2.5067 0.9707
6.7719 1.8109 -2.5068 0.9707
6.7341 1.9469 -2.5068 0.9707
6.6504 2.2163 -2.5068 0.9707
0.5065 6.5139 -2.5038 0.9724
0.3753 6.5226 -2.5037 0.9724
-0.1504 6.5307 -2.5033 0.9724
-0.2818 6.5261 -2.5032 0.9724
-0.4131 6.5189 -2.5031 0.9724
-0.5441 6.5090 -2.5031 0.9724
-0.9358 6.4635 -2.5028 0.9724
-1.0656 6.4431 -2.5027 0.9724
-1.1950 6.4202 -2.5026 0.9724
-1.5800 6.3356 -2.5023 0.9724
-1.7071 6.3023 -2.5022 0.9724
-1.8335 6.2664 -2.5021 0.9724
-2.2080 6.1436 -2.5018 0.9724
-2.3311 6.0977 -2.5017 0.9724
-2.5743 5.9985 -2.5015 0.9724
-2.6944 5.9453 -2.5014 0.9724
-2.8134 5.8896 -2.5013 0.9724
-2.9312 5.8316 -2.5012 0.9724
-3.0479 5.7711 -2.5011 0.9724
-3.6115 5.4347 -2.5006 0.9724
-3.7200 5.3607 -2.5005 0.9724
-4.1383 5.0434 -2.5001 0.9724
-4.2388 4.9590 -2.5000 0.9724
-4.3376 4.8725 -2.4999 0.9724
-4.5298 4.6937 -2.4997 0.9724
-4.7146 4.5072 -2.4995 0.9724
-4.8919 4.3136 -2.4994 0.9724
-4.9775 4.2141 -2.4993 0.9724
-5.0611 4.1129 -2.4992 0.9725
-5.1426 4.0101 -2.4991 0.9725
-5.2221 3.9057 -2.4990 0.9725
-5.5185 3.4726 -2.4987 0.9725
-5.7175 3.1330 -2.4984 0.9725
-5.8385 2.9003 -2.4983 0.9725
-6.0024 2.5425 -2.4980 0.9725
-6.0521 2.4211 -2.4980 0.9725
-6.2265 1.9264 -2.4977 0.9725
-6.3310 1.5471 -2.4975 0.9725
-6.3878 1.2910 -2.4974 0.9725
-6.4123 1.1622 -2.4974 0.9725
-6.4343 1.0329 -2.4973 0.9725
-6.4536 0.9032 -2.4972 0.9725
-6.4845 0.6427 -2.4971 0.9725
-6.4960 0.5121 -2.4971 0.9725
-6.5048 0.3813 -2.4971 0.9725
-6.5147 0.1192 -2.4970 0.9725
-6.5157 -0.0119 -2.4969 0.9725
-6.5140 -0.1430 -2.4969 0.9725
-6.5028 -0.4050 -2.4968 0.9725
-6.4932 -0.5357 -2.4968 0.9725
-6.4811 -0.6663 -2.4968 0.9725
-6.4289 -1.0561 -2.4967 0.9725
-6.3810 -1.3139 -2.4966 0.9725
-6.3532 -1.4421 -2.4966 0.9725
-6.2900 -1.6965 -2.4966 0.9725
-6.2546 -1.8227 -2.4966 0.9725
-6.2166 -1.9482 -2.4966 0.9725
-6.1761 -2.0729 -2.4965 0.9725
-6.1331 -2.1968 -2.4965 0.9725
-6.0877 -2.3197 -2.4965 0.9725
-6.0397 -2.4418 -2.4965 0.9725
-5.9366 -2.6828 -2.4965 0.9725
-5.8238 -2.9195 -2.4965 0.9725
-5.7639 -3.0361 -2.4965 0.9725
-5.7017 -3.1515 -2.4966 0.9725
-5.6371 -3.2656 -2.4966 0.9725
-5.3564 -3.7085 -2.4966 0.9725
-5.2808 -3.8155 -2.4967 0.9725
-5.2029 -3.9211 -2.4967 0.9725
-5.0411 -4.1273 -2.4967 0.9725
-4.8710 -4.3269 -2.4968 0.9725
-4.6931 -4.5196 -2.4969 0.9725
-4.4120 -4.7947 -2.4970 0.9725
-4.3147 -4.8826 -2.4970 0.9725
-3.6956 -5.3674 -2.4973 0.9725
-2.9059 -5.8341 -2.4977 0.9725
-2.7879 -5.8915 -2.4978 0.9725
-2.4276 -6.0495 -2.4980 0.9725
-2.1823 -6.1426 -2.4981 0.9725
-2.0583 -6.1855 -2.4982 0.9725
-1.9335 -6.2259 -2.4983 0.9725
-1.5545 -6.3318 -2.4985 0.9725
-1.2985 -6.3896 -2.4987 0.9725
-1.1697 -6.4146 -2.4988 0.9725
-0.9107 -6.4570 -2.4989 0.9725
-0.6502 -6.4888 -2.4991 0.9725
-0.5195 -6.5008 -2.4992 0.9725
-0.3886 -6.5102 -2.4993 0.9724
-0.2575 -6.5169 -2.4994 0.9724
-0.1263 -6.5210 -2.4994 0.9724
0.2674 -6.5175 -2.4997 0.9724
0.7908 -6.4758 -2.5001 0.9724
1.3091 -6.3923 -2.5005 0.9724
1.4376 -6.3649 -2.5006 0.9724
1.5654 -6.3349 -2.5007 0.9724
1.9450 -6.2297 -2.5010 0.9724
2.0701 -6.1895 -2.5011 0.9724
2.4400 -6.0541 -2.5014 0.9724
2.5615 -6.0040 -2.5015 0.9724
2.6819 -5.9515 -2.5016 0.9724
2.8012 -5.8965 -2.5017 0.9724
3.2668 -5.6531 -2.5021 0.9724
3.3801 -5.5864 -2.5022 0.9724
3.4919 -5.5175 -2.5023 0.9724
3.6024 -5.4463 -2.5024 0.9724
3.7114 -5.3729 -2.5025 0.9724
4.0293 -5.1398 -2.5028 0.9724
4.1321 -5.0579 -2.5029 0.9724
4.7123 -4.5243 -2.5034 0.9724
4.8026 -4.4287 -2.5035 0.9724
5.1439 -4.0288 -2.5039 0.9724
5.2241 -3.9246 -2.5040 0.9724
5.3022 -3.8188 -2.5041 0.9724
5.3781 -3.7115 -2.5041 0.9724
5.5235 -3.4923 -2.5043 0.9724
5.5928 -3.3805 -2.5044 0.9724
5.7247 -3.1530 -2.5045 0.9724
5.7872 -3.0372 -2.5046 0.9724
5.8473 -2.9203 -2.5047 0.9724
6.0134 -2.5623 -2.5049 0.9724
6.0639 -2.4409 -2.5050 0.9724
6.1576 -2.1950 -2.5051 0.9724
6.2007 -2.0707 -2.5052 0.9724
6.3477 -1.5655 -2.5055 0.9724
6.4059 -1.3089 -2.5056 0.9724
6.4311 -1.1798 -2.5056 0.9724
6.5383 0.1296 -2.5061 0.9724
6.5345 0.2611 -2.5061 0.9724
6.4756 0.9162 -2.5063 0.9724
6.4087 1.3053 -2.5064 0.9724
6.3812 1.4341 -2.5064 0.9724
6.3511 1.5622 -2.5064 0.9724
6.2454 1.9426 -2.5064 0.9724
0.3514 6.1070 -2.5036 0.9739
-0.1408 6.1146 -2.5032 0.9739
-0.2638 6.1103 -2.5031 0.9739
-0.6320 6.0826 -2.5029 0.9739
-0.7542 6.0685 -2.5028 0.9739
-1.1189 6.0113 -2.5025 0.9739
-1.2396 5.9873 -2.5024 0.9739
-1.4794 5.9321 -2.5022 0.9739
-1.8344 5.8314 -2.5019 0.9739
-1.9513 5.7931 -2.5019 0.9739
-2.5229 5.5667 -2.5014 0.9739
-2.6343 5.5147 -2.5013 0.9739
-2.8539 5.4038 -2.5011 0.9739
-3.6821 4.8750 -2.5004 0.9739
-3.8750 4.7225 -2.5002 0.9739
-3.9691 4.6434 -2.5001 0.9739
-4.0616 4.5624 -2.5000 0.9739
-4.2416 4.3950 -2.4998 0.9739
-4.3290 4.3086 -2.4997 0.9739
-4.4147 4.2205 -2.4997 0.9739
-4.4986 4.1306 -2.4996 0.9739
-4.7392 3.8513 -2.4993 0.9740
-4.8155 3.7550 -2.4992 0.9740
-4.8900 3.6573 -2.4992 0.9740
-5.1012 3.3552 -2.4989 0.9740
-5.2318 3.1470 -2.4988 0.9740
-5.3539 2.9338 -2.4986 0.9740
-5.5206 2.6052 -2.4984 0.9740
-5.5718 2.4935 -2.4983 0.9740
-5.6207 2.3808 -2.4983 0.9740
-5.7537 2.0372 -2.4981 0.9740
-5.8307 1.8039 -2.4979 0.9740
-5.8657 1.6862 -2.4979 0.9740
-5.8983 1.5678 -2.4978 0.9740
-5.9563 1.3291 -2.4977 0.9740
-6.0434 0.8458 -2.4975 0.9740
-6.0591 0.7240 -2.4975 0.9740
-6.0723 0.6019 -2.4974 0.9740
-6.0914 0.3571 -2.4973 0.9740
-6.1006 0.1117 -2.4973 0.9740
-6.1000 -0.1339 -2.4972 0.9740
-6.0960 -0.2566 -2.4971 0.9740
-6.0390 -0.8676 -2.4970 0.9740
-6.0203 -0.9890 -2.4970 0.9740
-5.9991 -1.1099 -2.4970 0.9740
-5.8903 -1.5887 -2.4969 0.9740
-5.8571 -1.7069 -2.4969 0.9740
-5.8215 -1.8244 -2.4969 0.9740
-5.7836 -1.9412 -2.4969 0.9740
-5.7434 -2.0572 -2.4969 0.9740
-5.6088 -2.3999 -2.4968 0.9740
-5.5077 -2.6237 -2.4969 0.9740
-5.3393 -2.9512 -2.4969 0.9740
-5.2163 -3.1637 -2.4969 0.9740
-5.0848 -3.3711 -2.4969 0.9740
-5.0160 -3.4728 -2.4969 0.9740
-4.9451 -3.5730 -2.4970 0.9740
-4.8723 -3.6719 -2.4970 0.9740
-4.7207 -3.8650 -2.4970 0.9740
-4.4790 -4.1430 -2.4971 0.9740
-4.3088 -4.3200 -2.4972 0.9740
-4.2211 -4.4058 -2.4972 0.9740
-4.1316 -4.4900 -2.4973 0.9740
-4.0405 -4.5723 -2.4973 0.9740
-3.8534 -4.7313 -2.4974 0.9740
-3.7574 -4.8080 -2.4974 0.9740
-3.5611 -4.9555 -2.4975 0.9740
-3.4607 -5.0262 -2.4976 0.9740
-3.3589 -5.0949 -2.4976 0.9740
