ply
format ascii 1.0
element vertex 1586
property float32 x
property float32 y
property float32 z
property float32 I
end_header
-18.6798 -9.5144 -2.4901 0.9190
-18.4864 -9.8883 -2.4903 0.9190
-18.2854 -10.2583 -2.4905 0.9190
-17.6388 -11.3434 -2.4911 0.9190
-17.4089 -11.6962 -2.4913 0.9190
-17.1721 -12.0445 -2.4915 0.9190
-16.4201 -13.0600 -2.4922 0.9190
-16.1560 -13.3883 -2.4924 0.9190
-14.7396 -14.9474 -2.4936 0.9189
-14.4379 -15.2419 -2.4938 0.9189
-14.1303 -15.5303 -2.4941 0.9189
-13.1737 -16.3579 -2.4949 0.9189
-12.5089 -16.8773 -2.4954 0.9189
-12.1688 -17.1269 -2.4957 0.9189
-11.8237 -17.3696 -2.4959 0.9188
-11.4738 -17.6055 -2.4962 0.9188
16.7054 -5.9729 -2.5137 0.9308
16.8222 -5.6364 -2.5138 0.9308
16.9322 -5.2975 -2.5138 0.9308
17.0353 -4.9565 -2.5138 0.9308
17.3031 -3.9219 -2.5138 0.9308
17.5077 -2.8729 -2.5138 0.9308
17.6087 -2.1676 -2.5138 0.9308
17.6486 -1.8136 -2.5138 0.9308
17.7250 -0.7477 -2.5137 0.9308
17.7369 0.3209 -2.5135 0.9308
17.7088 1.0327 -2.5134 0.9308
17.6840 1.3881 -2.5133 0.9308
17.6130 2.0969 -2.5132 0.9308
17.5668 2.4501 -2.5131 0.9309
17.5134 2.8022 -2.5130 0.9309
17.3109 3.8512 -2.5127 0.9309
17.2294 4.1978 -2.5126 0.9309
17.0454 4.8858 -2.5124 0.9309
16.8339 5.5657 -2.5122 0.9309
16.7179 5.9023 -2.5120 0.9309
16.5951 6.2365 -2.5119 0.9309
16.1869 7.2232 -2.5115 0.9309
14.8142 7.7117 -2.3664 0.9348
14.6038 7.9790 -2.3579 0.9350
14.2698 8.5578 -2.3576 0.9350
14.0941 8.8420 -2.3574 0.9350
13.9128 9.1226 -2.3573 0.9350
13.5333 9.6725 -2.3569 0.9350
13.1321 10.2066 -2.3566 0.9350
12.7097 10.7240 -2.3562 0.9350
12.0381 11.4670 -2.3557 0.9350
11.8045 11.7055 -2.3555 0.9350
11.0755 12.3918 -2.3549 0.9351
9.7733 13.4337 -2.3538 0.9351
9.5007 13.6260 -2.3536 0.9351
7.7995 14.6796 -2.3553 0.9350
7.5043 14.8354 -2.3556 0.9350
6.6000 15.2663 -2.3566 0.9350
6.2928 15.3974 -2.3568 0.9350
5.9830 15.5222 -2.3570 0.9350
5.3558 15.7525 -2.3574 0.9350
5.0387 15.8580 -2.3576 0.9350
2.5038 11.9079 -1.7241 0.9520
3.0967 16.3517 -2.3580 0.9350
1.7242 11.6448 -1.6679 0.9536
1.2492 11.6483 -1.6599 0.9538
0.7780 11.6517 -1.6546 0.9539
0.3090 11.6552 -1.6520 0.9540
0.0749 11.6569 -1.6517 0.9540
-0.1592 11.6586 -1.6520 0.9540
-0.3935 11.6603 -1.6531 0.9540
-1.3366 11.6672 -1.6639 0.9537
-1.8138 11.6674 -1.6730 0.9534
-2.2872 11.6178 -1.6777 0.9533
-2.5212 11.5747 -1.6785 0.9533
-2.7555 11.5316 -1.6799 0.9532
-2.9902 11.4883 -1.6820 0.9532
-3.7219 11.4269 -1.7028 0.9526
-4.2258 11.3981 -1.7224 0.9521
-4.4815 11.3811 -1.7331 0.9518
-4.9596 11.2481 -1.7418 0.9516
-5.2004 11.1805 -1.7471 0.9514
-5.4426 11.1121 -1.7532 0.9512
-5.6864 11.0429 -1.7599 0.9511
-7.8678 14.5534 -2.3441 0.9353
-8.4400 14.2160 -2.3425 0.9354
-9.2740 13.6723 -2.3408 0.9354
-9.5461 13.4824 -2.3407 0.9354
-10.0784 13.0866 -2.3404 0.9354
-10.3385 12.8807 -2.3402 0.9355
-10.5944 12.6698 -2.3401 0.9355
-11.0933 12.2327 -2.3398 0.9355
-11.5742 11.7761 -2.3395 0.9355
-11.8077 11.5407 -2.3394 0.9355
-12.2603 11.0561 -2.3392 0.9355
-12.4792 10.8072 -2.3391 0.9355
-12.6931 10.5539 -2.3390 0.9355
-12.9019 10.2965 -2.3388 0.9355
-13.4968 9.4998 -2.3386 0.9355
-13.8663 8.9496 -2.3384 0.9355
-14.0427 8.6690 -2.3383 0.9355
-14.2135 8.3850 -2.3382 0.9355
-14.8785 7.2359 -2.3442 0.9353
-16.3659 6.3917 -2.4894 0.9315
-16.4907 6.0617 -2.4894 0.9315
-16.7204 5.3945 -2.4893 0.9315
-16.8252 5.0576 -2.4893 0.9315
-16.9232 4.7187 -2.4893 0.9315
-17.0145 4.3779 -2.4893 0.9315
-17.2471 3.3455 -2.4893 0.9315
-17.3109 2.9986 -2.4893 0.9315
-17.3676 2.6504 -2.4893 0.9315
-17.4175 2.3011 -2.4893 0.9315
-17.5250 1.2483 -2.4894 0.9315
-17.5467 0.8961 -2.4894 0.9315
-17.5692 0.1909 -2.4895 0.9315
-17.5698 -0.1620 -2.4896 0.9315
-17.5634 -0.5148 -2.4896 0.9315
-17.5295 -1.2196 -2.4897 0.9315
-17.4674 -1.9226 -2.4899 0.9315
-17.4258 -2.2730 -2.4900 0.9315
-17.3772 -2.6226 -2.4900 0.9315
-17.3216 -2.9711 -2.4901 0.9315
-17.0301 -4.3521 -2.4905 0.9315
-16.9400 -4.6934 -2.4906 0.9314
-16.7395 -5.3703 -2.4909 0.9314
-16.2580 -6.6975 -2.4914 0.9314
-15.6718 -7.9823 -2.4920 0.9314
-15.5093 -8.2959 -2.4921 0.9314
-14.9846 -9.2165 -2.4926 0.9314
-14.6045 -9.8121 -2.4930 0.9314
-14.2008 -10.3921 -2.4933 0.9314
-13.9903 -10.6759 -2.4935 0.9314
-13.7741 -10.9555 -2.4937 0.9314
-13.5524 -11.2307 -2.4939 0.9314
-12.8547 -12.0292 -2.4945 0.9313
-12.6115 -12.2858 -2.4947 0.9313
-12.1101 -12.7845 -2.4951 0.9313
-11.5889 -13.2626 -2.4955 0.9313
-10.4911 -14.1547 -2.4964 0.9313
-10.2056 -14.3638 -2.4966 0.9313
-9.9160 -14.5672 -2.4968 0.9313
-9.6224 -14.7647 -2.4971 0.9313
14.4586 -4.8444 -2.5120 0.9401
14.6417 -4.2600 -2.5121 0.9401
15.0477 -2.4692 -2.5121 0.9401
15.1346 -1.8630 -2.5121 0.9401
15.2346 -0.6426 -2.5120 0.9401
15.2442 -0.3366 -2.5119 0.9401
15.2476 -0.0304 -2.5119 0.9401
15.2449 0.2758 -2.5118 0.9401
15.2360 0.5818 -2.5118 0.9401
15.2209 0.8876 -2.5117 0.9401
15.1387 1.8023 -2.5116 0.9401
15.0991 2.1059 -2.5115 0.9401
15.0533 2.4086 -2.5114 0.9401
14.8795 3.3102 -2.5112 0.9401
14.6515 4.1996 -2.5109 0.9401
14.4699 4.7841 -2.5107 0.9401
14.3703 5.0735 -2.5106 0.9401
13.9143 6.2090 -2.5101 0.9401
13.7861 6.4869 -2.5100 0.9401
13.5131 7.0344 -2.5097 0.9401
13.1900 7.5543 -2.5041 0.9402
12.8320 7.6956 -2.4649 0.9411
12.2896 7.7100 -2.3900 0.9429
11.6343 8.3153 -2.3558 0.9437
11.2896 8.7746 -2.3555 0.9437
10.7387 9.4365 -2.3551 0.9437
10.5463 9.6496 -2.3549 0.9437
10.3497 9.8587 -2.3547 0.9437
10.1490 10.0639 -2.3546 0.9437
9.7353 10.4617 -2.3542 0.9437
9.5226 10.6543 -2.3541 0.9437
8.8618 11.2058 -2.3535 0.9437
8.6344 11.3806 -2.3534 0.9437
8.4034 11.5508 -2.3532 0.9437
8.1692 11.7163 -2.3530 0.9437
7.2004 12.3301 -2.3522 0.9438
6.9508 12.4712 -2.3521 0.9438
6.6984 12.6073 -2.3519 0.9438
6.4434 12.7382 -2.3517 0.9438
5.9258 12.9845 -2.3513 0.9438
5.6634 13.0998 -2.3511 0.9438
4.8632 13.4136 -2.3505 0.9438
4.0457 13.6786 -2.3499 0.9438
2.5084 11.9297 -2.0083 0.9518
2.3717 14.0625 -2.3494 0.9438
1.7242 11.6449 -1.9393 0.9534
1.2492 11.6483 -1.9299 0.9536
0.7780 11.6518 -1.9238 0.9538
0.5433 11.6535 -1.9219 0.9538
0.3090 11.6552 -1.9207 0.9538
0.0749 11.6569 -1.9204 0.9538
-0.3935 11.6603 -1.9220 0.9538
-0.6282 11.6621 -1.9240 0.9538
-1.5748 11.6690 -1.9398 0.9534
-1.8138 11.6676 -1.9452 0.9533
-2.0534 11.6610 -1.9506 0.9531
-2.7555 11.5317 -1.9532 0.9531
-2.9902 11.4884 -1.9556 0.9530
-3.4620 11.4015 -1.9629 0.9528
-4.1905 11.3028 -1.9859 0.9523
-4.4251 11.2378 -1.9897 0.9522
-4.8968 11.1058 -1.9995 0.9520
-5.9987 12.8967 -2.3432 0.9440
-7.5024 12.0775 -2.3423 0.9440
-7.9804 11.7651 -2.3420 0.9440
-8.2145 11.6018 -2.3419 0.9440
-8.4453 11.4339 -2.3417 0.9440
-8.8967 11.0844 -2.3415 0.9440
-9.1170 10.9029 -2.3413 0.9440
-9.7554 10.3326 -2.3410 0.9440
-9.9604 10.1342 -2.3409 0.9440
-10.1615 9.9317 -2.3408 0.9440
-10.5511 9.5148 -2.3406 0.9440
-11.2788 8.6362 -2.3402 0.9440
-11.6156 8.1758 -2.3400 0.9440
-12.7188 7.5032 -2.4327 0.9419
-12.9894 7.3153 -2.4559 0.9414
-13.2339 7.1068 -2.4746 0.9409
-13.7294 6.3395 -2.4912 0.9405
-13.9724 5.7829 -2.4912 0.9405
-14.0855 5.5011 -2.4911 0.9405
-14.2947 4.9309 -2.4911 0.9405
-14.6439 3.7679 -2.4910 0.9405
-14.7165 3.4731 -2.4910 0.9405
-14.8989 2.5808 -2.4910 0.9405
-14.9478 2.2811 -2.4910 0.9405
-15.0276 1.6791 -2.4910 0.9405
-15.0831 1.0744 -2.4911 0.9405
-15.1145 0.4679 -2.4911 0.9405
-15.1211 0.1643 -2.4912 0.9405
-15.1216 -0.1394 -2.4912 0.9405
-15.0867 -1.0497 -2.4914 0.9405
-14.9973 -1.9562 -2.4916 0.9405
-14.9075 -2.5570 -2.4917 0.9405
-14.7280 -3.4503 -2.4920 0.9405
-14.5787 -4.0392 -2.4922 0.9405
-14.4952 -4.3312 -2.4923 0.9405
-14.3108 -4.9102 -2.4925 0.9405
-14.2099 -5.1968 -2.4926 0.9405
-14.1034 -5.4813 -2.4927 0.9405
-13.9911 -5.7637 -2.4928 0.9405
-13.8732 -6.0438 -2.4929 0.9405
-13.6207 -6.5966 -2.4932 0.9405
-12.8944 -7.9309 -2.4939 0.9405
-12.7333 -8.1887 -2.4940 0.9405
-12.3958 -8.6944 -2.4943 0.9405
-12.2194 -8.9421 -2.4945 0.9405
-12.0382 -9.1863 -2.4946 0.9405
-10.1972 -11.2075 -2.4962 0.9404
-9.9708 -11.4108 -2.4963 0.9404
-9.7404 -11.6096 -2.4965 0.9404
-9.5060 -11.8037 -2.4967 0.9404
-9.2678 -11.9931 -2.4969 0.9404
-9.0258 -12.1777 -2.4971 0.9404
-8.7801 -12.3575 -2.4973 0.9404
-8.5308 -12.5322 -2.4975 0.9404
12.5778 -4.4971 -2.5107 0.9471
12.7485 -3.9885 -2.5108 0.9471
12.8261 -3.7318 -2.5108 0.9471
13.0843 -2.6906 -2.5108 0.9471
13.2225 -1.8979 -2.5108 0.9471
13.2878 -1.3655 -2.5107 0.9471
13.3125 -1.0983 -2.5107 0.9471
13.3469 0.5097 -2.5105 0.9471
13.3151 1.0452 -2.5104 0.9471
13.2912 1.3123 -2.5104 0.9471
13.0910 2.6376 -2.5100 0.9471
13.0350 2.8999 -2.5100 0.9471
12.9737 3.1609 -2.5099 0.9471
12.6765 4.1912 -2.5095 0.9471
12.5893 4.4447 -2.5094 0.9471
12.4970 4.6964 -2.5093 0.9471
11.8388 6.1629 -2.5087 0.9471
11.5807 6.6326 -2.5084 0.9471
11.3039 7.0916 -2.5082 0.9471
11.1532 7.3131 -2.5068 0.9472
10.3364 7.7058 -2.4233 0.9489
9.9292 7.7172 -2.3637 0.9501
9.7346 7.8845 -2.3546 0.9503
9.5737 8.0780 -2.3545 0.9503
9.4090 8.2681 -2.3543 0.9503
9.2406 8.4549 -2.3542 0.9503
8.8925 8.8180 -2.3539 0.9503
7.7652 9.8191 -2.3530 0.9503
7.5659 9.9724 -2.3528 0.9503
6.7395 10.5444 -2.3522 0.9503
6.0911 10.9288 -2.3517 0.9504
5.8700 11.0481 -2.3515 0.9504
4.9632 11.4802 -2.3508 0.9504
4.7313 11.5767 -2.3507 0.9504
4.4976 11.6685 -2.3505 0.9504
3.7860 11.9155 -2.3500 0.9504
3.5457 11.9882 -2.3498 0.9504
3.3040 12.0561 -2.3496 0.9504
2.7375 11.8338 -2.2830 0.9518
2.3253 12.2787 -2.3489 0.9504
0.7780 11.6518 -2.1950 0.9536
0.5433 11.6535 -2.1928 0.9536
-0.1592 11.6587 -2.1916 0.9537
-0.6282 11.6621 -2.1952 0.9536
-1.0996 11.6655 -2.2024 0.9534
-1.5748 11.6690 -2.2132 0.9532
-1.7362 8.8188 -1.6894 0.9641
-3.1429 12.0750 -2.3452 0.9505
-3.3845 12.0086 -2.3451 0.9505
-3.6247 11.9375 -2.3449 0.9505
-3.8634 11.8615 -2.3448 0.9505
-4.1006 11.7808 -2.3446 0.9505
-4.3360 11.6953 -2.3445 0.9505
-4.5697 11.6052 -2.3443 0.9505
-4.8015 11.5104 -2.3442 0.9505
-5.0314 11.4109 -2.3440 0.9505
-5.2592 11.3069 -2.3439 0.9505
-5.4849 11.1984 -2.3438 0.9505
-5.7083 11.0853 -2.3436 0.9505
-5.9294 10.9679 -2.3435 0.9505
-6.1481 10.8460 -2.3434 0.9505
-6.9971 10.3155 -2.3429 0.9505
-7.4048 10.0252 -2.3426 0.9505
-7.8007 9.7188 -2.3424 0.9505
-7.9939 9.5598 -2.3423 0.9505
-8.1839 9.3969 -2.3422 0.9505
-8.7336 8.8860 -2.3419 0.9506
-9.0827 8.5275 -2.3417 0.9506
-9.5786 7.9643 -2.3414 0.9506
-9.7362 7.7701 -2.3414 0.9506
-10.0312 7.6809 -2.3747 0.9499
-10.6033 7.4632 -2.4372 0.9486
-10.8363 7.3063 -2.4565 0.9482
-11.0585 7.1374 -2.4739 0.9478
-11.2417 6.9399 -2.4832 0.9476
-11.4224 6.7384 -2.4927 0.9475
-11.6834 6.2742 -2.4926 0.9475
-11.9255 5.7998 -2.4926 0.9475
-12.2525 5.0710 -2.4924 0.9475
-12.3517 4.8239 -2.4924 0.9475
-12.4459 4.5749 -2.4924 0.9475
-12.6193 4.0714 -2.4923 0.9475
-12.6984 3.8171 -2.4923 0.9475
-12.7724 3.5613 -2.4923 0.9475
-12.8413 3.3041 -2.4923 0.9475
-12.9051 3.0456 -2.4923 0.9475
-13.0169 2.5250 -2.4923 0.9475
-13.0650 2.2631 -2.4923 0.9475
-13.1079 2.0003 -2.4923 0.9475
-13.2265 0.9421 -2.4924 0.9475
-13.2429 0.6763 -2.4924 0.9475
-13.2540 0.4103 -2.4924 0.9475
-13.2601 -0.1222 -2.4925 0.9475
-13.2450 -0.6546 -2.4926 0.9475
-13.2294 -0.9204 -2.4926 0.9475
-13.2086 -1.1859 -2.4927 0.9475
-13.1509 -1.7154 -2.4928 0.9475
-13.1141 -1.9792 -2.4929 0.9475
-13.0721 -2.2422 -2.4929 0.9475
-12.9145 -3.0254 -2.4931 0.9474
-12.7835 -3.5418 -2.4933 0.9474
-12.7102 -3.7979 -2.4934 0.9474
-12.5484 -4.3055 -2.4936 0.9474
-12.0561 -5.5428 -2.4941 0.9474
-11.9429 -5.7840 -2.4942 0.9474
-11.8249 -6.0229 -2.4943 0.9474
-11.1643 -7.1797 -2.4949 0.9474
-10.0522 -8.6764 -2.4959 0.9474
-9.8765 -8.8771 -2.4960 0.9474
-9.6968 -9.0741 -2.4962 0.9474
-9.3258 -9.4573 -2.4965 0.9474
-9.1346 -9.6433 -2.4967 0.9474
-8.9397 -9.8254 -2.4968 0.9474
-8.3335 -10.3479 -2.4973 0.9474
-7.6969 -10.8330 -2.4978 0.9473
11.1797 -3.9972 -2.5097 0.9526
11.2579 -3.7720 -2.5097 0.9526
11.4004 -3.3170 -2.5097 0.9526
11.5795 -2.6246 -2.5098 0.9526
11.6299 -2.3915 -2.5098 0.9526
11.6759 -2.1579 -2.5098 0.9526
11.7527 -1.6870 -2.5097 0.9526
11.8327 -0.9763 -2.5097 0.9526
11.8498 -0.7385 -2.5097 0.9526
11.8622 -0.5004 -2.5097 0.9526
11.8697 -0.2621 -2.5096 0.9526
11.8724 -0.0237 -2.5096 0.9526
11.8703 0.2147 -2.5096 0.9526
11.8352 0.9290 -2.5094 0.9526
11.8140 1.1665 -2.5094 0.9526
11.7879 1.4034 -2.5093 0.9526
11.7571 1.6398 -2.5093 0.9526
11.7216 1.8755 -2.5092 0.9526
11.6362 2.3445 -2.5091 0.9526
11.5865 2.5776 -2.5090 0.9526
11.5321 2.8097 -2.5090 0.9526
11.2680 3.7255 -2.5086 0.9526
11.1906 3.9509 -2.5086 0.9526
11.1086 4.1747 -2.5085 0.9526
11.0221 4.3967 -2.5084 0.9526
10.9312 4.6170 -2.5083 0.9526
10.7362 5.0518 -2.5081 0.9526
10.6321 5.2661 -2.5080 0.9526
10.5238 5.4783 -2.5079 0.9527
10.4112 5.6883 -2.5078 0.9527
10.0485 6.3040 -2.5074 0.9527
9.9195 6.5042 -2.5073 0.9527
9.3617 7.2761 -2.5063 0.9527
8.7621 7.6996 -2.4656 0.9534
8.4259 7.7095 -2.4141 0.9544
7.7461 7.9960 -2.3532 0.9555
7.5836 8.1494 -2.3531 0.9555
7.2494 8.4464 -2.3528 0.9555
7.0779 8.5898 -2.3527 0.9555
6.7265 8.8660 -2.3524 0.9555
6.5467 8.9987 -2.3523 0.9555
6.3643 9.1278 -2.3521 0.9555
6.1794 9.2532 -2.3520 0.9555
5.9920 9.3748 -2.3518 0.9555
5.8021 9.4927 -2.3517 0.9555
5.6100 9.6067 -2.3515 0.9555
5.4156 9.7168 -2.3514 0.9555
5.2191 9.8229 -2.3513 0.9555
5.0205 9.9251 -2.3511 0.9555
4.6173 10.1174 -2.3508 0.9556
4.2068 10.2933 -2.3505 0.9556
3.9990 10.3750 -2.3503 0.9556
3.5787 10.5258 -2.3500 0.9556
3.1528 10.6596 -2.3497 0.9556
2.7219 10.7762 -2.3494 0.9556
2.5048 10.8280 -2.3493 0.9556
2.2867 10.8754 -2.3491 0.9556
1.8479 10.9570 -2.3488 0.9556
1.4063 11.0209 -2.3485 0.9556
1.1846 11.0462 -2.3483 0.9556
0.9625 11.0670 -2.3482 0.9556
-0.1516 11.1042 -2.3474 0.9556
-0.3745 11.0982 -2.3473 0.9556
-0.5973 11.0877 -2.3471 0.9556
-0.8197 11.0728 -2.3470 0.9556
-1.0419 11.0534 -2.3468 0.9556
-1.7301 8.7877 -1.8932 0.9640
-2.5791 10.7937 -2.3458 0.9556
-2.7952 10.7391 -2.3457 0.9556
-3.2238 10.6170 -2.3454 0.9557
-3.4361 10.5495 -2.3453 0.9557
-3.6470 10.4778 -2.3451 0.9557
-5.6607 9.5347 -2.3439 0.9557
-6.0385 9.2988 -2.3437 0.9557
-6.2237 9.1753 -2.3436 0.9557
-6.9386 8.6448 -2.3431 0.9557
-7.1105 8.5034 -2.3430 0.9557
-7.4456 8.2104 -2.3429 0.9557
-7.7687 7.9042 -2.3427 0.9557
-8.1774 7.6776 -2.3710 0.9552
-8.8945 7.3955 -2.4451 0.9538
-9.1014 7.2634 -2.4614 0.9535
-9.2978 7.1193 -2.4753 0.9533
-9.4687 6.9531 -2.4832 0.9531
-9.7824 6.5957 -2.4939 0.9529
-9.9126 6.3978 -2.4938 0.9529
-10.1610 5.9943 -2.4937 0.9529
-10.3931 5.5813 -2.4936 0.9529
-10.7097 4.9451 -2.4935 0.9529
-10.8067 4.7290 -2.4935 0.9529
-10.8994 4.5110 -2.4934 0.9529
-10.9876 4.2912 -2.4934 0.9529
-11.1509 3.8465 -2.4934 0.9529
-11.2258 3.6218 -2.4933 0.9529
-11.2962 3.3956 -2.4933 0.9529
-11.3620 3.1681 -2.4933 0.9529
-11.4800 2.7093 -2.4933 0.9529
-11.5321 2.4782 -2.4933 0.9529
-11.5795 2.2462 -2.4933 0.9529
-11.6223 2.0132 -2.4933 0.9529
-11.6604 1.7794 -2.4933 0.9529
-11.6938 1.5449 -2.4933 0.9529
-11.7226 1.3098 -2.4933 0.9529
-11.7466 1.0742 -2.4934 0.9529
-11.7804 0.6017 -2.4934 0.9529
-11.7913 -0.3456 -2.4935 0.9529
-11.6657 -1.7606 -2.4938 0.9529
-11.6282 -1.9945 -2.4939 0.9529
-11.5861 -2.2277 -2.4939 0.9529
-11.5394 -2.4599 -2.4940 0.9529
-11.4319 -2.9214 -2.4941 0.9529
-11.3713 -3.1505 -2.4942 0.9529
-11.3061 -3.3783 -2.4943 0.9529
-11.0000 -4.2752 -2.4946 0.9529
-10.9124 -4.4954 -2.4947 0.9529
-10.6232 -5.1448 -2.4950 0.9529
-10.4089 -5.5677 -2.4952 0.9529
-10.1778 -5.9817 -2.4954 0.9529
-10.0561 -6.1851 -2.4955 0.9529
-9.9303 -6.3861 -2.4957 0.9529
-9.8005 -6.5845 -2.4958 0.9529
-9.3877 -7.1637 -2.4961 0.9529
-8.7844 -7.8955 -2.4966 0.9529
-8.1243 -8.5767 -2.4972 0.9528
-7.4116 -9.2031 -2.4978 0.9528
-7.2258 -9.3506 -2.4979 0.9528
-6.6509 -9.7705 -2.4984 0.9528
10.0518 -3.5939 -2.5089 0.9571
10.2501 -2.9823 -2.5089 0.9571
10.3080 -2.7759 -2.5089 0.9571
10.4112 -2.3598 -2.5089 0.9571
10.4565 -2.1502 -2.5089 0.9571
10.4975 -1.9398 -2.5089 0.9571
10.6192 -1.0912 -2.5089 0.9571
10.6653 -0.4499 -2.5088 0.9571
10.6727 0.1931 -2.5087 0.9571
10.6665 0.4073 -2.5087 0.9571
10.6412 0.8353 -2.5086 0.9571
10.6221 1.0488 -2.5086 0.9571
10.5987 1.2618 -2.5085 0.9571
10.5711 1.4744 -2.5085 0.9571
10.3688 2.5263 -2.5082 0.9571
10.3157 2.7339 -2.5081 0.9571
10.2585 2.9404 -2.5081 0.9571
9.9106 3.9533 -2.5077 0.9571
9.6536 4.5424 -2.5074 0.9571
9.4627 4.9260 -2.5072 0.9571
9.2566 5.3015 -2.5070 0.9571
9.1479 5.4861 -2.5069 0.9571
9.0355 5.6685 -2.5068 0.9571
8.9195 5.8485 -2.5067 0.9571
8.6767 6.2014 -2.5065 0.9571
8.5501 6.3741 -2.5064 0.9571
8.2865 6.7116 -2.5062 0.9571
8.1497 6.8764 -2.5061 0.9571
8.0095 7.0383 -2.5059 0.9571
7.7143 7.3484 -2.5040 0.9572
7.5574 7.4940 -2.5014 0.9572
7.3979 7.6365 -2.4988 0.9573
6.0490 7.9729 -2.3521 0.9597
5.8873 8.0924 -2.3520 0.9597
5.7233 8.2085 -2.3518 0.9597
5.3885 8.4308 -2.3516 0.9597
5.2179 8.5368 -2.3514 0.9597
5.0451 8.6393 -2.3513 0.9597
4.8703 8.7384 -2.3512 0.9597
3.9687 9.1800 -2.3505 0.9597
3.7834 9.2573 -2.3504 0.9597
3.4082 9.4006 -2.3501 0.9597
3.2186 9.4666 -2.3499 0.9597
3.0277 9.5287 -2.3498 0.9598
2.8355 9.5871 -2.3497 0.9598
2.6423 9.6415 -2.3495 0.9598
2.0567 9.7813 -2.3491 0.9598
1.4637 9.8857 -2.3487 0.9598
1.0655 9.9353 -2.3484 0.9598
0.8657 9.9541 -2.3483 0.9598
0.0642 9.9891 -2.3477 0.9598
-0.5372 9.9731 -2.3473 0.9598
-0.9371 9.9424 -2.3470 0.9598
-1.3354 9.8956 -2.3468 0.9598
-1.5338 9.8663 -2.3466 0.9598
-1.7315 9.8329 -2.3465 0.9598
-1.7283 8.7788 -2.1028 0.9639
-2.3200 9.7093 -2.3461 0.9598
-2.5144 9.6602 -2.3460 0.9598
-2.8999 9.5504 -2.3458 0.9598
-3.4691 9.3571 -2.3454 0.9598
-3.8417 9.2093 -2.3452 0.9598
-4.7443 8.7758 -2.3446 0.9598
-4.9194 8.6783 -2.3445 0.9598
-5.2634 8.4731 -2.3443 0.9598
-5.4323 8.3653 -2.3442 0.9598
-5.7633 8.1398 -2.3440 0.9598
-6.0850 7.9012 -2.3438 0.9599
-6.2422 7.7771 -2.3437 0.9599
-6.5664 7.5397 -2.3498 0.9597
-7.0077 7.1300 -2.3496 0.9598
-7.6612 7.1929 -2.4698 0.9577
-7.8317 7.0625 -2.4785 0.9576
-7.9932 6.9222 -2.4851 0.9575
-8.1527 6.7787 -2.4919 0.9574
-8.5560 6.2829 -2.4948 0.9573
-8.6802 6.1096 -2.4947 0.9573
-8.9181 5.7559 -2.4946 0.9573
-9.0317 5.5756 -2.4946 0.9573
-9.1417 5.3930 -2.4945 0.9573
-9.3505 5.0214 -2.4944 0.9573
-9.4493 4.8325 -2.4944 0.9573
-9.5443 4.6418 -2.4943 0.9573
-9.6355 4.4491 -2.4943 0.9573
-9.8855 3.8608 -2.4942 0.9573
-9.9609 3.6615 -2.4942 0.9573
-10.0324 3.4607 -2.4942 0.9573
-10.0998 3.2585 -2.4942 0.9573
-10.2224 2.8503 -2.4941 0.9573
-10.3285 2.4375 -2.4941 0.9573
-10.3754 2.2297 -2.4941 0.9573
-10.5209 1.3900 -2.4941 0.9573
-10.5683 0.9664 -2.4942 0.9573
-10.6122 0.1153 -2.4943 0.9573
-10.6125 -0.0978 -2.4943 0.9573
-10.6003 -0.5239 -2.4944 0.9573
-10.5878 -0.7367 -2.4944 0.9573
-10.5501 -1.1612 -2.4945 0.9573
-10.4616 -1.7944 -2.4946 0.9573
-10.4237 -2.0042 -2.4947 0.9573
-10.3354 -2.4212 -2.4948 0.9573
-10.2303 -2.8344 -2.4949 0.9573
-10.1088 -3.2431 -2.4951 0.9573
-9.9711 -3.6466 -2.4952 0.9573
-9.8962 -3.8462 -2.4953 0.9573
-9.8173 -4.0443 -2.4954 0.9573
-9.7344 -4.2407 -2.4955 0.9573
-9.6476 -4.4355 -2.4956 0.9573
-9.3641 -5.0089 -2.4958 0.9573
-9.1561 -5.3812 -2.4960 0.9573
-8.8166 -5.9235 -2.4963 0.9573
-8.6963 -6.0996 -2.4965 0.9573
-8.4451 -6.4444 -2.4967 0.9573
-8.1803 -6.7789 -2.4969 0.9573
-8.0429 -6.9421 -2.4970 0.9573
-7.9022 -7.1026 -2.4971 0.9573
-7.7584 -7.2602 -2.4973 0.9573
-7.4614 -7.5666 -2.4975 0.9573
-6.1575 -8.6663 -2.4985 0.9573
-5.9826 -8.7887 -2.4987 0.9573
9.3016 -2.7063 -2.5082 0.9608
9.3541 -2.5190 -2.5082 0.9608
9.4028 -2.3307 -2.5082 0.9608
9.6365 -0.9902 -2.5082 0.9608
9.6544 -0.7965 -2.5082 0.9608
9.6684 -0.6025 -2.5082 0.9608
9.6784 -0.4082 -2.5082 0.9608
9.6846 -0.2138 -2.5081 0.9608
9.6868 -0.0193 -2.5081 0.9608
9.6852 0.1752 -2.5081 0.9608
9.6796 0.3697 -2.5080 0.9608
9.6701 0.5639 -2.5080 0.9608
9.6566 0.7580 -2.5080 0.9608
9.5930 1.3380 -2.5078 0.9608
9.5640 1.5303 -2.5078 0.9608
9.5312 1.7220 -2.5077 0.9608
9.4945 1.9130 -2.5077 0.9608
9.4540 2.1032 -2.5076 0.9608
9.3095 2.6684 -2.5075 0.9608
9.1312 3.2238 -2.5073 0.9608
8.9939 3.5877 -2.5071 0.9608
8.8421 3.9456 -2.5070 0.9608
8.7608 4.1223 -2.5069 0.9608
8.5876 4.4704 -2.5067 0.9608
8.4958 4.6418 -2.5066 0.9608
8.4006 4.8113 -2.5065 0.9608
8.2000 5.1443 -2.5064 0.9608
7.9862 5.4690 -2.5062 0.9608
7.7596 5.7848 -2.5060 0.9608
7.6416 5.9392 -2.5059 0.9608
7.5204 6.0912 -2.5058 0.9608
7.3963 6.2407 -2.5056 0.9608
6.7320 6.9491 -2.5051 0.9608
6.5908 7.0826 -2.5050 0.9608
6.4469 7.2132 -2.5049 0.9608
6.2967 7.3364 -2.5032 0.9608
6.1429 7.4550 -2.5011 0.9609
5.9869 7.5705 -2.4990 0.9609
5.1522 7.7151 -2.4020 0.9624
4.7359 7.7482 -2.3512 0.9632
3.9343 8.1818 -2.3506 0.9632
3.7691 8.2587 -2.3505 0.9632
3.4340 8.4025 -2.3502 0.9632
3.0936 8.5327 -2.3500 0.9632
2.9215 8.5927 -2.3499 0.9632
2.7482 8.6491 -2.3497 0.9632
2.2221 8.7975 -2.3494 0.9632
1.8669 8.8786 -2.3491 0.9632
1.6881 8.9139 -2.3490 0.9632
1.5087 8.9455 -2.3489 0.9632
1.1482 8.9979 -2.3486 0.9632
0.9672 9.0186 -2.3485 0.9632
0.7859 9.0357 -2.3483 0.9632
0.6042 9.0492 -2.3482 0.9632
0.4224 9.0591 -2.3481 0.9632
0.0583 9.0677 -2.3478 0.9632
-0.1238 9.0666 -2.3477 0.9632
-0.3058 9.0618 -2.3476 0.9632
-0.4877 9.0534 -2.3475 0.9632
-0.6693 9.0413 -2.3474 0.9632
-0.8507 9.0255 -2.3472 0.9632
-1.3924 8.9566 -2.3469 0.9632
-1.5719 8.9264 -2.3468 0.9632
-1.9104 8.7708 -2.3242 0.9636
-2.4581 8.7217 -2.3462 0.9633
-2.6326 8.6702 -2.3461 0.9633
-2.8061 8.6152 -2.3460 0.9633
-2.9784 8.5567 -2.3459 0.9633
-3.4877 8.3607 -2.3455 0.9633
-3.6547 8.2886 -2.3454 0.9633
-4.1466 8.0525 -2.3451 0.9633
-4.3073 7.9673 -2.3450 0.9633
-4.4662 7.8789 -2.3449 0.9633
-4.8040 7.7336 -2.3572 0.9631
-5.2386 7.7231 -2.4163 0.9622
-5.6958 7.7114 -2.4822 0.9612
-5.8686 7.6203 -2.4903 0.9610
-6.0249 7.5065 -2.4922 0.9610
-6.0719 7.2613 -2.4508 0.9616
-6.3463 6.9982 -2.4461 0.9617
-6.5854 6.9751 -2.4837 0.9611
-6.8845 6.7288 -2.4925 0.9610
-7.0274 6.5978 -2.4958 0.9610
-7.2862 6.3100 -2.4956 0.9610
-7.4113 6.1622 -2.4956 0.9610
-7.5333 6.0120 -2.4955 0.9610
-7.6524 5.8594 -2.4955 0.9610
-7.7683 5.7044 -2.4954 0.9610
-7.9907 5.3877 -2.4953 0.9610
-8.0972 5.2261 -2.4952 0.9610
-8.2003 5.0623 -2.4952 0.9610
-8.3002 4.8965 -2.4952 0.9610
-8.3967 4.7288 -2.4951 0.9610
-8.5795 4.3877 -2.4950 0.9610
-8.8278 3.8631 -2.4949 0.9610
-8.9035 3.6850 -2.4949 0.9610
-9.1702 2.9586 -2.4948 0.9610
-9.3779 2.2132 -2.4948 0.9610
-9.4941 1.6446 -2.4948 0.9610
-9.5760 1.0700 -2.4948 0.9610
-9.6114 0.6846 -2.4949 0.9610
-9.6354 0.1047 -2.4949 0.9610
-9.6246 -0.4757 -2.4950 0.9610
-9.5789 -1.0543 -2.4951 0.9610
-9.5292 -1.4382 -2.4952 0.9610
-9.4259 -2.0093 -2.4954 0.9610
-9.2885 -2.5735 -2.4955 0.9610
-9.1781 -2.9445 -2.4957 0.9610
-9.0530 -3.3108 -2.4958 0.9610
-8.9133 -3.6718 -2.4960 0.9610
-8.8380 -3.8502 -2.4960 0.9610
-8.7592 -4.0270 -2.4961 0.9609
-8.5910 -4.3758 -2.4963 0.9609
-8.5017 -4.5475 -2.4964 0.9609
-8.1106 -5.2158 -2.4967 0.9609
-8.0045 -5.3778 -2.4968 0.9609
-7.8952 -5.5377 -2.4969 0.9609
-7.6671 -5.8507 -2.4971 0.9609
-7.4266 -6.1543 -2.4973 0.9609
-7.3018 -6.3025 -2.4974 0.9609
-6.9100 -6.7316 -2.4978 0.9609
-6.7738 -6.8693 -2.4979 0.9609
-6.3488 -7.2657 -2.4982 0.9609
-6.2019 -7.3921 -2.4983 0.9609
-6.0525 -7.5154 -2.4985 0.9609
-5.9007 -7.6358 -2.4986 0.9609
-5.7464 -7.7532 -2.4987 0.9609
-5.5898 -7.8674 -2.4988 0.9609
-5.4310 -7.9784 -2.4989 0.9609
-5.2700 -8.0863 -2.4991 0.9609
8.3990 -2.8141 -2.5076 0.9638
8.6390 -1.9581 -2.5077 0.9638
8.7106 -1.6096 -2.5077 0.9638
8.7412 -1.4344 -2.5077 0.9638
8.7682 -1.2586 -2.5077 0.9638
8.8116 -0.9055 -2.5076 0.9638
8.8407 -0.5509 -2.5076 0.9638
8.8499 -0.3733 -2.5076 0.9638
8.8556 -0.1955 -2.5076 0.9638
8.8576 -0.0176 -2.5075 0.9638
8.8561 0.1602 -2.5075 0.9638
8.8423 0.5157 -2.5074 0.9638
8.8142 0.8703 -2.5074 0.9638
8.7719 1.2234 -2.5073 0.9639
8.7454 1.3993 -2.5073 0.9639
8.6448 1.9232 -2.5071 0.9639
8.5603 2.2687 -2.5070 0.9639
8.5128 2.4400 -2.5069 0.9639
8.4619 2.6104 -2.5069 0.9639
8.4075 2.7797 -2.5068 0.9639
8.1565 3.4450 -2.5066 0.9639
8.0111 3.7696 -2.5064 0.9639
7.6819 4.3997 -2.5061 0.9639
7.5917 4.5529 -2.5060 0.9639
7.4023 4.8537 -2.5058 0.9639
7.3031 5.0012 -2.5058 0.9639
7.2009 5.1466 -2.5057 0.9639
7.0959 5.2900 -2.5056 0.9639
6.9880 5.4312 -2.5055 0.9639
6.8772 5.5702 -2.5054 0.9639
6.7637 5.7070 -2.5053 0.9639
6.6475 5.8414 -2.5052 0.9639
6.5286 5.9735 -2.5051 0.9639
6.4071 6.1031 -2.5050 0.9639
6.1564 6.3549 -2.5048 0.9639
6.0272 6.4770 -2.5047 0.9639
5.7618 6.7132 -2.5045 0.9639
5.4871 6.9385 -2.5042 0.9639
5.0585 7.2550 -2.5038 0.9639
4.6033 7.5313 -2.4988 0.9640
4.0931 7.7037 -2.4696 0.9644
3.8991 7.7083 -2.4455 0.9647
3.3379 7.7208 -2.3812 0.9656
3.1569 7.7245 -2.3623 0.9659
2.9856 7.7458 -2.3500 0.9661
2.6719 7.8587 -2.3498 0.9661
2.5134 7.9104 -2.3497 0.9661
2.1936 8.0041 -2.3495 0.9661
2.0323 8.0461 -2.3493 0.9661
1.0501 8.2296 -2.3486 0.9661
0.8846 8.2487 -2.3485 0.9661
0.3863 8.2857 -2.3482 0.9661
0.2199 8.2914 -2.3481 0.9661
0.0533 8.2938 -2.3480 0.9661
-0.1132 8.2928 -2.3478 0.9661
-0.2797 8.2884 -2.3477 0.9661
-0.4461 8.2807 -2.3476 0.9661
-0.6122 8.2697 -2.3475 0.9661
-1.1089 8.2167 -2.3472 0.9661
-1.2736 8.1924 -2.3471 0.9661
-1.4378 8.1648 -2.3470 0.9661
-1.7643 8.0997 -2.3467 0.9661
-1.9265 8.0623 -2.3466 0.9661
-2.0879 8.0217 -2.3465 0.9661
-2.2484 7.9778 -2.3464 0.9661
-2.4081 7.9307 -2.3463 0.9661
-2.5697 7.8893 -2.3489 0.9661
-2.7243 7.8269 -2.3461 0.9661
-2.8808 7.7703 -2.3460 0.9661
-3.7804 7.7185 -2.4331 0.9649
-3.9724 7.7144 -2.4564 0.9646
-4.3388 7.6542 -2.4908 0.9641
-4.4941 7.5696 -2.4921 0.9641
-4.7998 7.3914 -2.4949 0.9640
-4.9503 7.2979 -2.4964 0.9640
-5.9242 6.5326 -2.4965 0.9640
-6.0540 6.4122 -2.4965 0.9640
-6.1813 6.2892 -2.4964 0.9640
-6.3062 6.1636 -2.4963 0.9640
-6.4285 6.0356 -2.4963 0.9640
-6.6654 5.7723 -2.4961 0.9640
-6.7798 5.6372 -2.4961 0.9640
-6.8914 5.4998 -2.4960 0.9640
-7.1064 5.2184 -2.4959 0.9640
-7.5017 4.6310 -2.4957 0.9640
-7.6813 4.3259 -2.4957 0.9640
-7.8486 4.0139 -2.4956 0.9640
-8.0757 3.5339 -2.4955 0.9640
-8.1450 3.3710 -2.4955 0.9640
-8.3890 2.7066 -2.4954 0.9640
-8.4416 2.5375 -2.4954 0.9640
-8.4908 2.3675 -2.4954 0.9640
-8.5790 2.0247 -2.4954 0.9640
-8.6534 1.6786 -2.4954 0.9640
-8.7138 1.3298 -2.4954 0.9640
-8.7388 1.1545 -2.4954 0.9640
-8.7926 0.6263 -2.4954 0.9640
-8.8035 0.4496 -2.4954 0.9640
-8.7942 -0.6119 -2.4956 0.9640
-8.7803 -0.7883 -2.4956 0.9640
-8.7628 -0.9645 -2.4957 0.9640
-8.7173 -1.3156 -2.4958 0.9640
-8.6893 -1.4904 -2.4958 0.9640
-8.6578 -1.6646 -2.4958 0.9640
-8.5843 -2.0110 -2.4959 0.9640
-8.4970 -2.3542 -2.4961 0.9640
-8.4482 -2.5244 -2.4961 0.9640
-8.3960 -2.6935 -2.4962 0.9640
-8.3404 -2.8617 -2.4962 0.9640
-8.2815 -3.0287 -2.4963 0.9640
-8.2192 -3.1944 -2.4964 0.9640
-8.1536 -3.3589 -2.4964 0.9640
-8.0848 -3.5221 -2.4965 0.9640
-8.0127 -3.6838 -2.4966 0.9640
-7.6922 -4.3154 -2.4969 0.9640
-7.6042 -4.4691 -2.4970 0.9640
-7.5132 -4.6211 -2.4970 0.9640
-7.4192 -4.7712 -2.4971 0.9640
-7.2221 -5.0656 -2.4973 0.9640
-7.1192 -5.2098 -2.4974 0.9640
-6.9048 -5.4918 -2.4976 0.9640
-6.7934 -5.6296 -2.4977 0.9640
-6.4429 -6.0291 -2.4980 0.9640
-6.1961 -6.2835 -2.4982 0.9640
-5.9393 -6.5277 -2.4984 0.9640
-5.8073 -6.6460 -2.4985 0.9640
-5.6729 -6.7615 -2.4986 0.9640
-4.9677 -7.2977 -2.4992 0.9640
7.9119 -1.9611 -2.5072 0.9665
7.9497 -1.8018 -2.5072 0.9665
8.0686 -1.1582 -2.5072 0.9665
8.0902 -0.9959 -2.5072 0.9665
8.1085 -0.8332 -2.5071 0.9665
8.1236 -0.6702 -2.5071 0.9665
8.1448 0.3110 -2.5070 0.9665
8.1369 0.4745 -2.5070 0.9665
8.1256 0.6378 -2.5069 0.9665
8.0932 0.9635 -2.5069 0.9665
8.0721 1.1258 -2.5068 0.9665
8.0477 1.2877 -2.5068 0.9665
8.0201 1.4490 -2.5068 0.9665
7.9552 1.7698 -2.5067 0.9665
7.8774 2.0877 -2.5066 0.9665
7.8337 2.2454 -2.5065 0.9665
7.7869 2.4022 -2.5065 0.9665
7.6838 2.7128 -2.5063 0.9665
7.5060 3.1703 -2.5062 0.9665
7.4406 3.3203 -2.5061 0.9665
7.3722 3.4689 -2.5060 0.9665
7.3009 3.6162 -2.5060 0.9665
7.2266 3.7619 -2.5059 0.9665
7.1494 3.9062 -2.5058 0.9665
6.9864 4.1898 -2.5057 0.9665
6.7208 4.6024 -2.5054 0.9665
6.5301 4.8682 -2.5053 0.9665
6.0082 5.4973 -2.5048 0.9665
5.6657 5.8484 -2.5045 0.9665
5.5469 5.9608 -2.5044 0.9665
5.3026 6.1782 -2.5042 0.9665
5.0499 6.3856 -2.5040 0.9665
4.7890 6.5827 -2.5038 0.9665
4.6557 6.6773 -2.5037 0.9665
4.2447 6.9446 -2.5034 0.9665
3.9621 7.1088 -2.5032 0.9665
3.8184 7.1866 -2.5031 0.9665
3.6728 7.2610 -2.5028 0.9665
3.5245 7.3295 -2.5015 0.9665
3.2243 7.4580 -2.4991 0.9666
3.0725 7.5179 -2.4980 0.9666
2.7658 7.6287 -2.4959 0.9666
2.4473 7.7023 -2.4858 0.9667
2.1124 7.7078 -2.4582 0.9671
1.9475 7.7102 -2.4460 0.9673
1.7841 7.7125 -2.4348 0.9674
1.6221 7.7145 -2.4247 0.9675
1.3017 7.7180 -2.4074 0.9678
1.1430 7.7195 -2.4002 0.9679
0.9852 7.7208 -2.3940 0.9680
0.3601 7.7243 -2.3784 0.9682
0.2048 7.7248 -2.3768 0.9682
0.0497 7.7251 -2.3761 0.9682
-0.1055 7.7252 -2.3763 0.9682
-0.5719 7.7246 -2.3824 0.9681
-0.8848 7.7233 -2.3911 0.9680
-1.0422 7.7224 -2.3968 0.9679
-1.2003 7.7213 -2.4034 0.9678
-1.3595 7.7201 -2.4111 0.9677
-1.5196 7.7186 -2.4197 0.9676
-1.6809 7.7170 -2.4292 0.9675
-1.8435 7.7152 -2.4398 0.9673
-2.3407 7.7087 -2.4779 0.9668
-2.6633 7.6515 -2.4919 0.9667
-2.9703 7.5433 -2.4936 0.9666
-3.2732 7.4235 -2.4954 0.9666
-3.4230 7.3592 -2.4964 0.9666
-3.5716 7.2920 -2.4975 0.9666
-3.7180 7.2203 -2.4979 0.9666
-4.0046 7.0647 -2.4978 0.9666
-4.6919 6.6266 -2.4974 0.9666
-4.8238 6.5308 -2.4973 0.9666
-5.2078 6.2280 -2.4971 0.9666
-5.3317 6.1220 -2.4970 0.9666
-5.4534 6.0135 -2.4969 0.9666
-5.8051 5.6739 -2.4967 0.9666
-6.1358 5.3137 -2.4966 0.9666
-6.2411 5.1893 -2.4965 0.9666
-6.6369 4.6714 -2.4963 0.9666
-6.7292 4.5371 -2.4963 0.9666
-6.9057 4.2631 -2.4962 0.9666
-7.0711 3.9823 -2.4961 0.9666
-7.5588 2.9521 -2.4959 0.9666
-7.7227 2.4916 -2.4959 0.9666
-7.8976 1.8638 -2.4959 0.9666
-7.9334 1.7049 -2.4959 0.9666
-8.0217 1.2242 -2.4959 0.9666
-8.0447 1.0628 -2.4959 0.9666
-8.0644 0.9011 -2.4959 0.9666
-8.0809 0.7390 -2.4959 0.9666
-8.0942 0.5765 -2.4959 0.9666
-8.1109 0.2511 -2.4959 0.9666
-8.1144 0.0882 -2.4960 0.9666
-8.1116 -0.2377 -2.4960 0.9666
-8.0957 -0.5633 -2.4961 0.9666
-8.0828 -0.7257 -2.4961 0.9666
-8.0667 -0.8879 -2.4961 0.9666
-8.0474 -1.0497 -2.4962 0.9666
-8.0248 -1.2111 -2.4962 0.9666
-7.8637 -2.0096 -2.4964 0.9666
-7.7770 -2.3238 -2.4965 0.9666
-7.7289 -2.4796 -2.4966 0.9666
-7.6235 -2.7880 -2.4967 0.9666
-7.4424 -3.2422 -2.4969 0.9666
-7.2342 -3.6847 -2.4971 0.9666
-7.0809 -3.9725 -2.4972 0.9666
-6.9161 -4.2538 -2.4974 0.9666
-6.6481 -4.6629 -2.4976 0.9666
-6.4559 -4.9265 -2.4978 0.9666
-6.2533 -5.1821 -2.4980 0.9666
-6.0407 -5.4294 -2.4982 0.9666
-5.8182 -5.6679 -2.4984 0.9666
-5.3455 -6.1175 -2.4987 0.9666
-5.2218 -6.2238 -2.4988 0.9666
-5.0959 -6.3277 -2.4989 0.9666
7.1009 -2.5389 -2.5067 0.9687
7.1504 -2.3958 -2.5067 0.9687
7.2818 -1.9609 -2.5067 0.9687
7.3197 -1.8143 -2.5067 0.9687
7.3547 -1.6670 -2.5067 0.9687
7.3867 -1.5190 -2.5067 0.9687
7.5016 -0.7709 -2.5067 0.9687
7.5409 -0.0150 -2.5066 0.9687
7.5396 0.1364 -2.5066 0.9687
7.5279 0.4390 -2.5066 0.9687
7.4875 0.8914 -2.5065 0.9687
7.3599 1.6373 -2.5063 0.9687
7.3254 1.7848 -2.5062 0.9687
7.2879 1.9315 -2.5062 0.9687
7.1580 2.3666 -2.5060 0.9687
7.1089 2.5098 -2.5060 0.9687
7.0569 2.6520 -2.5059 0.9687
6.8207 3.2094 -2.5057 0.9687
6.7547 3.3456 -2.5056 0.9687
6.6860 3.4805 -2.5056 0.9687
6.6146 3.6140 -2.5055 0.9687
6.3844 4.0053 -2.5053 0.9687
6.3025 4.1326 -2.5052 0.9687
6.2181 4.2582 -2.5051 0.9687
6.0417 4.5041 -2.5050 0.9687
5.9499 4.6244 -2.5049 0.9687
5.8556 4.7428 -2.5048 0.9687
5.6601 4.9737 -2.5046 0.9687
5.5589 5.0862 -2.5046 0.9687
5.4555 5.1967 -2.5045 0.9687
5.2420 5.4111 -2.5043 0.9687
5.0202 5.6168 -2.5041 0.9687
4.9062 5.7163 -2.5040 0.9687
4.7902 5.8134 -2.5039 0.9687
4.5526 6.0006 -2.5037 0.9687
4.4310 6.0906 -2.5036 0.9688
4.1826 6.2632 -2.5035 0.9688
3.3986 6.7189 -2.5029 0.9688
3.1258 6.8494 -2.5027 0.9688
2.9876 6.9105 -2.5025 0.9688
2.5658 7.0769 -2.5022 0.9688
2.4230 7.1267 -2.5021 0.9688
2.1348 7.2176 -2.5019 0.9688
1.9892 7.2584 -2.5017 0.9688
1.6952 7.3284 -2.5003 0.9688
1.5473 7.3591 -2.4997 0.9688
1.2501 7.4120 -2.4986 0.9688
1.1008 7.4342 -2.4981 0.9688
0.9511 7.4535 -2.4977 0.9688
0.8011 7.4700 -2.4973 0.9688
0.3498 7.5021 -2.4965 0.9688
0.0483 7.5092 -2.4961 0.9688
-0.8547 7.4612 -2.4964 0.9688
-1.0045 7.4432 -2.4966 0.9688
-1.1539 7.4222 -2.4968 0.9688
-1.4513 7.3719 -2.4975 0.9688
-1.5993 7.3425 -2.4979 0.9688
-1.7468 7.3102 -2.4983 0.9688
-1.8936 7.2751 -2.4989 0.9688
-2.0395 7.2363 -2.4991 0.9688
-2.1843 7.1936 -2.4990 0.9688
-2.3282 7.1480 -2.4989 0.9688
-2.4712 7.0996 -2.4988 0.9688
-2.6131 7.0483 -2.4987 0.9688
-2.7540 6.9941 -2.4986 0.9688
-2.8938 6.9372 -2.4985 0.9688
-3.0324 6.8774 -2.4985 0.9688
-3.1698 6.8149 -2.4984 0.9688
-3.5740 6.6111 -2.4981 0.9688
-3.9652 6.3833 -2.4979 0.9688
-4.0925 6.3022 -2.4978 0.9688
-4.2181 6.2185 -2.4977 0.9688
-4.5844 5.9528 -2.4975 0.9688
-4.7029 5.8594 -2.4975 0.9688
-5.3723 5.2508 -2.4971 0.9688
-5.5786 5.0307 -2.4970 0.9688
-6.1421 4.3232 -2.4967 0.9688
-6.2276 4.1989 -2.4967 0.9688
-6.3910 3.9453 -2.4966 0.9688
-6.4688 3.8162 -2.4966 0.9688
-6.5441 3.6854 -2.4965 0.9688
-6.7538 3.2846 -2.4964 0.9688
-6.8801 3.0108 -2.4964 0.9688
-6.9392 2.8720 -2.4964 0.9688
-6.9954 2.7320 -2.4963 0.9688
-7.0488 2.5910 -2.4963 0.9688
-7.0994 2.4489 -2.4963 0.9688
-7.2729 1.8713 -2.4963 0.9688
-7.3090 1.7249 -2.4963 0.9688
-7.3421 1.5778 -2.4963 0.9688
-7.3996 1.2817 -2.4963 0.9688
-7.4238 1.1329 -2.4963 0.9688
-7.4786 0.6839 -2.4963 0.9688
-7.4909 0.5336 -2.4963 0.9688
-7.5001 0.3830 -2.4963 0.9688
-7.5064 0.2324 -2.4964 0.9688
-7.5069 -0.2200 -2.4964 0.9688
-7.5011 -0.3707 -2.4964 0.9688
-7.4803 -0.6716 -2.4965 0.9688
-7.4654 -0.8217 -2.4965 0.9688
-7.4027 -1.2697 -2.4966 0.9688
-7.3759 -1.4182 -2.4967 0.9688
-7.3460 -1.5660 -2.4967 0.9688
-7.3132 -1.7132 -2.4968 0.9688
-7.2775 -1.8598 -2.4968 0.9688
-7.2388 -2.0056 -2.4969 0.9688
-7.1527 -2.2947 -2.4970 0.9688
-7.0551 -2.5802 -2.4971 0.9688
-7.0020 -2.7213 -2.4971 0.9688
-6.9461 -2.8615 -2.4972 0.9688
-6.8260 -3.1382 -2.4973 0.9688
-6.7618 -3.2747 -2.4974 0.9688
-6.6948 -3.4100 -2.4974 0.9688
-6.6252 -3.5438 -2.4975 0.9688
-6.5528 -3.6762 -2.4976 0.9688
-6.4779 -3.8072 -2.4976 0.9688
-6.2375 -4.1906 -2.4979 0.9688
-6.1522 -4.3152 -2.4979 0.9688
-6.0645 -4.4380 -2.4980 0.9688
-5.7869 -4.7955 -2.4982 0.9688
-5.5900 -5.0243 -2.4984 0.9688
-5.4882 -5.1358 -2.4985 0.9688
-5.3842 -5.2451 -2.4986 0.9688
-5.2779 -5.3524 -2.4987 0.9688
-5.1696 -5.4575 -2.4988 0.9688
-4.9466 -5.6610 -2.4989 0.9688
-4.8321 -5.7594 -2.4990 0.9688
-4.7157 -5.8555 -2.4991 0.9688
-4.5973 -5.9493 -2.4992 0.9688
-4.2313 -6.2160 -2.4995 0.9688
-4.1058 -6.2999 -2.4996 0.9688
6.6456 -2.2266 -2.5063 0.9707
6.7296 -1.9580 -2.5064 0.9707
6.8029 -1.6862 -2.5064 0.9707
6.8651 -1.4117 -2.5064 0.9707
6.8921 -1.2736 -2.5064 0.9707
6.9162 -1.1349 -2.5064 0.9707
6.9562 -0.8563 -2.5064 0.9707
6.9720 -0.7164 -2.5064 0.9707
6.9849 -0.5763 -2.5063 0.9707
6.9950 -0.4359 -2.5063 0.9707
7.0068 -0.1547 -2.5063 0.9707
7.0073 0.1268 -2.5063 0.9707
6.9964 0.4080 -2.5062 0.9707
6.9742 0.6886 -2.5062 0.9707
6.9589 0.8285 -2.5061 0.9707
6.8961 1.2459 -2.5060 0.9707
6.8403 1.5218 -2.5059 0.9707
6.8082 1.6588 -2.5059 0.9707
6.7359 1.9307 -2.5058 0.9707
6.6527 2.1996 -2.5057 0.9707
6.6071 2.3327 -2.5057 0.9707
6.5588 2.4648 -2.5056 0.9707
6.4542 2.7261 -2.5055 0.9707
6.3980 2.8550 -2.5055 0.9707
6.3393 2.9829 -2.5054 0.9707
6.1477 3.3589 -2.5052 0.9707
6.0789 3.4816 -2.5051 0.9707
5.9339 3.7226 -2.5050 0.9707
5.8578 3.8409 -2.5049 0.9707
5.7793 3.9577 -2.5049 0.9707
5.6154 4.1863 -2.5047 0.9707
5.3527 4.5164 -2.5045 0.9707
5.2608 4.6228 -2.5044 0.9707
5.1667 4.7274 -2.5043 0.9707
5.0706 4.8300 -2.5043 0.9707
4.8722 5.0294 -2.5041 0.9707
4.7701 5.1260 -2.5040 0.9707
4.6660 5.2206 -2.5039 0.9707
4.5601 5.3131 -2.5038 0.9707
4.3428 5.4915 -2.5037 0.9707
4.0039 5.7424 -2.5034 0.9707
3.8876 5.8214 -2.5033 0.9707
3.5297 6.0443 -2.5030 0.9707
3.4075 6.1137 -2.5029 0.9707
3.0328 6.3071 -2.5027 0.9707
2.9055 6.3665 -2.5026 0.9707
2.7769 6.4233 -2.5025 0.9707
2.6473 6.4775 -2.5024 0.9707
2.2522 6.6244 -2.5021 0.9707
1.8491 6.7472 -2.5018 0.9707
0.7458 6.9539 -2.5010 0.9707
0.3257 6.9854 -2.5007 0.9707
0.1853 6.9902 -2.5006 0.9707
-0.3761 6.9815 -2.5002 0.9707
-0.5162 6.9723 -2.5002 0.9707
-0.6561 6.9602 -2.5001 0.9707
-0.9349 6.9278 -2.4999 0.9707
-1.6244 6.7979 -2.4994 0.9707
-1.7605 6.7637 -2.4993 0.9707
-2.4292 6.5521 -2.4989 0.9708
-2.5602 6.5017 -2.4988 0.9708
-2.9467 6.3352 -2.4986 0.9708
-3.0732 6.2746 -2.4985 0.9708
-3.1985 6.2114 -2.4984 0.9708
-3.3225 6.1457 -2.4984 0.9708
-3.9212 5.7809 -2.4980 0.9708
-4.1500 5.6185 -2.4979 0.9708
-4.2618 5.5339 -2.4978 0.9708
-4.5869 5.2669 -2.4976 0.9708
-5.1861 4.6767 -2.4973 0.9708
-5.2789 4.5716 -2.4973 0.9708
-5.3695 4.4646 -2.4972 0.9708
-5.4580 4.3558 -2.4972 0.9708
-5.5442 4.2452 -2.4971 0.9708
-5.6283 4.1330 -2.4971 0.9708
-5.7895 3.9035 -2.4970 0.9708
-5.8666 3.7864 -2.4970 0.9708
-5.9414 3.6678 -2.4969 0.9708
-6.0138 3.5477 -2.4969 0.9708
-6.0837 3.4262 -2.4969 0.9708
-6.1512 3.3033 -2.4968 0.9708
-6.2162 3.1791 -2.4968 0.9708
-6.2788 3.0536 -2.4968 0.9708
-6.3962 2.7990 -2.4967 0.9708
-6.4511 2.6700 -2.4967 0.9708
-6.6444 2.1437 -2.4967 0.9708
-6.6860 2.0098 -2.4967 0.9708
-6.7613 1.7397 -2.4966 0.9708
-6.8257 1.4668 -2.4966 0.9708
-6.9384 0.7753 -2.4967 0.9708
-6.9640 0.4960 -2.4967 0.9708
-6.9726 0.3561 -2.4967 0.9708
-6.9784 0.2160 -2.4967 0.9708
-6.9814 0.0758 -2.4967 0.9708
-6.9816 -0.0644 -2.4968 0.9708
-6.9735 -0.3446 -2.4968 0.9708
-6.9042 -1.0420 -2.4969 0.9708
-6.8820 -1.1804 -2.4970 0.9708
-6.8570 -1.3184 -2.4970 0.9708
-6.8292 -1.4558 -2.4971 0.9708
-6.7655 -1.7289 -2.4971 0.9708
-6.7295 -1.8645 -2.4972 0.9708
-6.6909 -1.9992 -2.4972 0.9708
-6.6054 -2.2664 -2.4973 0.9708
-6.5094 -2.5299 -2.4974 0.9708
-6.2860 -3.0443 -2.4977 0.9708
-6.2237 -3.1700 -2.4977 0.9708
-6.1590 -3.2944 -2.4978 0.9708
-6.0917 -3.4175 -2.4978 0.9708
-5.8754 -3.7784 -2.4980 0.9708
-5.7985 -3.8957 -2.4981 0.9708
-5.7192 -4.0115 -2.4982 0.9708
-5.6377 -4.1256 -2.4983 0.9708
-5.5539 -4.2381 -2.4983 0.9708
-5.4678 -4.3489 -2.4984 0.9708
-5.1965 -4.6707 -2.4986 0.9708
-4.9064 -4.9756 -2.4989 0.9708
-4.8056 -5.0732 -2.4990 0.9708
-4.7029 -5.1689 -2.4990 0.9707
-4.4919 -5.3539 -2.4992 0.9707
6.2791 -1.8269 -2.5060 0.9724
6.3474 -1.5733 -2.5060 0.9724
6.3777 -1.4456 -2.5061 0.9724
6.4055 -1.3172 -2.5061 0.9724
6.4306 -1.1883 -2.5061 0.9724
6.4532 -1.0589 -2.5060 0.9724
6.4731 -0.9292 -2.5060 0.9724
6.4905 -0.7990 -2.5060 0.9724
6.5335 -0.2756 -2.5060 0.9724
6.5377 -0.1443 -2.5060 0.9724
6.5344 0.2495 -2.5059 0.9724
6.5280 0.3807 -2.5059 0.9724
6.4930 0.7730 -2.5058 0.9724
6.4097 1.2915 -2.5057 0.9724
6.3525 1.5477 -2.5056 0.9724
6.3200 1.6750 -2.5056 0.9724
6.2475 1.9273 -2.5055 0.9724
6.2074 2.0523 -2.5054 0.9724
6.1648 2.1765 -2.5054 0.9724
6.0722 2.4222 -2.5053 0.9724
6.0222 2.5436 -2.5052 0.9724
5.9698 2.6640 -2.5052 0.9724
5.9150 2.7832 -2.5051 0.9724
5.8578 2.9014 -2.5051 0.9724
5.7982 3.0183 -2.5050 0.9724
5.7363 3.1341 -2.5050 0.9724
5.1600 4.0105 -2.5044 0.9724
5.0783 4.1132 -2.5044 0.9724
4.9946 4.2142 -2.5043 0.9724
4.9088 4.3135 -2.5042 0.9724
4.8210 4.4111 -2.5042 0.9724
4.7313 4.5069 -2.5041 0.9724
4.6398 4.6009 -2.5040 0.9724
4.4510 4.7831 -2.5038 0.9724
4.2551 4.9577 -2.5037 0.9724
4.1545 5.0420 -2.5036 0.9724
4.0523 5.1242 -2.5035 0.9724
3.9485 5.2044 -2.5034 0.9724
3.7361 5.3584 -2.5033 0.9724
3.4064 5.5730 -2.5030 0.9724
3.2936 5.6401 -2.5029 0.9724
3.0643 5.7674 -2.5028 0.9724
2.8301 5.8854 -2.5026 0.9724
2.4703 6.0445 -2.5023 0.9724
2.1017 6.1815 -2.5020 0.9724
1.9771 6.2223 -2.5020 0.9724
1.5987 6.3293 -2.5017 0.9724
1.4712 6.3599 -2.5016 0.9724
1.3431 6.3880 -2.5015 0.9724
1.0855 6.4363 -2.5013 0.9724
0.9560 6.4565 -2.5012 0.9724
0.5655 6.5017 -2.5010 0.9724
0.0419 6.5251 -2.5006 0.9724
-0.3510 6.5151 -2.5003 0.9724
-0.4817 6.5065 -2.5002 0.9724
-0.6122 6.4953 -2.5002 0.9724
-0.7425 6.4815 -2.5001 0.9724
-1.2600 6.4002 -2.4997 0.9724
-1.3882 6.3733 -2.4996 0.9724
-1.5159 6.3440 -2.4996 0.9724
-1.6429 6.3121 -2.4995 0.9724
-1.7693 6.2776 -2.4994 0.9724
-2.2670 6.1146 -2.4991 0.9725
-2.8681 5.8557 -2.4987 0.9725
-2.9850 5.7967 -2.4986 0.9725
-3.2152 5.6719 -2.4985 0.9725
-3.5505 5.4676 -2.4983 0.9725
-3.6595 5.3951 -2.4982 0.9725
-3.8730 5.2435 -2.4981 0.9725
-4.0802 5.0835 -2.4980 0.9725
-4.2809 4.9154 -2.4979 0.9725
-4.3786 4.8283 -2.4978 0.9725
-4.6611 4.5557 -2.4977 0.9725
-4.8400 4.3647 -2.4976 0.9725
-5.1743 3.9620 -2.4974 0.9725
-5.3291 3.7509 -2.4973 0.9725
-5.4032 3.6431 -2.4973 0.9725
-5.4752 3.5338 -2.4973 0.9725
-5.9159 2.7316 -2.4971 0.9725
-6.2400 1.8757 -2.4970 0.9725
-6.2764 1.7500 -2.4970 0.9725
-6.3103 1.6237 -2.4970 0.9725
-6.3704 1.3690 -2.4970 0.9725
-6.4412 0.9830 -2.4970 0.9725
-6.4597 0.8534 -2.4970 0.9725
-6.4756 0.7235 -2.4970 0.9725
-6.5158 -0.0601 -2.4971 0.9725
-6.5082 -0.3217 -2.4971 0.9725
-6.5005 -0.4523 -2.4971 0.9725
-6.4902 -0.5827 -2.4972 0.9725
-6.4617 -0.8429 -2.4972 0.9725
-6.4436 -0.9725 -2.4973 0.9725
-6.3451 -1.4864 -2.4974 0.9725
-6.2805 -1.7401 -2.4975 0.9725
-6.2444 -1.8659 -2.4975 0.9725
-6.2058 -1.9909 -2.4976 0.9725
-6.1647 -2.1152 -2.4976 0.9725
-6.0750 -2.3611 -2.4977 0.9725
-6.0266 -2.4825 -2.4978 0.9725
-5.8084 -2.9584 -2.4980 0.9725
-5.7479 -3.0745 -2.4980 0.9725
-5.6852 -3.1894 -2.4981 0.9725
-5.4832 -3.5262 -2.4983 0.9725
-5.4115 -3.6357 -2.4983 0.9725
-5.3375 -3.7437 -2.4984 0.9725
-5.1832 -3.9552 -2.4985 0.9725
-4.9360 -4.2605 -2.4987 0.9725
-4.8496 -4.3589 -2.4988 0.9725
-4.7613 -4.4555 -2.4989 0.9725
-4.5788 -4.6434 -2.4990 0.9725
-4.1920 -4.9964 -2.4994 0.9724
-4.0909 -5.0798 -2.4994 0.9724
-3.9882 -5.1610 -2.4995 0.9724
-3.7780 -5.3174 -2.4997 0.9724
-3.5617 -5.4651 -2.4999 0.9724
5.8052 -1.9450 -2.5057 0.9739
5.8786 -1.7104 -2.5057 0.9739
5.9426 -1.4730 -2.5058 0.9739
5.9710 -1.3533 -2.5058 0.9739
5.9970 -1.2332 -2.5058 0.9739
6.0205 -1.1125 -2.5058 0.9739
6.0416 -0.9914 -2.5058 0.9739
6.0765 -0.7480 -2.5057 0.9739
6.0903 -0.6258 -2.5057 0.9739
6.1016 -0.5034 -2.5057 0.9739
6.1105 -0.3808 -2.5057 0.9739
6.1208 -0.1351 -2.5057 0.9739
6.1222 -0.0122 -2.5057 0.9739
6.1177 0.2336 -2.5056 0.9739
6.1117 0.3564 -2.5056 0.9739
6.0923 0.6015 -2.5056 0.9739
6.0790 0.7237 -2.5055 0.9739
6.0631 0.8456 -2.5055 0.9739
6.0241 1.0884 -2.5054 0.9739
5.9754 1.3294 -2.5054 0.9739
5.9474 1.4491 -2.5053 0.9739
5.8843 1.6866 -2.5053 0.9739
5.8491 1.8044 -2.5052 0.9739
5.8116 1.9215 -2.5052 0.9739
5.6851 2.2678 -2.5050 0.9739
5.6383 2.3814 -2.5050 0.9739
5.5379 2.6058 -2.5049 0.9739
5.4843 2.7164 -2.5048 0.9739
5.4286 2.8259 -2.5048 0.9739
5.3706 2.9343 -2.5047 0.9739
5.1838 3.2521 -2.5046 0.9739
5.1174 3.3555 -2.5045 0.9739
5.0488 3.4575 -2.5044 0.9739
4.9783 3.5581 -2.5044 0.9739
4.9057 3.6572 -2.5043 0.9739
4.6762 3.9456 -2.5041 0.9739
4.5959 4.0386 -2.5041 0.9739
4.4298 4.2197 -2.5039 0.9739
4.3441 4.3077 -2.5038 0.9739
3.7941 4.7977 -2.5034 0.9739
3.6969 4.8728 -2.5033 0.9739
3.4981 5.0170 -2.5032 0.9739
3.3965 5.0861 -2.5031 0.9739
3.1894 5.2180 -2.5029 0.9739
3.0839 5.2808 -2.5028 0.9739
2.7600 5.4564 -2.5026 0.9739
2.5385 5.5624 -2.5024 0.9739
2.3130 5.6595 -2.5023 0.9739
2.1988 5.7046 -2.5022 0.9739
1.7338 5.8619 -2.5018 0.9739
1.6156 5.8953 -2.5018 0.9739
1.4969 5.9264 -2.5017 0.9739
1.2576 5.9813 -2.5015 0.9739
1.0164 6.0265 -2.5013 0.9739
0.7735 6.0621 -2.5012 0.9739
0.5295 6.0878 -2.5010 0.9739
0.1620 6.1080 -2.5007 0.9739
0.0393 6.1099 -2.5007 0.9739
-0.2061 6.1061 -2.5005 0.9739
-0.3286 6.1005 -2.5004 0.9739
-0.4510 6.0925 -2.5003 0.9739
-0.5733 6.0820 -2.5002 0.9739
-0.6953 6.0691 -2.5002 0.9739
-0.9383 6.0359 -2.5000 0.9739
-1.0593 6.0156 -2.4999 0.9739
-1.6567 5.8782 -2.4995 0.9739
-1.7744 5.8436 -2.4995 0.9740
-1.8913 5.8066 -2.4994 0.9740
-2.0074 5.7673 -2.4993 0.9740
-2.1228 5.7257 -2.4992 0.9740
-2.3508 5.6355 -2.4991 0.9740
-2.4635 5.5870 -2.4990 0.9740
-2.5751 5.5363 -2.4990 0.9740
-2.6857 5.4833 -2.4989 0.9740
-3.0107 5.3112 -2.4987 0.9740
-3.1167 5.2496 -2.4986 0.9740
-3.2214 5.1858 -2.4986 0.9740
-3.3248 5.1199 -2.4985 0.9740
-3.5275 4.9821 -2.4984 0.9740
-3.7245 4.8362 -2.4983 0.9740
-3.8208 4.7603 -2.4982 0.9740
-3.9155 4.6825 -2.4982 0.9740
-4.0087 4.6029 -2.4981 0.9740
-4.1002 4.5214 -2.4981 0.9740
-4.1901 4.4380 -2.4980 0.9740
-4.3647 4.2660 -2.4979 0.9740
-4.4494 4.1775 -2.4979 0.9740
-4.5324 4.0872 -2.4978 0.9740
-4.6134 3.9953 -2.4978 0.9740
-4.7700 3.8067 -2.4977 0.9740
-4.8454 3.7101 -2.4977 0.9740
-4.9903 3.5125 -2.4976 0.9740
-5.0598 3.4115 -2.4976 0.9740
-5.4328 2.7784 -2.4974 0.9740
-5.5901 2.4462 -2.4973 0.9740
-5.6837 2.2198 -2.4973 0.9740
-5.7271 2.1052 -2.4973 0.9740
-5.7682 1.9897 -2.4973 0.9740
-5.8070 1.8735 -2.4973 0.9740
-5.8434 1.7565 -2.4973 0.9740
-5.8775 1.6388 -2.4973 0.9740
-5.9092 1.5205 -2.4973 0.9740
-6.0121 1.0414 -2.4973 0.9740
-6.0318 0.9205 -2.4973 0.9740
-6.0491 0.7992 -2.4973 0.9740
-6.0764 0.5557 -2.4973 0.9740
-6.0863 0.4335 -2.4973 0.9740
-6.0989 0.1888 -2.4973 0.9740
-6.1015 0.0663 -2.4973 0.9740
-6.0993 -0.1788 -2.4974 0.9740
-6.0777 -0.5457 -2.4974 0.9740
-6.0655 -0.6676 -2.4975 0.9740
-6.0510 -0.7893 -2.4975 0.9740
-5.9127 -1.5110 -2.4977 0.9740
-5.8813 -1.6294 -2.4977 0.9740
-5.8113 -1.8643 -2.4978 0.9740
-5.7728 -1.9807 -2.4979 0.9740
-5.7319 -2.0962 -2.4979 0.9740
-5.5457 -2.5496 -2.4981 0.9740
-5.4391 -2.7703 -2.4982 0.9740
-5.3825 -2.8791 -2.4982 0.9740
-5.3237 -2.9866 -2.4983 0.9740
-5.1997 -3.1981 -2.4984 0.9740
-5.1346 -3.3020 -2.4985 0.9740
-5.0673 -3.4045 -2.4985 0.9740
-4.9981 -3.5056 -2.4986 0.9740
-4.9268 -3.6054 -2.4987 0.9740
-4.7012 -3.8958 -2.4989 0.9740
-4.5412 -4.0816 -2.4990 0.9740
-4.3739 -4.2609 -2.4991 0.9740
-4.1995 -4.4334 -2.4993 0.9740
-4.0183 -4.5987 -2.4994 0.9740
-3.8307 -4.7566 -2.4996 0.9739
-3.7345 -4.8327 -2.4996 0.9739
5.4867 -1.7166 -2.5055 0.9752
5.5801 -1.3831 -2.5055 0.9752
5.6068 -1.2708 -2.5055 0.9752
5.6311 -1.1580 -2.5055 0.9752
5.6906 -0.8168 -2.5055 0.9752
5.7059 -0.7024 -2.5055 0.9752
5.7478 0.1040 -2.5054 0.9752
5.7445 0.2194 -2.5054 0.9752
5.7389 0.3347 -2.5054 0.9752
5.7207 0.5648 -2.5053 0.9752
5.7082 0.6796 -2.5053 0.9752
5.6933 0.7941 -2.5053 0.9752
5.6762 0.9082 -2.5052 0.9752
5.6350 1.1354 -2.5052 0.9752
5.5847 1.3607 -2.5051 0.9752
5.5562 1.4725 -2.5051 0.9752
5.4924 1.6944 -2.5050 0.9752
5.4572 1.8043 -2.5050 0.9752
5.4198 1.9135 -2.5049 0.9752
5.3802 2.0219 -2.5049 0.9752
5.2945 2.2362 -2.5048 0.9752
5.2484 2.3420 -2.5047 0.9752
5.2002 2.4469 -2.5047 0.9752
5.1499 2.5508 -2.5046 0.9752
5.0431 2.7554 -2.5045 0.9752
4.9867 2.8560 -2.5045 0.9752
4.8054 3.1509 -2.5043 0.9752
4.6066 3.4343 -2.5041 0.9752
4.4648 3.6163 -2.5040 0.9752
4.3912 3.7051 -2.5040 0.9752
4.2386 3.8782 -2.5038 0.9752
4.1598 3.9625 -2.5038 0.9752
3.5629 4.5053 -2.5033 0.9752
3.4716 4.5758 -2.5032 0.9752
3.3789 4.6445 -2.5031 0.9753
3.2849 4.7113 -2.5031 0.9753
3.0929 4.8391 -2.5029 0.9753
2.9950 4.9001 -2.5028 0.9753
2.6943 5.0710 -2.5026 0.9753
2.0649 5.3571 -2.5021 0.9753
1.9568 5.3973 -2.5021 0.9753
1.8480 5.4353 -2.5020 0.9753
1.1810 5.6170 -2.5015 0.9753
1.0680 5.6394 -2.5014 0.9753
0.9545 5.6595 -2.5013 0.9753
0.7264 5.6929 -2.5012 0.9753
0.6120 5.7062 -2.5011 0.9753
0.4972 5.7171 -2.5010 0.9753
0.3823 5.7258 -2.5009 0.9753
0.1521 5.7362 -2.5008 0.9753
-0.0783 5.7373 -2.5006 0.9753
-0.4236 5.7216 -2.5004 0.9753
-0.6529 5.6996 -2.5002 0.9753
-0.8812 5.6685 -2.5001 0.9753
-0.9948 5.6495 -2.5000 0.9753
-1.2208 5.6046 -2.4999 0.9753
-1.5559 5.5205 -2.4997 0.9753
-1.6664 5.4880 -2.4996 0.9753
-1.8853 5.4163 -2.4994 0.9753
-1.9936 5.3772 -2.4994 0.9753
-2.2078 5.2926 -2.4992 0.9753
-2.4184 5.1994 -2.4991 0.9753
-2.6251 5.0979 -2.4990 0.9753
-2.7269 5.0440 -2.4989 0.9753
-2.8275 4.9881 -2.4989 0.9753
-2.9270 4.9302 -2.4988 0.9753
-3.1225 4.8084 -2.4987 0.9753
-3.2184 4.7447 -2.4986 0.9753
-3.3129 4.6790 -2.4986 0.9753
-3.4061 4.6114 -2.4985 0.9753
-3.5884 4.4708 -2.4984 0.9753
-3.9352 4.1681 -2.4982 0.9753
-4.0993 4.0066 -2.4981 0.9753
-4.1788 3.9234 -2.4981 0.9753
-4.3329 3.7523 -2.4980 0.9753
-4.4073 3.6645 -2.4980 0.9753
-4.4799 3.5752 -2.4979 0.9753
-4.5507 3.4845 -2.4979 0.9753
-4.6868 3.2989 -2.4978 0.9753
-4.9362 2.9120 -2.4977 0.9753
-4.9936 2.8123 -2.4977 0.9753
-5.0490 2.7114 -2.4977 0.9753
-5.1024 2.6095 -2.4977 0.9753
-5.1538 2.5065 -2.4976 0.9753
-5.2030 2.4025 -2.4976 0.9753
-5.2502 2.2975 -2.4976 0.9753
-5.3789 1.9772 -2.4976 0.9753
-5.4175 1.8688 -2.4975 0.9753
-5.5499 1.4280 -2.4975 0.9753
-5.6258 1.0913 -2.4975 0.9753
-5.6953 0.6364 -2.4975 0.9753
-5.7069 0.5219 -2.4975 0.9753
-5.7163 0.4072 -2.4976 0.9753
-5.7281 0.1773 -2.4976 0.9753
-5.7305 0.0623 -2.4976 0.9753
-5.7284 -0.1679 -2.4976 0.9753
