ply
format ascii 1.0
element vertex 1605
property float32 x
property float32 y
property float32 z
property float32 I
end_header
-12.8131 -3.5533 -2.4992 0.9473
-12.7393 -3.8107 -2.4993 0.9473
-0.1270 -11.1268 -2.3521 0.9555
0.5451 -11.1150 -2.3523 0.9555
0.7688 -11.1020 -2.3524 0.9555
1.2153 -11.0625 -2.3525 0.9555
1.4378 -11.0361 -2.3525 0.9555
1.6598 -11.0051 -2.3526 0.9555
2.3560 -11.0479 -2.3878 0.9549
2.5946 -11.0688 -2.4031 0.9546
3.5842 -11.1585 -2.4774 0.9532
4.0675 -11.1057 -2.5000 0.9528
5.1752 -10.6652 -2.5058 0.9527
5.3889 -10.5589 -2.5058 0.9527
5.6005 -10.4484 -2.5058 0.9527
5.8098 -10.3336 -2.5059 0.9527
6.2213 -10.0914 -2.5059 0.9527
6.4233 -9.9642 -2.5059 0.9527
6.6227 -9.8329 -2.5060 0.9527
7.0134 -9.5583 -2.5060 0.9527
7.2045 -9.4152 -2.5060 0.9527
7.3926 -9.2683 -2.5060 0.9527
7.7599 -8.9631 -2.5060 0.9527
7.9388 -8.8051 -2.5060 0.9527
8.4560 -8.3097 -2.5060 0.9527
8.6216 -8.1377 -2.5060 0.9527
8.9422 -7.7839 -2.5060 0.9527
9.0971 -7.6023 -2.5060 0.9527
9.2483 -7.4175 -2.5060 0.9527
9.5394 -7.0390 -2.5060 0.9527
9.6791 -6.8455 -2.5060 0.9527
9.9468 -6.4501 -2.5059 0.9527
10.3178 -5.8376 -2.5059 0.9527
10.5443 -5.4173 -2.5058 0.9527
11.2755 -3.6553 -2.5055 0.9527
11.3466 -3.4275 -2.5055 0.9527
11.4750 -2.9677 -2.5054 0.9527
11.5323 -2.7360 -2.5054 0.9527
11.5848 -2.5031 -2.5053 0.9527
11.7141 -1.7990 -2.5052 0.9527
11.7477 -1.5627 -2.5051 0.9527
11.7765 -1.3258 -2.5050 0.9527
11.8006 -1.0884 -2.5050 0.9527
11.8343 -0.6123 -2.5049 0.9527
11.8487 -0.1353 -2.5047 0.9527
11.8440 0.3419 -2.5046 0.9527
11.8008 1.0563 -2.5044 0.9527
11.7768 1.2937 -2.5044 0.9527
11.7480 1.5306 -2.5043 0.9527
11.6762 2.0023 -2.5041 0.9527
11.6332 2.2369 -2.5041 0.9527
11.5330 2.7034 -2.5039 0.9527
11.4758 2.9350 -2.5038 0.9527
11.4141 3.1654 -2.5038 0.9527
11.3476 3.3945 -2.5037 0.9527
11.2011 3.8484 -2.5035 0.9527
11.1209 4.0730 -2.5034 0.9527
11.0363 4.2960 -2.5034 0.9527
10.6534 5.1694 -2.5030 0.9527
10.5468 5.3827 -2.5030 0.9527
10.4359 5.5939 -2.5029 0.9527
10.3208 5.8027 -2.5028 0.9527
10.2015 6.0091 -2.5027 0.9527
10.0781 6.2131 -2.5026 0.9527
9.9506 6.4146 -2.5025 0.9528
9.6662 6.7974 -2.4979 0.9528
9.5173 6.9832 -2.4952 0.9529
9.2479 7.0764 -2.4615 0.9535
8.9503 7.1389 -2.4200 0.9543
8.6622 7.1993 -2.3808 0.9550
8.2548 7.4427 -2.3494 0.9556
8.1030 7.6071 -2.3493 0.9556
7.4635 8.2333 -2.3490 0.9556
6.9521 8.6680 -2.3488 0.9556
6.5970 8.9403 -2.3486 0.9556
6.4154 9.0710 -2.3485 0.9556
6.0445 9.3213 -2.3483 0.9556
5.8554 9.4408 -2.3483 0.9556
5.4701 9.6682 -2.3481 0.9556
5.0760 9.8800 -2.3479 0.9556
4.8759 9.9799 -2.3479 0.9556
4.6738 10.0757 -2.3478 0.9556
4.2640 10.2551 -2.3476 0.9556
4.0565 10.3385 -2.3476 0.9556
3.6367 10.4928 -2.3474 0.9556
3.4245 10.5636 -2.3473 0.9556
2.9962 10.6923 -2.3472 0.9556
2.3744 9.1808 -2.0045 0.9620
2.1875 9.2203 -2.0031 0.9620
1.9955 9.2355 -1.9972 0.9621
1.2343 9.2790 -1.9787 0.9625
0.4832 9.3383 -1.9766 0.9625
0.2950 9.3449 -1.9763 0.9625
0.1267 11.0994 -2.3463 0.9556
-1.2119 11.0322 -2.3460 0.9556
-1.4338 11.0053 -2.3460 0.9556
-1.6551 10.9739 -2.3459 0.9556
-3.1801 10.6312 -2.3456 0.9556
-3.6055 10.4942 -2.3455 0.9556
-4.2323 10.2569 -2.3454 0.9556
-4.4380 10.1694 -2.3454 0.9557
-4.6418 10.0779 -2.3454 0.9557
-5.4374 9.6713 -2.3453 0.9557
-5.6310 9.5597 -2.3452 0.9557
-6.0113 9.3251 -2.3452 0.9557
-6.1978 9.2021 -2.3452 0.9557
-7.0913 8.5323 -2.3451 0.9557
-7.4291 8.2398 -2.3451 0.9557
-7.7548 7.9339 -2.3451 0.9557
-7.9130 7.7762 -2.3451 0.9557
-8.0680 7.6153 -2.3451 0.9557
-8.5005 7.3996 -2.3822 0.9550
-8.7915 7.3470 -2.4218 0.9542
-9.0869 7.2881 -2.4623 0.9535
-9.3380 7.1854 -2.4906 0.9530
-9.4907 7.0032 -2.4932 0.9529
-9.6402 6.8180 -2.4959 0.9529
-9.7813 6.6263 -2.4973 0.9528
-10.0403 6.2272 -2.4974 0.9528
-10.1638 6.0238 -2.4974 0.9528
-10.5092 5.3993 -2.4975 0.9528
-10.7184 4.9719 -2.4975 0.9528
-10.8165 4.7551 -2.4976 0.9528
-11.3785 3.1885 -2.4978 0.9528
-11.4406 2.9588 -2.4979 0.9528
-11.4981 2.7279 -2.4979 0.9528
-11.5509 2.4958 -2.4980 0.9528
-11.6812 1.7940 -2.4981 0.9528
-11.7445 1.3222 -2.4982 0.9528
-11.7690 1.0855 -2.4983 0.9528
-11.8139 0.3729 -2.4985 0.9528
-11.8193 0.1350 -2.4985 0.9528
-11.8199 -0.1030 -2.4986 0.9528
-11.8068 -0.5789 -2.4987 0.9528
-11.7931 -0.8166 -2.4988 0.9528
-11.7745 -1.0539 -2.4989 0.9528
-11.7512 -1.2909 -2.4989 0.9528
-11.7232 -1.5273 -2.4990 0.9528
-11.6529 -1.9982 -2.4991 0.9528
-11.5636 -2.4659 -2.4993 0.9528
-11.4556 -2.9297 -2.4994 0.9528
-11.3947 -3.1599 -2.4995 0.9528
-0.3357 -10.6373 -2.5012 0.9572
0.0929 -10.6424 -2.5013 0.9572
0.9494 -10.6060 -2.5026 0.9572
1.3764 -10.5642 -2.5038 0.9572
1.5893 -10.5373 -2.5045 0.9572
2.0126 -10.4664 -2.5049 0.9572
2.4325 -10.3773 -2.5050 0.9571
2.8485 -10.2712 -2.5051 0.9571
3.4636 -10.0810 -2.5052 0.9571
3.6659 -10.0093 -2.5052 0.9571
3.8668 -9.9336 -2.5053 0.9571
4.0661 -9.8538 -2.5053 0.9571
4.4597 -9.6823 -2.5053 0.9571
5.0363 -9.3957 -2.5054 0.9571
5.4106 -9.1854 -2.5055 0.9571
5.5945 -9.0747 -2.5055 0.9571
5.7761 -8.9602 -2.5055 0.9571
5.9554 -8.8422 -2.5055 0.9571
6.1323 -8.7205 -2.5055 0.9571
6.3067 -8.5953 -2.5055 0.9571
6.6478 -8.3344 -2.5056 0.9571
7.2969 -7.7725 -2.5056 0.9571
7.6039 -7.4724 -2.5056 0.9571
7.7529 -7.3178 -2.5056 0.9571
7.8986 -7.1602 -2.5056 0.9571
8.0412 -6.9996 -2.5056 0.9571
8.4491 -6.5013 -2.5055 0.9571
8.7039 -6.1557 -2.5055 0.9571
8.8261 -5.9792 -2.5055 0.9571
8.9446 -5.8002 -2.5055 0.9571
9.0595 -5.6189 -2.5055 0.9571
9.1708 -5.4353 -2.5055 0.9571
9.2783 -5.2494 -2.5054 0.9571
9.5780 -4.6795 -2.5054 0.9571
9.6702 -4.4856 -2.5053 0.9571
9.8428 -4.0925 -2.5053 0.9571
9.9230 -3.8935 -2.5052 0.9571
9.9993 -3.6928 -2.5052 0.9571
10.0715 -3.4906 -2.5052 0.9571
10.2634 -2.8760 -2.5051 0.9571
10.3191 -2.6687 -2.5050 0.9571
10.4178 -2.2510 -2.5049 0.9572
10.4609 -2.0407 -2.5049 0.9572
10.4996 -1.8296 -2.5048 0.9572
10.5342 -1.6178 -2.5048 0.9572
10.6293 -0.7648 -2.5046 0.9572
10.6424 -0.5506 -2.5045 0.9572
10.6510 -0.3362 -2.5045 0.9572
10.5909 1.1634 -2.5041 0.9572
10.4618 2.0117 -2.5038 0.9572
10.3205 2.6395 -2.5036 0.9572
10.2649 2.8467 -2.5035 0.9572
10.2052 3.0527 -2.5035 0.9572
10.1414 3.2575 -2.5034 0.9572
10.0735 3.4609 -2.5033 0.9572
10.0014 3.6630 -2.5033 0.9572
9.9254 3.8636 -2.5032 0.9572
9.7612 4.2598 -2.5030 0.9572
9.4853 4.8410 -2.5028 0.9572
8.8310 5.9479 -2.5024 0.9572
8.7092 6.1244 -2.5023 0.9572
8.5838 6.2983 -2.5022 0.9572
8.4550 6.4697 -2.5021 0.9572
8.3227 6.6384 -2.5020 0.9572
8.1871 6.8044 -2.5020 0.9572
7.8923 7.1158 -2.4975 0.9573
7.5412 7.3709 -2.4784 0.9576
7.0439 7.4627 -2.4118 0.9587
6.5672 7.5444 -2.3508 0.9597
6.4088 7.6689 -2.3489 0.9598
6.2529 7.7962 -2.3488 0.9598
6.0944 7.9202 -2.3487 0.9598
5.7702 8.1587 -2.3486 0.9598
5.6045 8.2730 -2.3485 0.9598
5.2666 8.4914 -2.3484 0.9598
5.0943 8.5955 -2.3483 0.9598
4.9201 8.6961 -2.3482 0.9598
4.5656 8.8866 -2.3481 0.9598
4.3856 8.9765 -2.3480 0.9598
4.2039 9.0627 -2.3479 0.9598
4.0204 9.1452 -2.3479 0.9598
3.8353 9.2240 -2.3478 0.9598
3.4830 8.8768 -2.2411 0.9616
2.1729 9.1589 -2.2123 0.9621
1.6146 9.2656 -2.2104 0.9621
1.0482 9.3103 -2.2020 0.9622
0.6721 9.3399 -2.2008 0.9623
-0.2881 9.9801 -2.3465 0.9598
-0.6897 9.9600 -2.3464 0.9598
-0.8901 9.9438 -2.3464 0.9598
-1.0901 9.9237 -2.3463 0.9598
-2.0820 9.7629 -2.3461 0.9598
-2.6675 9.6190 -2.3460 0.9598
-2.8606 9.5632 -2.3460 0.9598
-3.0526 9.5035 -2.3459 0.9598
-3.4327 9.3726 -2.3459 0.9598
-3.6207 9.3015 -2.3458 0.9598
-3.8072 9.2265 -2.3458 0.9598
-3.9922 9.1479 -2.3458 0.9598
-4.1755 9.0656 -2.3458 0.9598
-4.3572 8.9795 -2.3457 0.9598
-4.7151 8.7966 -2.3457 0.9598
-4.8913 8.6999 -2.3457 0.9598
-5.4075 8.3885 -2.3456 0.9598
-5.5753 8.2778 -2.3456 0.9598
-6.2232 7.8022 -2.3456 0.9598
-6.6299 7.6580 -2.3806 0.9592
-6.8719 7.6218 -2.4119 0.9587
-7.1203 7.5845 -2.4450 0.9582
-7.3756 7.5460 -2.4799 0.9576
-7.5614 7.4307 -2.4916 0.9574
-8.0159 6.9777 -2.4977 0.9573
-8.1549 6.8149 -2.4977 0.9573
-8.7988 5.9608 -2.4978 0.9573
-9.0318 5.6017 -2.4978 0.9573
-9.4536 4.8570 -2.4979 0.9573
-9.5496 4.6657 -2.4979 0.9573
-9.8945 3.8823 -2.4980 0.9573
-9.9708 3.6823 -2.4981 0.9573
-10.1113 3.2779 -2.4981 0.9573
-10.2912 2.6616 -2.4983 0.9573
-10.3429 2.4538 -2.4983 0.9573
-10.5076 1.6137 -2.4985 0.9573
-10.5381 1.4018 -2.4985 0.9573
-10.6042 0.7631 -2.4987 0.9573
-10.6268 0.3355 -2.4988 0.9573
-10.6284 -0.3068 -2.4990 0.9573
-10.6203 -0.5208 -2.4990 0.9572
-10.5912 -0.9480 -2.4991 0.9572
-10.5450 -1.3738 -2.4993 0.9572
-10.3548 -2.4271 -2.4996 0.9572
-10.2493 -2.8423 -2.4997 0.9572
-0.3051 -9.6666 -2.5041 0.9608
-0.1104 -9.6710 -2.5042 0.9608
0.0844 -9.6715 -2.5042 0.9608
0.2791 -9.6680 -2.5043 0.9608
0.4738 -9.6606 -2.5043 0.9608
1.0563 -9.6149 -2.5044 0.9608
1.2497 -9.5918 -2.5045 0.9608
1.4426 -9.5649 -2.5045 0.9608
1.6349 -9.5341 -2.5046 0.9608
1.8266 -9.4994 -2.5046 0.9608
2.3970 -9.3722 -2.5047 0.9608
2.5852 -9.3221 -2.5048 0.9608
2.7725 -9.2683 -2.5048 0.9608
3.1435 -9.1494 -2.5049 0.9608
3.6903 -8.9432 -2.5050 0.9608
4.0475 -8.7876 -2.5050 0.9608
4.2237 -8.7044 -2.5050 0.9608
4.3982 -8.6176 -2.5051 0.9608
4.5708 -8.5274 -2.5051 0.9608
5.2423 -8.1321 -2.5051 0.9608
5.4051 -8.0250 -2.5052 0.9608
5.8798 -7.6841 -2.5052 0.9608
6.0334 -7.5642 -2.5052 0.9608
6.3331 -7.3151 -2.5052 0.9608
6.4791 -7.1861 -2.5052 0.9608
6.6225 -7.0542 -2.5052 0.9608
6.7632 -6.9194 -2.5052 0.9608
6.9012 -6.7818 -2.5052 0.9608
7.1687 -6.4984 -2.5052 0.9608
7.2980 -6.3528 -2.5052 0.9608
7.4245 -6.2045 -2.5052 0.9608
7.5479 -6.0537 -2.5052 0.9608
7.7855 -5.7448 -2.5052 0.9608
7.8995 -5.5869 -2.5052 0.9608
8.1180 -5.2642 -2.5051 0.9608
8.2223 -5.0996 -2.5051 0.9608
8.6057 -4.4213 -2.5050 0.9608
8.6929 -4.2471 -2.5050 0.9608
8.8567 -3.8935 -2.5050 0.9608
9.0753 -3.3516 -2.5049 0.9608
9.1408 -3.1681 -2.5048 0.9608
9.4553 -2.0430 -2.5046 0.9608
9.4943 -1.8521 -2.5046 0.9608
9.5295 -1.6606 -2.5045 0.9608
9.6119 -1.0821 -2.5044 0.9608
9.6316 -0.8883 -2.5044 0.9608
9.6473 -0.6942 -2.5043 0.9608
9.6671 -0.3051 -2.5042 0.9608
9.6711 -0.1104 -2.5042 0.9608
9.6711 0.0844 -2.5041 0.9608
9.6673 0.2791 -2.5041 0.9608
9.6321 0.8622 -2.5039 0.9608
9.5619 1.4421 -2.5037 0.9608
9.4567 2.0167 -2.5036 0.9608
9.4139 2.2066 -2.5035 0.9608
9.3170 2.5838 -2.5034 0.9608
9.2628 2.7708 -2.5033 0.9608
9.2049 2.9567 -2.5032 0.9608
9.1432 3.1414 -2.5032 0.9608
8.9362 3.6874 -2.5030 0.9608
8.7800 4.0440 -2.5028 0.9608
8.6965 4.2199 -2.5028 0.9608
8.6096 4.3940 -2.5027 0.9608
8.4252 4.7369 -2.5026 0.9609
8.2272 5.0720 -2.5024 0.9609
8.0158 5.3988 -2.5023 0.9609
7.9052 5.5590 -2.5022 0.9609
7.7915 5.7169 -2.5021 0.9609
7.6746 5.8725 -2.5021 0.9609
7.5545 6.0257 -2.5020 0.9609
7.4314 6.1764 -2.5019 0.9609
7.3054 6.3246 -2.5019 0.9609
7.1763 6.4702 -2.5018 0.9609
7.0443 6.6133 -2.5017 0.9609
6.9096 6.7536 -2.5016 0.9609
6.4850 7.1538 -2.5000 0.9609
6.1828 7.3986 -2.4965 0.9609
5.6385 7.6413 -2.4588 0.9615
5.4246 7.6701 -2.4324 0.9619
5.0096 7.7254 -2.3840 0.9627
4.8079 7.7520 -2.3618 0.9630
4.6244 7.8025 -2.3484 0.9632
4.4662 7.8938 -2.3483 0.9632
4.1445 8.0668 -2.3482 0.9632
3.6495 8.3017 -2.3480 0.9632
3.4815 8.3733 -2.3479 0.9632
3.3121 8.4415 -2.3479 0.9632
2.7962 8.6254 -2.3477 0.9632
2.6219 8.6797 -2.3476 0.9632
2.4465 8.7305 -2.3476 0.9632
2.2702 8.7778 -2.3475 0.9632
2.0929 8.8215 -2.3474 0.9632
1.9148 8.8617 -2.3474 0.9632
1.5563 8.9311 -2.3473 0.9632
1.3761 8.9605 -2.3472 0.9632
1.1954 8.9862 -2.3472 0.9632
0.2860 9.0598 -2.3469 0.9632
-0.6261 9.0418 -2.3467 0.9632
-0.9896 9.0089 -2.3466 0.9632
-1.1708 8.9870 -2.3466 0.9632
-1.3515 8.9614 -2.3465 0.9632
-1.7112 8.8994 -2.3464 0.9632
-2.4216 8.7324 -2.3463 0.9632
-2.7712 8.6275 -2.3462 0.9633
-2.9443 8.5699 -2.3462 0.9633
-3.4563 8.3762 -2.3461 0.9633
-3.6242 8.3048 -2.3461 0.9633
-3.7907 8.2300 -2.3461 0.9633
-4.1189 8.0706 -2.3460 0.9633
-4.2806 7.9859 -2.3460 0.9633
-4.8337 7.8406 -2.3848 0.9627
-5.0410 7.8200 -2.4090 0.9623
-5.6807 7.7422 -2.4863 0.9611
-5.8485 7.6432 -2.4918 0.9610
-6.0052 7.5289 -2.4935 0.9610
-6.1598 7.4115 -2.4952 0.9610
-6.3122 7.2910 -2.4969 0.9609
-6.4606 7.1656 -2.4981 0.9609
-6.6036 7.0341 -2.4981 0.9609
-6.7439 6.8997 -2.4981 0.9609
-6.8814 6.7625 -2.4981 0.9609
-7.5264 6.0366 -2.4981 0.9609
-7.7635 5.7286 -2.4981 0.9609
-8.1994 5.0855 -2.4982 0.9609
-8.3003 4.9194 -2.4982 0.9609
-8.6695 4.2357 -2.4983 0.9609
-8.8332 3.8832 -2.4983 0.9609
-8.9097 3.7046 -2.4983 0.9609
-9.0518 3.3429 -2.4984 0.9609
-9.1174 3.1600 -2.4984 0.9609
-9.2375 2.7904 -2.4985 0.9609
-9.4719 1.8478 -2.4987 0.9609
-9.5390 1.4650 -2.4988 0.9609
-9.6266 0.6927 -2.4989 0.9609
-9.6388 0.4987 -2.4990 0.9609
-9.6514 0.1102 -2.4991 0.9609
-9.6485 -0.2785 -2.4992 0.9609
-9.5726 -1.2471 -2.4995 0.9609
-9.4806 -1.8230 -2.4997 0.9609
-9.4421 -2.0136 -2.4997 0.9609
-9.3999 -2.2033 -2.4998 0.9609
-0.2790 -8.8404 -2.5039 0.9639
0.4333 -8.8348 -2.5041 0.9639
0.6111 -8.8245 -2.5041 0.9639
1.1428 -8.7719 -2.5042 0.9639
1.6705 -8.6873 -2.5044 0.9639
1.8451 -8.6520 -2.5044 0.9639
2.0190 -8.6132 -2.5044 0.9639
2.5354 -8.4759 -2.5045 0.9639
2.7056 -8.4232 -2.5046 0.9639
3.0427 -8.3077 -2.5046 0.9639
3.3748 -8.1786 -2.5047 0.9639
3.7015 -8.0362 -2.5047 0.9639
3.8626 -7.9601 -2.5047 0.9639
4.0221 -7.8808 -2.5048 0.9639
4.1800 -7.7983 -2.5048 0.9639
5.2344 -7.1339 -2.5049 0.9639
5.5175 -6.9174 -2.5049 0.9639
5.7916 -6.6896 -2.5049 0.9639
5.9251 -6.5717 -2.5049 0.9639
6.0562 -6.4510 -2.5049 0.9639
6.4347 -6.0736 -2.5049 0.9639
6.6740 -5.8095 -2.5049 0.9639
7.2241 -5.1091 -2.5049 0.9639
7.3254 -4.9626 -2.5048 0.9639
7.4238 -4.8141 -2.5048 0.9639
7.6116 -4.5112 -2.5048 0.9639
7.7008 -4.3570 -2.5048 0.9639
8.0262 -3.7230 -2.5047 0.9639
8.0994 -3.5606 -2.5047 0.9639
8.1694 -3.3968 -2.5047 0.9639
8.2361 -3.2315 -2.5046 0.9639
8.2994 -3.0650 -2.5046 0.9639
8.4690 -2.5582 -2.5045 0.9639
8.5649 -2.2151 -2.5044 0.9639
8.6077 -2.0421 -2.5044 0.9639
8.6469 -1.8683 -2.5044 0.9639
8.6827 -1.6938 -2.5043 0.9639
8.7687 -1.1664 -2.5042 0.9639
8.7903 -0.9896 -2.5042 0.9639
8.8083 -0.8124 -2.5041 0.9639
8.8227 -0.6348 -2.5041 0.9639
8.8335 -0.4570 -2.5040 0.9639
8.8445 0.0771 -2.5039 0.9639
8.8089 0.7885 -2.5037 0.9639
8.7697 1.1425 -2.5036 0.9639
8.7447 1.3189 -2.5036 0.9639
8.7162 1.4947 -2.5035 0.9639
8.6841 1.6698 -2.5034 0.9639
8.6485 1.8443 -2.5034 0.9639
8.4713 2.5340 -2.5032 0.9639
8.4184 2.7041 -2.5031 0.9639
8.1727 3.3724 -2.5029 0.9639
8.0299 3.6985 -2.5027 0.9639
7.9536 3.8594 -2.5027 0.9639
7.8741 4.0187 -2.5026 0.9639
7.7055 4.3322 -2.5025 0.9639
7.6165 4.4864 -2.5024 0.9639
7.4293 4.7892 -2.5023 0.9639
6.3195 6.1768 -2.5016 0.9639
6.1937 6.3027 -2.5016 0.9639
5.3880 7.0022 -2.5012 0.9639
5.2457 7.1091 -2.5011 0.9639
5.1014 7.2131 -2.5011 0.9639
4.8023 7.4058 -2.4987 0.9640
4.6498 7.4971 -2.4974 0.9640
4.0096 7.8044 -2.4839 0.9642
2.7452 7.9207 -2.3731 0.9658
2.5721 7.9340 -2.3611 0.9659
2.0764 8.0287 -2.3477 0.9661
1.9143 8.0687 -2.3476 0.9661
1.7514 8.1054 -2.3475 0.9661
0.9276 8.2396 -2.3473 0.9661
0.7615 8.2564 -2.3473 0.9661
0.4284 8.2801 -2.3472 0.9661
0.0947 8.2903 -2.3471 0.9661
-0.0723 8.2903 -2.3470 0.9661
-0.5727 8.2704 -2.3469 0.9661
-0.7391 8.2571 -2.3469 0.9661
-0.9052 8.2404 -2.3468 0.9661
-1.0710 8.2203 -2.3468 0.9661
-1.2362 8.1970 -2.3467 0.9661
-1.4010 8.1703 -2.3467 0.9661
-1.5652 8.1403 -2.3467 0.9661
-1.7288 8.1070 -2.3466 0.9661
-1.8917 8.0704 -2.3466 0.9661
-2.0538 8.0306 -2.3466 0.9661
-2.2191 8.0022 -2.3508 0.9661
-2.5647 7.9846 -2.3741 0.9657
-2.9166 7.9634 -2.4008 0.9654
-3.8325 7.8983 -2.4853 0.9642
-4.3174 7.6791 -2.4939 0.9640
-4.4733 7.5943 -2.4951 0.9640
-4.6277 7.5065 -2.4964 0.9640
-5.0765 7.2192 -2.4984 0.9640
-5.2209 7.1154 -2.4984 0.9640
-5.3631 7.0088 -2.4984 0.9640
-5.7764 6.6722 -2.4984 0.9640
-5.9096 6.5545 -2.4984 0.9640
-6.0404 6.4342 -2.4984 0.9640
-6.2946 6.1857 -2.4984 0.9640
-6.5385 5.9273 -2.4984 0.9640
-6.8845 5.5217 -2.4984 0.9640
-7.1013 5.2401 -2.4984 0.9640
-7.2054 5.0960 -2.4984 0.9640
-7.4049 4.8018 -2.4984 0.9640
-7.5001 4.6518 -2.4985 0.9640
-7.5923 4.4998 -2.4985 0.9640
-7.8503 4.0333 -2.4985 0.9640
-7.9300 3.8744 -2.4985 0.9640
-8.3397 2.8905 -2.4987 0.9640
-8.3964 2.7220 -2.4987 0.9640
-8.4496 2.5524 -2.4988 0.9640
-8.4994 2.3817 -2.4988 0.9640
-8.5457 2.2101 -2.4988 0.9640
-8.6639 1.6902 -2.4989 0.9640
-8.7252 1.3400 -2.4990 0.9640
-8.7506 1.1641 -2.4991 0.9640
-8.7724 0.9876 -2.4991 0.9640
-8.8240 0.2786 -2.4993 0.9640
-8.8280 0.1008 -2.4993 0.9640
-8.8082 -0.6099 -2.4995 0.9640
-8.7943 -0.7872 -2.4996 0.9640
-8.7313 -1.3168 -2.4997 0.9640
-8.6364 -1.8417 -2.4999 0.9640
-8.5977 -2.0153 -2.4999 0.9640
-8.5556 -2.1881 -2.5000 0.9640
-8.4610 -2.5309 -2.5001 0.9640
-0.2568 -8.1360 -2.5037 0.9665
-0.0929 -8.1397 -2.5038 0.9665
0.0710 -8.1401 -2.5038 0.9665
0.3987 -8.1309 -2.5039 0.9665
0.5624 -8.1213 -2.5039 0.9665
0.7258 -8.1085 -2.5040 0.9665
0.8890 -8.0923 -2.5040 0.9665
1.8581 -7.9268 -2.5042 0.9665
2.1758 -7.8458 -2.5043 0.9665
2.4900 -7.7520 -2.5043 0.9665
2.6456 -7.7004 -2.5044 0.9665
2.8002 -7.6456 -2.5044 0.9665
3.1058 -7.5268 -2.5044 0.9665
3.8469 -7.1767 -2.5045 0.9665
4.1328 -7.0161 -2.5046 0.9665
4.2733 -6.9315 -2.5046 0.9665
4.4120 -6.8441 -2.5046 0.9665
4.6840 -6.6610 -2.5046 0.9665
4.8172 -6.5653 -2.5046 0.9665
5.2049 -6.2625 -2.5046 0.9665
5.4529 -6.0479 -2.5046 0.9665
5.5735 -5.9368 -2.5046 0.9665
5.6920 -5.8234 -2.5046 0.9665
5.8081 -5.7076 -2.5046 0.9665
6.1421 -5.3465 -2.5046 0.9665
6.2485 -5.2217 -2.5046 0.9665
6.3523 -5.0948 -2.5046 0.9665
6.4536 -4.9659 -2.5046 0.9665
6.5523 -4.8349 -2.5046 0.9665
6.6483 -4.7019 -2.5046 0.9665
7.0871 -4.0097 -2.5045 0.9665
7.2427 -3.7210 -2.5045 0.9665
7.3161 -3.5744 -2.5045 0.9665
7.3865 -3.4263 -2.5045 0.9665
7.5183 -3.1261 -2.5044 0.9665
7.5797 -2.9740 -2.5044 0.9665
7.6380 -2.8207 -2.5044 0.9665
7.6931 -2.6663 -2.5043 0.9665
7.8398 -2.1969 -2.5043 0.9665
7.9217 -1.8794 -2.5042 0.9665
7.9908 -1.5588 -2.5041 0.9665
8.0468 -1.2358 -2.5041 0.9665
8.0700 -1.0735 -2.5040 0.9665
8.0898 -0.9107 -2.5040 0.9665
8.1197 -0.5843 -2.5039 0.9665
8.1297 -0.4206 -2.5039 0.9665
8.1364 -0.2568 -2.5038 0.9665
8.1366 0.2349 -2.5037 0.9665
8.0481 1.2138 -2.5034 0.9665
8.0218 1.3756 -2.5034 0.9665
7.9923 1.5368 -2.5033 0.9665
7.6960 2.6441 -2.5029 0.9665
7.6410 2.7985 -2.5029 0.9665
7.5829 2.9517 -2.5028 0.9665
7.3904 3.4040 -2.5027 0.9665
7.2470 3.6986 -2.5025 0.9665
7.0919 3.9873 -2.5024 0.9665
6.8377 4.4079 -2.5022 0.9665
6.3592 5.0723 -2.5019 0.9665
6.2556 5.1992 -2.5019 0.9665
6.1495 5.3239 -2.5018 0.9665
6.0409 5.4466 -2.5018 0.9665
5.9299 5.5670 -2.5017 0.9665
5.8164 5.6851 -2.5016 0.9665
5.4622 6.0255 -2.5015 0.9665
5.3396 6.1341 -2.5014 0.9665
4.4240 6.8223 -2.5010 0.9665
4.2856 6.9099 -2.5009 0.9665
3.7154 7.2317 -2.5007 0.9665
3.2712 7.4409 -2.5001 0.9666
2.9667 7.5611 -2.4983 0.9666
2.8129 7.6168 -2.4974 0.9666
2.1885 7.8097 -2.4946 0.9666
2.0302 7.8502 -2.4940 0.9666
1.7118 7.9221 -2.4929 0.9667
1.5516 7.9535 -2.4924 0.9667
1.3884 7.9677 -2.4876 0.9667
0.2526 8.0015 -2.4623 0.9671
-0.5544 8.0068 -2.4686 0.9670
-0.8792 8.0031 -2.4764 0.9669
-1.0424 8.0010 -2.4817 0.9668
-1.3692 7.9846 -2.4918 0.9667
-1.5300 7.9567 -2.4922 0.9667
-1.6901 7.9256 -2.4926 0.9667
-2.1669 7.8140 -2.4941 0.9666
-2.3245 7.7707 -2.4947 0.9666
-2.4811 7.7244 -2.4954 0.9666
-2.7918 7.6227 -2.4969 0.9666
-3.0984 7.5089 -2.4985 0.9666
-3.2495 7.4460 -2.4988 0.9666
-3.3987 7.3790 -2.4988 0.9666
-3.5466 7.3090 -2.4988 0.9666
-3.6930 7.2361 -2.4988 0.9666
-4.2632 6.9153 -2.4987 0.9666
-4.9366 6.4516 -2.4986 0.9666
-5.0655 6.3508 -2.4986 0.9666
-5.5601 5.9226 -2.4986 0.9666
-5.7941 5.6939 -2.4986 0.9666
-6.0187 5.4560 -2.4986 0.9666
-6.1273 5.3337 -2.4986 0.9666
-6.3371 5.0827 -2.4986 0.9666
-6.5367 4.8234 -2.4987 0.9666
-6.6325 4.6908 -2.4987 0.9666
-6.8161 4.4200 -2.4987 0.9666
-6.9038 4.2819 -2.4987 0.9666
-7.0707 4.0004 -2.4987 0.9666
-7.1498 3.8573 -2.4988 0.9666
-7.2995 3.5663 -2.4988 0.9666
-7.5017 3.1192 -2.4989 0.9666
-7.6213 2.8146 -2.4989 0.9666
-7.6765 2.6606 -2.4989 0.9666
-7.7286 2.5055 -2.4990 0.9666
-7.9419 1.7160 -2.4991 0.9666
-7.9749 1.5558 -2.4991 0.9666
-8.0047 1.3949 -2.4992 0.9666
-8.0313 1.2334 -2.4992 0.9666
-8.0915 0.7463 -2.4993 0.9666
-8.1050 0.5832 -2.4994 0.9666
-8.1222 0.2564 -2.4995 0.9666
-8.1233 -0.2345 -2.4996 0.9666
-8.1171 -0.3980 -2.4996 0.9666
-8.1075 -0.5614 -2.4997 0.9666
-8.0947 -0.7246 -2.4997 0.9666
-8.0593 -1.0500 -2.4998 0.9666
-8.0108 -1.3737 -2.4999 0.9666
-7.9493 -1.6952 -2.5000 0.9666
-7.9137 -1.8550 -2.5001 0.9666
-7.7878 -2.3296 -2.5002 0.9666
-0.2376 -7.5279 -2.5036 0.9688
-0.0860 -7.5313 -2.5036 0.9688
0.2174 -7.5289 -2.5037 0.9687
0.3689 -7.5231 -2.5037 0.9687
0.6716 -7.5023 -2.5038 0.9687
1.1234 -7.4484 -2.5039 0.9687
1.2732 -7.4244 -2.5039 0.9687
1.4224 -7.3973 -2.5040 0.9687
1.5711 -7.3673 -2.5040 0.9687
1.7192 -7.3342 -2.5040 0.9687
2.1589 -7.2173 -2.5041 0.9687
2.3039 -7.1724 -2.5041 0.9687
2.5908 -7.0740 -2.5042 0.9687
2.7328 -7.0204 -2.5042 0.9687
2.8736 -6.9640 -2.5042 0.9687
3.0133 -6.9048 -2.5042 0.9687
3.2889 -6.7780 -2.5043 0.9687
3.5592 -6.6401 -2.5043 0.9687
3.9537 -6.4132 -2.5044 0.9687
4.0821 -6.3323 -2.5044 0.9687
4.3338 -6.1629 -2.5044 0.9687
4.4570 -6.0744 -2.5044 0.9687
4.5785 -5.9834 -2.5044 0.9687
4.8157 -5.7942 -2.5044 0.9687
5.0451 -5.5957 -2.5044 0.9687
5.8774 -4.7139 -2.5044 0.9687
6.0624 -4.4734 -2.5044 0.9687
6.1512 -4.3504 -2.5044 0.9687
6.4026 -3.9710 -2.5043 0.9687
6.5572 -3.7099 -2.5043 0.9687
6.6305 -3.5771 -2.5043 0.9687
6.7012 -3.4428 -2.5043 0.9687
6.7691 -3.3071 -2.5043 0.9687
6.8343 -3.1702 -2.5042 0.9687
6.9562 -2.8923 -2.5042 0.9687
7.0130 -2.7517 -2.5042 0.9687
7.0669 -2.6098 -2.5042 0.9687
7.1661 -2.3231 -2.5041 0.9687
7.2114 -2.1783 -2.5041 0.9687
7.2537 -2.0326 -2.5041 0.9687
7.3295 -1.7389 -2.5040 0.9687
7.4209 -1.2931 -2.5039 0.9687
7.4453 -1.1434 -2.5039 0.9687
7.4667 -0.9932 -2.5038 0.9687
7.4851 -0.8427 -2.5038 0.9687
7.5004 -0.6917 -2.5038 0.9687
7.5127 -0.5406 -2.5037 0.9687
7.5220 -0.3892 -2.5037 0.9687
7.5313 -0.0860 -2.5036 0.9688
7.5314 0.0657 -2.5036 0.9688
7.5133 0.5203 -2.5034 0.9688
7.5012 0.6715 -2.5034 0.9688
7.4223 1.2728 -2.5032 0.9688
7.3647 1.5706 -2.5031 0.9688
7.3315 1.7185 -2.5031 0.9688
7.2561 2.0122 -2.5030 0.9688
7.1689 2.3027 -2.5029 0.9688
7.1209 2.4465 -2.5028 0.9688
7.0163 2.7312 -2.5027 0.9688
6.9004 3.0114 -2.5026 0.9688
6.7055 3.4223 -2.5025 0.9688
6.5620 3.6893 -2.5024 0.9688
6.4862 3.8207 -2.5023 0.9688
6.4079 3.9504 -2.5023 0.9688
6.1572 4.3298 -2.5021 0.9688
5.9776 4.5740 -2.5020 0.9688
5.8842 4.6934 -2.5019 0.9688
5.5897 5.0397 -2.5018 0.9688
5.2749 5.3677 -2.5016 0.9688
5.1656 5.4727 -2.5015 0.9688
5.0542 5.5755 -2.5015 0.9688
4.9408 5.6760 -2.5014 0.9688
4.8254 5.7742 -2.5014 0.9688
4.7080 5.8701 -2.5013 0.9688
4.5888 5.9636 -2.5013 0.9688
4.4677 6.0546 -2.5012 0.9688
4.3447 6.1432 -2.5011 0.9688
4.0937 6.3129 -2.5010 0.9688
3.9656 6.3939 -2.5010 0.9688
3.8360 6.4723 -2.5009 0.9688
3.5721 6.6213 -2.5008 0.9688
3.4380 6.6917 -2.5008 0.9688
3.3025 6.7595 -2.5007 0.9688
3.1656 6.8244 -2.5007 0.9688
2.8881 6.9461 -2.5005 0.9688
2.7476 7.0027 -2.5005 0.9688
2.6060 7.0564 -2.5004 0.9688
2.4633 7.1073 -2.5004 0.9688
2.1751 7.2005 -2.5003 0.9688
2.0296 7.2427 -2.5002 0.9688
1.8833 7.2819 -2.5002 0.9688
1.7362 7.3183 -2.5002 0.9688
1.4401 7.3820 -2.5001 0.9688
1.2911 7.4093 -2.5000 0.9688
1.1416 7.4337 -2.5000 0.9688
0.6907 7.4886 -2.4998 0.9688
0.5397 7.5009 -2.4998 0.9688
0.3886 7.5101 -2.4998 0.9688
-0.0656 7.5195 -2.4996 0.9688
-0.5194 7.5015 -2.4995 0.9688
-0.6704 7.4894 -2.4995 0.9688
-1.2708 7.4108 -2.4993 0.9688
-1.5681 7.3534 -2.4993 0.9688
-2.0092 7.2451 -2.4992 0.9688
-2.1547 7.2031 -2.4992 0.9688
-2.2992 7.1581 -2.4991 0.9688
-3.0070 6.8905 -2.4990 0.9688
-3.1451 6.8285 -2.4990 0.9688
-3.4175 6.6962 -2.4990 0.9688
-3.5516 6.6260 -2.4990 0.9688
-3.9451 6.3993 -2.4989 0.9688
-4.3243 6.1494 -2.4989 0.9688
-4.4472 6.0610 -2.4989 0.9688
-4.5683 5.9702 -2.4989 0.9688
-4.9204 5.6835 -2.4989 0.9688
-5.0339 5.5832 -2.4989 0.9688
-5.2546 5.3760 -2.4988 0.9688
-5.3618 5.2691 -2.4988 0.9688
-5.6702 4.9358 -2.4989 0.9688
-5.7684 4.8206 -2.4989 0.9688
-5.8644 4.7035 -2.4989 0.9688
-6.1377 4.3409 -2.4989 0.9688
-6.3076 4.0902 -2.4989 0.9688
-6.3887 3.9624 -2.4989 0.9688
-6.4672 3.8330 -2.4989 0.9688
-6.5431 3.7020 -2.4990 0.9688
-6.6164 3.5695 -2.4990 0.9688
-6.6870 3.4356 -2.4990 0.9688
-6.7549 3.3002 -2.4990 0.9688
-6.9420 2.8864 -2.4991 0.9688
-6.9987 2.7461 -2.4991 0.9688
-7.0527 2.6046 -2.4991 0.9688
-7.1520 2.3186 -2.4992 0.9688
-7.1973 2.1741 -2.4992 0.9688
-7.2397 2.0287 -2.4992 0.9688
-7.3157 1.7356 -2.4993 0.9688
-7.3492 1.5880 -2.4993 0.9688
-7.3798 1.4397 -2.4993 0.9688
-7.4074 1.2908 -2.4994 0.9688
-7.4320 1.1414 -2.4994 0.9688
-7.4721 0.8412 -2.4995 0.9688
-7.5096 0.3886 -2.4996 0.9688
-7.5160 0.2373 -2.4996 0.9688
-7.5198 -0.0654 -2.4997 0.9688
-7.5024 -0.5195 -2.4998 0.9688
-7.4906 -0.6705 -2.4999 0.9688
-7.3859 -1.4202 -2.5001 0.9688
-7.3559 -1.5687 -2.5001 0.9688
-7.2871 -1.8636 -2.5002 0.9688
-7.2064 -2.1556 -2.5003 0.9688
-0.0799 -7.0001 -2.5035 0.9707
0.2020 -6.9979 -2.5035 0.9707
0.6242 -6.9732 -2.5036 0.9707
0.7645 -6.9593 -2.5037 0.9707
1.1834 -6.9007 -2.5038 0.9707
1.3221 -6.8756 -2.5038 0.9707
1.5979 -6.8169 -2.5038 0.9707
1.7349 -6.7834 -2.5039 0.9707
2.1413 -6.6665 -2.5039 0.9707
2.2752 -6.6221 -2.5040 0.9707
2.4081 -6.5750 -2.5040 0.9707
2.5400 -6.5252 -2.5040 0.9707
2.6709 -6.4728 -2.5040 0.9707
2.8007 -6.4177 -2.5041 0.9707
3.3082 -6.1717 -2.5041 0.9707
3.6748 -5.9608 -2.5042 0.9707
3.7941 -5.8856 -2.5042 0.9707
3.9119 -5.8081 -2.5042 0.9707
4.1426 -5.6459 -2.5042 0.9707
4.3666 -5.4745 -2.5042 0.9707
4.7930 -5.1054 -2.5042 0.9707
4.8948 -5.0079 -2.5042 0.9707
5.0925 -4.8067 -2.5042 0.9707
5.1883 -4.7032 -2.5042 0.9707
5.3734 -4.4904 -2.5042 0.9707
5.6347 -4.1578 -2.5042 0.9707
5.7173 -4.0435 -2.5042 0.9707
5.7975 -3.9275 -2.5042 0.9707
5.9509 -3.6908 -2.5042 0.9707
6.1628 -3.3248 -2.5041 0.9707
6.2284 -3.2000 -2.5041 0.9707
6.2916 -3.0739 -2.5041 0.9707
6.4101 -2.8180 -2.5040 0.9707
6.5183 -2.5575 -2.5040 0.9707
6.5684 -2.4257 -2.5040 0.9707
6.6159 -2.2930 -2.5040 0.9707
6.6607 -2.1593 -2.5039 0.9707
6.8719 -1.3406 -2.5038 0.9707
6.9401 -0.9232 -2.5037 0.9707
6.9829 -0.5024 -2.5036 0.9707
6.9915 -0.3617 -2.5035 0.9707
7.0002 0.0611 -2.5034 0.9707
6.9722 0.6241 -2.5033 0.9707
6.9581 0.7644 -2.5032 0.9707
6.9412 0.9043 -2.5032 0.9707
6.8989 1.1830 -2.5031 0.9707
6.8454 1.4598 -2.5030 0.9707
6.8145 1.5973 -2.5030 0.9707
6.7809 1.7342 -2.5029 0.9707
6.7444 1.8704 -2.5029 0.9707
6.7053 2.0058 -2.5028 0.9707
6.6634 2.1403 -2.5028 0.9707
6.6188 2.2741 -2.5028 0.9707
6.5716 2.4068 -2.5027 0.9707
6.5217 2.5386 -2.5027 0.9707
6.4691 2.6694 -2.5026 0.9707
6.4139 2.7991 -2.5026 0.9707
6.1674 3.3058 -2.5024 0.9707
6.0290 3.5513 -2.5023 0.9707
5.9562 3.6719 -2.5022 0.9707
5.8033 3.9087 -2.5021 0.9707
5.6409 4.1390 -2.5020 0.9707
5.3804 4.4717 -2.5019 0.9707
5.1958 4.6846 -2.5017 0.9707
5.1003 4.7881 -2.5017 0.9707
5.0027 4.8898 -2.5016 0.9707
4.9031 4.9894 -2.5016 0.9707
4.6981 5.1826 -2.5015 0.9707
4.3763 5.4564 -2.5013 0.9707
4.2654 5.5434 -2.5013 0.9707
4.1529 5.6280 -2.5012 0.9707
4.0386 5.7104 -2.5012 0.9707
3.9227 5.7904 -2.5011 0.9707
3.6862 5.9434 -2.5010 0.9707
3.4438 6.0868 -2.5009 0.9707
2.5541 6.5094 -2.5006 0.9707
2.4224 6.5594 -2.5005 0.9707
2.2898 6.6067 -2.5005 0.9707
2.1563 6.6513 -2.5004 0.9707
1.8866 6.7325 -2.5003 0.9707
1.7506 6.7690 -2.5003 0.9707
1.6139 6.8028 -2.5003 0.9707
1.3387 6.8620 -2.5002 0.9707
1.2002 6.8875 -2.5001 0.9707
1.0612 6.9101 -2.5001 0.9707
0.9219 6.9300 -2.5000 0.9707
0.6420 6.9613 -2.5000 0.9707
0.3612 6.9812 -2.4999 0.9707
-0.0610 6.9900 -2.4998 0.9707
-0.2017 6.9873 -2.4997 0.9707
-0.3424 6.9817 -2.4997 0.9707
-0.6232 6.9621 -2.4996 0.9707
-0.9030 6.9311 -2.4996 0.9707
-1.0424 6.9114 -2.4995 0.9707
-1.1813 6.8890 -2.4995 0.9707
-1.4577 6.8357 -2.4994 0.9707
-1.7317 6.7713 -2.4994 0.9707
-2.0030 6.6959 -2.4993 0.9707
-2.1374 6.6542 -2.4993 0.9707
-2.4035 6.5626 -2.4993 0.9707
-2.5352 6.5128 -2.4993 0.9707
-2.6658 6.4604 -2.4992 0.9707
-2.9237 6.3477 -2.4992 0.9707
-3.0509 6.2875 -2.4992 0.9707
-3.3016 6.1595 -2.4991 0.9707
-3.5469 6.0215 -2.4991 0.9707
-3.6674 5.9488 -2.4991 0.9707
-3.9039 5.7962 -2.4991 0.9707
-4.0198 5.7165 -2.4991 0.9707
-4.1341 5.6343 -2.4991 0.9707
-4.4667 5.3744 -2.4991 0.9707
-4.5740 5.2833 -2.4990 0.9707
-4.6795 5.1902 -2.4990 0.9707
-4.9843 4.8982 -2.4990 0.9707
-5.1775 4.6935 -2.4990 0.9707
-5.3623 4.4812 -2.4991 0.9707
-5.7056 4.0353 -2.4991 0.9707
-5.7857 3.9196 -2.4991 0.9707
-5.9389 3.6834 -2.4991 0.9707
-6.0119 3.5631 -2.4991 0.9707
-6.0825 3.4414 -2.4991 0.9707
-6.1506 3.3182 -2.4992 0.9707
-6.3398 2.9408 -2.4992 0.9707
-6.4532 2.6832 -2.4992 0.9707
-6.6905 2.0210 -2.4994 0.9707
-6.7299 1.8859 -2.4994 0.9707
-6.8318 1.4762 -2.4995 0.9707
-6.8602 1.3383 -2.4995 0.9707
-6.8858 1.1999 -2.4995 0.9707
-6.9087 1.0610 -2.4996 0.9707
-6.9287 0.9217 -2.4996 0.9707
-6.9460 0.7820 -2.4996 0.9707
-6.9604 0.6420 -2.4997 0.9707
-6.9808 0.3612 -2.4997 0.9707
-6.9868 0.2206 -2.4998 0.9707
-6.9899 0.0798 -2.4998 0.9707
-6.9902 -0.0610 -2.4998 0.9707
-6.9741 -0.4829 -2.4999 0.9707
-6.9492 -0.7634 -2.5000 0.9707
-6.9325 -0.9032 -2.5001 0.9707
-6.8908 -1.1816 -2.5002 0.9707
-6.8657 -1.3201 -2.5002 0.9707
-6.8378 -1.4582 -2.5002 0.9707
-6.8072 -1.5956 -2.5003 0.9707
-6.6988 -2.0038 -2.5004 0.9707
-0.2061 -6.5291 -2.5033 0.9724
0.1885 -6.5299 -2.5034 0.9724
0.7134 -6.4939 -2.5035 0.9724
0.8440 -6.4782 -2.5036 0.9724
1.1042 -6.4392 -2.5036 0.9724
1.2337 -6.4157 -2.5036 0.9724
1.3626 -6.3896 -2.5037 0.9724
1.6188 -6.3297 -2.5037 0.9724
1.7460 -6.2959 -2.5037 0.9724
1.8724 -6.2595 -2.5038 0.9724
2.2470 -6.1352 -2.5038 0.9724
2.8524 -5.8784 -2.5039 0.9724
3.0869 -5.7589 -2.5040 0.9724
3.4290 -5.5621 -2.5040 0.9724
3.5403 -5.4919 -2.5040 0.9724
3.6502 -5.4195 -2.5040 0.9724
3.7586 -5.3450 -2.5040 0.9724
3.8655 -5.2682 -2.5040 0.9724
4.1766 -5.0252 -2.5040 0.9724
4.2769 -4.9401 -2.5040 0.9724
4.3755 -4.8530 -2.5041 0.9724
4.4724 -4.7639 -2.5041 0.9724
4.6606 -4.5800 -2.5041 0.9724
5.2578 -3.8797 -2.5040 0.9724
5.3348 -3.7730 -2.5040 0.9724
5.4097 -3.6648 -2.5040 0.9724
5.6210 -3.3314 -2.5040 0.9724
5.6869 -3.2175 -2.5040 0.9724
5.7505 -3.1023 -2.5039 0.9724
5.8707 -2.8682 -2.5039 0.9724
5.9272 -2.7494 -2.5039 0.9724
5.9814 -2.6295 -2.5039 0.9724
6.0330 -2.5085 -2.5039 0.9724
6.3253 -1.6358 -2.5037 0.9724
6.3569 -1.5081 -2.5037 0.9724
6.3859 -1.3798 -2.5037 0.9724
6.4123 -1.2509 -2.5036 0.9724
6.4573 -0.9917 -2.5036 0.9724
6.4918 -0.7308 -2.5035 0.9724
6.5052 -0.6000 -2.5035 0.9724
6.5239 -0.3375 -2.5034 0.9724
6.5293 -0.2061 -2.5034 0.9724
6.5320 -0.0746 -2.5034 0.9724
6.5295 0.1885 -2.5033 0.9724
6.5243 0.3200 -2.5032 0.9724
6.4928 0.7132 -2.5031 0.9724
6.4586 0.9741 -2.5031 0.9724
6.3877 1.3622 -2.5029 0.9724
6.2570 1.8717 -2.5028 0.9724
6.2179 1.9972 -2.5027 0.9724
6.1763 2.1220 -2.5027 0.9724
6.1322 2.2459 -2.5026 0.9724
6.0856 2.3689 -2.5026 0.9724
5.9851 2.6119 -2.5025 0.9724
5.9312 2.7319 -2.5025 0.9724
5.8749 2.8507 -2.5024 0.9724
5.8162 2.9684 -2.5024 0.9724
5.7551 3.0848 -2.5023 0.9724
5.6917 3.2000 -2.5023 0.9724
5.5580 3.4265 -2.5022 0.9724
5.3407 3.7556 -2.5020 0.9724
5.1849 3.9675 -2.5019 0.9724
5.1039 4.0710 -2.5019 0.9724
5.0208 4.1729 -2.5018 0.9724
4.8485 4.3715 -2.5017 0.9724
4.7594 4.4681 -2.5017 0.9724
4.6684 4.5630 -2.5016 0.9724
4.3841 4.8362 -2.5015 0.9724
4.1856 5.0087 -2.5014 0.9724
3.7687 5.3288 -2.5012 0.9724
3.4399 5.5463 -2.5011 0.9724
3.3275 5.6144 -2.5010 0.9724
3.2137 5.6801 -2.5010 0.9724
3.0986 5.7436 -2.5009 0.9724
2.9823 5.8047 -2.5009 0.9724
2.8647 5.8635 -2.5008 0.9724
2.7460 5.9199 -2.5008 0.9724
2.6262 5.9738 -2.5007 0.9724
2.5053 6.0254 -2.5007 0.9724
2.2606 6.1212 -2.5006 0.9724
2.1368 6.1654 -2.5006 0.9724
1.8868 6.2462 -2.5005 0.9724
1.2492 6.4037 -2.5003 0.9724
0.9903 6.4486 -2.5002 0.9724
0.7299 6.4830 -2.5001 0.9724
0.5992 6.4963 -2.5001 0.9724
0.4682 6.5070 -2.5000 0.9724
0.3371 6.5150 -2.5000 0.9724
0.0745 6.5231 -2.4999 0.9724
-0.7123 6.4840 -2.4997 0.9724
-0.8427 6.4683 -2.4997 0.9724
-1.1024 6.4289 -2.4996 0.9724
-1.2317 6.4054 -2.4996 0.9724
-1.3604 6.3792 -2.4996 0.9724
-1.4885 6.3504 -2.4996 0.9724
-1.8692 6.2488 -2.4995 0.9724
-1.9946 6.2098 -2.4995 0.9724
-2.1193 6.1684 -2.4995 0.9724
-2.3659 6.0779 -2.4994 0.9724
-2.4878 6.0290 -2.4994 0.9724
-2.6087 5.9776 -2.4994 0.9724
-2.7285 5.9239 -2.4994 0.9724
-3.1962 5.6850 -2.4993 0.9724
-3.3101 5.6194 -2.4993 0.9724
-3.4225 5.5516 -2.4993 0.9724
-3.7514 5.3348 -2.4992 0.9724
-3.8581 5.2581 -2.4992 0.9724
-3.9632 5.1794 -2.4992 0.9724
-4.2686 4.9306 -2.4992 0.9725
-4.4637 4.7547 -2.4992 0.9725
-4.5586 4.6639 -2.4992 0.9725
-5.0043 4.1820 -2.4992 0.9724
-5.1687 3.9771 -2.4992 0.9724
-5.3994 3.6579 -2.4993 0.9724
-5.4720 3.5484 -2.4993 0.9724
-5.8011 2.9804 -2.4993 0.9724
-5.8600 2.8630 -2.4994 0.9724
-5.9165 2.7445 -2.4994 0.9724
-5.9706 2.6248 -2.4994 0.9724
-6.0223 2.5040 -2.4994 0.9724
-6.0716 2.3823 -2.4994 0.9724
-6.2438 1.8861 -2.4995 0.9724
-6.2805 1.7600 -2.4995 0.9724
-6.3465 1.5057 -2.4996 0.9724
-6.4260 1.1198 -2.4997 0.9724
-6.4956 0.5991 -2.4998 0.9724
-6.5231 0.0745 -2.4999 0.9724
-6.5233 -0.0569 -2.5000 0.9724
-6.5159 -0.3195 -2.5000 0.9724
-6.5083 -0.4507 -2.5001 0.9724
-6.4850 -0.7124 -2.5001 0.9724
-6.4695 -0.8429 -2.5002 0.9724
-6.3811 -1.3608 -2.5003 0.9724
-0.1929 -6.1131 -2.5032 0.9739
0.2996 -6.1092 -2.5033 0.9739
0.4226 -6.1019 -2.5034 0.9739
0.6679 -6.0801 -2.5034 0.9739
0.7902 -6.0655 -2.5034 0.9739
0.9122 -6.0484 -2.5035 0.9739
1.0339 -6.0289 -2.5035 0.9739
1.1551 -6.0069 -2.5035 0.9739
1.2758 -5.9825 -2.5035 0.9739
1.5157 -5.9264 -2.5036 0.9739
1.7531 -5.8606 -2.5036 0.9739
2.1038 -5.7443 -2.5037 0.9739
2.2191 -5.7008 -2.5037 0.9739
2.3335 -5.6550 -2.5037 0.9739
2.4469 -5.6069 -2.5037 0.9739
2.6707 -5.5038 -2.5038 0.9739
2.7810 -5.4490 -2.5038 0.9739
2.8902 -5.3919 -2.5038 0.9739
2.9982 -5.3326 -2.5038 0.9739
3.1050 -5.2712 -2.5038 0.9739
3.3147 -5.1420 -2.5039 0.9739
3.4176 -5.0742 -2.5039 0.9739
3.5191 -5.0044 -2.5039 0.9739
3.6192 -4.9325 -2.5039 0.9739
3.8149 -4.7828 -2.5039 0.9739
3.9104 -4.7050 -2.5039 0.9739
4.0044 -4.6253 -2.5039 0.9739
4.0967 -4.5437 -2.5039 0.9739
4.1874 -4.4603 -2.5039 0.9739
4.2763 -4.3751 -2.5039 0.9739
4.4490 -4.1994 -2.5039 0.9739
4.6944 -3.9230 -2.5039 0.9739
4.7725 -3.8277 -2.5039 0.9739
5.3245 -3.0125 -2.5038 0.9739
5.4415 -2.7956 -2.5038 0.9739
5.4966 -2.6855 -2.5038 0.9739
5.5496 -2.5742 -2.5038 0.9739
5.6002 -2.4619 -2.5037 0.9739
5.6486 -2.3487 -2.5037 0.9739
5.6947 -2.2344 -2.5037 0.9739
5.8191 -1.8865 -2.5036 0.9739
5.8559 -1.7689 -2.5036 0.9739
6.0260 -1.0501 -2.5035 0.9739
6.0459 -0.9285 -2.5034 0.9739
6.0907 -0.5617 -2.5034 0.9739
6.1007 -0.4390 -2.5033 0.9739
6.1083 -0.3160 -2.5033 0.9739
6.1160 0.0533 -2.5032 0.9739
6.1136 0.1765 -2.5032 0.9739
6.1087 0.2996 -2.5031 0.9739
6.1013 0.4225 -2.5031 0.9739
5.9808 1.2754 -2.5029 0.9739
5.9538 1.3956 -2.5028 0.9739
5.9244 1.5152 -2.5028 0.9739
5.8219 1.8700 -2.5027 0.9739
5.7829 1.9869 -2.5026 0.9739
5.6521 2.3323 -2.5025 0.9739
5.6039 2.4456 -2.5024 0.9739
5.5535 2.5579 -2.5024 0.9739
5.5007 2.6692 -2.5024 0.9739
5.4458 2.7793 -2.5023 0.9739
5.2677 3.1029 -2.5022 0.9739
5.1383 3.3124 -2.5021 0.9739
5.0705 3.4151 -2.5020 0.9739
5.0006 3.5165 -2.5020 0.9739
4.8548 3.7148 -2.5019 0.9739
4.6214 4.0010 -2.5018 0.9739
4.4564 4.1837 -2.5017 0.9739
4.3712 4.2725 -2.5016 0.9739
4.2842 4.3595 -2.5016 0.9739
4.1050 4.5284 -2.5015 0.9739
4.0129 4.6100 -2.5015 0.9739
3.9192 4.6898 -2.5014 0.9739
3.7270 4.8436 -2.5013 0.9739
3.6287 4.9176 -2.5013 0.9739
3.5288 4.9896 -2.5012 0.9739
3.4276 5.0596 -2.5012 0.9739
3.2210 5.1933 -2.5011 0.9739
3.0092 5.3186 -2.5010 0.9739
2.9014 5.3780 -2.5010 0.9739
2.7924 5.4353 -2.5009 0.9739
2.5712 5.5431 -2.5008 0.9739
2.3459 5.6419 -2.5008 0.9739
2.1167 5.7316 -2.5007 0.9739
2.0008 5.7730 -2.5006 0.9739
1.8842 5.8120 -2.5006 0.9739
1.7667 5.8487 -2.5005 0.9739
1.6485 5.8830 -2.5005 0.9739
1.2903 5.9715 -2.5004 0.9739
0.1927 6.1055 -2.5001 0.9739
-0.1762 6.1058 -2.5000 0.9739
-0.2992 6.1009 -2.4999 0.9739
-0.4220 6.0935 -2.4999 0.9739
-0.5446 6.0837 -2.4999 0.9739
-0.6670 6.0715 -2.4999 0.9739
-0.7891 6.0568 -2.4998 0.9739
-0.9109 6.0396 -2.4998 0.9739
-1.0323 6.0199 -2.4998 0.9739
-1.2738 5.9734 -2.4997 0.9739
-1.3938 5.9464 -2.4997 0.9739
-1.5133 5.9171 -2.4997 0.9739
-1.6321 5.8854 -2.4997 0.9739
-1.9845 5.7760 -2.4996 0.9739
-2.1003 5.7348 -2.4996 0.9739
-2.2154 5.6913 -2.4996 0.9739
-2.4427 5.5974 -2.4995 0.9739
-2.7762 5.4396 -2.4995 0.9740
-2.8851 5.3826 -2.4995 0.9740
-3.0995 5.2620 -2.4994 0.9740
-3.4115 5.0652 -2.4994 0.9740
-3.6127 4.9237 -2.4994 0.9740
-3.7111 4.8499 -2.4994 0.9740
-3.8080 4.7742 -2.4994 0.9740
-3.9971 4.6170 -2.4994 0.9740
-4.0893 4.5355 -2.4994 0.9740
-4.1798 4.4523 -2.4994 0.9740
-4.3557 4.2803 -2.4994 0.9740
-4.4410 4.1918 -2.4994 0.9740
-4.6062 4.0096 -2.4994 0.9740
-4.8399 3.7242 -2.4994 0.9740
-4.9139 3.6260 -2.4994 0.9740
-4.9859 3.5263 -2.4994 0.9740
-5.0560 3.4252 -2.4994 0.9740
-5.1239 3.3227 -2.4994 0.9740
-5.3748 2.8996 -2.4995 0.9740
-5.4321 2.7908 -2.4995 0.9740
-5.4872 2.6809 -2.4995 0.9740
-5.5402 2.5699 -2.4995 0.9739
-5.6392 2.3448 -2.4995 0.9739
-5.7291 2.1158 -2.4996 0.9739
-5.8098 1.8834 -2.4996 0.9739
-5.8466 1.7661 -2.4996 0.9739
-5.9427 1.4099 -2.4997 0.9739
-6.0371 0.9272 -2.4998 0.9739
-6.0547 0.8054 -2.4998 0.9739
-6.0697 0.6833 -2.4999 0.9739
-6.0924 0.4384 -2.4999 0.9739
-6.1053 0.1927 -2.5000 0.9739
-6.1080 0.0698 -2.5000 0.9739
-6.1083 -0.0533 -2.5001 0.9739
-6.1061 -0.1762 -2.5001 0.9739
-6.1013 -0.2992 -2.5001 0.9739
-6.0845 -0.5446 -2.5002 0.9739
-6.0724 -0.6670 -2.5002 0.9739
-5.9994 -1.1536 -2.5004 0.9739
-5.9750 -1.2742 -2.5004 0.9739
-5.9483 -1.3942 -2.5005 0.9739
-5.8875 -1.6327 -2.5005 0.9739
-5.8535 -1.7509 -2.5006 0.9739
0.2813 -5.7369 -2.5032 0.9752
0.3968 -5.7301 -2.5032 0.9752
0.6272 -5.7096 -2.5033 0.9752
0.7421 -5.6959 -2.5033 0.9752
0.9709 -5.6615 -2.5034 0.9752
1.1980 -5.6179 -2.5034 0.9752
1.3109 -5.5927 -2.5035 0.9752
1.5351 -5.5354 -2.5035 0.9752
1.8666 -5.4328 -2.5036 0.9752
1.9756 -5.3941 -2.5036 0.9752
2.1912 -5.3103 -2.5036 0.9752
2.2977 -5.2651 -2.5036 0.9752
2.5079 -5.1684 -2.5036 0.9752
2.7140 -5.0633 -2.5037 0.9752
2.8154 -5.0076 -2.5037 0.9752
3.0148 -4.8902 -2.5037 0.9752
3.1127 -4.8285 -2.5037 0.9752
3.4912 -4.5625 -2.5037 0.9752
3.7603 -4.3434 -2.5038 0.9752
4.0976 -4.0267 -2.5038 0.9752
4.2564 -3.8585 -2.5038 0.9752
4.3332 -3.7720 -2.5038 0.9752
4.4083 -3.6839 -2.5038 0.9752
4.4816 -3.5944 -2.5037 0.9752
4.5531 -3.5034 -2.5037 0.9752
4.7562 -3.2221 -2.5037 0.9752
4.8821 -3.0279 -2.5037 0.9752
4.9421 -2.9290 -2.5037 0.9752
5.0000 -2.8289 -2.5037 0.9752
5.0559 -2.7276 -2.5037 0.9752
5.1098 -2.6252 -2.5037 0.9752
5.1616 -2.5218 -2.5036 0.9752
5.2589 -2.3119 -2.5036 0.9752
5.3044 -2.2055 -2.5036 0.9752
5.3477 -2.0982 -2.5036 0.9752
5.3888 -1.9901 -2.5036 0.9752
5.4277 -1.8812 -2.5035 0.9752
5.4645 -1.7715 -2.5035 0.9752
5.4990 -1.6611 -2.5035 0.9752
5.5313 -1.5500 -2.5035 0.9752
5.5891 -1.3260 -2.5034 0.9752
5.6146 -1.2131 -2.5034 0.9752
5.6378 -1.0998 -2.5034 0.9752
5.6588 -0.9861 -2.5034 0.9752
5.7195 -0.5275 -2.5033 0.9752
5.7432 -0.0656 -2.5031 0.9753
5.7410 0.1657 -2.5031 0.9753
5.7296 0.3968 -2.5030 0.9753
5.7203 0.5121 -2.5030 0.9753
5.6949 0.7420 -2.5029 0.9753
5.6787 0.8565 -2.5029 0.9753
5.6164 1.1977 -2.5028 0.9753
5.5911 1.3106 -2.5027 0.9753
5.5635 1.4229 -2.5027 0.9753
5.5015 1.6457 -2.5026 0.9753
5.4672 1.7561 -2.5026 0.9753
5.3919 1.9748 -2.5025 0.9753
5.3509 2.0829 -2.5025 0.9753
5.0046 2.8137 -2.5022 0.9753
4.9469 2.9139 -2.5021 0.9753
4.8871 3.0129 -2.5021 0.9753
4.8254 3.1106 -2.5021 0.9753
4.6960 3.3023 -2.5020 0.9753
4.6285 3.3961 -2.5019 0.9753
4.4879 3.5796 -2.5019 0.9753
4.2633 3.8439 -2.5017 0.9753
4.1049 4.0123 -2.5016 0.9753
3.8550 4.2526 -2.5015 0.9753
3.7685 4.3293 -2.5015 0.9753
3.6805 4.4042 -2.5014 0.9753
3.5001 4.5487 -2.5013 0.9753
3.2189 4.7515 -2.5012 0.9753
3.1225 4.8153 -2.5012 0.9753
3.0248 4.8771 -2.5011 0.9753
2.9260 4.9369 -2.5011 0.9753
2.8259 4.9947 -2.5010 0.9753
2.6224 5.1043 -2.5010 0.9753
2.5191 5.1560 -2.5009 0.9753
1.8790 5.4215 -2.5007 0.9753
1.3244 5.5826 -2.5005 0.9753
1.0985 5.6312 -2.5004 0.9753
0.9849 5.6521 -2.5004 0.9753
0.6418 5.7010 -2.5003 0.9753
0.5269 5.7127 -2.5003 0.9753
0.1810 5.7339 -2.5002 0.9753
0.0655 5.7363 -2.5001 0.9753
-0.1655 5.7341 -2.5001 0.9753
-0.2810 5.7296 -2.5000 0.9753
-0.3963 5.7227 -2.5000 0.9753
-0.6264 5.7020 -2.5000 0.9753
-0.8554 5.6720 -2.4999 0.9753
-0.9695 5.6536 -2.4999 0.9753
-1.0831 5.6329 -2.4999 0.9753
-1.6438 5.4952 -2.4998 0.9753
-1.9725 5.3858 -2.4997 0.9753
-2.1878 5.3019 -2.4997 0.9753
-2.2941 5.2568 -2.4996 0.9753
-2.3994 5.2095 -2.4996 0.9753
-2.5038 5.1601 -2.4996 0.9753
-2.6072 5.1086 -2.4996 0.9753
-3.0098 4.8821 -2.4996 0.9753
-3.2039 4.7570 -2.4995 0.9753
-3.2991 4.6915 -2.4995 0.9753
-3.3928 4.6241 -2.4995 0.9753
-3.4853 4.5548 -2.4995 0.9753
-3.6658 4.4108 -2.4995 0.9753
-3.7539 4.3360 -2.4995 0.9753
-3.9254 4.1814 -2.4995 0.9753
-4.0088 4.1015 -2.4995 0.9753
-4.0906 4.0199 -2.4995 0.9753
-4.1707 3.9367 -2.4995 0.9753
-4.2492 3.8519 -2.4995 0.9753
-4.3259 3.7656 -2.4995 0.9753
-4.8121 3.1205 -2.4996 0.9753
-4.8740 3.0230 -2.4996 0.9753
-4.9339 2.9242 -2.4996 0.9753
-5.0477 2.7232 -2.4996 0.9753
-5.1533 2.5178 -2.4996 0.9753
-5.2506 2.3083 -2.4997 0.9753
-5.2961 2.2021 -2.4997 0.9753
-5.3805 1.9871 -2.4997 0.9753
-5.4195 1.8783 -2.4997 0.9753
-5.4908 1.6586 -2.4998 0.9753
-5.5231 1.5477 -2.4998 0.9753
-5.5810 1.3241 -2.4998 0.9753
-5.6697 0.8707 -2.4999 0.9753
-5.6862 0.7564 -2.5000 0.9753
-5.7003 0.6418 -2.5000 0.9753
-5.7121 0.5268 -2.5000 0.9753
-5.7288 0.2964 -2.5001 0.9753
-5.7363 0.0655 -2.5001 0.9753
-5.7365 -0.0500 -2.5002 0.9753
-5.7142 -0.5115 -2.5003 0.9753
-5.7028 -0.6265 -2.5003 0.9753
-5.6548 -0.9697 -2.5004 0.9753
-5.6342 -1.0833 -2.5005 0.9753
-5.6113 -1.1966 -2.5005 0.9753
0.0472 -5.4074 -2.5031 0.9764
0.1561 -5.4054 -2.5031 0.9764
0.2649 -5.4012 -2.5031 0.9764
0.3736 -5.3948 -2.5032 0.9764
0.6987 -5.3626 -2.5032 0.9764
1.0212 -5.3108 -2.5033 0.9764
1.1279 -5.2892 -2.5033 0.9764
1.3400 -5.2395 -2.5034 0.9764
2.0630 -4.9995 -2.5035 0.9764
2.3611 -4.8659 -2.5035 0.9764
2.4587 -4.8174 -2.5035 0.9764
2.9305 -4.5460 -2.5036 0.9764
3.1997 -4.3608 -2.5036 0.9764
3.2869 -4.2955 -2.5036 0.9764
3.3727 -4.2284 -2.5036 0.9764
3.7807 -3.8680 -2.5036 0.9764
3.8578 -3.7911 -2.5036 0.9764
3.9334 -3.7126 -2.5036 0.9764
4.1503 -3.4683 -2.5036 0.9764
4.4159 -3.1231 -2.5036 0.9764
4.4779 -3.0335 -2.5036 0.9764
4.5380 -2.9428 -2.5036 0.9764
4.6528 -2.7576 -2.5036 0.9764
4.7074 -2.6633 -2.5036 0.9764
4.9063 -2.2759 -2.5035 0.9764
4.9511 -2.1766 -2.5035 0.9764
4.9939 -2.0765 -2.5035 0.9764
5.0347 -1.9754 -2.5035 0.9764
5.1101 -1.7711 -2.5034 0.9764
5.2076 -1.4593 -2.5034 0.9764
5.2359 -1.3541 -2.5034 0.9764
5.2620 -1.2484 -2.5033 0.9764
5.3738 -0.6050 -2.5032 0.9764
5.4049 -0.1706 -2.5031 0.9764
5.4072 -0.0617 -2.5031 0.9764
5.4072 0.0472 -2.5030 0.9764
5.4008 0.2648 -2.5030 0.9764
5.3856 0.4821 -2.5029 0.9764
5.3748 0.5904 -2.5029 0.9764
5.3465 0.8064 -2.5028 0.9764
5.3291 0.9138 -2.5028 0.9764
5.3096 1.0210 -2.5027 0.9764
5.2879 1.1277 -2.5027 0.9765
5.2640 1.2339 -2.5027 0.9765
5.2380 1.3396 -2.5026 0.9765
5.1797 1.5494 -2.5026 0.9765
5.1129 1.7567 -2.5025 0.9765
5.0765 1.8592 -2.5025 0.9765
5.0379 1.9611 -2.5024 0.9765
4.9973 2.0621 -2.5024 0.9765
4.9547 2.1623 -2.5023 0.9765
4.9101 2.2616 -2.5023 0.9765
4.7644 2.5538 -2.5022 0.9765
4.6575 2.7435 -2.5021 0.9765
4.6013 2.8367 -2.5021 0.9765
4.3578 3.1975 -2.5019 0.9765
4.2925 3.2846 -2.5019 0.9765
4.2254 3.3703 -2.5018 0.9765
4.1566 3.4546 -2.5018 0.9765
4.0861 3.5376 -2.5018 0.9765
4.0140 3.6191 -2.5017 0.9765
3.8649 3.7776 -2.5016 0.9765
3.7880 3.8546 -2.5016 0.9765
3.5482 4.0761 -2.5015 0.9765
3.4653 4.1467 -2.5014 0.9765
3.3811 4.2156 -2.5014 0.9765
3.2085 4.3481 -2.5013 0.9765
3.0307 4.4737 -2.5012 0.9765
2.9399 4.5337 -2.5012 0.9765
2.8480 4.5919 -2.5012 0.9765
2.7549 4.6483 -2.5011 0.9765
2.6607 4.7027 -2.5011 0.9765
2.5654 4.7553 -2.5010 0.9765
2.4691 4.8059 -2.5010 0.9765
2.3718 4.8546 -2.5010 0.9765
2.1743 4.9460 -2.5009 0.9765
1.8717 5.0680 -2.5008 0.9765
1.4577 5.2019 -2.5006 0.9765
1.1409 5.2802 -2.5005 0.9765
1.0343 5.3020 -2.5005 0.9765
0.8200 5.3392 -2.5004 0.9765
0.6043 5.3678 -2.5004 0.9765
0.4961 5.3788 -2.5003 0.9765
0.3877 5.3877 -2.5003 0.9765
0.1704 5.3988 -2.5003 0.9765
0.0617 5.4010 -2.5002 0.9765
-0.2645 5.3947 -2.5001 0.9765
-0.3731 5.3883 -2.5001 0.9765
-0.5898 5.3688 -2.5001 0.9765
-0.6977 5.3557 -2.5000 0.9765
-0.9128 5.3232 -2.5000 0.9765
-1.1264 5.2820 -2.4999 0.9765
-1.3381 5.2323 -2.4999 0.9765
-1.4432 5.2042 -2.4999 0.9765
-1.5477 5.1741 -2.4999 0.9765
-1.6516 5.1418 -2.4998 0.9765
-1.8573 5.0711 -2.4998 0.9765
-1.9590 5.0326 -2.4998 0.9765
-2.2593 4.9051 -2.4998 0.9765
-2.3576 4.8586 -2.4997 0.9765
-2.4549 4.8101 -2.4997 0.9765
-2.5512 4.7596 -2.4997 0.9765
-2.7408 4.6530 -2.4997 0.9765
-2.8339 4.5969 -2.4997 0.9765
-3.0167 4.4790 -2.4997 0.9765
-3.1063 4.4174 -2.4997 0.9765
-3.1946 4.3539 -2.4997 0.9765
-3.2816 4.2887 -2.4996 0.9765
-3.3673 4.2217 -2.4996 0.9765
-3.6161 4.0107 -2.4996 0.9765
-3.6961 3.9370 -2.4996 0.9765
-3.7746 3.8618 -2.4996 0.9765
-3.8516 3.7850 -2.4996 0.9765
-3.9270 3.7067 -2.4996 0.9765
-4.0731 3.5456 -2.4996 0.9765
-4.1437 3.4628 -2.4996 0.9765
-4.2126 3.3787 -2.4996 0.9765
-4.2798 3.2932 -2.4997 0.9765
-4.3453 3.2063 -2.4997 0.9765
-4.4089 3.1182 -2.4997 0.9765
-4.7001 2.6593 -2.4997 0.9765
-4.7528 2.5641 -2.4997 0.9765
-4.8035 2.4679 -2.4997 0.9765
-4.9438 2.1734 -2.4998 0.9765
-5.0273 1.9726 -2.4998 0.9765
-5.0661 1.8709 -2.4998 0.9765
-5.1374 1.6654 -2.4999 0.9765
-5.1699 1.5617 -2.4999 0.9765
-5.2549 1.2467 -2.4999 0.9765
-5.2790 1.1407 -2.5000 0.9765
-5.3009 1.0341 -2.5000 0.9765
-5.3672 0.6043 -2.5001 0.9765
-5.3940 0.2791 -2.5002 0.9765
-5.3887 -0.3731 -2.5003 0.9765
-5.3415 -0.8056 -2.5005 0.9765
-5.3049 -1.0200 -2.5005 0.9765
-5.2596 -1.2329 -2.5006 0.9765
-5.1758 -1.5482 -2.5007 0.9765
-0.1610 -5.1000 -2.5029 0.9775
-0.0582 -5.1023 -2.5030 0.9775
0.3525 -5.0907 -2.5031 0.9775
0.4550 -5.0826 -2.5031 0.9775
0.5572 -5.0724 -2.5031 0.9775
0.9636 -5.0113 -2.5032 0.9775
1.2645 -4.9441 -2.5033 0.9775
1.3638 -4.9177 -2.5033 0.9775
1.4626 -4.8893 -2.5033 0.9775
1.6582 -4.8265 -2.5033 0.9775
1.9467 -4.7177 -2.5034 0.9775
2.0413 -4.6775 -2.5034 0.9775
2.2280 -4.5916 -2.5034 0.9775
2.6783 -4.3444 -2.5035 0.9775
2.7653 -4.2896 -2.5035 0.9775
2.8511 -4.2331 -2.5035 0.9775
3.0193 -4.1149 -2.5035 0.9775
3.1825 -3.9900 -2.5035 0.9775
3.3406 -3.8586 -2.5035 0.9775
3.4176 -3.7906 -2.5035 0.9775
3.4933 -3.7210 -2.5035 0.9775
3.7116 -3.5033 -2.5035 0.9775
3.7814 -3.4278 -2.5035 0.9775
3.9814 -3.1933 -2.5035 0.9775
4.1067 -3.0303 -2.5035 0.9775
4.1669 -2.9470 -2.5035 0.9775
4.2822 -2.7768 -2.5035 0.9775
4.4420 -2.5132 -2.5035 0.9775
4.4917 -2.4232 -2.5034 0.9775
4.5395 -2.3323 -2.5034 0.9775
4.6297 -2.1475 -2.5034 0.9775
4.7124 -1.9594 -2.5034 0.9775
4.8853 -1.4757 -2.5033 0.9775
4.9407 -1.2778 -2.5033 0.9775
4.9880 -1.0778 -2.5032 0.9775
5.0439 -0.7746 -2.5031 0.9775
5.0584 -0.6729 -2.5031 0.9775
5.0709 -0.5709 -2.5031 0.9775
5.0813 -0.4687 -2.5031 0.9775
5.1002 -0.1610 -2.5030 0.9775
5.1023 -0.0582 -2.5030 0.9775
5.1024 0.0445 -2.5029 0.9775
5.0902 0.3525 -2.5029 0.9775
5.0820 0.4549 -2.5028 0.9775
5.0718 0.5572 -2.5028 0.9775
5.0451 0.7609 -2.5027 0.9775
5.0287 0.8623 -2.5027 0.9775
5.0103 0.9634 -2.5027 0.9775
4.9428 1.2641 -2.5026 0.9775
4.9162 1.3634 -2.5026 0.9775
4.8877 1.4621 -2.5025 0.9775
4.8248 1.6577 -2.5024 0.9775
4.7157 1.9459 -2.5023 0.9775
4.6755 2.0404 -2.5023 0.9775
4.6334 2.1341 -2.5023 0.9775
4.5894 2.2270 -2.5022 0.9775
4.3951 2.5889 -2.5021 0.9775
4.3420 2.6768 -2.5021 0.9775
4.1722 2.9339 -2.5019 0.9775
4.0506 3.0995 -2.5019 0.9775
3.7878 3.4152 -2.5017 0.9775
3.6471 3.5648 -2.5016 0.9775
3.5745 3.6375 -2.5016 0.9775
3.5005 3.7087 -2.5016 0.9775
3.4251 3.7783 -2.5015 0.9775
2.9444 4.1633 -2.5013 0.9775
2.7743 4.2783 -2.5012 0.9775
2.6876 4.3332 -2.5012 0.9775
2.4209 4.4874 -2.5011 0.9775
2.2382 4.5811 -2.5010 0.9775
1.9574 4.7077 -2.5009 0.9775
1.6695 4.8171 -2.5008 0.9775
1.1768 4.9602 -2.5006 0.9775
1.0767 4.9828 -2.5006 0.9775
0.4682 5.0759 -2.5004 0.9775
0.2634 5.0905 -2.5004 0.9775
-0.0444 5.0970 -2.5003 0.9775
-0.1471 5.0950 -2.5002 0.9775
-0.2496 5.0909 -2.5002 0.9775
-0.5566 5.0664 -2.5002 0.9775
-0.7601 5.0398 -2.5001 0.9775
-0.9624 5.0050 -2.5001 0.9775
-1.0630 4.9846 -2.5000 0.9775
