ply
format ascii 1.0
element vertex 1530
property float32 x
property float32 y
property float32 z
property float32 I
end_header
19.1175 34.9392 2.4697 0.8525
16.7609 37.4947 2.5468 0.8482
14.7011 34.7424 2.3393 0.8597
13.0877 34.7542 2.3029 0.8617
12.2323 36.9115 2.4113 0.8557
10.7859 37.5288 2.4214 0.8551
7.0316 34.7649 2.1994 0.8675
6.0385 37.5559 2.3588 0.8586
2.7856 35.1305 2.1853 0.8683
1.3689 35.0980 2.1781 0.8687
-0.0438 37.6041 2.3318 0.8601
-0.7988 37.6084 2.3326 0.8601
-2.8525 34.9413 2.1739 0.8689
-3.5625 34.9667 2.1795 0.8686
-5.7839 35.4456 2.2270 0.8659
-6.9209 37.6433 2.3734 0.8578
-7.7060 37.6478 2.3830 0.8573
-8.4977 37.6523 2.3936 0.8567
-9.4949 35.3904 2.2722 0.8634
-23.3443 61.5554 4.0823 0.7681
-38.1450 76.4426 5.2976 0.7101
-36.3676 69.3602 4.8564 0.7306
-36.2632 65.9094 4.6648 0.7397
-21.5338 31.2499 2.3533 0.8589
-22.9728 30.6300 2.3742 0.8577
-36.5334 44.8415 3.5867 0.7931
-36.2404 42.7021 3.4730 0.7989
-16.9616 19.1913 1.5882 0.9024
-36.7351 33.9918 3.1036 0.8183
-36.6031 32.5304 3.0366 0.8218
-36.8139 28.9471 2.9040 0.8289
-38.5819 29.1033 2.9968 0.8239
-40.2501 29.1128 3.0804 0.8195
-47.9969 29.1570 3.4824 0.7985
-50.2650 29.1699 3.6038 0.7922
-52.6961 29.1827 3.7353 0.7855
-55.5835 29.3397 3.8975 0.7773
-58.1429 29.2138 4.0350 0.7705
-71.8459 29.1396 4.8077 0.7329
-72.8883 27.8722 4.8390 0.7314
-73.2199 26.3269 4.8250 0.7321
-80.3810 20.0799 5.1376 0.7175
-70.8067 0.2776 4.3908 0.7529
-25.5736 -17.4312 1.9192 0.8833
-24.5105 -17.4373 1.8653 0.8864
-23.5046 -17.4426 1.8150 0.8893
-19.1765 -17.4673 1.6085 0.9013
-18.5376 -17.5790 1.5842 0.9027
-17.7031 -17.4757 1.5425 0.9051
-17.0102 -17.4797 1.5125 0.9069
-16.8724 -18.7914 1.5660 0.9037
-16.6988 -19.3663 1.5857 0.9026
-16.7557 -20.2400 1.6294 0.9001
-16.7323 -24.9293 1.8618 0.8866
-16.7387 -26.0541 1.9203 0.8833
-16.7455 -27.2524 1.9835 0.8797
-16.8405 -31.5148 2.2158 0.8666
-16.8284 -33.0726 2.3011 0.8618
-11.1380 -23.0213 1.5859 0.9026
-12.6005 -28.9541 1.9581 0.8811
-9.3135 -29.0644 1.8926 0.8849
-8.7523 -29.3262 1.8978 0.8846
-8.1375 -29.4078 1.8921 0.8849
-10.1665 -43.4570 2.7675 0.8362
-10.1303 -59.1597 3.7219 0.7862
-5.6480 -63.0811 3.9273 0.7758
2.4090 -77.3322 4.7977 0.7334
3.3339 -36.3890 2.2659 0.8638
4.3442 -38.8230 2.4224 0.8551
4.7162 -35.6553 2.2303 0.8658
6.7247 -38.7901 2.4413 0.8540
7.2285 -37.2386 2.3523 0.8590
8.7086 -36.8820 2.3500 0.8591
11.2617 -43.7486 2.8013 0.8344
11.5744 -41.4951 2.6713 0.8414
11.3475 -37.7376 2.4436 0.8539
5.5728 -17.2684 1.1252 0.9299
11.3189 -32.8055 2.1520 0.8702
11.3402 -29.0321 1.9328 0.8826
11.1808 -21.8617 1.5227 0.9063
11.1866 -20.8308 1.4662 0.9096
11.2001 -19.8877 1.4154 0.9126
11.3009 -19.1568 1.3792 0.9147
11.4542 -18.5551 1.3522 0.9163
11.9512 -18.5181 1.3667 0.9155
12.4584 -18.4791 1.3820 0.9146
12.9764 -18.4378 1.3981 0.9136
13.5059 -18.3944 1.4151 0.9126
14.0818 -18.3932 1.4365 0.9113
16.5964 -18.4075 1.5369 0.9054
17.2824 -18.4114 1.5659 0.9038
18.9411 -18.6209 1.6471 0.8990
20.5379 -18.6300 1.7195 0.8948
22.2844 -18.6399 1.8015 0.8901
24.2092 -18.6509 1.8951 0.8847
25.2494 -18.6568 1.9468 0.8818
46.7952 -31.7548 3.5068 0.7972
68.1221 -44.2566 5.0375 0.7221
68.1471 -42.3524 4.9754 0.7250
44.7984 -26.6101 3.2311 0.8115
74.7411 -42.3900 5.3283 0.7087
90.4450 34.8275 3.8216 0.6784
84.8524 34.6452 3.6140 0.6929
57.1275 24.6743 2.4537 0.7795
55.7959 25.4399 2.4180 0.7823
49.5259 25.0289 2.1882 0.8008
48.0575 29.3472 2.2203 0.7982
39.0682 24.9479 1.8278 0.8306
37.4271 24.9715 1.7741 0.8352
37.8307 26.3533 1.8180 0.8315
31.5823 24.9527 1.5871 0.8512
28.8664 24.7520 1.4994 0.8588
28.8723 25.7805 1.5263 0.8565
28.8784 26.8470 1.5548 0.8540
31.2168 32.7379 1.7837 0.8344
28.9207 34.2386 1.7672 0.8358
14.6413 18.0567 0.9166 0.9111
28.8650 37.0963 1.8534 0.8285
5.6144 8.1884 0.3915 0.9610
23.3190 37.1213 1.7286 0.8390
22.1056 36.8099 1.6931 0.8421
19.7753 36.1413 1.6245 0.8480
17.6697 37.4895 1.6342 0.8471
14.4569 36.1716 1.5360 0.8556
12.5344 35.4254 1.4817 0.8603
10.7859 37.5288 1.5397 0.8553
8.6290 35.3051 1.4332 0.8646
8.1978 36.7215 1.4836 0.8602
6.6916 36.8792 1.4779 0.8607
6.0385 37.5558 1.4999 0.8588
4.5019 37.5646 1.4918 0.8595
0.7110 37.5998 1.4829 0.8602
-0.0438 37.6041 1.4828 0.8602
-1.5207 36.7905 1.4519 0.8629
-3.5772 35.1113 1.3916 0.8682
-5.0681 35.5325 1.4153 0.8662
-5.7821 35.4346 1.4157 0.8661
-6.9209 37.6433 1.5092 0.8579
-9.5846 33.0588 1.3572 0.8713
-11.7428 35.1596 1.4617 0.8621
-36.3738 72.8932 3.2122 0.7217
-35.9257 68.5173 3.0506 0.7337
-36.3032 62.9560 2.8656 0.7476
-36.3926 60.2816 2.7765 0.7544
-21.2398 33.6372 1.5686 0.8528
-36.4747 55.2748 2.6113 0.7671
-36.4880 52.9515 2.5356 0.7730
-36.5124 48.6825 2.3995 0.7838
-36.5237 46.7139 2.3382 0.7887
-16.8768 19.0954 1.0049 0.9030
-36.5801 36.6810 2.0427 0.8127
-36.5883 35.2452 2.0032 0.8160
-36.7359 33.9925 1.9735 0.8184
-36.6112 31.2451 1.8979 0.8247
-36.7230 30.0878 1.8720 0.8269
-37.0010 29.0942 1.8560 0.8283
-38.5818 29.1032 1.9056 0.8241
-43.9886 29.2015 2.0819 0.8095
-45.2251 28.7315 2.1127 0.8070
-47.6243 28.9305 2.1972 0.8001
-42.4134 24.6134 1.9336 0.8218
-52.6960 29.1826 2.3752 0.7857
-31.4253 15.7896 1.3868 0.8687
-64.1558 29.0713 2.7773 0.7543
-72.8991 26.2115 3.0547 0.7334
-72.9084 24.5738 3.0338 0.7349
-29.5224 -17.6187 1.3556 0.8714
-27.8979 -17.4180 1.2968 0.8766
-26.1330 -17.0545 1.2305 0.8826
-25.0289 -17.0599 1.1944 0.8858
-24.0197 -17.0881 1.1623 0.8887
-23.0965 -17.1398 1.1341 0.8912
-22.1670 -17.1506 1.1051 0.8939
-20.3561 -17.0985 1.0482 0.8990
-19.6387 -17.1799 1.0289 0.9008
-18.1351 -17.1973 0.9855 0.9048
-17.6263 -17.3999 0.9766 0.9056
-17.0103 -17.4797 0.9617 0.9070
-16.7429 -17.9106 0.9668 0.9065
-16.9585 -18.8873 1.0009 0.9034
-16.8549 -19.5474 1.0178 0.9018
-16.7562 -20.2405 1.0361 0.9002
-16.8325 -30.0335 1.3576 0.8713
-16.8389 -34.8043 1.5245 0.8566
-9.9810 -21.7320 0.9430 0.9087
-16.8690 -43.4504 1.8379 0.8298
-16.9291 -49.3960 2.0589 0.8114
-16.8877 -61.0298 2.4969 0.7761
-10.1623 -43.4390 1.7591 0.8365
-10.1152 -52.6911 2.1156 0.8067
-10.5794 -61.7822 2.4716 0.7781
-9.7471 -74.8786 2.9775 0.7391
-8.6933 -79.1661 3.1404 0.7270
-5.4185 -78.1482 3.0889 0.7308
3.0425 -97.6687 3.8530 0.6763
5.5025 -77.0556 3.0461 0.7340
9.4212 -84.1945 3.3406 0.7124
6.2530 -29.0800 1.1729 0.8877
11.2346 -47.5795 1.9277 0.8223
11.2751 -40.4222 1.6547 0.8454
5.5722 -17.2665 0.7154 0.9299
6.8523 -19.8601 0.8284 0.9193
11.3489 -27.4172 1.1700 0.8880
11.3572 -25.9507 1.1170 0.8928
11.3718 -23.3813 1.0252 0.9012
11.3782 -22.2477 0.9853 0.9048
11.3897 -20.2243 0.9152 0.9113
11.4685 -18.5783 0.8609 0.9163
12.5294 -18.5844 0.8838 0.9142
13.0817 -18.5875 0.8962 0.9130
13.6501 -18.5908 0.9094 0.9118
14.8398 -18.5975 0.9382 0.9092
17.4711 -18.6125 1.0066 0.9029
18.1916 -18.6166 1.0264 0.9010
18.9412 -18.6209 1.0473 0.8991
19.7224 -18.6254 1.0696 0.8971
21.3908 -18.6349 1.1187 0.8926
22.2844 -18.6399 1.1456 0.8902
24.2093 -18.6509 1.2050 0.8848
26.3485 -18.6631 1.2732 0.8788
68.4912 -44.4965 3.2206 0.7211
68.3348 -42.4690 3.1725 0.7246
90.4049 34.8121 1.6364 0.6787
85.9839 35.1073 1.5689 0.6897
38.4419 16.6037 0.7073 0.8458
49.3552 24.9426 0.9341 0.8015
29.8616 16.6282 0.5774 0.8722
29.4251 17.1678 0.5755 0.8726
48.0566 29.3467 0.9512 0.7983
12.5876 8.0381 0.2523 0.9420
11.0707 8.0468 0.2312 0.9467
10.2253 8.0789 0.2201 0.9492
10.8996 9.3460 0.2425 0.9442
29.9919 32.7449 0.7501 0.8372
28.9121 32.8669 0.7394 0.8394
14.6084 18.0161 0.3918 0.9114
25.4728 32.7366 0.7007 0.8471
24.4413 32.7465 0.6902 0.8492
23.4396 32.7561 0.6804 0.8512
5.6137 8.1874 0.1677 0.9611
19.6912 32.7895 0.6461 0.8581
18.8111 32.7979 0.6387 0.8596
17.1068 32.8117 0.6251 0.8624
16.3685 32.9946 0.6222 0.8630
15.5659 33.0258 0.6167 0.8641
14.7301 32.9518 0.6097 0.8655
12.4355 33.0223 0.5960 0.8683
10.9314 32.9856 0.5870 0.8702
10.1492 32.8174 0.5803 0.8716
9.4835 32.9970 0.5799 0.8717
7.3749 33.0354 0.5718 0.8734
5.3115 33.0343 0.5652 0.8747
4.5019 37.5645 0.6391 0.8595
2.6215 33.0601 0.5602 0.8758
1.9447 32.8909 0.5566 0.8765
0.6260 33.1023 0.5593 0.8759
-1.3680 33.0958 0.5595 0.8759
-2.0237 32.9263 0.5572 0.8764
-2.7027 33.1060 0.5611 0.8756
-4.2914 35.1161 0.5976 0.8680
-6.0603 32.9624 0.5661 0.8745
-7.7060 37.6477 0.6491 0.8575
-8.8972 33.1628 0.5800 0.8717
-36.3302 80.7665 1.4960 0.7017
-35.9034 68.4747 1.3060 0.7340
-36.4306 63.1770 1.2319 0.7470
-36.4902 60.4434 1.1926 0.7539
-21.2524 33.6572 0.6724 0.8528
-36.4757 55.2765 1.1187 0.7672
-36.4890 52.9530 1.0863 0.7732
-36.5246 46.7151 1.0017 0.7888
-36.1895 44.4194 0.9678 0.7952
-16.8345 19.0476 0.4294 0.9033
-36.7130 38.3229 0.8965 0.8087
-36.5810 36.6819 0.8751 0.8128
-36.5892 35.2460 0.8582 0.8161
-36.6047 32.5319 0.8272 0.8221
-36.7237 30.0884 0.8020 0.8270
-37.0009 29.0941 0.7951 0.8284
-38.5817 29.1032 0.8163 0.8242
-40.2500 29.1127 0.8391 0.8198
-42.0147 29.1227 0.8635 0.8150
-43.9895 29.2020 0.8919 0.8096
-47.2290 28.6904 0.9334 0.8017
-50.2648 29.1697 0.9817 0.7926
-52.6958 29.1826 1.0175 0.7859
-55.5832 29.3395 1.0617 0.7777
-64.1555 29.0712 1.1898 0.7544
-67.8162 29.1037 1.2466 0.7444
-71.8454 29.1394 1.3096 0.7333
-83.8528 20.9472 1.4600 0.7077
-80.3201 14.9962 1.3802 0.7212
-80.7380 -11.0973 1.3766 0.7218
-34.5214 -17.0075 0.6501 0.8573
-27.3731 -17.0903 0.5451 0.8789
-24.0765 -17.1285 0.4991 0.8885
-21.2835 -17.1609 0.4618 0.8964
-20.3557 -17.0982 0.4491 0.8991
-18.8707 -17.1888 0.4312 0.9029
-16.9589 -18.8878 0.4288 0.9034
-16.8543 -19.5467 0.4360 0.9019
-16.7666 -21.9937 0.4672 0.8953
-16.9390 -24.1741 0.4986 0.8886
-16.9516 -26.3855 0.5298 0.8821
-17.0506 -29.0403 0.5688 0.8740
-16.8329 -30.0343 0.5816 0.8713
-16.8296 -33.0750 0.6269 0.8620
-9.9735 -21.7155 0.4037 0.9088
-16.8012 -38.6066 0.7112 0.8450
-17.0371 -41.4005 0.7562 0.8360
-16.9977 -49.5961 0.8856 0.8108
-16.9920 -61.4068 1.0762 0.7750
-17.1497 -67.1963 1.1715 0.7577
-10.1376 -43.3336 0.7518 0.8369
-17.0946 -80.3061 1.3869 0.7200
-10.0770 -52.4923 0.9029 0.8075
-10.5638 -61.6913 1.0573 0.7785
8.2745 -90.3160 1.5320 0.6957
11.9574 -90.4015 1.5403 0.6943
15.7079 -90.6083 1.5534 0.6922
6.2583 -29.1046 0.5029 0.8877
11.2557 -43.7254 0.7627 0.8347
5.5716 -17.2646 0.3064 0.9300
6.8600 -19.8823 0.3553 0.9193
11.4620 -31.1763 0.5611 0.8756
11.4723 -29.3701 0.5326 0.8815
11.4816 -27.7378 0.5071 0.8868
11.5216 -26.3262 0.4854 0.8914
11.5293 -24.9671 0.4645 0.8958
11.4075 -23.4546 0.4406 0.9009
11.5429 -22.5697 0.4282 0.9036
12.3320 -20.9047 0.4100 0.9075
11.4757 -18.5900 0.3690 0.9163
13.4149 -20.7861 0.4179 0.9058
13.6275 -20.2132 0.4118 0.9071
13.6501 -18.5908 0.3896 0.9119
14.3441 -18.7357 0.3986 0.9099
15.5815 -18.7428 0.4117 0.9071
16.2041 -18.7144 0.4182 0.9057
17.6287 -18.7804 0.4351 0.9021
19.9003 -18.7934 0.4624 0.8963
21.3908 -18.6349 0.4792 0.8927
68.0849 -50.3081 1.4300 0.7127
68.0967 -48.2342 1.4096 0.7162
68.1082 -46.2177 1.3904 0.7194
68.1194 -44.2549 1.3722 0.7225
71.3315 -42.3707 1.4015 0.7175
74.7415 -42.3902 1.4514 0.7091
59.1854 24.1654 -0.3599 0.7744
53.0770 24.2002 -0.3284 0.7919
50.4049 24.2155 -0.3148 0.7996
48.0874 24.3019 -0.3034 0.8061
47.0211 24.9603 -0.2997 0.8082
46.9626 26.1507 -0.3026 0.8065
46.3692 27.0537 -0.3023 0.8068
13.2799 8.1096 -0.0876 0.9397
11.4098 9.3927 -0.0832 0.9426
9.9761 8.5542 -0.0740 0.9488
10.5248 9.3978 -0.0794 0.9451
28.7885 27.8613 -0.2256 0.8519
28.8900 29.1050 -0.2309 0.8487
28.2006 30.7891 -0.2351 0.8462
21.5612 24.5104 -0.1838 0.8776
28.9192 34.2369 -0.2523 0.8359
24.5443 32.8846 -0.2310 0.8486
23.5486 32.9084 -0.2278 0.8506
5.6131 8.1865 -0.0559 0.9611
21.5927 32.8885 -0.2215 0.8544
23.3175 37.1190 -0.2468 0.8392
19.7758 32.9303 -0.2163 0.8576
17.9186 32.7480 -0.2102 0.8613
18.1174 36.5200 -0.2295 0.8495
15.5821 33.0601 -0.2058 0.8640
14.7301 32.9518 -0.2032 0.8656
13.8725 32.7842 -0.2004 0.8673
13.1962 33.0173 -0.2002 0.8674
12.4569 33.0792 -0.1990 0.8682
10.9314 32.9856 -0.1956 0.8702
10.1492 32.8173 -0.1934 0.8716
9.4834 32.9969 -0.1933 0.8717
9.3097 35.0259 -0.2040 0.8650
8.0774 33.0481 -0.1915 0.8728
7.8212 35.0344 -0.2021 0.8662
4.5019 37.5645 -0.2130 0.8596
3.2936 33.0920 -0.1872 0.8754
2.6215 33.0601 -0.1867 0.8758
1.2898 33.0703 -0.1863 0.8760
0.6263 33.1141 -0.1865 0.8759
-1.3680 33.0958 -0.1865 0.8759
-2.7027 33.1060 -0.1870 0.8756
-3.3770 33.1465 -0.1876 0.8752
-7.7060 37.6477 -0.2164 0.8575
-7.4878 33.1777 -0.1915 0.8728
-8.1924 33.1832 -0.1924 0.8722
-8.8972 33.1628 -0.1933 0.8717
-10.9620 35.1551 -0.2073 0.8630
-11.7427 35.1595 -0.2087 0.8622
-36.0396 68.7345 -0.4370 0.7331
-36.4318 63.1790 -0.4106 0.7470
-36.4987 60.4575 -0.3976 0.7539
-36.4768 55.2781 -0.3729 0.7673
-36.4900 52.9545 -0.3621 0.7732
-18.0062 25.0397 -0.1736 0.8839
-36.5144 48.6852 -0.3426 0.7839
-36.2190 44.4556 -0.3228 0.7950
-16.7602 18.9634 -0.1425 0.9037
-36.6179 38.2236 -0.2980 0.8092
-36.5900 35.2468 -0.2860 0.8161
-36.6808 33.9415 -0.2814 0.8188
-36.6054 32.5326 -0.2757 0.8221
-36.7245 30.0891 -0.2673 0.8270
-38.5816 29.1031 -0.2721 0.8242
-43.9903 29.2026 -0.2973 0.8096
-47.6261 28.9317 -0.3139 0.8002
-23.6146 13.7040 -0.1537 0.8965
-52.6957 29.1825 -0.3391 0.7859
-55.2246 29.1502 -0.3515 0.7790
-64.1554 29.0711 -0.3966 0.7545
-67.8160 29.1036 -0.4155 0.7444
-72.8922 27.8736 -0.4394 0.7319
-72.9016 26.2124 -0.4362 0.7335
-72.9202 22.9585 -0.4304 0.7365
-72.9293 21.3623 -0.4279 0.7379
-72.9383 19.7842 -0.4255 0.7391
-34.0607 -16.7806 -0.2138 0.8591
-28.1743 -16.8142 -0.1847 0.8770
-26.9420 -16.8212 -0.1788 0.8807
-25.7856 -16.8278 -0.1734 0.8841
-24.6974 -16.8340 -0.1683 0.8873
-23.5567 -16.7587 -0.1628 0.8908
-22.6998 -16.8454 -0.1592 0.8931
-20.0725 -16.8603 -0.1476 0.9005
-17.7078 -16.7921 -0.1374 0.9070
-16.7480 -18.6528 -0.1411 0.9046
-16.7524 -19.4285 -0.1444 0.9025
-16.7670 -21.9944 -0.1557 0.8953
-16.7221 -22.8734 -0.1595 0.8928
-16.7278 -23.8726 -0.1641 0.8899
-16.7471 -27.2550 -0.1801 0.8799
-16.8334 -30.0352 -0.1939 0.8713
-16.4686 -30.8188 -0.1967 0.8696
-16.8401 -34.8069 -0.2177 0.8567
-9.9508 -21.6662 -0.1342 0.9090
-16.8248 -40.8848 -0.2489 0.8379
-16.9218 -43.5865 -0.2632 0.8294
-16.7348 -45.8097 -0.2746 0.8228
-16.1912 -47.2428 -0.2812 0.8189
-9.9170 -30.9477 -0.1830 0.8781
-16.8898 -61.0374 -0.3566 0.7762
-10.1395 -43.3416 -0.2506 0.8369
-17.0999 -80.3307 -0.4624 0.7200
-10.5406 -61.5562 -0.3516 0.7789
3.1066 -99.7271 -0.5617 0.6709
4.4364 -48.4234 -0.2738 0.8232
5.4191 -48.4290 -0.2744 0.8229
5.9037 -38.6485 -0.2201 0.8552
17.6158 -90.7503 -0.5205 0.6909
6.2703 -29.1608 -0.1679 0.8875
11.4374 -41.0039 -0.2397 0.8434
11.4226 -37.9875 -0.2233 0.8533
5.5710 -17.2627 -0.1021 0.9300
11.4615 -31.1749 -0.1870 0.8756
11.4718 -29.3689 -0.1775 0.8815
11.4896 -26.2532 -0.1613 0.8917
11.4973 -24.8978 -0.1544 0.8961
12.3132 -20.8727 -0.1364 0.9076
13.4145 -20.7854 -0.1393 0.9058
13.6501 -18.5908 -0.1298 0.9119
14.9272 -18.7071 -0.1347 0.9087
15.5549 -18.7107 -0.1370 0.9073
16.2041 -18.7144 -0.1394 0.9057
17.5986 -18.7483 -0.1448 0.9023
19.0794 -18.7568 -0.1506 0.8985
20.6877 -18.7659 -0.1573 0.8943
58.5282 -43.2465 -0.4097 0.7474
67.8649 -48.0700 -0.4682 0.7170
68.4773 -46.4682 -0.4659 0.7182
68.4885 -44.4947 -0.4598 0.7213
68.3351 -42.4692 -0.4530 0.7248
71.9637 -42.7462 -0.4713 0.7155
84.9577 10.8212 -2.4116 0.7098
68.3413 11.5088 -1.9514 0.7578
68.6256 12.9783 -1.9666 0.7562
66.0813 15.2674 -1.9097 0.7623
65.8824 16.6212 -1.9132 0.7619
83.4546 22.8456 -2.4364 0.7073
56.0162 16.5499 -1.6447 0.7916
56.0232 17.7821 -1.6551 0.7904
48.5121 16.4770 -1.4426 0.8146
47.5253 17.2133 -1.4233 0.8169
47.5315 18.3029 -1.4342 0.8156
38.2836 16.5353 -1.1742 0.8463
37.8484 17.2568 -1.1713 0.8467
37.8537 18.1856 -1.1825 0.8453
37.8646 20.0997 -1.2071 0.8424
29.7819 16.5838 -0.9598 0.8725
13.3289 8.5114 -0.4453 0.9387
13.2811 9.2517 -0.4558 0.9373
11.8848 9.3900 -0.4265 0.9412
11.4097 9.3927 -0.4161 0.9426
63.7389 64.2133 -2.5476 0.6962
62.5089 65.5549 -2.5505 0.6960
21.6465 24.6074 -0.9228 0.8771
14.5944 17.9989 -0.6525 0.9114
54.0567 72.4256 -2.5448 0.6965
49.5390 75.4547 -2.5416 0.6968
47.9942 76.4016 -2.5406 0.6969
44.8502 78.1984 -2.5384 0.6972
43.2526 79.0482 -2.5372 0.6973
38.3649 81.3980 -2.5338 0.6976
36.7062 82.1132 -2.5326 0.6977
33.3498 83.4423 -2.5303 0.6980
31.6532 84.0549 -2.5291 0.6981
29.9452 84.6324 -2.5278 0.6982
28.2268 85.1752 -2.5266 0.6983
26.4987 85.6832 -2.5254 0.6985
23.0156 86.5919 -2.5229 0.6987
17.7359 87.6886 -2.5191 0.6991
15.9641 87.9823 -2.5178 0.6992
14.1878 88.2402 -2.5166 0.6993
8.8378 88.7973 -2.5127 0.6997
7.0500 88.9106 -2.5114 0.6998
5.2613 88.9881 -2.5101 0.7000
3.4723 89.0297 -2.5088 0.7001
-0.1037 89.0047 -2.5062 0.7004
-3.6720 88.8361 -2.5036 0.7006
-7.2270 88.5252 -2.5010 0.7009
-8.9978 88.3164 -2.4997 0.7010
-16.0191 87.1292 -2.4945 0.7015
-20.2048 75.3098 -2.1956 0.7320
-17.8829 57.3504 -1.6916 0.7863
-17.8218 53.3614 -1.5841 0.7984
-18.0340 47.5531 -1.4320 0.8159
-17.8794 37.7062 -1.1750 0.8462
-17.9487 35.9693 -1.1319 0.8514
-18.1675 33.0198 -1.0612 0.8600
-23.4738 38.8827 -1.2789 0.8338
-21.2091 33.5886 -1.1185 0.8530
-23.4993 35.6117 -1.2014 0.8430
-23.4566 34.0403 -1.1640 0.8475
-18.0857 25.1503 -0.8723 0.8834
-23.5330 31.3768 -1.1044 0.8547
-36.2189 44.4555 -1.6146 0.7950
-16.7085 18.9050 -0.7104 0.9040
-17.0901 18.5718 -0.7107 0.9039
-36.4491 36.5497 -1.4535 0.8134
-36.4810 35.1419 -1.4263 0.8165
-36.6816 33.9423 -1.4072 0.8187
-36.5955 32.5237 -1.3786 0.8221
-36.6135 31.2471 -1.3554 0.8248
-36.7253 30.0897 -1.3369 0.8270
-38.5816 29.1030 -1.3608 0.8242
-43.6816 28.9977 -1.4763 0.8107
-45.2248 28.7313 -1.5087 0.8070
-47.6270 28.9322 -1.5691 0.8001
-14.3191 8.3097 -0.4662 0.9359
-52.6955 29.1824 -1.6961 0.7858
-77.3197 36.9244 -2.4127 0.7097
-71.8448 29.1392 -2.1831 0.7333
-72.9305 21.3626 -2.1399 0.7378
-72.9572 16.6771 -2.1073 0.7412
-72.9660 15.1447 -2.0984 0.7422
-82.8765 12.0541 -2.3582 0.7152
-82.9067 10.3637 -2.3526 0.7158
-83.0209 8.6895 -2.3505 0.7160
-83.0064 7.0068 -2.3456 0.7165
-45.9483 2.0261 -1.2951 0.8319
-82.6025 -1.3344 -2.3262 0.7185
-82.4502 -2.9882 -2.3231 0.7188
-62.2899 -4.7665 -1.7591 0.7788
-64.4392 -6.2342 -1.8229 0.7718
-81.0723 -11.1432 -2.3043 0.7207
-80.2925 -14.3404 -2.2966 0.7215
-78.6776 -20.6801 -2.2906 0.7221
-78.2541 -22.2573 -2.2909 0.7221
-77.8000 -23.8260 -2.2911 0.7221
-77.0247 -27.0148 -2.2984 0.7214
-77.5898 -28.9747 -2.3321 0.7179
-78.0640 -30.9510 -2.3646 0.7146
-78.4554 -32.9435 -2.3960 0.7114
-78.7569 -34.9458 -2.4261 0.7084
-34.0608 -16.7806 -1.0692 0.8590
-29.3492 -16.7257 -0.9512 0.8736
-28.1743 -16.8142 -0.9239 0.8770
-24.6975 -16.8340 -0.8416 0.8873
-23.5568 -16.7587 -0.8140 0.8908
-22.6998 -16.8454 -0.7959 0.8930
-21.7794 -16.8507 -0.7754 0.8957
-19.2786 -16.8649 -0.7212 0.9026
-18.5199 -16.8693 -0.7054 0.9046
-17.7078 -16.7921 -0.6872 0.9070
-17.4297 -17.2058 -0.6896 0.9066
-16.7442 -17.9119 -0.6904 0.9065
-16.7528 -19.4290 -0.7224 0.9024
-16.7575 -20.2421 -0.7399 0.9002
-16.7624 -21.0961 -0.7587 0.8978
-16.7675 -21.9949 -0.7788 0.8952
-16.6779 -23.8013 -0.8184 0.8902
-16.9013 -26.3072 -0.8805 0.8824
-16.7476 -27.2559 -0.9008 0.8798
-15.6145 -32.2737 -1.0095 0.8663
-17.0193 -41.3573 -1.2593 0.8361
-16.7348 -45.8097 -1.3733 0.8227
-15.6849 -45.7657 -1.3622 0.8240
-9.9197 -30.9564 -0.9153 0.8780
-15.4210 -55.7293 -1.6282 0.7934
-14.2249 -55.7362 -1.6197 0.7944
-8.6509 -40.6396 -1.1700 0.8468
-8.4076 -49.0992 -1.4026 0.8193
-8.4407 -64.8426 -1.8412 0.7698
-8.4876 -77.2930 -2.1895 0.7326
-7.8893 -88.1123 -2.4910 0.7019
-4.3509 -88.4489 -2.4935 0.7016
7.6148 -83.1151 -2.3502 0.7161
9.2863 -82.9888 -2.3514 0.7159
6.1976 -46.8551 -1.3308 0.8277
14.2863 -82.4080 -2.3550 0.7156
15.9458 -82.1475 -2.3563 0.7154
6.2906 -29.2550 -0.8426 0.8871
11.4031 -48.2933 -1.3972 0.8199
5.5704 -17.2608 -0.5107 0.9300
11.4809 -33.2750 -0.9912 0.8686
11.4924 -31.2589 -0.9378 0.8752
11.5028 -29.4481 -0.8902 0.8812
11.5206 -26.3241 -0.8091 0.8914
11.5383 -22.5607 -0.7135 0.9036
11.7712 -20.9016 -0.6755 0.9085
12.3321 -20.9048 -0.6834 0.9074
13.6502 -18.5909 -0.6494 0.9118
15.5816 -18.7428 -0.6863 0.9071
16.2041 -18.7145 -0.6970 0.9057
17.6288 -18.7805 -0.7253 0.9021
21.3909 -18.6350 -0.7988 0.8927
23.4320 -18.8136 -0.8461 0.8867
68.1477 -42.3527 -2.2593 0.7254
71.3318 -42.3709 -2.3362 0.7175
74.1659 -42.0637 -2.4008 0.7109
49.6438 6.3232 -2.5380 0.8184
49.5003 7.3174 -2.5376 0.8184
46.3413 7.8040 -2.3833 0.8284
46.1740 8.7323 -2.3832 0.8284
45.9878 9.6570 -2.3831 0.8284
45.3167 12.4053 -2.3828 0.8285
44.8814 14.2456 -2.3880 0.8281
44.9155 15.2554 -2.4057 0.8270
44.6210 16.1614 -2.4068 0.8269
44.2890 17.0543 -2.4068 0.8269
43.9405 17.9409 -2.4070 0.8269
37.8477 17.2565 -2.1095 0.8465
37.8639 20.0993 -2.1740 0.8422
29.7818 16.5838 -1.7287 0.8724
13.2794 8.1093 -0.7891 0.9396
13.3286 8.5113 -0.8020 0.9386
18.0709 13.1348 -1.1330 0.9144
11.8848 9.3900 -0.7681 0.9411
9.9757 8.5538 -0.6664 0.9487
10.0224 8.9491 -0.6814 0.9476
21.3675 21.5266 -1.5382 0.8856
33.1646 34.7807 -2.4372 0.8249
32.4801 35.4623 -2.4388 0.8248
21.4174 24.3470 -1.6445 0.8782
20.1439 23.8479 -1.5831 0.8825
17.9006 23.9833 -1.5177 0.8870
17.1633 23.9852 -1.4957 0.8886
15.0616 23.9765 -1.4360 0.8928
13.8585 24.1630 -1.4127 0.8944
13.2219 24.1643 -1.3969 0.8955
11.4380 24.2678 -1.3606 0.8981
10.7778 24.1104 -1.3393 0.8996
9.6439 24.1294 -1.3178 0.9012
9.2804 24.6442 -1.3355 0.8999
8.1889 24.7101 -1.3202 0.9010
7.4986 24.2468 -1.2871 0.9033
7.1047 24.7202 -1.3044 0.9021
6.4525 24.2763 -1.2739 0.9043
4.9921 24.6816 -1.2771 0.9041
3.9789 24.7468 -1.2711 0.9045
2.9669 24.7562 -1.2645 0.9050
2.4644 24.7608 -1.2619 0.9051
-0.5265 24.7862 -1.2573 0.9055
-2.0246 24.8001 -1.2619 0.9051
-3.5390 24.8118 -1.2710 0.9045
-4.5635 24.8213 -1.2799 0.9039
-5.9867 24.2491 -1.2667 0.9048
-6.6489 24.7824 -1.3013 0.9023
-7.7906 24.9845 -1.3272 0.9005
-8.6732 24.3321 -1.3100 0.9017
-13.7655 25.0192 -1.4482 0.8919
-13.9892 24.2596 -1.4202 0.8939
-15.9767 24.2116 -1.4711 0.8903
-17.4057 24.2046 -1.5119 0.8874
-18.0811 24.1078 -1.5283 0.8863
-18.9358 24.2189 -1.5591 0.8841
-22.8116 27.9992 -1.8316 0.8653
-16.6567 18.8464 -1.2756 0.9042
-17.0236 18.4996 -1.2750 0.9042
-22.7650 23.7633 -1.6689 0.8765
-22.9770 23.0404 -1.6502 0.8778
-22.8994 22.0588 -1.6125 0.8804
-15.4900 13.7665 -1.0510 0.9204
-17.0723 13.4241 -1.1014 0.9167
-14.3170 8.3085 -0.8395 0.9359
-42.0216 22.1810 -2.4098 0.8267
-42.4575 21.3327 -2.4097 0.8267
-42.8763 20.4758 -2.4097 0.8267
-43.2777 19.6106 -2.4096 0.8267
-30.9044 13.2627 -1.7055 0.8740
-43.8584 16.7712 -2.3813 0.8286
-43.9350 15.7972 -2.3678 0.8294
-43.8798 13.8153 -2.3330 0.8317
-44.0321 12.8978 -2.3269 0.8321
-44.1951 11.9877 -2.3223 0.8324
-44.7335 9.2848 -2.3170 0.8328
-44.9075 8.3845 -2.3168 0.8328
-45.0636 7.4809 -2.3166 0.8328
-46.2161 3.9013 -2.3522 0.8305
-48.5820 2.1422 -2.4662 0.8230
-48.6261 0.1906 -2.4661 0.8230
-48.6192 -0.7854 -2.4660 0.8230
-48.4828 -3.7100 -2.4659 0.8230
-48.3986 -4.6824 -2.4660 0.8230
-47.8705 -8.5498 -2.4661 0.8230
-47.4922 -10.4650 -2.4663 0.8230
-46.7832 -13.3062 -2.4667 0.8230
-46.5095 -14.2434 -2.4668 0.8230
-46.2173 -15.1751 -2.4670 0.8230
-42.8010 -15.9834 -2.3170 0.8328
-28.1744 -16.8142 -1.6639 0.8769
-24.2671 -15.8368 -1.4696 0.8904
-23.5568 -16.7588 -1.4661 0.8907
-21.7794 -16.8507 -1.3965 0.8956
-20.9051 -16.8557 -1.3619 0.8980
-20.0726 -16.8604 -1.3294 0.9003
-19.2787 -16.8650 -1.2990 0.9025
-17.7078 -16.7921 -1.2376 0.9069
-17.0104 -17.4798 -1.2369 0.9069
-16.7446 -17.9124 -1.2435 0.9065
-16.9552 -21.3388 -1.3822 0.8966
-16.7288 -23.8740 -1.4784 0.8898
-16.9340 -26.3581 -1.5888 0.8821
-16.1908 -27.5758 -1.6217 0.8798
-17.0200 -41.3591 -2.2682 0.8360
-8.3933 -22.9756 -1.2405 0.9067
-8.3557 -24.3802 -1.3070 0.9019
-8.2990 -25.8984 -1.3792 0.8968
-8.2527 -29.8241 -1.5693 0.8834
-8.2916 -32.4881 -1.7004 0.8743
-8.2719 -35.3586 -1.8416 0.8646
-6.3486 -48.7705 -2.4942 0.8212
-5.3699 -48.9019 -2.4949 0.8212
-4.3885 -49.0138 -2.4956 0.8211
-3.4048 -49.1060 -2.4964 0.8211
-2.4191 -49.1784 -2.4971 0.8210
-0.4436 -49.2643 -2.4985 0.8209
2.5242 -49.2443 -2.5007 0.8208
3.5132 -49.1979 -2.5014 0.8207
4.4913 -49.0227 -2.4966 0.8211
8.8415 -45.5483 -2.3531 0.8304
10.6686 -45.1826 -2.3544 0.8303
11.2535 -43.7170 -2.2894 0.8346
11.2724 -40.4125 -2.1277 0.8453
5.5698 -17.2589 -0.9197 0.9299
11.3161 -32.7974 -1.7595 0.8703
11.4886 -26.2510 -1.4532 0.8916
11.4075 -23.4548 -1.3227 0.9008
11.4755 -18.5897 -1.1079 0.9162
13.4137 -20.7842 -1.2545 0.9057
14.3442 -18.7358 -1.1967 0.9098
15.5816 -18.7429 -1.2361 0.9070
16.2041 -18.7145 -1.2554 0.9056
16.9291 -18.7765 -1.2821 0.9037
17.6288 -18.7805 -1.3063 0.9020
18.3557 -18.7847 -1.3320 0.9002
19.1121 -18.7890 -1.3592 0.8982
19.8663 -18.7613 -1.3858 0.8963
22.3572 -18.7008 -1.4782 0.8898
40.1084 -29.6361 -2.5291 0.8189
40.7028 -28.8306 -2.5296 0.8189
42.3870 -26.3429 -2.5309 0.8188
42.9145 -25.4911 -2.5314 0.8188
43.4246 -24.6286 -2.5318 0.8188
34.1829 4.3539 -2.5266 0.8709
33.7211 7.0811 -2.5264 0.8709
31.3722 7.9148 -2.3724 0.8783
31.2059 8.5426 -2.3723 0.8783
31.0269 9.1669 -2.3722 0.8783
30.8353 9.7873 -2.3721 0.8783
30.6311 10.4038 -2.3720 0.8783
30.4145 11.0159 -2.3718 0.8783
30.1856 11.6235 -2.3717 0.8783
29.9444 12.2263 -2.3715 0.8783
29.6910 12.8240 -2.3714 0.8783
29.4257 13.4165 -2.3712 0.8784
29.1702 14.0139 -2.3728 0.8783
28.8548 15.3173 -2.3953 0.8772
28.6757 15.9678 -2.4066 0.8767
13.3283 8.5111 -1.1595 0.9385
13.2806 9.2514 -1.1867 0.9371
17.2615 13.0839 -1.5881 0.9168
13.7303 13.2881 -1.4010 0.9262
13.0221 13.1190 -1.3553 0.9285
12.0748 13.1832 -1.3108 0.9308
10.6995 13.1953 -1.2456 0.9341
10.2703 13.1990 -1.2262 0.9351
9.8542 13.2027 -1.2080 0.9361
8.6370 13.1554 -1.1539 0.9388
7.9375 13.2174 -1.1304 0.9400
10.7145 23.9687 -1.9250 0.9001
10.1249 23.9278 -1.9050 0.9010
4.9654 13.1855 -1.0331 0.9451
4.6663 13.1881 -1.0257 0.9454
4.4221 13.3437 -1.0307 0.9452
7.4573 24.1132 -1.8507 0.9037
6.8837 23.9514 -1.8273 0.9049
6.3574 23.9187 -1.8147 0.9055
5.3685 24.0482 -1.8067 0.9059
4.8414 23.9365 -1.7906 0.9067
3.8593 24.0028 -1.7825 0.9071
2.8679 23.9307 -1.7672 0.9079
1.9034 24.0046 -1.7656 0.9079
0.7895 13.3536 -0.9808 0.9478
0.5209 13.3559 -0.9800 0.9478
0.4549 24.0575 -1.7643 0.9080
-1.4752 24.0023 -1.7632 0.9081
-1.9604 24.0138 -1.7666 0.9079
-3.2721 13.2536 -1.0010 0.9467
-8.6292 24.2086 -1.8844 0.9021
-9.6497 23.9816 -1.8954 0.9015
-6.1138 13.5919 -1.0928 0.9420
-6.3843 13.4640 -1.0926 0.9420
-6.6562 13.3391 -1.0931 0.9420
-6.9956 13.3421 -1.1046 0.9414
-7.6635 13.2900 -1.1249 0.9403
-8.8132 13.3559 -1.1733 0.9378
-10.0250 13.3665 -1.2251 0.9352
-10.4536 13.3703 -1.2444 0.9342
-11.3537 13.3782 -1.2866 0.9320
-12.9582 13.5264 -1.3735 0.9276
-14.1759 13.6556 -1.4432 0.9241
-15.2208 13.5273 -1.4931 0.9216
-17.5127 13.7704 -1.6335 0.9145
-18.2454 13.7629 -1.6757 0.9124
-18.8290 13.6190 -1.7039 0.9110
-19.5675 13.5633 -1.7457 0.9089
-20.1755 13.3934 -1.7756 0.9074
-21.4931 13.6546 -1.8671 0.9029
-22.3926 13.6030 -1.9211 0.9002
-14.3149 8.3073 -1.2135 0.9358
-28.5345 14.3371 -2.3415 0.8798
-28.6623 13.6878 -2.3289 0.8804
-29.1831 12.5240 -2.3285 0.8804
-29.4259 11.9347 -2.3283 0.8804
-30.2786 9.5330 -2.3275 0.8805
-30.4616 8.9227 -2.3274 0.8805
-30.7912 7.6920 -2.3271 0.8805
-33.2167 6.2017 -2.4776 0.8733
-33.5253 4.1908 -2.4773 0.8733
-33.7133 2.1654 -2.4770 0.8733
-33.7757 -0.5456 -2.4768 0.8733
-33.7262 -1.9007 -2.4768 0.8733
-33.6227 -3.2529 -2.4768 0.8733
-33.5508 -3.9271 -2.4768 0.8733
-33.4656 -4.5998 -2.4768 0.8733
-33.3670 -5.2706 -2.4769 0.8733
-33.1300 -6.6059 -2.4770 0.8733
-32.4976 -9.2431 -2.4773 0.8733
-31.1697 -11.6398 -2.4396 0.8751
-29.5017 -11.6969 -2.3269 0.8805
-27.2680 -16.2733 -2.3283 0.8804
-23.5569 -16.7588 -2.1197 0.8905
-22.6999 -16.8455 -2.0726 0.8928
-20.9051 -16.8557 -1.9690 0.8979
-17.7079 -16.7922 -1.7893 0.9068
-17.4305 -17.2066 -1.7959 0.9064
-17.0104 -17.4799 -1.7884 0.9068
-16.9557 -21.3394 -1.9984 0.8964
-14.3942 -20.5423 -1.8392 0.9043
-15.1573 -22.5826 -1.9942 0.8967
-14.2566 -22.1907 -1.9340 0.8996
-16.6421 -27.0843 -2.3308 0.8803
-14.3881 -25.6721 -2.1578 0.8887
-14.1616 -27.8315 -2.2897 0.8823
-8.7633 -19.0804 -1.5395 0.9192
-8.4241 -19.3573 -1.5479 0.9188
-8.1582 -19.8246 -1.5719 0.9176
-8.2068 -22.4651 -1.7537 0.9085
-8.2043 -25.6029 -1.9713 0.8978
-8.2565 -27.6648 -2.1169 0.8907
-8.3456 -30.1598 -2.2945 0.8820
-8.2279 -32.2385 -2.4396 0.8751
-7.7484 -33.1206 -2.4940 0.8725
-7.0834 -33.2758 -2.4945 0.8724
-6.4153 -33.4178 -2.4950 0.8724
-5.7443 -33.5462 -2.4955 0.8724
-5.0708 -33.6613 -2.4960 0.8724
-3.7172 -33.8510 -2.4969 0.8723
-3.0375 -33.9254 -2.4974 0.8723
-2.3565 -33.9863 -2.4979 0.8723
-1.6741 -34.0335 -2.4984 0.8723
-0.9909 -34.0669 -2.4989 0.8722
-0.3070 -34.0868 -2.4994 0.8722
0.3774 -34.0928 -2.4999 0.8722
1.7461 -34.0638 -2.5009 0.8721
2.4299 -34.0287 -2.5014 0.8721
3.7953 -33.9173 -2.5024 0.8721
4.8415 -31.6949 -2.3509 0.8793
5.6541 -29.1278 -2.1756 0.8878
5.6513 -26.2818 -1.9711 0.8978
8.6248 -30.9203 -2.3537 0.8792
6.6467 -18.0787 -1.4123 0.9257
11.3465 -27.4114 -2.1752 0.8878
11.3626 -24.6061 -1.9873 0.8970
11.3822 -21.1950 -1.7640 0.9080
11.6769 -20.7342 -1.7448 0.9090
11.4754 -18.5896 -1.6017 0.9161
13.3877 -20.7439 -1.8102 0.9057
13.5838 -20.1484 -1.7817 0.9071
14.3442 -18.7358 -1.7301 0.9097
14.9529 -18.7393 -1.7578 0.9083
15.5816 -18.7429 -1.7871 0.9069
17.4713 -18.6127 -1.8718 0.9027
18.1917 -18.6168 -1.9085 0.9009
19.7226 -18.6255 -1.9890 0.8969
20.5381 -18.6302 -2.0332 0.8947
25.2497 -18.6571 -2.3019 0.8817
26.3462 -18.6615 -2.3673 0.8785
27.0807 -17.5934 -2.3679 0.8785
27.4317 -17.0484 -2.3681 0.8785
27.7716 -16.4963 -2.3684 0.8785
26.0448 3.3174 -2.5206 0.8999
25.9727 3.8394 -2.5206 0.8999
25.8901 4.3599 -2.5206 0.8999
25.5793 5.9099 -2.5204 0.8999
25.4549 6.4220 -2.5204 0.8999
25.3201 6.9313 -2.5203 0.8999
25.1484 7.4300 -2.5175 0.9000
24.3620 7.7327 -2.4539 0.9024
23.3403 7.9275 -2.3665 0.9057
23.1756 8.3940 -2.3664 0.9057
23.0014 8.8571 -2.3663 0.9057
22.8180 9.3166 -2.3662 0.9057
22.6253 9.7722 -2.3661 0.9057
22.4234 10.2239 -2.3660 0.9057
22.2125 10.6713 -2.3658 0.9057
21.7637 11.5528 -2.3656 0.9057
21.5261 11.9866 -2.3654 0.9057
21.2797 12.4154 -2.3652 0.9057
13.3281 8.5110 -1.5182 0.9384
13.3302 8.8940 -1.5385 0.9376
18.2663 13.2769 -2.1680 0.9133
17.2614 13.0839 -2.0794 0.9166
11.8847 9.3899 -1.4541 0.9410
11.4097 9.3927 -1.4188 0.9423
10.0033 9.2996 -1.3113 0.9466
13.7303 13.2881 -1.8344 0.9261
13.0221 13.1190 -1.7746 0.9284
12.6775 13.2952 -1.7637 0.9288
11.5665 13.6934 -1.7209 0.9305
10.6519 13.6894 -1.6652 0.9327
5.6105 8.1827 -0.9525 0.9609
8.3742 13.3309 -1.5114 0.9387
8.0076 13.3341 -1.4932 0.9394
7.3317 13.3994 -1.4664 0.9405
5.9816 13.3812 -1.4072 0.9428
5.6510 13.3548 -1.3922 0.9434
4.9654 13.1855 -1.3527 0.9450
4.6663 13.1881 -1.3430 0.9453
4.4219 13.3430 -1.3495 0.9451
3.2401 13.2565 -1.3101 0.9466
2.6823 13.2614 -1.2989 0.9471
2.4067 13.2638 -1.2942 0.9473
2.1330 13.2662 -1.2900 0.9474
1.3211 13.2733 -1.2806 0.9478
1.0527 13.2757 -1.2785 0.9479
-0.5492 13.2876 -1.2768 0.9480
-1.0851 13.2923 -1.2804 0.9478
-1.8969 13.2995 -1.2897 0.9474
-2.4460 13.3043 -1.2987 0.9471
-3.2721 13.2535 -1.3106 0.9466
-3.5564 13.2560 -1.3176 0.9463
-3.8943 13.4322 -1.3427 0.9454
-4.5298 13.5629 -1.3728 0.9442
-4.9338 13.8413 -1.4107 0.9427
-5.8980 13.8484 -1.4451 0.9413
-6.0689 13.4919 -1.4203 0.9423
-6.7150 13.4569 -1.4438 0.9414
-7.0574 13.4599 -1.4591 0.9408
-7.6635 13.2899 -1.4728 0.9402
-8.1302 13.4672 -1.5103 0.9387
-8.5057 13.4705 -1.5295 0.9380
-9.1664 13.8911 -1.5978 0.9353
-9.5625 13.8771 -1.6179 0.9345
-9.8996 13.7665 -1.6279 0.9341
-12.9620 13.5304 -1.7989 0.9275
-14.6318 13.5391 -1.9138 0.9230
-15.2208 13.5273 -1.9550 0.9214
-15.6494 13.3557 -1.9752 0.9207
-18.7725 13.5782 -2.2243 0.9111
-20.1754 13.3933 -2.3249 0.9073
-20.7833 12.6254 -2.3346 0.9069
-16.2471 8.1633 -1.7456 0.9295
-22.6979 8.6796 -2.3330 0.9070
-22.8662 8.2217 -2.3329 0.9070
-24.3672 7.6719 -2.4526 0.9024
-24.8193 7.2700 -2.4829 0.9013
-24.9678 6.7724 -2.4836 0.9013
-25.2171 5.7643 -2.4834 0.9013
-25.3266 5.2568 -2.4833 0.9013
-25.5942 3.7226 -2.4830 0.9013
-25.6630 3.2080 -2.4829 0.9013
-25.7215 2.6922 -2.4829 0.9013
-25.7697 2.1753 -2.4828 0.9013
-25.8076 1.6576 -2.4828 0.9013
-25.8352 1.1392 -2.4827 0.9013
-25.8524 0.6204 -2.4827 0.9013
-25.8593 0.1014 -2.4826 0.9013
-25.8420 -0.9366 -2.4826 0.9013
-25.8180 -1.4550 -2.4826 0.9013
-25.6838 -3.0063 -2.4826 0.9013
-25.6184 -3.5212 -2.4826 0.9013
-25.5429 -4.0347 -2.4826 0.9013
-25.4571 -4.5467 -2.4827 0.9013
-25.3611 -5.0568 -2.4827 0.9013
-25.2550 -5.5650 -2.4828 0.9013
-25.1388 -6.0709 -2.4828 0.9013
-24.8763 -7.0754 -2.4830 0.9013
-24.4079 -8.5606 -2.4832 0.9013
-23.6469 -10.4926 -2.4837 0.9013
-21.7287 -11.2525 -2.3492 0.9064
-21.3493 -11.6053 -2.3329 0.9070
-20.8690 -12.4544 -2.3332 0.9070
-20.3552 -13.2839 -2.3335 0.9069
-18.6208 -15.6409 -2.3347 0.9069
-18.3048 -16.0130 -2.3349 0.9069
-17.9813 -16.3787 -2.3351 0.9069
-17.6506 -16.7379 -2.3353 0.9069
-17.3128 -17.0904 -2.3355 0.9069
-16.3438 -17.4837 -2.2977 0.9083
-15.7015 -17.4874 -2.2563 0.9099
-15.0602 -17.4660 -2.2141 0.9115
-14.2201 -17.8966 -2.1945 0.9122
-14.1799 -19.3961 -2.3067 0.9080
-13.5724 -20.2213 -2.3381 0.9068
-13.1654 -20.4921 -2.3384 0.9068
-12.3354 -21.0093 -2.3390 0.9067
-11.9127 -21.2553 -2.3393 0.9067
-11.4851 -21.4928 -2.3395 0.9067
-8.7915 -18.1712 -1.9380 0.9221
-8.8278 -19.2211 -2.0306 0.9185
-8.2133 -21.1553 -2.1787 0.9128
-8.2164 -22.4913 -2.2989 0.9083
-8.1935 -23.9072 -2.4263 0.9034
-5.4134 -25.4305 -2.4962 0.9008
-4.9025 -25.5378 -2.4965 0.9008
-3.8748 -25.7216 -2.4973 0.9008
-3.3582 -25.7981 -2.4976 0.9007
-2.8402 -25.8642 -2.4980 0.9007
-2.3208 -25.9198 -2.4984 0.9007
-1.2790 -26.0000 -2.4991 0.9007
-0.7570 -26.0243 -2.4995 0.9007
0.2882 -26.0417 -2.5003 0.9006
0.8110 -26.0346 -2.5007 0.9006
1.3336 -26.0170 -2.5010 0.9006
1.8558 -25.9890 -2.5014 0.9006
2.3775 -25.9505 -2.5018 0.9006
2.8983 -25.9015 -2.5022 0.9006
3.9368 -25.7722 -2.5030 0.9005
4.4483 -25.6590 -2.5001 0.9006
5.6296 -23.8420 -2.3519 0.9062
5.9591 -23.1494 -2.2949 0.9084
5.6447 -20.2367 -2.0170 0.9190
5.8545 -19.4698 -1.9519 0.9216
6.2733 -18.1818 -1.8465 0.9256
8.9225 -22.8424 -2.3543 0.9062
9.8349 -22.4724 -2.3550 0.9061
10.2855 -22.2737 -2.3554 0.9061
10.7320 -22.0659 -2.3557 0.9061
11.6023 -20.6018 -2.2700 0.9094
12.8265 -19.8743 -2.2709 0.9093
13.6502 -18.5910 -2.2143 0.9115
14.8399 -18.5977 -2.2842 0.9088
15.4639 -18.6013 -2.3223 0.9074
16.0896 -18.5822 -2.3598 0.9059
16.4614 -18.2577 -2.3601 0.9059
16.8265 -17.9258 -2.3604 0.9059
17.1850 -17.5865 -2.3606 0.9059
17.5366 -17.2401 -2.3609 0.9059
17.8811 -16.8865 -2.3612 0.9059
19.1863 -15.4046 -2.3622 0.9059
19.4937 -15.0180 -2.3625 0.9058
20.3682 -13.8217 -2.3632 0.9058
20.9104 -12.9955 -2.3636 0.9058
19.2621 -11.4416 -2.1509 0.9139
21.4189 -12.1479 -2.3640 0.9058
21.0190 2.6772 -2.5169 0.9182
20.9609 3.0986 -2.5169 0.9182
20.8191 3.9373 -2.5169 0.9182
20.7356 4.3543 -2.5168 0.9182
20.5433 5.1828 -2.5167 0.9182
20.0593 6.8131 -2.5165 0.9182
19.7244 7.5953 -2.5107 0.9184
18.9332 7.7304 -2.4292 0.9209
18.2608 7.8871 -2.3628 0.9230
17.9280 8.6129 -2.3626 0.9230
17.7506 8.9706 -2.3625 0.9230
17.5662 9.3247 -2.3624 0.9230
13.2786 8.1088 -1.8482 0.9393
16.7580 10.7012 -2.3619 0.9230
16.5388 11.0348 -2.3617 0.9230
13.3958 9.3316 -1.9393 0.9364
16.0806 11.6882 -2.3614 0.9230
11.8847 9.3899 -1.7992 0.9408
11.4096 9.3926 -1.7555 0.9422
10.0217 8.9485 -1.5959 0.9473
10.0031 9.2994 -1.6224 0.9465
13.7303 13.2881 -2.2697 0.9259
11.7954 13.4088 -2.1213 0.9306
10.9045 13.4481 -2.0566 0.9326
10.4298 13.4039 -2.0174 0.9339
9.9572 13.3407 -1.9774 0.9351
8.6370 13.1554 -1.8694 0.9386
8.0076 13.3341 -1.8476 0.9393
7.6592 13.3541 -1.8287 0.9399
7.3128 13.3648 -1.8097 0.9405
7.1969 13.8040 -1.8492 0.9392
6.3135 13.3951 -1.7590 0.9421
5.9920 13.4043 -1.7441 0.9426
4.6663 13.1881 -1.6617 0.9452
4.4216 13.3423 -1.6696 0.9450
4.1336 13.3659 -1.6619 0.9452
3.8422 13.3685 -1.6523 0.9455
3.5744 13.4479 -1.6529 0.9455
3.3716 13.7946 -1.6868 0.9444
2.7215 13.4554 -1.6307 0.9462
2.4878 13.7113 -1.6553 0.9454
1.9297 13.7580 -1.6503 0.9456
1.6045 13.3881 -1.6017 0.9471
0.5157 13.2224 -1.5718 0.9481
-0.0156 13.4003 -1.5918 0.9475
-0.2847 13.4026 -1.5924 0.9474
-0.5573 13.4820 -1.6028 0.9471
-1.3743 13.4892 -1.6106 0.9468
-1.6863 13.7989 -1.6513 0.9455
-2.2447 13.7559 -1.6556 0.9454
-2.5249 13.7329 -1.6586 0.9453
-2.7477 13.4242 -1.6277 0.9463
-3.0302 13.4267 -1.6350 0.9461
-5.1214 13.5043 -1.7156 0.9435
-5.4654 13.5827 -1.7392 0.9427
-5.8218 13.6695 -1.7649 0.9419
-6.0699 13.4942 -1.7576 0.9421
-6.3966 13.4901 -1.7735 0.9416
-6.7150 13.4569 -1.7865 0.9412
-7.0574 13.4599 -1.8053 0.9406
-7.3104 13.2868 -1.8014 0.9407
-8.9023 13.4910 -1.9200 0.9370
-9.2988 13.4944 -1.9467 0.9361
-9.7099 13.5028 -1.9756 0.9352
-10.1434 13.5245 -2.0082 0.9342
-10.5921 13.5474 -2.0427 0.9331
-12.4254 13.5028 -2.1797 0.9288
-13.7477 13.7856 -2.3126 0.9246
-14.1299 13.6113 -2.3305 0.9240
-14.9769 12.7818 -2.3388 0.9238
-15.2291 12.4775 -2.3386 0.9238
-15.4752 12.1683 -2.3385 0.9238
-16.1756 11.2122 -2.3379 0.9238
-16.3961 10.8844 -2.3377 0.9238
-16.8173 10.2161 -2.3374 0.9238
-17.3981 9.1836 -2.3369 0.9238
-17.7505 8.4768 -2.3366 0.9238
-18.0743 7.7567 -2.3363 0.9238
-18.9434 7.6832 -2.4283 0.9210
-19.5283 7.4676 -2.4835 0.9192
-19.7059 7.0854 -2.4875 0.9191
-19.8432 6.6882 -2.4874 0.9191
-20.0938 5.8858 -2.4871 0.9191
-20.2070 5.4811 -2.4870 0.9191
-20.3122 5.0742 -2.4869 0.9191
-20.4980 4.2545 -2.4868 0.9191
-20.7708 2.5965 -2.4865 0.9191
-20.8573 1.7606 -2.4864 0.9191
-20.8881 1.3416 -2.4863 0.9191
-20.9245 0.5022 -2.4863 0.9191
-20.9302 0.0821 -2.4862 0.9191
-20.9274 -0.3381 -2.4862 0.9191
-20.8968 -1.1777 -2.4862 0.9191
-20.8689 -1.5969 -2.4862 0.9191
-20.6740 -3.2657 -2.4862 0.9191
-20.6046 -3.6800 -2.4863 0.9191
-20.5268 -4.0929 -2.4863 0.9191
-20.4409 -4.5042 -2.4863 0.9191
-20.2444 -5.3212 -2.4864 0.9191
-20.1340 -5.7266 -2.4865 0.9191
-19.8890 -6.5304 -2.4866 0.9191
-19.4619 -7.7163 -2.4869 0.9191
-19.3038 -8.1057 -2.4870 0.9191
-18.7834 -9.2539 -2.4873 0.9191
-18.5948 -9.6296 -2.4874 0.9191
-18.3986 -10.0013 -2.4875 0.9191
-18.1951 -10.3692 -2.4877 0.9191
-17.9843 -10.7329 -2.4878 0.9191
-17.7307 -11.0701 -2.4830 0.9192
-15.5610 -12.0395 -2.3371 0.9238
-15.0674 -12.6562 -2.3374 0.9238
-14.8114 -12.9570 -2.3376 0.9238
-14.5494 -13.2527 -2.3378 0.9238
-14.2816 -13.5431 -2.3379 0.9238
-14.0080 -13.8281 -2.3381 0.9238
-13.4439 -14.3815 -2.3385 0.9238
-13.1536 -14.6497 -2.3387 0.9238
-12.5572 -15.1685 -2.3391 0.9237
-12.2513 -15.4188 -2.3393 0.9237
-11.6248 -15.9010 -2.3397 0.9237
-11.3043 -16.1327 -2.3400 0.9237
-10.9793 -16.3579 -2.3402 0.9237
-10.3159 -16.7887 -2.3407 0.9237
-9.9779 -16.9941 -2.3409 0.9237
-9.6358 -17.1927 -2.3411 0.9237
-9.2897 -17.3844 -2.3414 0.9237
-8.9398 -17.5692 -2.3416 0.9237
-8.5863 -17.7470 -2.3419 0.9237
-8.2991 -18.0700 -2.3620 0.9230
-7.6014 -19.5794 -2.4949 0.9189
-7.2077 -19.7302 -2.4952 0.9189
-6.0092 -20.1351 -2.4960 0.9188
-5.1975 -20.3647 -2.4966 0.9188
-4.7882 -20.4674 -2.4969 0.9188
-3.9638 -20.6479 -2.4975 0.9188
-3.1327 -20.7954 -2.4981 0.9188
-1.8761 -20.9538 -2.4990 0.9187
-1.4553 -20.9898 -2.4993 0.9187
0.2330 -21.0493 -2.5005 0.9187
1.0779 -21.0281 -2.5011 0.9187
1.4999 -21.0049 -2.5014 0.9187
2.3424 -20.9329 -2.5021 0.9187
3.1814 -20.8271 -2.5027 0.9186
4.0157 -20.6878 -2.5033 0.9186
4.9353 -19.1722 -2.3516 0.9234
5.3197 -19.0716 -2.3519 0.9233
5.7022 -18.9633 -2.3522 0.9233
5.5419 -17.1725 -2.1434 0.9299
6.4602 -18.7237 -2.3528 0.9233
6.8355 -18.5924 -2.3531 0.9233
7.2082 -18.4537 -2.3533 0.9233
7.5781 -18.3074 -2.3536 0.9233
7.9449 -18.1538 -2.3539 0.9233
8.3087 -17.9928 -2.3542 0.9233
9.0262 -17.6488 -2.3547 0.9233
9.7295 -17.2762 -2.3552 0.9232
10.0754 -17.0794 -2.3555 0.9232
10.4173 -16.8755 -2.3558 0.9232
11.0887 -16.4474 -2.3563 0.9232
11.4178 -16.2233 -2.3565 0.9232
12.0622 -15.7552 -2.3570 0.9232
12.3773 -15.5115 -2.3573 0.9232
14.1597 -13.9203 -2.3586 0.9231
14.4376 -13.6345 -2.3589 0.9231
14.9758 -13.0464 -2.3593 0.9231
15.2360 -12.7443 -2.3595 0.9231
15.9794 -11.8072 -2.3601 0.9231
16.5206 -11.2108 -2.3716 0.9227
17.2352 -11.1972 -2.4414 0.9205
17.9259 -11.1406 -2.5071 0.9185
17.6453 1.8884 -2.5144 0.9308
17.4993 2.9469 -2.5144 0.9308
17.3666 3.6468 -2.5143 0.9308
17.2896 3.9946 -2.5143 0.9308
17.2057 4.3408 -2.5142 0.9308
16.9122 5.3680 -2.5141 0.9308
16.8006 5.7063 -2.5140 0.9308
16.6822 6.0422 -2.5140 0.9308
16.5571 6.3756 -2.5139 0.9308
16.4253 6.7065 -2.5138 0.9308
16.1317 7.3552 -2.5121 0.9309
15.9471 7.6613 -2.5068 0.9310
15.2883 7.7263 -2.4271 0.9331
14.5528 8.1037 -2.3601 0.9349
14.3866 8.3938 -2.3600 0.9349
13.2783 8.1087 -2.2045 0.9391
13.8534 9.2430 -2.3597 0.9349
13.0645 10.3221 -2.3591 0.9349
10.0822 9.3730 -1.9505 0.9459
11.2402 12.2719 -2.3579 0.9350
10.9908 12.4941 -2.3578 0.9350
10.2166 13.1300 -2.3572 0.9350
9.9502 13.3314 -2.3570 0.9350
9.5335 13.3228 -2.3212 0.9360
5.6092 8.1808 -1.4054 0.9607
7.6619 13.3589 -2.1820 0.9397
7.3142 13.3675 -2.1590 0.9403
7.2091 13.8274 -2.2095 0.9389
5.6510 13.3547 -2.0546 0.9431
5.3387 13.3575 -2.0382 0.9435
3.8422 13.3685 -1.9708 0.9454
3.0802 13.7979 -2.0031 0.9445
2.7094 13.3954 -1.9364 0.9463
2.1546 13.4003 -1.9231 0.9466
1.8798 13.4027 -1.9176 0.9468
1.6045 13.3881 -1.9105 0.9470
1.0620 13.3929 -1.9036 0.9472
0.2534 13.3979 -1.8987 0.9473
-0.2847 13.4026 -1.8994 0.9473
-0.5548 13.4219 -1.9034 0.9472
-2.1925 13.4363 -1.9290 0.9465
-2.7477 13.4242 -1.9415 0.9461
-3.0302 13.4267 -1.9503 0.9459
-3.2720 13.2535 -1.9343 0.9463
-3.5564 13.2560 -1.9447 0.9461
-4.8753 13.6774 -2.0574 0.9430
-5.4913 13.6470 -2.0843 0.9423
-6.4047 13.5070 -2.1181 0.9414
-7.3103 13.2868 -2.1487 0.9406
-7.6635 13.2899 -2.1737 0.9399
-8.9055 13.4958 -2.2910 0.9368
-9.6533 13.4240 -2.3428 0.9354
-9.9199 13.2264 -2.3426 0.9354
-10.6952 12.6022 -2.3420 0.9354
-10.9451 12.3839 -2.3418 0.9354
-11.1906 12.1608 -2.3416 0.9354
-11.4315 11.9328 -2.3414 0.9354
-11.8993 11.4625 -2.3410 0.9354
-12.3479 10.9740 -2.3407 0.9354
-12.5648 10.7232 -2.3405 0.9354
-12.7766 10.4681 -2.3403 0.9354
-12.9832 10.2088 -2.3402 0.9355
-13.7565 9.1322 -2.3395 0.9355
-14.1102 8.5716 -2.3393 0.9355
-14.2105 8.2466 -2.3280 0.9358
-14.4412 7.9975 -2.3390 0.9355
-14.6064 7.7100 -2.3402 0.9355
-15.3013 7.6881 -2.4263 0.9332
-15.8248 7.5572 -2.4848 0.9316
-16.0055 7.2527 -2.4898 0.9315
-16.1498 6.9308 -2.4901 0.9315
-16.2850 6.6049 -2.4900 0.9315
-16.9565 4.5994 -2.4894 0.9315
-17.0448 4.2580 -2.4893 0.9315
-17.2687 3.2242 -2.4891 0.9315
-17.4701 1.8285 -2.4888 0.9315
-17.5029 1.4775 -2.4888 0.9315
-17.5288 1.1258 -2.4888 0.9315
-17.5477 0.7738 -2.4887 0.9315
-17.5642 0.0689 -2.4887 0.9315
-17.5620 -0.2837 -2.4887 0.9315
-17.5526 -0.6361 -2.4887 0.9315
-17.5363 -0.9883 -2.4886 0.9315
-17.4825 -1.6914 -2.4886 0.9315
-17.4451 -2.0419 -2.4887 0.9315
-17.2909 -3.0882 -2.4887 0.9315
-17.2257 -3.4347 -2.4887 0.9315
-17.1535 -3.7798 -2.4888 0.9315
-17.0744 -4.1234 -2.4888 0.9315
-16.9885 -4.4653 -2.4889 0.9315
-16.8958 -4.8056 -2.4889 0.9315
-16.7963 -5.1438 -2.4890 0.9315
-16.4576 -6.1458 -2.4892 0.9315
-15.9137 -7.4470 -2.4895 0.9315
-15.7616 -7.7652 -2.4896 0.9315
-14.5234 -9.8993 -2.4904 0.9315
-14.3225 -10.1893 -2.4905 0.9315
-14.1159 -10.4753 -2.4906 0.9314
-13.9035 -10.7571 -2.4908 0.9314
-13.6856 -11.0347 -2.4909 0.9314
-13.4609 -11.3068 -2.4908 0.9314
-13.2185 -11.5635 -2.4884 0.9315
-12.4258 -12.2662 -2.4739 0.9319
-11.5369 -12.8490 -2.4467 0.9326
-11.2601 -13.0588 -2.4432 0.9327
-10.9991 -13.2863 -2.4439 0.9327
-10.2477 -14.0174 -2.4603 0.9323
-10.0105 -14.2863 -2.4717 0.9320
-9.2021 -14.9760 -2.4905 0.9315
-8.9093 -15.1741 -2.4932 0.9314
-7.9851 -15.6929 -2.4948 0.9313
-7.6692 -15.8514 -2.4950 0.9313
-7.3501 -16.0036 -2.4953 0.9313
-7.0280 -16.1494 -2.4955 0.9313
-6.7031 -16.2887 -2.4957 0.9313
-6.0450 -16.5477 -2.4962 0.9313
-5.3771 -16.7802 -2.4967 0.9313
-5.0396 -16.8863 -2.4969 0.9313
-4.7002 -16.9857 -2.4971 0.9313
-4.3587 -17.0783 -2.4974 0.9313
-4.0154 -17.1641 -2.4976 0.9313
-2.6269 -17.4378 -2.4986 0.9312
-2.2766 -17.4888 -2.4989 0.9312
-1.2203 -17.5994 -2.4996 0.9312
-0.8668 -17.6222 -2.4999 0.9312
-0.5130 -17.6379 -2.5002 0.9312
0.1954 -17.6479 -2.5007 0.9312
0.5496 -17.6422 -2.5009 0.9312
0.9037 -17.6294 -2.5012 0.9312
1.2575 -17.6096 -2.5014 0.9312
1.6109 -17.5826 -2.5017 0.9312
1.9636 -17.5486 -2.5020 0.9311
2.3157 -17.5074 -2.5022 0.9311
2.6669 -17.4592 -2.5025 0.9311
3.0171 -17.4040 -2.5027 0.9311
3.7140 -17.2724 -2.5033 0.9311
4.0604 -17.1961 -2.5035 0.9311
4.7456 -17.0133 -2.5026 0.9311
5.0773 -16.8851 -2.4983 0.9312
6.6584 -15.2143 -2.3531 0.9351
6.9632 -15.0790 -2.3533 0.9351
8.4430 -14.3122 -2.3545 0.9351
8.7294 -14.1412 -2.3547 0.9351
9.0123 -13.9644 -2.3549 0.9351
9.5672 -13.5939 -2.3553 0.9350
9.8390 -13.4003 -2.3555 0.9350
10.6304 -12.7872 -2.3561 0.9350
11.1370 -12.3523 -2.3565 0.9350
11.6256 -11.8973 -2.3569 0.9350
12.0957 -11.4229 -2.3573 0.9350
12.3878 -11.2370 -2.3698 0.9347
14.0327 -10.8108 -2.5099 0.9309
14.2547 -10.5328 -2.5113 0.9309
14.4642 -10.2453 -2.5115 0.9309
14.6679 -9.9536 -2.5116 0.9309
14.8657 -9.6577 -2.5118 0.9309
15.2432 -9.0544 -2.5121 0.9309
15.1298 1.9271 -2.5126 0.9400
15.0880 2.2304 -2.5126 0.9400
15.0400 2.5328 -2.5126 0.9400
14.7096 4.0268 -2.5124 0.9400
14.6256 4.3211 -2.5124 0.9400
14.5356 4.6137 -2.5123 0.9400
14.3381 5.1932 -2.5122 0.9401
13.9984 6.0462 -2.5120 0.9401
13.8738 6.3257 -2.5119 0.9401
13.7436 6.6027 -2.5118 0.9401
13.4666 7.1485 -2.5117 0.9401
13.3064 7.4096 -2.5090 0.9401
12.6427 7.7205 -2.4404 0.9417
11.7451 8.1818 -2.3581 0.9436
11.2298 8.8725 -2.3577 0.9436
10.0820 9.3727 -2.2677 0.9457
10.2816 9.9504 -2.3571 0.9436
10.0792 10.1542 -2.3570 0.9436
9.6624 10.5493 -2.3567 0.9437
9.4481 10.7404 -2.3565 0.9437
9.2300 10.9272 -2.3564 0.9437
9.0082 11.1096 -2.3562 0.9437
8.7829 11.2874 -2.3561 0.9437
8.5540 11.4606 -2.3559 0.9437
5.6085 8.1798 -1.6339 0.9606
7.8471 11.9522 -2.3554 0.9437
7.6051 12.1064 -2.3553 0.9437
6.3514 12.8028 -2.3544 0.9437
5.8315 13.0453 -2.3540 0.9437
5.5681 13.1587 -2.3538 0.9437
4.9654 13.1854 -2.3211 0.9445
4.6663 13.1880 -2.3046 0.9449
4.4211 13.3408 -2.3153 0.9446
4.1336 13.3659 -2.3048 0.9449
3.8422 13.3685 -2.2915 0.9452
2.7103 13.4002 -2.2522 0.9461
2.5104 13.8359 -2.3165 0.9446
2.1554 13.4051 -2.2367 0.9464
1.3328 13.3905 -2.2168 0.9469
1.0620 13.3929 -2.2133 0.9470
0.7816 13.2200 -2.1817 0.9477
-0.2847 13.4026 -2.2084 0.9471
-0.5550 13.4268 -2.2138 0.9470
-0.8555 13.9186 -2.2973 0.9450
-1.6715 13.6776 -2.2700 0.9457
-2.1933 13.4412 -2.2436 0.9463
-2.7477 13.4242 -2.2573 0.9460
-3.2721 13.2535 -2.2489 0.9462
-3.5564 13.2560 -2.2610 0.9459
-4.5122 13.5102 -2.3465 0.9439
-4.7821 13.4158 -2.3463 0.9439
-5.3157 13.2108 -2.3459 0.9439
-6.0996 12.8637 -2.3453 0.9439
-6.3561 12.7376 -2.3451 0.9439
-6.6099 12.6064 -2.3449 0.9439
-6.8611 12.4702 -2.3447 0.9439
-7.1094 12.3290 -2.3446 0.9439
-7.3549 12.1829 -2.3444 0.9439
-8.3058 11.5501 -2.3436 0.9440
-8.5353 11.3802 -2.3435 0.9440
-8.9838 11.0268 -2.3431 0.9440
-9.2027 10.8435 -2.3430 0.9440
-9.6291 10.4639 -2.3426 0.9440
-10.0399 10.0676 -2.3423 0.9440
-10.8123 9.2276 -2.3417 0.9440
-10.9946 9.0081 -2.3415 0.9440
-11.3460 8.5586 -2.3413 0.9440
-11.8385 7.8589 -2.3409 0.9440
-12.1252 7.7031 -2.3665 0.9434
-12.6572 7.6889 -2.4397 0.9417
-13.0547 7.5759 -2.4865 0.9406
-13.2260 7.3245 -2.4906 0.9406
-13.3782 7.0617 -2.4921 0.9405
-13.5166 6.7914 -2.4920 0.9405
-13.7771 6.2429 -2.4918 0.9405
-13.8991 5.9649 -2.4917 0.9405
-14.0154 5.6845 -2.4916 0.9405
-14.1261 5.4018 -2.4915 0.9405
-14.2312 5.1170 -2.4914 0.9405
-14.5119 4.2508 -2.4911 0.9405
-14.5939 3.9585 -2.4911 0.9405
-14.6700 3.6647 -2.4910 0.9405
-14.7402 3.3694 -2.4909 0.9405
-14.9616 2.1761 -2.4907 0.9405
-15.0363 1.5738 -2.4906 0.9406
-15.1134 0.3627 -2.4905 0.9406
-15.1175 0.0593 -2.4905 0.9406
-15.1156 -0.2442 -2.4904 0.9406
-15.0472 -1.4557 -2.4904 0.9406
-15.0150 -1.7575 -2.4904 0.9406
-14.9767 -2.0585 -2.4905 0.9406
-14.8823 -2.6580 -2.4905 0.9406
-14.8261 -2.9562 -2.4905 0.9406
-14.7639 -3.2533 -2.4905 0.9406
-14.6958 -3.5489 -2.4906 0.9406
-14.5420 -4.1361 -2.4907 0.9406
-14.4563 -4.4272 -2.4907 0.9405
-14.3649 -4.7166 -2.4908 0.9405
-13.9417 -5.8541 -2.4910 0.9405
-13.8217 -6.1330 -2.4911 0.9405
-13.6963 -6.4093 -2.4911 0.9405
-13.5653 -6.6832 -2.4912 0.9405
-12.9875 -7.7508 -2.4916 0.9405
-12.8298 -8.0103 -2.4917 0.9405
-12.6670 -8.2665 -2.4918 0.9405
-12.4990 -8.5195 -2.4919 0.9405
-12.3261 -8.7690 -2.4920 0.9405
-11.5853 -9.7313 -2.4925 0.9405
-11.3882 -9.9624 -2.4926 0.9405
