ply
format ascii 1.0
element vertex 1591
property float32 x
property float32 y
property float32 z
property float32 I
end_header
-5.7552 -13.0185 -2.3449 0.9439
-5.4924 -13.1327 -2.3451 0.9439
-4.9600 -13.3453 -2.3454 0.9439
-4.4194 -13.5364 -2.3458 0.9439
-4.1463 -13.6237 -2.3460 0.9439
-3.8715 -13.7056 -2.3462 0.9439
-3.0378 -13.9178 -2.3468 0.9439
-2.7572 -13.9773 -2.3470 0.9439
-2.4754 -14.0311 -2.3472 0.9439
-2.1926 -14.0793 -2.3474 0.9439
-1.6243 -14.1586 -2.3478 0.9439
-1.0531 -14.2149 -2.3482 0.9439
-0.7668 -14.2345 -2.3484 0.9438
-0.1931 -14.2562 -2.3488 0.9438
0.6680 -14.2456 -2.3494 0.9438
0.7691 -11.4629 -1.8926 0.9545
1.2412 -14.2096 -2.3498 0.9438
2.6642 -14.0189 -2.3508 0.9438
2.9462 -13.9636 -2.3510 0.9438
3.7847 -13.7637 -2.3516 0.9438
4.3365 -13.6025 -2.3520 0.9438
4.6098 -13.5135 -2.3522 0.9438
5.1510 -13.3191 -2.3526 0.9438
5.4185 -13.2138 -2.3527 0.9437
5.9471 -12.9870 -2.3531 0.9437
6.4661 -12.7390 -2.3535 0.9437
6.7218 -12.6072 -2.3537 0.9437
7.2250 -12.3283 -2.3540 0.9437
7.7166 -12.0292 -2.3544 0.9437
7.9578 -11.8722 -2.3545 0.9437
8.1958 -11.7105 -2.3547 0.9437
9.2932 -11.7050 -2.4621 0.9412
9.6846 -11.7060 -2.5029 0.9403
9.9365 -11.5297 -2.5074 0.9402
10.3977 -11.1258 -2.5087 0.9401
10.6203 -10.9149 -2.5088 0.9401
10.8386 -10.6995 -2.5090 0.9401
11.0525 -10.4798 -2.5091 0.9401
11.2619 -10.2557 -2.5093 0.9401
11.4668 -10.0275 -2.5094 0.9401
11.6670 -9.7951 -2.5096 0.9401
12.0532 -9.3185 -2.5099 0.9401
12.7664 -8.3203 -2.5104 0.9401
13.2473 -7.5355 -2.5107 0.9401
13.8128 -6.4463 -2.5111 0.9401
14.0622 -5.8854 -2.5113 0.9401
14.4919 -4.7356 -2.5116 0.9401
14.5847 -4.4430 -2.5117 0.9401
14.8274 -3.5547 -2.5119 0.9401
14.9591 -2.9550 -2.5120 0.9401
15.0664 -2.3504 -2.5120 0.9401
15.1492 -1.7420 -2.5121 0.9401
15.1814 -1.4366 -2.5121 0.9401
15.2073 -1.1307 -2.5122 0.9401
15.2493 0.0965 -2.5122 0.9401
15.2442 0.4034 -2.5122 0.9401
15.1919 1.3230 -2.5122 0.9401
15.1621 1.6286 -2.5122 0.9401
15.1261 1.9335 -2.5121 0.9401
15.0356 2.5408 -2.5121 0.9401
14.9812 2.8430 -2.5120 0.9401
14.7815 3.7420 -2.5119 0.9401
14.7029 4.0388 -2.5119 0.9401
14.4312 4.9186 -2.5117 0.9401
14.3289 5.2080 -2.5116 0.9401
13.9870 6.0630 -2.5114 0.9401
13.8616 6.3432 -2.5113 0.9401
13.7306 6.6207 -2.5112 0.9401
12.0689 7.7377 -2.3618 0.9435
11.8894 7.9647 -2.3575 0.9436
11.2078 8.8937 -2.3571 0.9436
10.8395 9.3367 -2.3568 0.9437
10.4536 9.7644 -2.3565 0.9437
9.8433 10.3758 -2.3561 0.9437
9.6319 10.5712 -2.3560 0.9437
7.1678 8.1922 -1.7932 0.9568
6.9700 8.2975 -1.7852 0.9570
8.0475 11.8139 -2.3549 0.9437
7.8075 11.9727 -2.3547 0.9437
7.3181 12.2755 -2.3543 0.9437
6.5622 12.6921 -2.3538 0.9437
6.3048 12.8206 -2.3536 0.9437
5.7827 13.0621 -2.3533 0.9437
5.2513 13.2822 -2.3529 0.9437
4.9824 13.3842 -2.3527 0.9437
4.7116 13.4807 -2.3525 0.9438
3.6106 13.8115 -2.3518 0.9438
3.1286 13.0349 -2.2083 0.9471
2.8529 13.0375 -2.1986 0.9473
2.3387 13.2157 -2.2110 0.9470
2.0657 13.2183 -2.2040 0.9472
1.8096 13.3344 -2.2168 0.9469
1.5266 13.2453 -2.1965 0.9474
0.7210 13.2531 -2.1865 0.9476
0.4690 13.7064 -2.2593 0.9459
0.1866 13.2582 -2.1844 0.9477
-0.0804 13.2608 -2.1846 0.9477
-0.6141 13.2441 -2.1842 0.9477
-0.8817 13.2467 -2.1871 0.9476
-1.1350 13.0738 -2.1619 0.9482
-1.4010 13.0764 -2.1665 0.9481
-2.2367 13.2576 -2.2149 0.9470
-2.8581 13.5817 -2.2864 0.9453
-3.3607 13.2902 -2.2583 0.9459
-3.7669 13.7272 -2.3450 0.9439
-4.5366 13.3219 -2.3184 0.9445
-5.1165 13.2508 -2.3400 0.9440
-5.6584 13.0631 -2.3452 0.9439
-5.9198 12.9455 -2.3450 0.9439
-6.6890 12.5616 -2.3445 0.9439
-5.1317 9.1863 -1.7335 0.9582
-5.1741 8.4447 -1.6315 0.9606
-8.1505 11.6587 -2.3435 0.9440
-6.7383 8.8567 -1.8333 0.9559
-9.9095 10.1952 -2.3422 0.9440
-10.1122 9.9929 -2.3421 0.9440
-10.5050 9.5766 -2.3418 0.9440
-11.0621 8.9234 -2.3414 0.9440
-11.2389 8.6984 -2.3412 0.9440
-11.5788 8.2381 -2.3410 0.9440
-11.7417 8.0029 -2.3409 0.9440
-11.8999 7.7645 -2.3408 0.9440
-12.3654 7.7178 -2.4013 0.9426
-13.1262 7.4758 -2.4885 0.9406
-13.2936 7.2206 -2.4922 0.9405
-13.4358 6.9512 -2.4921 0.9405
-13.8293 6.1267 -2.4918 0.9405
-14.0638 5.5646 -2.4916 0.9405
-14.1725 5.2802 -2.4915 0.9405
-14.3727 4.7050 -2.4914 0.9405
-14.7032 3.5331 -2.4911 0.9405
-14.7711 3.2363 -2.4911 0.9405
-8.7362 -9.9954 -2.4952 0.9474
-8.3276 -10.3402 -2.4955 0.9474
-8.1183 -10.5064 -2.4956 0.9474
-7.9055 -10.6684 -2.4958 0.9474
-7.0051 -11.2433 -2.4899 0.9475
-6.3888 -11.2384 -2.4298 0.9487
-6.0881 -11.2298 -2.4010 0.9493
-5.7943 -11.2213 -2.3738 0.9499
-5.5118 -11.2230 -2.3502 0.9504
-5.2737 -11.3080 -2.3452 0.9505
-5.0453 -11.4126 -2.3454 0.9505
-4.8148 -11.5127 -2.3456 0.9505
-4.5824 -11.6081 -2.3457 0.9505
-3.8741 -11.8661 -2.3462 0.9505
-2.4168 -12.2518 -2.3472 0.9504
-2.1698 -12.2989 -2.3474 0.9504
-1.4237 -12.4102 -2.3479 0.9504
-1.1737 -12.4373 -2.3481 0.9504
-0.9231 -12.4593 -2.3483 0.9504
-0.6721 -12.4763 -2.3485 0.9504
-0.1693 -12.4951 -2.3488 0.9504
0.3340 -12.4937 -2.3492 0.9504
1.0878 -12.4536 -2.3497 0.9504
1.3384 -12.4301 -2.3499 0.9504
1.8380 -12.3680 -2.3502 0.9504
2.0869 -12.3294 -2.3504 0.9504
2.3348 -12.2858 -2.3506 0.9504
2.8280 -12.1837 -2.3509 0.9504
3.0729 -12.1251 -2.3511 0.9504
4.0396 -11.8420 -2.3518 0.9504
5.2112 -11.3801 -2.3526 0.9503
5.4397 -11.2736 -2.3528 0.9503
5.6934 -11.2168 -2.3644 0.9501
5.9781 -11.2123 -2.3883 0.9496
6.2685 -11.2076 -2.4137 0.9491
6.5670 -11.2055 -2.4412 0.9485
6.8761 -11.2093 -2.4717 0.9479
7.4119 -11.0578 -2.5022 0.9473
7.6422 -10.9194 -2.5051 0.9472
7.8660 -10.7708 -2.5069 0.9472
8.2942 -10.4467 -2.5072 0.9472
8.7091 -10.1055 -2.5075 0.9472
8.9113 -9.9287 -2.5076 0.9471
10.0461 -8.7852 -2.5084 0.9471
10.3927 -8.3744 -2.5087 0.9471
10.5597 -8.1639 -2.5088 0.9471
11.3293 -7.0628 -2.5094 0.9471
12.1006 -5.6472 -2.5099 0.9471
12.2122 -5.4026 -2.5100 0.9471
12.4206 -4.9069 -2.5102 0.9471
12.6087 -4.4031 -2.5103 0.9471
12.6952 -4.1484 -2.5104 0.9471
13.0492 -2.8518 -2.5106 0.9471
13.1042 -2.5886 -2.5107 0.9471
13.2371 -1.7928 -2.5108 0.9471
13.2706 -1.5260 -2.5108 0.9471
13.3215 -0.9905 -2.5108 0.9471
13.3507 -0.4534 -2.5109 0.9471
13.3287 0.8908 -2.5109 0.9471
13.2819 1.4266 -2.5108 0.9471
13.2504 1.6937 -2.5108 0.9471
13.1712 2.2258 -2.5108 0.9471
13.1235 2.4904 -2.5107 0.9471
13.0705 2.7541 -2.5107 0.9471
13.0122 3.0167 -2.5107 0.9471
12.9486 3.2780 -2.5106 0.9471
12.6419 4.3088 -2.5104 0.9471
12.5523 4.5623 -2.5104 0.9471
12.4576 4.8140 -2.5103 0.9471
12.2530 5.3113 -2.5101 0.9471
11.7845 6.2791 -2.5098 0.9471
11.3827 6.9783 -2.5096 0.9471
11.2394 7.2058 -2.5095 0.9471
10.5714 7.7160 -2.4600 0.9481
9.4965 8.1799 -2.3558 0.9503
8.9840 8.7369 -2.3555 0.9503
8.8058 8.9155 -2.3554 0.9503
8.6241 9.0905 -2.3552 0.9503
8.4388 9.2618 -2.3551 0.9503
7.1585 8.1817 -2.0434 0.9567
6.9591 8.2846 -2.0337 0.9569
7.6646 9.9085 -2.3546 0.9503
7.4631 10.0602 -2.3544 0.9503
7.0511 10.3512 -2.3541 0.9503
6.8409 10.4904 -2.3540 0.9503
6.6279 10.6254 -2.3538 0.9503
6.1939 10.8822 -2.3535 0.9503
5.9732 11.0040 -2.3534 0.9503
5.5246 11.2340 -2.3531 0.9503
5.2969 11.3422 -2.3529 0.9503
5.0671 11.4458 -2.3528 0.9503
4.3660 11.7283 -2.3523 0.9503
4.1287 11.8130 -2.3521 0.9503
3.6493 11.9680 -2.3518 0.9504
3.4073 12.0381 -2.3516 0.9504
2.6738 12.2192 -2.3511 0.9504
2.1794 12.3152 -2.3507 0.9504
1.9309 12.3556 -2.3506 0.9504
1.6816 12.3911 -2.3504 0.9504
1.1812 12.4468 -2.3500 0.9504
0.6790 12.4824 -2.3497 0.9504
0.4275 12.4926 -2.3495 0.9504
-0.0758 12.4978 -2.3491 0.9504
-0.5788 12.4828 -2.3488 0.9504
-1.3310 12.4222 -2.3483 0.9504
-1.5807 12.3920 -2.3481 0.9504
-2.0780 12.3165 -2.3477 0.9504
-2.3254 12.2712 -2.3476 0.9504
-2.5718 12.2210 -2.3474 0.9504
-3.0612 12.1058 -2.3470 0.9504
-3.3041 12.0408 -2.3469 0.9505
-3.7856 11.8963 -2.3465 0.9505
-4.2609 11.7326 -2.3462 0.9505
-4.4959 11.6436 -2.3460 0.9505
-4.7291 11.5499 -2.3459 0.9505
-4.9604 11.4516 -2.3457 0.9505
-5.1895 11.3485 -2.3455 0.9505
-5.6415 11.1289 -2.3452 0.9505
-5.2253 9.3540 -2.0139 0.9573
-6.3017 10.7659 -2.3447 0.9505
-7.3495 10.0748 -2.3440 0.9505
-7.5504 9.9242 -2.3439 0.9505
-7.4278 9.3655 -2.2468 0.9525
-8.5071 9.1125 -2.3432 0.9505
-8.8661 8.7616 -2.3429 0.9505
-9.0403 8.5809 -2.3428 0.9505
-9.5403 8.0182 -2.3424 0.9505
-10.3911 7.7128 -2.4324 0.9487
-10.7807 7.6702 -2.4869 0.9476
-11.2545 7.0244 -2.4936 0.9474
-11.3932 6.7961 -2.4935 0.9474
-11.6566 6.3314 -2.4933 0.9474
-12.1266 5.3724 -2.4930 0.9474
-12.4277 4.6301 -2.4928 0.9475
-12.7586 3.6149 -2.4925 0.9475
-12.8286 3.3572 -2.4925 0.9475
-13.0071 2.5765 -2.4923 0.9475
-7.7705 -8.8905 -2.4959 0.9529
-7.5902 -9.0456 -2.4960 0.9529
-7.4070 -9.1971 -2.4962 0.9529
-7.0314 -9.4888 -2.4964 0.9529
-6.8393 -9.6290 -2.4965 0.9529
-6.6444 -9.7652 -2.4967 0.9529
-6.2466 -10.0259 -2.4970 0.9529
-6.0438 -10.1502 -2.4971 0.9529
-5.8386 -10.2704 -2.4972 0.9528
-5.6309 -10.3865 -2.4974 0.9528
-5.4210 -10.4984 -2.4975 0.9528
-5.2088 -10.6060 -2.4977 0.9528
-4.9945 -10.7094 -2.4978 0.9528
-4.7763 -10.8042 -2.4970 0.9529
-4.5553 -10.8923 -2.4956 0.9529
-4.1091 -11.0559 -2.4932 0.9529
-3.6550 -11.1949 -2.4893 0.9530
-3.4079 -11.1977 -2.4742 0.9533
-2.9222 -11.2026 -2.4472 0.9538
-2.4461 -11.2067 -2.4246 0.9542
-2.2110 -11.2085 -2.4149 0.9544
-1.7460 -11.2115 -2.3984 0.9547
-1.5156 -11.2127 -2.3917 0.9548
-1.2865 -11.2137 -2.3859 0.9549
-1.0583 -11.2146 -2.3811 0.9550
-0.6042 -11.2158 -2.3742 0.9551
0.0739 -11.2163 -2.3710 0.9552
0.5259 -11.2158 -2.3734 0.9551
0.9796 -11.2146 -2.3796 0.9550
1.4363 -11.2127 -2.3895 0.9548
1.6662 -11.2115 -2.3959 0.9547
2.1301 -11.2085 -2.4117 0.9544
3.8133 -11.1787 -2.4966 0.9529
4.0399 -11.1058 -2.4980 0.9528
4.2652 -11.0287 -2.4995 0.9528
4.7117 -10.8617 -2.5027 0.9527
5.3641 -10.5679 -2.5051 0.9527
5.7859 -10.3446 -2.5054 0.9527
5.9933 -10.2267 -2.5056 0.9527
6.4009 -9.9782 -2.5059 0.9527
6.6009 -9.8479 -2.5060 0.9527
6.7982 -9.7135 -2.5061 0.9527
7.1845 -9.4330 -2.5064 0.9527
7.7421 -8.9835 -2.5068 0.9527
8.0983 -8.6654 -2.5071 0.9527
8.4415 -8.3332 -2.5073 0.9527
8.6079 -8.1619 -2.5074 0.9527
8.7709 -7.9873 -2.5076 0.9527
9.2383 -7.4442 -2.5079 0.9527
9.3867 -7.2570 -2.5080 0.9526
9.5313 -7.0669 -2.5081 0.9526
9.6721 -6.8738 -2.5082 0.9526
9.8089 -6.6780 -2.5083 0.9526
10.3159 -5.8680 -2.5087 0.9526
10.4323 -5.6593 -2.5088 0.9526
10.5444 -5.4483 -2.5088 0.9526
10.6523 -5.2350 -2.5089 0.9526
10.7559 -5.0197 -2.5090 0.9526
10.8551 -4.8022 -2.5091 0.9526
10.9499 -4.5828 -2.5091 0.9526
11.0402 -4.3615 -2.5092 0.9526
11.2074 -3.9137 -2.5093 0.9526
11.2842 -3.6874 -2.5094 0.9526
11.3564 -3.4595 -2.5094 0.9526
11.6476 -2.3008 -2.5096 0.9526
11.6917 -2.0659 -2.5097 0.9526
11.7311 -1.8301 -2.5097 0.9526
11.7657 -1.5935 -2.5097 0.9526
11.7955 -1.3563 -2.5098 0.9526
11.8407 -0.8804 -2.5098 0.9526
11.8724 -0.1640 -2.5098 0.9526
11.8733 0.0751 -2.5098 0.9526
11.8694 0.3141 -2.5098 0.9526
11.8606 0.5530 -2.5098 0.9526
11.8471 0.7917 -2.5098 0.9526
11.8055 1.2680 -2.5098 0.9526
11.7775 1.5055 -2.5098 0.9526
11.7447 1.7423 -2.5098 0.9526
11.6177 2.4480 -2.5097 0.9526
11.5659 2.6814 -2.5096 0.9526
11.5094 2.9136 -2.5096 0.9526
11.4482 3.1447 -2.5096 0.9526
11.3824 3.3745 -2.5095 0.9526
10.7937 4.9393 -2.5091 0.9526
10.4750 5.5814 -2.5089 0.9526
10.2411 5.9982 -2.5087 0.9526
9.9906 6.4052 -2.5086 0.9526
9.7240 6.8017 -2.5084 0.9526
9.5847 6.9958 -2.5083 0.9526
9.4415 7.1871 -2.5082 0.9526
9.1260 7.5460 -2.5031 0.9527
8.9493 7.7086 -2.4967 0.9529
7.6663 8.0810 -2.3545 0.9555
7.1492 8.1710 -2.2950 0.9566
6.9483 8.2717 -2.2835 0.9568
6.9899 8.6699 -2.3541 0.9555
6.2684 9.2022 -2.3536 0.9555
6.0816 9.3260 -2.3534 0.9555
5.8922 9.4460 -2.3533 0.9555
5.5065 9.6745 -2.3530 0.9555
5.3103 9.7828 -2.3529 0.9555
4.9116 9.9875 -2.3526 0.9555
4.7092 10.0838 -2.3525 0.9555
3.0295 10.7032 -2.3513 0.9555
2.8132 10.7613 -2.3512 0.9555
1.9378 10.9499 -2.3505 0.9556
1.7168 10.9859 -2.3504 0.9556
1.4952 11.0175 -2.3502 0.9556
1.2730 11.0447 -2.3501 0.9556
0.8272 11.0855 -2.3498 0.9556
0.6038 11.0991 -2.3496 0.9556
0.1564 11.1130 -2.3493 0.9556
-0.0674 11.1131 -2.3491 0.9556
-0.2911 11.1088 -2.3490 0.9556
-0.7380 11.0866 -2.3487 0.9556
-0.9610 11.0687 -2.3485 0.9556
-1.1835 11.0464 -2.3483 0.9556
-1.4056 11.0196 -2.3482 0.9556
-2.0679 10.9125 -2.3477 0.9556
-2.5052 10.8189 -2.3474 0.9556
-2.7223 10.7656 -2.3473 0.9556
-3.1531 10.6459 -2.3470 0.9556
-3.5787 10.5090 -2.3467 0.9556
-4.4115 10.1844 -2.3461 0.9556
-5.0173 9.8977 -2.3456 0.9556
-5.2153 9.7941 -2.3455 0.9556
-5.2253 9.3540 -2.2648 0.9571
-5.1439 8.0279 -2.0154 0.9618
-6.1715 9.2177 -2.3448 0.9557
-6.3554 9.0910 -2.3447 0.9557
-6.5368 8.9608 -2.3446 0.9557
-7.0647 8.5484 -2.3442 0.9557
-7.2350 8.4040 -2.3441 0.9557
-7.7280 7.9508 -2.3437 0.9557
-8.1385 7.7249 -2.3719 0.9552
-8.8027 7.7059 -2.4729 0.9533
-9.1779 7.4035 -2.4925 0.9529
-9.4774 7.0346 -2.4949 0.9529
-9.6167 6.8420 -2.4948 0.9529
-9.7521 6.6468 -2.4947 0.9529
-9.8836 6.4489 -2.4946 0.9529
-10.0110 6.2483 -2.4945 0.9529
-10.1344 6.0453 -2.4944 0.9529
-10.5865 5.2096 -2.4941 0.9529
-10.7871 4.7789 -2.4939 0.9529
-11.0550 4.1187 -2.4937 0.9529
-11.2828 3.4436 -2.4936 0.9529
-11.4118 2.9865 -2.4935 0.9529
-11.4694 2.7560 -2.4934 0.9529
-11.5224 2.5245 -2.4934 0.9529
-11.5707 2.2920 -2.4933 0.9529
-6.9903 -7.9979 -2.4965 0.9573
-6.8282 -8.1374 -2.4966 0.9573
-6.6633 -8.2736 -2.4967 0.9573
-6.1525 -8.6620 -2.4970 0.9573
-5.7994 -8.9035 -2.4973 0.9573
-5.4368 -9.1307 -2.4975 0.9573
-5.2521 -9.2388 -2.4977 0.9573
-5.0653 -9.3432 -2.4978 0.9573
-4.8764 -9.4438 -2.4979 0.9573
-4.6856 -9.5405 -2.4981 0.9573
-4.4927 -9.6335 -2.4982 0.9573
-4.2981 -9.7225 -2.4983 0.9573
-2.8908 -10.2339 -2.4993 0.9572
-1.6370 -10.5114 -2.5002 0.9572
-1.4251 -10.5429 -2.5003 0.9572
-0.7862 -10.6116 -2.5008 0.9572
0.0701 -10.6430 -2.5014 0.9572
1.1398 -10.5853 -2.5022 0.9572
1.9882 -10.4617 -2.5028 0.9572
2.1985 -10.4202 -2.5029 0.9572
2.4080 -10.3744 -2.5031 0.9572
2.6166 -10.3245 -2.5032 0.9572
2.8241 -10.2703 -2.5033 0.9572
3.0305 -10.2119 -2.5035 0.9572
3.4395 -10.0828 -2.5038 0.9572
4.0426 -9.8585 -2.5042 0.9572
4.2405 -9.7756 -2.5043 0.9572
5.3895 -9.1963 -2.5052 0.9571
5.5739 -9.0864 -2.5053 0.9571
6.1132 -8.7347 -2.5057 0.9571
6.2881 -8.6103 -2.5058 0.9571
6.4605 -8.4824 -2.5059 0.9571
6.6303 -8.3510 -2.5060 0.9571
6.7974 -8.2162 -2.5062 0.9571
6.9618 -8.0780 -2.5063 0.9571
7.4377 -7.6440 -2.5066 0.9571
7.7401 -7.3390 -2.5068 0.9571
7.8866 -7.1820 -2.5069 0.9571
8.5702 -6.3543 -2.5074 0.9571
9.0549 -5.6449 -2.5078 0.9571
9.1670 -5.4617 -2.5079 0.9571
9.2754 -5.2761 -2.5079 0.9571
9.3800 -5.0885 -2.5080 0.9571
9.6709 -4.5133 -2.5082 0.9571
9.7601 -4.3178 -2.5083 0.9571
9.8453 -4.1205 -2.5084 0.9571
9.9265 -3.9216 -2.5084 0.9571
10.0768 -3.5189 -2.5085 0.9571
10.2107 -3.1105 -2.5086 0.9571
10.2714 -2.9044 -2.5087 0.9571
10.3280 -2.6970 -2.5087 0.9571
10.5474 -1.6454 -2.5089 0.9571
10.5785 -1.4328 -2.5089 0.9571
10.6278 -1.0057 -2.5089 0.9571
10.6598 -0.5771 -2.5090 0.9571
10.6693 -0.3623 -2.5090 0.9571
10.6752 0.0675 -2.5090 0.9571
10.6639 0.4972 -2.5090 0.9571
10.6517 0.7118 -2.5090 0.9571
10.6351 0.9262 -2.5090 0.9571
10.6143 1.1401 -2.5090 0.9571
10.5891 1.3535 -2.5089 0.9571
10.5596 1.5665 -2.5089 0.9571
10.4878 1.9903 -2.5089 0.9571
10.2932 2.8275 -2.5087 0.9571
10.2340 3.0341 -2.5087 0.9571
10.0316 3.6462 -2.5086 0.9571
9.9560 3.8473 -2.5085 0.9571
9.8763 4.0469 -2.5085 0.9571
9.7926 4.2448 -2.5084 0.9571
9.7049 4.4410 -2.5083 0.9571
9.6133 4.6354 -2.5083 0.9571
9.5178 4.8279 -2.5082 0.9571
9.4184 5.0184 -2.5082 0.9571
9.0974 5.5773 -2.5079 0.9571
8.9830 5.7592 -2.5079 0.9571
8.7433 6.1158 -2.5077 0.9571
8.6181 6.2903 -2.5076 0.9571
8.2218 6.7984 -2.5073 0.9571
7.9408 7.1233 -2.5071 0.9571
6.4937 7.7306 -2.3728 0.9594
5.8025 8.1601 -2.3532 0.9597
5.6367 8.2749 -2.3531 0.9597
5.4687 8.3862 -2.3530 0.9597
5.2985 8.4942 -2.3529 0.9597
5.1261 8.5987 -2.3528 0.9597
4.9517 8.6998 -2.3526 0.9597
4.7753 8.7972 -2.3525 0.9597
4.4168 8.9814 -2.3523 0.9597
4.2349 9.0680 -2.3521 0.9597
4.0512 9.1509 -2.3520 0.9597
3.3011 9.4451 -2.3515 0.9597
2.7244 9.6255 -2.3511 0.9597
2.3345 9.7262 -2.3508 0.9597
1.9408 9.8112 -2.3505 0.9597
1.5440 9.8802 -2.3503 0.9597
1.3447 9.9087 -2.3501 0.9597
1.1448 9.9332 -2.3500 0.9597
0.7439 9.9700 -2.3497 0.9598
0.5430 9.9824 -2.3496 0.9598
0.3419 9.9907 -2.3494 0.9598
-0.4629 9.9834 -2.3488 0.9598
-0.6637 9.9714 -2.3487 0.9598
-0.8643 9.9554 -2.3486 0.9598
-1.0645 9.9354 -2.3484 0.9598
-1.4635 9.8833 -2.3481 0.9598
-1.6621 9.8513 -2.3480 0.9598
-2.0571 9.7752 -2.3477 0.9598
-2.2533 9.7313 -2.3476 0.9598
-2.4487 9.6833 -2.3474 0.9598
-2.6430 9.6315 -2.3473 0.9598
-3.4085 9.3855 -2.3468 0.9598
-3.5966 9.3144 -2.3466 0.9598
-4.6914 8.8102 -2.3459 0.9598
-5.0417 8.6133 -2.3456 0.9598
-5.2138 8.5096 -2.3455 0.9598
-5.1439 8.0279 -2.2408 0.9616
-5.5516 8.2919 -2.3452 0.9598
-5.7172 8.1780 -2.3451 0.9598
-5.8804 8.0609 -2.3450 0.9598
-6.0412 7.9405 -2.3449 0.9598
-6.1995 7.8168 -2.3448 0.9598
-6.6473 7.7213 -2.3945 0.9590
-6.9160 7.7138 -2.4349 0.9583
-7.3859 7.5988 -2.4905 0.9574
-7.5444 7.4555 -2.4928 0.9574
-7.7003 7.3090 -2.4952 0.9573
-7.8485 7.1549 -2.4960 0.9573
-7.9906 6.9951 -2.4959 0.9573
-8.2651 6.6672 -2.4957 0.9573
-8.3974 6.4992 -2.4956 0.9573
-8.5262 6.3286 -2.4955 0.9573
-8.7734 5.9798 -2.4954 0.9573
-8.8918 5.8017 -2.4953 0.9573
-9.1175 5.4387 -2.4951 0.9573
-9.2249 5.2538 -2.4950 0.9573
-9.5244 4.6870 -2.4948 0.9573
-9.7049 4.2995 -2.4947 0.9573
-9.7892 4.1031 -2.4946 0.9573
-9.8696 3.9051 -2.4946 0.9573
-10.0184 3.5044 -2.4944 0.9573
-10.0867 3.3020 -2.4944 0.9573
-10.2671 2.6869 -2.4943 0.9573
-10.3190 2.4796 -2.4942 0.9573
-6.3464 -7.2611 -2.4969 0.9609
-5.7426 -7.7495 -2.4973 0.9609
-5.5856 -7.8639 -2.4974 0.9609
-5.2650 -8.0831 -2.4977 0.9609
-5.1014 -8.1879 -2.4978 0.9609
-4.7681 -8.3874 -2.4980 0.9609
-4.4270 -8.5733 -2.4983 0.9609
-4.2537 -8.6612 -2.4984 0.9609
-3.1798 -9.1134 -2.4991 0.9609
-2.0590 -9.4332 -2.4999 0.9609
-1.6777 -9.5094 -2.5002 0.9609
-1.2936 -9.5703 -2.5005 0.9609
-1.1007 -9.5949 -2.5006 0.9609
-0.9074 -9.6157 -2.5007 0.9609
-0.1309 -9.6596 -2.5013 0.9609
0.6469 -9.6409 -2.5018 0.9609
0.8409 -9.6265 -2.5020 0.9609
1.0346 -9.6081 -2.5021 0.9609
1.2279 -9.5859 -2.5022 0.9609
1.8046 -9.4958 -2.5026 0.9608
1.9955 -9.4581 -2.5028 0.9608
2.3749 -9.3710 -2.5030 0.9608
2.9368 -9.2121 -2.5034 0.9608
3.1218 -9.1515 -2.5036 0.9608
4.0269 -8.7937 -2.5042 0.9608
4.2033 -8.7113 -2.5043 0.9608
4.5510 -8.5358 -2.5046 0.9608
4.7222 -8.4429 -2.5047 0.9608
4.8915 -8.3465 -2.5048 0.9608
5.0587 -8.2467 -2.5049 0.9608
5.5481 -7.9274 -2.5053 0.9608
5.8633 -7.6983 -2.5055 0.9608
6.0174 -7.5790 -2.5056 0.9608
6.3182 -7.3312 -2.5058 0.9608
6.6087 -7.0715 -2.5060 0.9608
6.8886 -6.8002 -2.5062 0.9608
7.1573 -6.5179 -2.5064 0.9608
7.5386 -6.0746 -2.5067 0.9608
7.6596 -5.9218 -2.5068 0.9608
7.8924 -5.6090 -2.5070 0.9608
8.0039 -5.4491 -2.5070 0.9608
8.2173 -5.1228 -2.5072 0.9608
8.3191 -4.9565 -2.5073 0.9608
8.4174 -4.7881 -2.5073 0.9608
8.5123 -4.6178 -2.5074 0.9608
8.6038 -4.4456 -2.5075 0.9608
8.9344 -3.7393 -2.5077 0.9608
9.0081 -3.5587 -2.5078 0.9608
9.0781 -3.3767 -2.5078 0.9608
9.2659 -2.8227 -2.5080 0.9608
9.3723 -2.4475 -2.5080 0.9608
9.4635 -2.0682 -2.5081 0.9608
9.5034 -1.8773 -2.5081 0.9608
9.5393 -1.6856 -2.5082 0.9608
9.6239 -1.1066 -2.5082 0.9608
9.6443 -0.9127 -2.5082 0.9608
9.6608 -0.7183 -2.5083 0.9608
9.6733 -0.5236 -2.5083 0.9608
9.6820 -0.3288 -2.5083 0.9608
9.6866 -0.1338 -2.5083 0.9608
9.6770 0.4512 -2.5083 0.9608
9.6660 0.6460 -2.5083 0.9608
9.5825 1.4215 -2.5082 0.9608
9.5518 1.6141 -2.5082 0.9608
9.4367 2.1878 -2.5081 0.9608
9.3407 2.5658 -2.5081 0.9608
9.2870 2.7533 -2.5080 0.9608
9.2296 2.9397 -2.5080 0.9608
9.1035 3.3088 -2.5079 0.9608
9.0348 3.4913 -2.5079 0.9608
8.8866 3.8521 -2.5078 0.9608
8.8070 4.0302 -2.5077 0.9608
8.7239 4.2066 -2.5077 0.9608
8.6372 4.3812 -2.5076 0.9608
8.4534 4.7252 -2.5075 0.9608
8.2559 5.0614 -2.5073 0.9608
8.1521 5.2265 -2.5073 0.9608
8.0450 5.3894 -2.5072 0.9608
7.9346 5.5501 -2.5071 0.9608
7.7042 5.8647 -2.5070 0.9608
7.2064 6.4646 -2.5066 0.9608
7.0746 6.6081 -2.5065 0.9608
6.9398 6.7490 -2.5064 0.9608
6.6620 7.0223 -2.5062 0.9608
6.3723 7.2830 -2.5056 0.9608
6.2190 7.4035 -2.5035 0.9608
6.0636 7.5209 -2.5014 0.9609
5.9061 7.6352 -2.4993 0.9609
5.7192 7.7094 -2.4854 0.9611
5.4864 7.7156 -2.4513 0.9616
4.8235 7.7327 -2.3597 0.9630
4.6524 7.8041 -2.3524 0.9632
4.4941 7.8958 -2.3523 0.9632
4.1722 8.0695 -2.3521 0.9632
4.0087 8.1515 -2.3520 0.9632
3.8436 8.2302 -2.3519 0.9632
3.6769 8.3055 -2.3517 0.9632
3.1683 8.5110 -2.3514 0.9632
2.9962 8.5726 -2.3513 0.9632
2.8228 8.6308 -2.3511 0.9632
2.2963 8.7840 -2.3508 0.9632
2.1189 8.8280 -2.3507 0.9632
1.5818 8.9384 -2.3503 0.9632
1.4015 8.9679 -2.3501 0.9632
1.0392 9.0161 -2.3499 0.9632
0.4929 9.0609 -2.3495 0.9632
-0.0550 9.0727 -2.3491 0.9632
-0.4202 9.0621 -2.3489 0.9632
-0.6025 9.0513 -2.3487 0.9632
-0.9663 9.0187 -2.3485 0.9632
-1.3285 8.9716 -2.3482 0.9632
-1.6884 8.9099 -2.3480 0.9632
-1.8673 8.8736 -2.3478 0.9632
-2.2228 8.7902 -2.3476 0.9632
-2.3992 8.7433 -2.3475 0.9632
-2.5746 8.6927 -2.3473 0.9632
-2.7490 8.6387 -2.3472 0.9632
-3.2650 8.4556 -2.3469 0.9632
-3.7689 8.2419 -2.3465 0.9632
-3.9339 8.1639 -2.3464 0.9632
-4.0972 8.0826 -2.3463 0.9632
-4.5770 7.8194 -2.3459 0.9633
-4.7390 7.7345 -2.3486 0.9632
-5.6227 7.7077 -2.4702 0.9613
-5.8245 7.6556 -2.4906 0.9610
-5.9818 7.5423 -2.4925 0.9610
-6.1370 7.4259 -2.4943 0.9610
-6.5809 7.0492 -2.4969 0.9609
-6.8589 6.7780 -2.4967 0.9609
-6.9936 6.6383 -2.4966 0.9609
-7.1256 6.4958 -2.4965 0.9609
-7.5039 6.0532 -2.4962 0.9609
-7.8549 5.5886 -2.4960 0.9610
-8.1772 5.1037 -2.4958 0.9610
-8.4697 4.6004 -2.4955 0.9610
-8.6476 4.2555 -2.4954 0.9610
-8.7313 4.0804 -2.4954 0.9610
-8.8114 3.9037 -2.4953 0.9610
-8.9611 3.5456 -2.4952 0.9610
-9.0962 3.1819 -2.4951 0.9610
-9.2712 2.6268 -2.4950 0.9610
-5.6706 -6.7579 -2.4974 0.9640
-5.3944 -6.9812 -2.4976 0.9640
-4.9637 -7.2950 -2.4979 0.9640
-4.6664 -7.4896 -2.4981 0.9640
-4.5148 -7.5823 -2.4982 0.9640
-4.3614 -7.6720 -2.4983 0.9640
-4.0494 -7.8421 -2.4985 0.9640
-3.8908 -7.9224 -2.4986 0.9640
-3.7307 -7.9995 -2.4988 0.9640
-3.5690 -8.0733 -2.4989 0.9640
-3.4059 -8.1439 -2.4990 0.9640
-3.2414 -8.2112 -2.4991 0.9640
-2.7402 -8.3931 -2.4994 0.9640
-2.5708 -8.4469 -2.4996 0.9640
-2.2288 -8.5444 -2.4998 0.9640
-1.7092 -8.6647 -2.5002 0.9640
-1.5345 -8.6977 -2.5003 0.9639
-1.1832 -8.7533 -2.5005 0.9639
-0.4752 -8.8219 -2.5010 0.9639
-0.2975 -8.8301 -2.5012 0.9639
0.0582 -8.8358 -2.5014 0.9639
0.4139 -8.8272 -2.5017 0.9639
0.5916 -8.8175 -2.5018 0.9639
0.7690 -8.8043 -2.5019 0.9639
0.9462 -8.7874 -2.5020 0.9639
1.2993 -8.7431 -2.5023 0.9639
1.9989 -8.6119 -2.5028 0.9639
2.1720 -8.5703 -2.5029 0.9639
2.3442 -8.5253 -2.5030 0.9639
2.6858 -8.4248 -2.5033 0.9639
2.8550 -8.3694 -2.5034 0.9639
3.5198 -8.1141 -2.5039 0.9639
4.0037 -7.8879 -2.5042 0.9639
4.1619 -7.8061 -2.5043 0.9639
4.3185 -7.7210 -2.5044 0.9639
4.7773 -7.4472 -2.5047 0.9639
4.9265 -7.3498 -2.5049 0.9639
5.3619 -7.0399 -2.5052 0.9639
5.6414 -6.8189 -2.5054 0.9639
5.9118 -6.5867 -2.5056 0.9639
6.0434 -6.4666 -2.5057 0.9639
6.1726 -6.3439 -2.5057 0.9639
6.2993 -6.2185 -2.5058 0.9639
6.5450 -5.9603 -2.5060 0.9639
6.7801 -5.6923 -2.5062 0.9639
7.2170 -5.1290 -2.5065 0.9639
7.5141 -4.6844 -2.5067 0.9639
7.9479 -3.9059 -2.5070 0.9639
8.0251 -3.7452 -2.5071 0.9639
8.3011 -3.0877 -2.5073 0.9639
8.3617 -2.9200 -2.5073 0.9638
8.4189 -2.7511 -2.5074 0.9638
8.4727 -2.5811 -2.5074 0.9638
8.5231 -2.4100 -2.5074 0.9638
8.6135 -2.0650 -2.5075 0.9638
8.6534 -1.8911 -2.5075 0.9638
8.7227 -1.5413 -2.5076 0.9638
8.8001 -1.0119 -2.5077 0.9638
8.8187 -0.8345 -2.5077 0.9638
8.8338 -0.6568 -2.5077 0.9638
8.8531 -0.3006 -2.5077 0.9638
8.8581 0.0560 -2.5077 0.9638
8.8551 0.2344 -2.5077 0.9638
8.8075 0.9460 -2.5077 0.9638
8.7026 1.6515 -2.5076 0.9638
8.6675 1.8264 -2.5076 0.9638
8.6289 2.0005 -2.5076 0.9638
8.5868 2.1738 -2.5075 0.9638
8.4921 2.5176 -2.5075 0.9638
8.4395 2.6881 -2.5074 0.9638
8.3836 2.8574 -2.5074 0.9638
8.3242 3.0256 -2.5074 0.9638
8.1259 3.5224 -2.5072 0.9639
8.0532 3.6852 -2.5072 0.9639
7.9772 3.8465 -2.5071 0.9639
7.8980 4.0063 -2.5071 0.9639
7.8156 4.1643 -2.5070 0.9639
7.6412 4.4754 -2.5069 0.9639
7.5494 4.6283 -2.5068 0.9639
7.4544 4.7792 -2.5068 0.9639
7.3565 4.9282 -2.5067 0.9639
7.2556 5.0751 -2.5066 0.9639
7.1518 5.2200 -2.5066 0.9639
7.0450 5.3628 -2.5065 0.9639
6.7078 5.7778 -2.5063 0.9639
6.4693 6.0428 -2.5061 0.9639
6.3461 6.1716 -2.5060 0.9639
6.2204 6.2979 -2.5059 0.9639
5.6927 6.7769 -2.5055 0.9639
5.2726 7.1074 -2.5053 0.9639
5.1282 7.2118 -2.5052 0.9639
4.9799 7.3107 -2.5041 0.9639
4.6753 7.4952 -2.5008 0.9639
4.5206 7.5830 -2.4992 0.9640
3.4203 7.7258 -2.3919 0.9655
2.7401 7.8399 -2.3511 0.9661
2.5816 7.8931 -2.3510 0.9661
2.4220 7.9431 -2.3509 0.9661
1.9378 8.0737 -2.3505 0.9661
1.7748 8.1107 -2.3504 0.9661
1.6110 8.1443 -2.3503 0.9661
1.4467 8.1747 -2.3502 0.9661
1.2817 8.2018 -2.3501 0.9661
0.9504 8.2459 -2.3498 0.9661
0.6176 8.2767 -2.3496 0.9661
0.4508 8.2870 -2.3495 0.9661
-0.3843 8.2883 -2.3489 0.9661
-0.7176 8.2653 -2.3486 0.9661
-0.8838 8.2487 -2.3485 0.9661
-1.0497 8.2289 -2.3484 0.9661
-1.2151 8.2057 -2.3483 0.9661
-1.3800 8.1791 -2.3482 0.9661
-1.5443 8.1493 -2.3481 0.9661
-1.8709 8.0797 -2.3478 0.9661
-2.0331 8.0400 -2.3477 0.9661
-2.3549 7.9509 -2.3475 0.9661
-2.6729 7.8489 -2.3473 0.9661
-2.9874 7.7369 -2.3479 0.9661
-3.1644 7.7283 -2.3641 0.9659
-3.3460 7.7248 -2.3832 0.9656
-3.5307 7.7209 -2.4034 0.9653
-3.7184 7.7168 -2.4250 0.9650
-3.9096 7.7125 -2.4479 0.9647
-4.1044 7.7079 -2.4721 0.9643
-4.2917 7.6827 -2.4913 0.9641
-4.4479 7.5988 -2.4926 0.9641
-4.6025 7.5118 -2.4939 0.9640
-4.9069 7.3289 -2.4968 0.9640
-5.0557 7.2319 -2.4980 0.9640
-5.2001 7.1284 -2.4979 0.9640
-5.3423 7.0219 -2.4978 0.9640
-5.4824 6.9127 -2.4977 0.9640
-5.6203 6.8006 -2.4976 0.9640
-5.7558 6.6858 -2.4975 0.9640
-5.8891 6.5683 -2.4974 0.9640
-6.2741 6.2002 -2.4971 0.9640
-6.3975 6.0724 -2.4970 0.9640
-6.6363 5.8095 -2.4969 0.9640
-6.8644 5.5373 -2.4967 0.9640
-6.9742 5.3978 -2.4966 0.9640
-7.0813 5.2561 -2.4965 0.9640
-7.2867 4.9664 -2.4964 0.9640
-7.4803 4.6688 -2.4962 0.9640
-7.6618 4.3636 -2.4961 0.9640
-7.7479 4.2084 -2.4961 0.9640
-7.9107 3.8929 -2.4959 0.9640
-7.9873 3.7327 -2.4959 0.9640
-8.1976 3.2435 -2.4957 0.9640
-8.3780 2.7426 -2.4956 0.9640
-8.4314 2.5733 -2.4956 0.9640
-8.4813 2.4030 -2.4955 0.9640
-8.5279 2.2317 -2.4955 0.9640
-5.3439 -6.1142 -2.4976 0.9666
-4.9655 -6.4263 -2.4979 0.9666
-4.8353 -6.5252 -2.4980 0.9666
-4.5691 -6.7151 -2.4982 0.9666
-4.2953 -6.8941 -2.4984 0.9666
-4.1558 -6.9794 -2.4985 0.9666
-4.0146 -7.0620 -2.4986 0.9666
-3.8718 -7.1417 -2.4987 0.9666
-3.7274 -7.2184 -2.4988 0.9666
-3.4340 -7.3633 -2.4990 0.9666
-3.1350 -7.4962 -2.4992 0.9666
-2.8310 -7.6170 -2.4994 0.9666
-2.6771 -7.6727 -2.4995 0.9666
-2.5222 -7.7254 -2.4996 0.9666
-2.3663 -7.7750 -2.4997 0.9666
-2.2094 -7.8214 -2.4998 0.9666
-1.5732 -7.9752 -2.5003 0.9666
-1.2510 -8.0328 -2.5005 0.9666
-1.0890 -8.0567 -2.5006 0.9665
-0.9267 -8.0774 -2.5007 0.9665
-0.7639 -8.0948 -2.5008 0.9665
-0.6008 -8.1089 -2.5010 0.9665
-0.4374 -8.1197 -2.5011 0.9665
0.3810 -8.1244 -2.5016 0.9665
0.5445 -8.1155 -2.5018 0.9665
0.8708 -8.0877 -2.5020 0.9665
1.1959 -8.0469 -2.5022 0.9665
1.6797 -7.9611 -2.5026 0.9665
1.9990 -7.8877 -2.5028 0.9665
2.7823 -7.6486 -2.5033 0.9665
2.9358 -7.5913 -2.5035 0.9665
3.0882 -7.5310 -2.5036 0.9665
3.2393 -7.4676 -2.5037 0.9665
3.3892 -7.4012 -2.5038 0.9665
3.5377 -7.3318 -2.5039 0.9665
3.6847 -7.2594 -2.5040 0.9665
3.8303 -7.1840 -2.5041 0.9665
4.1167 -7.0245 -2.5043 0.9665
4.2575 -6.9405 -2.5044 0.9665
4.5338 -6.7640 -2.5046 0.9665
5.3171 -6.1697 -2.5051 0.9665
5.6805 -5.8380 -2.5054 0.9665
5.7971 -5.7227 -2.5055 0.9665
6.0231 -5.4850 -2.5056 0.9665
6.1325 -5.3628 -2.5057 0.9665
6.2395 -5.2384 -2.5058 0.9665
6.3438 -5.1118 -2.5059 0.9665
6.6414 -4.7200 -2.5061 0.9665
6.8264 -4.4490 -2.5062 0.9665
6.9148 -4.3108 -2.5063 0.9665
7.0004 -4.1708 -2.5064 0.9665
7.2399 -3.7408 -2.5065 0.9665
7.4530 -3.2972 -2.5067 0.9665
7.5180 -3.1465 -2.5067 0.9665
7.5799 -2.9945 -2.5068 0.9665
7.6946 -2.6870 -2.5069 0.9665
7.7968 -2.3752 -2.5069 0.9665
7.8431 -2.2177 -2.5070 0.9665
7.8863 -2.0594 -2.5070 0.9665
7.9263 -1.9002 -2.5070 0.9665
8.0775 -1.0940 -2.5071 0.9665
8.0979 -0.9312 -2.5072 0.9665
8.1151 -0.7679 -2.5072 0.9665
8.1289 -0.6044 -2.5072 0.9665
8.1395 -0.4406 -2.5072 0.9665
8.1467 -0.2767 -2.5072 0.9665
8.1486 0.2156 -2.5072 0.9665
8.1206 0.7072 -2.5072 0.9665
8.1047 0.8705 -2.5072 0.9665
8.0855 1.0335 -2.5072 0.9665
8.0373 1.3582 -2.5071 0.9665
8.0082 1.5197 -2.5071 0.9665
7.9759 1.6806 -2.5071 0.9665
7.8597 2.1590 -2.5070 0.9665
7.8145 2.3168 -2.5070 0.9665
7.6024 2.9378 -2.5068 0.9665
7.4108 3.3912 -2.5067 0.9665
7.2680 3.6867 -2.5066 0.9665
7.1921 3.8322 -2.5066 0.9665
7.0317 4.1184 -2.5065 0.9665
6.9472 4.2591 -2.5064 0.9665
6.7698 4.5351 -2.5063 0.9665
6.6769 4.6704 -2.5062 0.9665
6.5814 4.8037 -2.5062 0.9665
6.4831 4.9351 -2.5061 0.9665
6.0644 5.4401 -2.5058 0.9665
5.8401 5.6795 -2.5056 0.9665
5.6063 5.9096 -2.5055 0.9665
5.4860 6.0211 -2.5054 0.9665
5.3635 6.1301 -2.5053 0.9665
5.1120 6.3406 -2.5051 0.9665
4.9831 6.4420 -2.5050 0.9665
4.5846 6.7303 -2.5048 0.9665
4.3096 6.9089 -2.5046 0.9665
4.1695 6.9940 -2.5045 0.9665
4.0277 7.0763 -2.5044 0.9665
3.7392 7.2321 -2.5042 0.9665
3.5916 7.3033 -2.5033 0.9665
3.4421 7.3705 -2.5020 0.9665
3.2914 7.4348 -2.5008 0.9665
3.1396 7.4961 -2.4997 0.9666
2.9868 7.5545 -2.4986 0.9666
2.8329 7.6099 -2.4976 0.9666
2.3507 7.7092 -2.4790 0.9668
2.1828 7.7117 -2.4651 0.9670
2.0166 7.7140 -2.4524 0.9672
1.5270 7.7198 -2.4204 0.9676
1.2068 7.7226 -2.4042 0.9678
0.8903 7.7248 -2.3917 0.9680
0.7331 7.7256 -2.3869 0.9680
0.4203 7.7268 -2.3801 0.9681
0.2644 7.7271 -2.3781 0.9682
-0.2025 7.7270 -2.3775 0.9682
-0.3583 7.7267 -2.3791 0.9681
-0.6707 7.7254 -2.3851 0.9681
-1.1435 7.7223 -2.4011 0.9679
-1.3026 7.7209 -2.4083 0.9678
-1.4628 7.7193 -2.4165 0.9677
-1.6241 7.7175 -2.4257 0.9675
-1.7866 7.7156 -2.4359 0.9674
-2.1160 7.7111 -2.4594 0.9671
-2.6125 7.6715 -2.4927 0.9667
-2.7672 7.6197 -2.4934 0.9666
-3.0738 7.5072 -2.4951 0.9666
-3.2255 7.4465 -2.4960 0.9666
-3.5255 7.3165 -2.4980 0.9666
-3.6735 7.2467 -2.4990 0.9666
-3.9619 7.0924 -2.4988 0.9666
-4.3824 6.8394 -2.4985 0.9666
-4.9176 6.4637 -2.4981 0.9666
-5.0466 6.3632 -2.4980 0.9666
-5.1735 6.2600 -2.4979 0.9666
-5.4209 6.0462 -2.4977 0.9666
-6.1089 5.3478 -2.4972 0.9666
-6.3189 5.0972 -2.4971 0.9666
-6.4200 4.9688 -2.4970 0.9666
-6.6145 4.7061 -2.4969 0.9666
-6.7982 4.4357 -2.4967 0.9666
-6.8860 4.2979 -2.4967 0.9666
-7.0531 4.0169 -2.4965 0.9666
-7.2088 3.7296 -2.4964 0.9666
-7.3528 3.4362 -2.4963 0.9666
-7.4203 3.2874 -2.4963 0.9666
-7.4848 3.1373 -2.4962 0.9666
-7.6602 2.6796 -2.4961 0.9666
-7.7125 2.5247 -2.4961 0.9666
-7.7616 2.3689 -2.4960 0.9666
-7.8505 2.0545 -2.4960 0.9666
-7.9267 1.7367 -2.4959 0.9666
-7.9600 1.5767 -2.4959 0.9666
-4.9453 -5.6581 -2.4979 0.9688
-4.7138 -5.8530 -2.4981 0.9688
-4.5952 -5.9469 -2.4982 0.9688
-4.4746 -6.0384 -2.4983 0.9688
-4.3523 -6.1275 -2.4983 0.9688
-4.2282 -6.2141 -2.4984 0.9688
-4.1024 -6.2982 -2.4985 0.9688
-3.9749 -6.3798 -2.4986 0.9688
-3.7151 -6.5351 -2.4988 0.9688
-3.4492 -6.6799 -2.4990 0.9688
-3.0400 -6.8767 -2.4993 0.9688
-2.9011 -6.9368 -2.4993 0.9688
-2.7609 -6.9941 -2.4994 0.9688
-2.6197 -7.0485 -2.4995 0.9688
-2.3340 -7.1488 -2.4997 0.9688
-1.8984 -7.2776 -2.5001 0.9688
-1.3069 -7.4079 -2.5005 0.9688
-1.1576 -7.4331 -2.5006 0.9688
-0.8575 -7.4743 -2.5008 0.9688
-0.7068 -7.4903 -2.5009 0.9688
-0.5559 -7.5034 -2.5010 0.9688
-0.4047 -7.5134 -2.5011 0.9688
-0.2534 -7.5203 -2.5012 0.9688
-0.1019 -7.5242 -2.5013 0.9688
0.0496 -7.5250 -2.5014 0.9688
0.8058 -7.4836 -2.5020 0.9688
1.1065 -7.4457 -2.5022 0.9688
1.8496 -7.2983 -2.5027 0.9688
2.4312 -7.1270 -2.5031 0.9688
2.5743 -7.0769 -2.5032 0.9688
2.7164 -7.0239 -2.5033 0.9688
3.2732 -6.7837 -2.5037 0.9687
3.4092 -6.7167 -2.5038 0.9687
3.5439 -6.6469 -2.5039 0.9687
4.1948 -6.2582 -2.5044 0.9687
4.3201 -6.1727 -2.5044 0.9687
4.4437 -6.0847 -2.5045 0.9687
4.5654 -5.9942 -2.5046 0.9687
4.8034 -5.8059 -2.5048 0.9687
5.0335 -5.6082 -2.5049 0.9687
5.1456 -5.5059 -2.5050 0.9687
5.2556 -5.4014 -2.5051 0.9687
5.6738 -4.9616 -2.5054 0.9687
5.7727 -4.8465 -2.5055 0.9687
6.3974 -3.9882 -2.5059 0.9687
6.6270 -3.5950 -2.5061 0.9687
6.6981 -3.4609 -2.5061 0.9687
6.9554 -2.9110 -2.5063 0.9687
7.0127 -2.7704 -2.5064 0.9687
7.1675 -2.3422 -2.5065 0.9687
7.2561 -2.0518 -2.5066 0.9687
7.2961 -1.9053 -2.5066 0.9687
7.3670 -1.6100 -2.5066 0.9687
7.3980 -1.4614 -2.5067 0.9687
7.4260 -1.3121 -2.5067 0.9687
7.4510 -1.1624 -2.5067 0.9687
7.4918 -0.8615 -2.5067 0.9687
7.5077 -0.7105 -2.5067 0.9687
7.5205 -0.5592 -2.5068 0.9687
7.5303 -0.4076 -2.5068 0.9687
7.5370 -0.2559 -2.5068 0.9687
7.5406 -0.1042 -2.5068 0.9687
7.5412 0.0477 -2.5068 0.9687
7.5245 0.5028 -2.5068 0.9687
7.5128 0.6543 -2.5068 0.9687
7.4981 0.8054 -2.5068 0.9687
7.4803 0.9562 -2.5067 0.9687
7.4357 1.2565 -2.5067 0.9687
7.4089 1.4060 -2.5067 0.9687
7.3461 1.7031 -2.5067 0.9687
7.3103 1.8506 -2.5066 0.9687
7.2297 2.1434 -2.5066 0.9687
7.1850 2.2885 -2.5065 0.9687
6.8562 3.1374 -2.5063 0.9687
6.6539 3.5454 -2.5062 0.9687
6.5811 3.6786 -2.5061 0.9687
6.2632 4.1958 -2.5059 0.9687
6.0890 4.4443 -2.5058 0.9687
5.7110 4.9193 -2.5055 0.9687
5.5081 5.1449 -2.5054 0.9687
5.4032 5.2546 -2.5053 0.9687
5.2962 5.3622 -2.5053 0.9687
4.8470 5.7702 -2.5049 0.9687
4.6105 5.9602 -2.5048 0.9687
4.4894 6.0516 -2.5047 0.9687
3.9874 6.3923 -2.5043 0.9687
3.8577 6.4711 -2.5043 0.9687
3.4597 6.6914 -2.5040 0.9687
3.3241 6.7595 -2.5039 0.9687
3.1872 6.8248 -2.5038 0.9687
2.9097 6.9470 -2.5036 0.9688
2.6274 7.0579 -2.5034 0.9688
2.4847 7.1091 -2.5033 0.9688
2.1963 7.2028 -2.5031 0.9688
2.0507 7.2453 -2.5030 0.9688
1.9040 7.2835 -2.5024 0.9688
1.1610 7.4291 -2.4994 0.9688
0.7100 7.4820 -2.4982 0.9688
0.4081 7.5028 -2.4977 0.9688
0.2570 7.5088 -2.4974 0.9688
0.1057 7.5120 -2.4973 0.9688
-0.0455 7.5123 -2.4972 0.9688
-0.1968 7.5096 -2.4971 0.9688
-0.3479 7.5041 -2.4971 0.9688
-0.6498 7.4844 -2.4972 0.9688
-0.8004 7.4702 -2.4973 0.9688
-1.1007 7.4332 -2.4978 0.9688
-1.6961 7.3247 -2.4992 0.9688
-1.9904 7.2532 -2.5001 0.9688
-2.4243 7.1190 -2.4998 0.9688
-2.5670 7.0684 -2.4997 0.9688
-2.9887 6.8998 -2.4994 0.9688
-3.1269 6.8379 -2.4993 0.9688
-3.5336 6.6359 -2.4990 0.9688
-3.6663 6.5632 -2.4990 0.9688
-3.7976 6.4878 -2.4989 0.9688
-3.9273 6.4098 -2.4988 0.9688
-4.0554 6.3292 -2.4987 0.9688
-4.4296 6.0722 -2.4984 0.9688
-4.5508 5.9815 -2.4983 0.9688
-4.9031 5.6953 -2.4981 0.9688
-5.0166 5.5953 -2.4980 0.9688
-5.1281 5.4930 -2.4979 0.9688
-5.4498 5.1729 -2.4977 0.9688
-5.8477 4.7171 -2.4974 0.9688
-5.9413 4.5983 -2.4973 0.9688
-6.2914 4.1050 -2.4971 0.9688
-6.4512 3.8482 -2.4970 0.9688
-6.6007 3.5852 -2.4969 0.9688
-6.9838 2.7633 -2.4966 0.9688
-7.0379 2.6221 -2.4965 0.9688
-7.0892 2.4798 -2.4965 0.9688
-7.1376 2.3365 -2.4965 0.9688
-7.1831 2.1923 -2.4964 0.9688
-7.2654 1.9013 -2.4964 0.9688
-7.3667 1.4592 -2.4963 0.9688
-4.4906 -5.3516 -2.4982 0.9708
-4.0460 -5.6962 -2.4986 0.9708
-3.9306 -5.7767 -2.4986 0.9708
-3.6951 -5.9307 -2.4988 0.9708
-3.4535 -6.0750 -2.4990 0.9708
-3.3307 -6.1435 -2.4991 0.9707
-3.2064 -6.2095 -2.4991 0.9707
-3.0808 -6.2731 -2.4992 0.9707
-2.9540 -6.3341 -2.4993 0.9707
-2.8260 -6.3925 -2.4994 0.9707
-2.4352 -6.5521 -2.4997 0.9707
-2.3029 -6.6001 -2.4998 0.9707
-2.0354 -6.6879 -2.5000 0.9707
-1.9005 -6.7278 -2.5001 0.9707
-1.7647 -6.7650 -2.5002 0.9707
-1.6282 -6.7994 -2.5002 0.9707
-1.2149 -6.8861 -2.5005 0.9707
-1.0760 -6.9094 -2.5006 0.9707
-0.3762 -6.9839 -2.5011 0.9707
-0.2355 -6.9904 -2.5012 0.9707
0.1869 -6.9927 -2.5015 0.9707
0.3277 -6.9878 -2.5016 0.9707
0.4683 -6.9800 -2.5017 0.9707
0.7490 -6.9561 -2.5019 0.9707
0.8889 -6.9399 -2.5020 0.9707
1.1677 -6.8990 -2.5022 0.9707
1.3064 -6.8744 -2.5023 0.9707
1.4446 -6.8469 -2.5024 0.9707
1.7192 -6.7837 -2.5026 0.9707
1.8555 -6.7480 -2.5027 0.9707
1.9911 -6.7095 -2.5028 0.9707
2.1259 -6.6683 -2.5029 0.9707
2.3928 -6.5779 -2.5031 0.9707
2.5248 -6.5286 -2.5032 0.9707
2.9147 -6.3650 -2.5034 0.9707
3.0423 -6.3052 -2.5035 0.9707
3.1688 -6.2429 -2.5036 0.9707
3.5402 -6.0409 -2.5039 0.9707
3.6613 -5.9686 -2.5040 0.9707
3.8989 -5.8167 -2.5041 0.9707
4.1301 -5.6554 -2.5043 0.9707
4.2433 -5.5713 -2.5044 0.9707
4.3547 -5.4849 -2.5045 0.9707
4.4644 -5.3963 -2.5046 0.9707
4.5723 -5.3055 -2.5046 0.9707
4.6784 -5.2125 -2.5047 0.9707
4.7825 -5.1174 -2.5048 0.9707
4.8847 -5.0202 -2.5049 0.9707
4.9849 -4.9210 -2.5049 0.9707
5.0831 -4.8197 -2.5050 0.9707
5.1793 -4.7166 -2.5051 0.9707
5.2733 -4.6114 -2.5051 0.9707
5.3653 -4.5044 -2.5052 0.9707
5.5425 -4.2850 -2.5053 0.9707
5.7108 -4.0586 -2.5054 0.9707
5.7915 -3.9429 -2.5055 0.9707
5.9458 -3.7067 -2.5056 0.9707
6.2889 -3.0907 -2.5059 0.9707
6.3500 -2.9635 -2.5059 0.9707
6.4643 -2.7055 -2.5060 0.9707
6.5176 -2.5748 -2.5060 0.9707
6.6614 -2.1768 -2.5061 0.9707
6.7438 -1.9069 -2.5062 0.9707
6.8153 -1.6339 -2.5062 0.9707
6.8756 -1.3582 -2.5063 0.9707
6.9776 -0.6603 -2.5064 0.9707
6.9985 -0.3789 -2.5064 0.9707
7.0048 -0.2379 -2.5064 0.9707
7.0081 -0.0968 -2.5064 0.9707
7.0064 0.1854 -2.5064 0.9707
7.0012 0.3265 -2.5064 0.9707
6.9522 0.8887 -2.5064 0.9707
6.9328 1.0284 -2.5064 0.9707
6.9107 1.1678 -2.5063 0.9707
6.7941 1.7200 -2.5063 0.9707
6.7580 1.8564 -2.5062 0.9707
6.7192 1.9921 -2.5062 0.9707
6.6777 2.1269 -2.5062 0.9707
6.6334 2.2609 -2.5062 0.9707
6.5865 2.3940 -2.5061 0.9707
6.4846 2.6571 -2.5061 0.9707
6.3121 3.0436 -2.5059 0.9707
6.0463 3.5413 -2.5058 0.9707
5.9736 3.6622 -2.5057 0.9707
5.8986 3.7817 -2.5057 0.9707
5.8211 3.8996 -2.5056 0.9707
5.6592 4.1306 -2.5055 0.9707
5.5747 4.2436 -2.5054 0.9707
5.3991 4.4644 -2.5053 0.9707
5.2147 4.6779 -2.5052 0.9707
5.1193 4.7818 -2.5051 0.9707
4.8209 5.0817 -2.5049 0.9707
4.7175 5.1776 -2.5048 0.9707
4.3959 5.4525 -2.5046 0.9707
4.1726 5.6247 -2.5045 0.9707
3.9425 5.7877 -2.5043 0.9707
3.7061 5.9413 -2.5041 0.9707
3.3403 6.1536 -2.5039 0.9707
3.2156 6.2194 -2.5038 0.9707
2.9624 6.3434 -2.5036 0.9707
2.8340 6.4015 -2.5035 0.9707
2.5738 6.5099 -2.5033 0.9707
2.3094 6.6078 -2.5032 0.9707
2.1759 6.6527 -2.5031 0.9707
1.6333 6.8052 -2.5027 0.9707
1.4959 6.8364 -2.5026 0.9707
1.3579 6.8649 -2.5025 0.9707
1.0804 6.9134 -2.5023 0.9707
0.6610 6.9652 -2.5020 0.9707
0.5206 6.9768 -2.5019 0.9707
0.3800 6.9856 -2.5018 0.9707
0.0984 6.9947 -2.5016 0.9707
-0.0424 6.9950 -2.5015 0.9707
-0.1832 6.9925 -2.5014 0.9707
-0.3240 6.9871 -2.5013 0.9707
-0.4646 6.9789 -2.5012 0.9707
-0.6049 6.9678 -2.5011 0.9707
-0.7451 6.9539 -2.5010 0.9707
-0.8849 6.9373 -2.5009 0.9707
-1.0243 6.9178 -2.5008 0.9707
-1.4399 6.8425 -2.5005 0.9707
-1.5773 6.8119 -2.5004 0.9707
-1.7141 6.7785 -2.5003 0.9707
-1.8502 6.7423 -2.5002 0.9707
-2.2535 6.6176 -2.4999 0.9707
-2.3862 6.5706 -2.4999 0.9707
-2.6486 6.4687 -2.4997 0.9707
-2.7782 6.4139 -2.4996 0.9707
-2.9067 6.3564 -2.4995 0.9707
-3.6508 5.9585 -2.4990 0.9708
-3.7699 5.8836 -2.4989 0.9708
-4.3414 5.4740 -2.4985 0.9708
-4.4506 5.3853 -2.4984 0.9708
-4.5580 5.2945 -2.4983 0.9708
-4.6635 5.2015 -2.4982 0.9708
-5.0663 4.8089 -2.4979 0.9708
-5.3469 4.4939 -2.4977 0.9708
-5.5233 4.2748 -2.4976 0.9708
-5.7708 3.9333 -2.4974 0.9708
-5.8487 3.8162 -2.4974 0.9708
-5.9242 3.6976 -2.4973 0.9708
-6.0680 3.4559 -2.4972 0.9708
-6.2653 3.0831 -2.4971 0.9708
-6.4396 2.6992 -2.4970 0.9708
-6.4926 2.5689 -2.4969 0.9708
-6.5429 2.4376 -2.4969 0.9708
-6.5905 2.3054 -2.4968 0.9708
-6.6778 2.0381 -2.4968 0.9708
-4.2904 -4.9088 -2.4984 0.9725
-4.1908 -4.9943 -2.4985 0.9725
-3.9866 -5.1593 -2.4986 0.9725
-3.8820 -5.2387 -2.4987 0.9725
-3.7759 -5.3159 -2.4987 0.9725
-3.5590 -5.4640 -2.4989 0.9725
-3.3363 -5.6032 -2.4991 0.9725
-3.1083 -5.7333 -2.4992 0.9725
-2.9923 -5.7949 -2.4993 0.9724
-2.6373 -5.9656 -2.4995 0.9724
-2.5167 -6.0177 -2.4996 0.9724
-2.1491 -6.1592 -2.4999 0.9724
-1.8995 -6.2412 -2.5001 0.9724
-1.7735 -6.2784 -2.5001 0.9724
-1.5194 -6.3452 -2.5003 0.9724
-1.2628 -6.4017 -2.5005 0.9724
-1.1337 -6.4260 -2.5006 0.9724
-1.0041 -6.4478 -2.5007 0.9724
-0.2198 -6.5232 -2.5012 0.9724
-0.0884 -6.5266 -2.5013 0.9724
0.0430 -6.5273 -2.5014 0.9724
0.3058 -6.5208 -2.5016 0.9724
0.5681 -6.5036 -2.5018 0.9724
0.8295 -6.4760 -2.5020 0.9724
1.2191 -6.4148 -2.5023 0.9724
1.4765 -6.3610 -2.5024 0.9724
1.6043 -6.3302 -2.5025 0.9724
1.8580 -6.2609 -2.5027 0.9724
1.9837 -6.2224 -2.5028 0.9724
3.4164 -5.5693 -2.5038 0.9724
3.8538 -5.2771 -2.5041 0.9724
3.9594 -5.1985 -2.5042 0.9724
4.0634 -5.1179 -2.5043 0.9724
4.1657 -5.0352 -2.5043 0.9724
4.2664 -4.9505 -2.5044 0.9724
4.3653 -4.8637 -2.5045 0.9724
4.4625 -4.7750 -2.5046 0.9724
4.5578 -4.6843 -2.5046 0.9724
4.6513 -4.5917 -2.5047 0.9724
4.8327 -4.4009 -2.5048 0.9724
4.9204 -4.3028 -2.5049 0.9724
5.0062 -4.2030 -2.5049 0.9724
5.0899 -4.1015 -2.5050 0.9724
5.1716 -3.9982 -2.5051 0.9724
5.2512 -3.8934 -2.5051 0.9724
5.3286 -3.7870 -2.5052 0.9724
5.4770 -3.5695 -2.5053 0.9724
5.5478 -3.4586 -2.5053 0.9724
5.6828 -3.2325 -2.5054 0.9724
5.8086 -3.0013 -2.5055 0.9724
5.8679 -2.8838 -2.5056 0.9724
5.9249 -2.7651 -2.5056 0.9724
5.9794 -2.6453 -2.5056 0.9724
6.0813 -2.4025 -2.5057 0.9724
6.1285 -2.2796 -2.5058 0.9724
6.2155 -2.0310 -2.5058 0.9724
6.2552 -1.9055 -2.5058 0.9724
6.2923 -1.7792 -2.5059 0.9724
6.3269 -1.6522 -2.5059 0.9724
6.3590 -1.5245 -2.5059 0.9724
6.3884 -1.3962 -2.5059 0.9724
6.4153 -1.2673 -2.5060 0.9724
6.4802 -0.8777 -2.5060 0.9724
6.4966 -0.7471 -2.5060 0.9724
6.5104 -0.6161 -2.5060 0.9724
6.5215 -0.4849 -2.5061 0.9724
6.5300 -0.3535 -2.5061 0.9724
6.5389 -0.0903 -2.5061 0.9724
6.5394 0.0414 -2.5061 0.9724
6.5372 0.1730 -2.5061 0.9724
6.5324 0.3046 -2.5061 0.9724
6.5250 0.4361 -2.5061 0.9724
6.5148 0.5673 -2.5061 0.9724
6.5021 0.6984 -2.5061 0.9724
6.4686 0.9596 -2.5060 0.9724
6.4480 1.0896 -2.5060 0.9724
6.3988 1.3483 -2.5060 0.9724
6.3392 1.6048 -2.5059 0.9724
6.3056 1.7321 -2.5059 0.9724
6.1455 2.2337 -2.5058 0.9724
6.0992 2.3569 -2.5058 0.9724
6.0505 2.4792 -2.5058 0.9724
5.9992 2.6005 -2.5057 0.9724
5.8895 2.8398 -2.5056 0.9724
5.7702 3.0745 -2.5056 0.9724
5.6416 3.3042 -2.5055 0.9724
5.5738 3.4171 -2.5054 0.9724
5.4315 3.6386 -2.5053 0.9724
5.1207 4.0634 -2.5051 0.9724
5.0377 4.1656 -2.5051 0.9724
4.9527 4.2661 -2.5050 0.9724
4.7767 4.4618 -2.5049 0.9724
4.5930 4.6502 -2.5047 0.9724
4.4983 4.7417 -2.5047 0.9724
4.4018 4.8311 -2.5046 0.9724
3.6788 5.4005 -2.5041 0.9724
3.5692 5.4733 -2.5040 0.9724
3.1169 5.7420 -2.5037 0.9724
2.6445 5.9733 -2.5034 0.9724
2.2788 6.1215 -2.5031 0.9724
2.1550 6.1659 -2.5030 0.9724
1.9049 6.2472 -2.5029 0.9724
1.7787 6.2841 -2.5028 0.9724
1.6517 6.3184 -2.5027 0.9724
1.3959 6.3793 -2.5025 0.9724
0.4858 6.5105 -2.5019 0.9724
0.3546 6.5187 -2.5018 0.9724
0.2233 6.5243 -2.5017 0.9724
0.0919 6.5272 -2.5016 0.9724
-0.0396 6.5275 -2.5015 0.9724
-0.6953 6.4893 -2.5010 0.9724
-0.9559 6.4556 -2.5009 0.9724
-1.0856 6.4348 -2.5008 0.9724
-1.2149 6.4114 -2.5007 0.9724
-1.3437 6.3854 -2.5006 0.9724
-1.5996 6.3257 -2.5004 0.9724
-2.2269 6.1318 -2.5000 0.9724
-2.5927 5.9855 -2.4997 0.9724
-2.8314 5.8759 -2.4995 0.9724
-2.9490 5.8175 -2.4995 0.9724
-3.1806 5.6937 -2.4993 0.9724
-3.2945 5.6283 -2.4992 0.9725
-3.6279 5.4186 -2.4990 0.9725
-3.7362 5.3444 -2.4989 0.9725
-3.9480 5.1893 -2.4987 0.9725
-4.0516 5.1086 -2.4987 0.9725
-4.1535 5.0258 -2.4986 0.9725
-4.2537 4.9411 -2.4985 0.9725
-4.3522 4.8543 -2.4985 0.9725
-4.4490 4.7655 -2.4984 0.9725
-4.7282 4.4879 -2.4982 0.9725
-4.8174 4.3917 -2.4981 0.9725
-4.9901 4.1940 -2.4980 0.9725
-5.0734 4.0925 -2.4979 0.9725
-5.2338 3.8848 -2.4978 0.9725
-5.3109 3.7786 -2.4978 0.9725
-5.3857 3.6708 -2.4977 0.9725
-5.5972 3.3387 -2.4976 0.9725
-5.6632 3.2253 -2.4975 0.9725
-6.1508 2.1516 -2.4972 0.9725
-6.2323 1.9022 -2.4971 0.9725
-6.3916 1.2661 -2.4970 0.9725
-4.0176 -4.5967 -2.4986 0.9740
-3.7330 -4.8312 -2.4988 0.9740
-3.5357 -4.9778 -2.4989 0.9740
-3.4349 -5.0482 -2.4990 0.9740
-3.2290 -5.1826 -2.4991 0.9740
-3.0179 -5.3088 -2.4993 0.9740
-2.9105 -5.3686 -2.4994 0.9740
-2.8019 -5.4263 -2.4994 0.9740
-2.3566 -5.6348 -2.4997 0.9739
-2.0123 -5.7673 -2.5000 0.9739
-1.8959 -5.8069 -2.5001 0.9739
-1.7786 -5.8441 -2.5002 0.9739
-1.1825 -5.9942 -2.5006 0.9739
-1.0616 -6.0170 -2.5007 0.9739
-0.9402 -6.0374 -2.5007 0.9739
0.0403 -6.1117 -2.5014 0.9739
0.1633 -6.1099 -2.5015 0.9739
0.2863 -6.1056 -2.5016 0.9739
0.4092 -6.0988 -2.5017 0.9739
0.6544 -6.0778 -2.5019 0.9739
1.0202 -6.0278 -2.5021 0.9739
1.1414 -6.0063 -2.5022 0.9739
1.2622 -5.9823 -2.5023 0.9739
1.5021 -5.9270 -2.5025 0.9739
1.7396 -5.8621 -2.5026 0.9739
1.9743 -5.7877 -2.5028 0.9739
2.0905 -5.7470 -2.5029 0.9739
2.2059 -5.7039 -2.5030 0.9739
2.5464 -5.5609 -2.5032 0.9739
2.6580 -5.5086 -2.5033 0.9739
2.7684 -5.4542 -2.5034 0.9739
2.8778 -5.3975 -2.5034 0.9739
2.9860 -5.3386 -2.5035 0.9739
3.0929 -5.2776 -2.5036 0.9739
3.4062 -5.0817 -2.5038 0.9739
3.5079 -5.0123 -2.5039 0.9739
3.6082 -4.9407 -2.5040 0.9739
3.7071 -4.8672 -2.5040 0.9739
3.8044 -4.7917 -2.5041 0.9739
3.9002 -4.7143 -2.5042 0.9739
3.9945 -4.6350 -2.5042 0.9739
4.0871 -4.5537 -2.5043 0.9739
4.1780 -4.4706 -2.5044 0.9739
4.2673 -4.3857 -2.5044 0.9739
4.4406 -4.2105 -2.5045 0.9739
4.8419 -3.7433 -2.5048 0.9739
4.9164 -3.6452 -2.5049 0.9739
4.9889 -3.5455 -2.5049 0.9739
5.0594 -3.4444 -2.5050 0.9739
5.2584 -3.1329 -2.5051 0.9739
5.3205 -3.0265 -2.5052 0.9739
5.3804 -2.9188 -2.5052 0.9739
5.4938 -2.6999 -2.5053 0.9739
5.5471 -2.5888 -2.5053 0.9739
5.6470 -2.3634 -2.5054 0.9739
5.6935 -2.2492 -2.5055 0.9739
5.7377 -2.1342 -2.5055 0.9739
5.7796 -2.0182 -2.5055 0.9739
5.8563 -1.7840 -2.5056 0.9739
5.9535 -1.4273 -2.5056 0.9739
5.9810 -1.3071 -2.5057 0.9739
6.0670 -0.8217 -2.5057 0.9739
6.0952 -0.5768 -2.5058 0.9739
6.1189 -0.2078 -2.5058 0.9739
6.1219 -0.0846 -2.5058 0.9739
6.1223 0.0387 -2.5058 0.9739
6.1158 0.2852 -2.5058 0.9739
6.1088 0.4082 -2.5058 0.9739
6.0874 0.6538 -2.5058 0.9739
5.9641 1.3827 -2.5057 0.9739
5.9350 1.5025 -2.5057 0.9739
5.9035 1.6216 -2.5056 0.9739
5.8696 1.7401 -2.5056 0.9739
5.8333 1.8580 -2.5056 0.9739
5.7536 2.0912 -2.5055 0.9739
5.7103 2.2066 -2.5055 0.9739
5.6646 2.3211 -2.5055 0.9739
5.6167 2.4347 -2.5054 0.9739
5.5664 2.5472 -2.5054 0.9739
5.5140 2.6587 -2.5054 0.9739
5.4592 2.7692 -2.5053 0.9739
5.2818 3.0935 -2.5052 0.9739
5.2184 3.1992 -2.5052 0.9739
5.0852 3.4066 -2.5051 0.9739
4.8700 3.7071 -2.5049 0.9739
4.7942 3.8043 -2.5049 0.9739
4.7166 3.9000 -2.5048 0.9739
4.4722 4.1774 -2.5047 0.9739
4.3871 4.2665 -2.5046 0.9739
4.2116 4.4394 -2.5045 0.9739
3.9356 4.6852 -2.5043 0.9739
3.8404 4.7633 -2.5042 0.9739
3.3417 5.1245 -2.5039 0.9739
3.2378 5.1906 -2.5038 0.9739
3.1325 5.2546 -2.5037 0.9739
3.0260 5.3164 -2.5037 0.9739
2.8093 5.4336 -2.5035 0.9739
2.4760 5.5928 -2.5033 0.9739
2.3628 5.6413 -2.5032 0.9739
2.0177 5.7731 -2.5029 0.9739
1.9010 5.8124 -2.5029 0.9739
1.6654 5.8838 -2.5027 0.9739
1.5465 5.9159 -2.5026 0.9739
1.4271 5.9457 -2.5025 0.9739
1.3070 5.9730 -2.5024 0.9739
1.0654 6.0204 -2.5023 0.9739
0.7000 6.0731 -2.5020 0.9739
0.5775 6.0857 -2.5019 0.9739
0.4549 6.0959 -2.5019 0.9739
0.2091 6.1089 -2.5017 0.9739
0.0860 6.1116 -2.5016 0.9739
-0.4059 6.0979 -2.5012 0.9739
-0.6510 6.0762 -2.5011 0.9739
-0.7732 6.0617 -2.5010 0.9739
-1.4978 5.9231 -2.5005 0.9739
-1.6167 5.8915 -2.5004 0.9739
-1.7349 5.8576 -2.5003 0.9739
-1.8524 5.8213 -2.5002 0.9739
-1.9692 5.7826 -2.5001 0.9739
-2.3145 5.6526 -2.4999 0.9739
-2.4277 5.6047 -2.4998 0.9739
-2.5400 5.5545 -2.4997 0.9739
-2.6512 5.5021 -2.4997 0.9739
-2.7614 5.4474 -2.4996 0.9739
-2.8704 5.3905 -2.4995 0.9739
-3.0849 5.2703 -2.4993 0.9740
-3.1903 5.2069 -2.4993 0.9740
-3.2944 5.1415 -2.4992 0.9740
-3.8894 4.7062 -2.4988 0.9740
-4.1661 4.4625 -2.4986 0.9740
-4.5929 4.0207 -2.4983 0.9740
-4.6728 3.9273 -2.4982 0.9740
-4.7508 3.8323 -2.4982 0.9740
-4.9011 3.6378 -2.4981 0.9740
-4.9732 3.5383 -2.4980 0.9740
-5.1774 3.2314 -2.4979 0.9740
-5.2413 3.1265 -2.4978 0.9740
-5.3031 3.0203 -2.4978 0.9740
-5.4755 2.6945 -2.4976 0.9740
-5.5286 2.5837 -2.4976 0.9740
-5.6279 2.3589 -2.4975 0.9740
-5.7182 2.1304 -2.4975 0.9740
-5.7599 2.0148 -2.4974 0.9740
-5.7992 1.8984 -2.4974 0.9740
-5.8362 1.7813 -2.4974 0.9740
-5.9030 1.5448 -2.4973 0.9740
-5.9329 1.4256 -2.4973 0.9740
-5.9603 1.3059 -2.4973 0.9740
-3.7732 -4.3170 -2.4988 0.9753
-3.6856 -4.3922 -2.4988 0.9753
-3.5965 -4.4656 -2.4989 0.9753
-3.4140 -4.6071 -2.4990 0.9753
-3.3206 -4.6750 -2.4991 0.9753
-3.2259 -4.7410 -2.4991 0.9753
-3.1298 -4.8051 -2.4992 0.9753
-3.0325 -4.8673 -2.4993 0.9753
-2.9340 -4.9275 -2.4993 0.9753
-2.8343 -4.9857 -2.4994 0.9753
