ply
format ascii 1.0
element vertex 1546
property float32 x
property float32 y
property float32 z
property float32 I
end_header
44.4264 -11.9697 7.0486 0.8301
44.3842 -10.0649 6.9720 0.8318
44.2500 -9.1038 6.9208 0.8329
44.3863 -8.2061 6.9150 0.8331
44.2531 -6.3551 6.8489 0.8345
44.2541 -5.4502 6.8307 0.8349
44.2570 -2.7593 6.7931 0.8357
44.2580 -1.8678 6.7861 0.8359
44.2600 -0.0883 6.7804 0.8360
44.2619 1.6911 6.7856 0.8359
44.2629 2.5825 6.7924 0.8358
44.2658 5.2725 6.8292 0.8349
44.2668 6.1769 6.8471 0.8345
44.2678 7.0864 6.8679 0.8341
44.4051 8.9512 6.9395 0.8325
44.4061 9.8837 6.9692 0.8319
44.2717 10.7917 6.9808 0.8316
40.6021 11.6437 6.4707 0.8429
40.9847 12.6498 6.5709 0.8407
51.1216 16.9106 8.2489 0.8042
44.2768 15.6400 7.1937 0.8269
44.9940 16.9175 7.3639 0.8232
43.5204 17.3692 7.1784 0.8273
40.0465 16.9231 6.6602 0.8387
40.4329 19.0353 6.8462 0.8346
39.9859 21.8589 6.9812 0.8316
39.9869 22.9147 7.0603 0.8299
38.3832 23.0321 6.8575 0.8343
32.7740 23.4385 6.1726 0.8495
28.8574 22.4430 5.6004 0.8625
27.6926 22.4443 5.4608 0.8657
10.5852 8.9373 2.1223 0.9455
25.5269 22.4468 5.2074 0.8715
24.8755 22.7763 5.1669 0.8724
23.5212 23.3410 5.0764 0.8745
21.8058 23.4510 4.9057 0.8785
20.9441 23.4520 4.8169 0.8805
19.6844 22.9534 4.6323 0.8848
18.1376 22.9552 4.4819 0.8884
17.4008 22.9560 4.4129 0.8900
15.9917 22.9576 4.2861 0.8930
15.3165 22.9583 4.2279 0.8943
14.8770 23.3002 4.2350 0.8942
14.8804 26.7298 4.6866 0.8836
14.9638 32.8352 5.5279 0.8641
15.2887 35.4170 5.9096 0.8555
15.3932 40.0035 6.5664 0.8408
15.3956 42.5406 6.9306 0.8327
14.5776 42.9584 6.9496 0.8323
14.3985 45.4085 7.2977 0.8247
14.4787 52.9581 8.4106 0.8008
14.6008 57.9578 9.1562 0.7852
12.8432 68.0590 10.6103 0.7556
10.0313 68.0621 10.5394 0.7570
8.6383 68.0637 10.5106 0.7576
7.2523 68.0652 10.4862 0.7581
5.8722 68.0667 10.4662 0.7585
3.1249 68.0697 10.4389 0.7590
0.3876 68.0728 10.4285 0.7592
-0.9801 68.0743 10.4297 0.7592
-2.3487 68.0758 10.4350 0.7591
-3.7193 68.0773 10.4446 0.7589
-6.4708 68.0803 10.4765 0.7583
-7.8539 68.0818 10.4989 0.7578
-13.4634 68.0879 10.6327 0.7551
-16.3313 68.0911 10.7270 0.7533
-19.2554 68.0943 10.8407 0.7510
-22.2470 68.0976 10.9748 0.7483
-23.7720 68.0992 11.0498 0.7469
-28.8918 69.0804 11.4710 0.7386
-28.8954 65.3679 10.9487 0.7489
-28.8987 61.9773 10.4760 0.7583
-28.9017 58.8662 10.0463 0.7669
-28.9094 50.8833 8.9653 0.7891
-28.9117 48.5879 8.6615 0.7955
-29.6094 47.5596 8.5825 0.7972
-29.9181 42.1630 7.9200 0.8112
-29.9214 38.7682 7.5022 0.8202
-28.9255 34.5169 6.8990 0.8334
-28.9269 33.1426 6.7391 0.8369
-28.9281 31.8300 6.5891 0.8403
-29.0105 30.6599 6.4662 0.8430
-30.6822 29.9216 6.5654 0.8408
-31.5749 28.4090 6.5068 0.8421
-32.9477 27.3308 6.5579 0.8409
-33.6936 26.8255 6.5978 0.8401
-35.7227 26.1672 6.7836 0.8359
-37.2732 26.1689 6.9768 0.8317
-38.9153 26.1706 7.1843 0.8271
-39.8808 25.6717 7.2659 0.8254
-76.4442 -10.0909 11.8124 0.7320
-78.0954 -11.9097 12.1021 0.7264
-76.8703 -13.3083 11.9513 0.7293
-77.1328 -14.9557 12.0364 0.7276
-82.7681 -32.3254 13.6123 0.6980
-76.7911 -39.2774 13.2135 0.7054
-41.5852 -30.5451 7.9045 0.8116
-37.4947 -28.7179 7.2352 0.8260
-36.8937 -30.6857 7.3513 0.8235
-35.4231 -30.6872 7.1797 0.8272
-28.8022 -28.1618 6.1710 0.8496
-27.0332 -28.6451 6.0339 0.8527
-25.9675 -28.6476 5.9233 0.8552
-22.9841 -28.6507 5.6269 0.8619
-21.5319 -29.1678 5.5540 0.8635
-21.5015 -33.1326 6.0509 0.8523
-23.2432 -37.4430 6.7514 0.8367
-22.2144 -37.4441 6.6697 0.8385
-23.5853 -43.6617 7.6022 0.8181
-22.9536 -44.6131 7.6860 0.8163
-21.8320 -44.6143 7.6091 0.8179
-24.0903 -51.8419 8.7575 0.7935
-24.0586 -54.6189 9.1431 0.7854
-26.1396 -62.7300 10.4108 0.7596
-24.0985 -69.3257 11.2437 0.7430
-24.1039 -74.1097 11.9386 0.7295
-22.9723 -81.6462 12.9934 0.7095
-19.8416 -83.2059 13.1041 0.7074
1.3135 -48.4723 7.4284 0.8218
3.5376 -40.3898 6.2112 0.8487
4.1066 -38.0697 5.8659 0.8565
4.6687 -36.4050 5.6227 0.8620
5.3616 -36.0514 5.5836 0.8629
9.2155 -36.3802 5.7493 0.8591
10.2246 -37.2067 5.9112 0.8554
11.5133 -38.8261 6.2039 0.8488
13.2273 -38.8125 6.2817 0.8471
14.0919 -38.7799 6.3209 0.8462
15.0159 -38.8715 6.3838 0.8448
39.2941 -15.8643 5.5185 0.8429
39.7752 -15.1367 5.5419 0.8423
44.2445 -14.8318 6.0767 0.8284
44.2456 -13.8498 6.0374 0.8294
44.2489 -10.9733 5.9367 0.8320
44.2499 -10.0344 5.9086 0.8327
44.2510 -9.1040 5.8831 0.8334
44.2520 -8.1812 5.8602 0.8340
44.2540 -6.3552 5.8219 0.8350
44.2580 -2.7594 5.7745 0.8362
44.2609 -0.0883 5.7637 0.8365
44.2619 0.8011 5.7648 0.8365
44.2629 1.6911 5.7682 0.8364
44.2639 2.5825 5.7739 0.8362
44.2648 3.4761 5.7820 0.8360
40.5349 5.6561 5.3296 0.8478
44.2697 8.0020 5.8583 0.8340
44.2717 9.8538 5.9062 0.8328
39.6666 10.5177 5.3439 0.8474
38.7345 11.9553 5.2788 0.8492
44.2789 16.6487 6.1602 0.8263
40.0472 16.9234 5.6615 0.8391
39.9827 17.8511 5.7019 0.8381
40.4339 19.0358 5.8197 0.8350
39.9869 21.8595 5.9344 0.8321
39.9879 22.9153 6.0017 0.8303
36.5362 22.9345 5.6175 0.8403
31.3783 22.4404 5.0235 0.8559
30.0841 22.4418 4.8875 0.8595
28.8577 22.4432 4.7606 0.8629
27.6929 22.4445 4.6419 0.8661
10.5848 8.9370 1.8040 0.9457
25.5272 22.4470 4.4266 0.8719
22.7003 23.4502 4.2501 0.8766
21.8060 23.4512 4.1700 0.8788
20.9443 23.4522 4.0945 0.8809
19.6845 22.9536 3.9376 0.8852
9.6495 11.7205 1.9770 0.9406
7.4850 11.7230 1.8112 0.9454
7.1578 11.7233 1.7887 0.9461
6.8386 11.7237 1.7674 0.9467
14.9812 26.9110 4.0108 0.8832
14.8368 27.9589 4.1217 0.8801
14.3828 28.4704 4.1537 0.8793
14.3843 29.9538 4.3270 0.8746
14.3876 33.3295 4.7273 0.8638
15.3941 40.0059 5.5820 0.8412
15.3966 42.5434 5.8917 0.8332
14.3995 45.4119 6.2037 0.8252
14.4788 52.9585 7.1494 0.8013
14.4112 57.2051 7.6820 0.7882
14.2645 68.0578 9.0551 0.7554
10.0313 68.0626 8.9589 0.7577
8.6383 68.0641 8.9345 0.7582
7.2523 68.0656 8.9137 0.7587
5.8722 68.0671 8.8967 0.7591
-2.3488 68.0762 8.8702 0.7597
-3.7193 68.0777 8.8784 0.7596
-5.0930 68.0792 8.8901 0.7593
-6.4708 68.0807 8.9055 0.7589
-10.6409 68.0853 8.9738 0.7573
-13.4634 68.0884 9.0382 0.7558
-14.8911 68.0899 9.0763 0.7549
-16.3314 68.0915 9.1184 0.7539
-19.2555 68.0947 9.2151 0.7517
-3.9356 12.9204 1.7588 0.9470
-4.6337 11.7362 1.6431 0.9504
-4.9086 11.7365 1.6566 0.9500
-5.7628 11.7375 1.7027 0.9486
-6.0585 11.7378 1.7201 0.9481
-6.3605 11.7381 1.7385 0.9476
-7.6402 11.7395 1.8240 0.9451
-8.6791 11.7248 1.8996 0.9429
-9.0617 11.7410 1.9313 0.9419
-29.9219 37.1992 6.2167 0.8248
-28.9245 34.5158 5.8642 0.8339
-28.9272 31.8290 5.6008 0.8407
-29.4725 29.9206 5.4691 0.8442
-30.6824 29.9219 5.5808 0.8412
-31.0968 29.1304 5.5487 0.8421
-31.7234 28.5426 5.5570 0.8419
-32.3320 27.9354 5.5642 0.8417
-32.9480 27.3311 5.5745 0.8414
-33.6938 25.7369 5.5212 0.8428
-35.7231 26.1675 5.7664 0.8364
-38.9158 26.1709 6.1070 0.8276
-98.1970 8.8375 12.8390 0.6719
-78.9438 -8.8112 10.3440 0.7258
-78.1679 -10.3184 10.2674 0.7276
-78.1396 -11.9164 10.2930 0.7270
-77.8907 -13.4850 10.2939 0.7270
-79.7184 -15.4570 10.5743 0.7207
-77.3876 -16.6249 10.3074 0.7267
-84.0473 -28.9908 11.5775 0.6986
-83.6371 -30.7430 11.6038 0.6981
-76.1351 -37.0314 11.0249 0.7107
-76.4335 -39.0945 11.1796 0.7073
-45.5017 -30.6863 7.1468 0.8014
-43.5892 -30.6883 6.9419 0.8065
-33.0754 -28.6534 5.6986 0.8382
-31.7257 -28.6198 5.5640 0.8417
-26.8302 -25.1994 4.7932 0.8620
-28.1424 -28.6450 5.2292 0.8505
-25.9262 -28.6019 5.0270 0.8558
-24.8989 -28.6030 4.9382 0.8582
-23.1270 -30.0460 4.9374 0.8582
-21.9054 -30.9566 4.9384 0.8582
-21.5359 -33.1855 5.1517 0.8525
-21.5377 -34.6954 5.3178 0.8481
-21.5396 -36.3065 5.4973 0.8434
-21.5064 -37.9687 5.6824 0.8386
-21.5437 -39.8822 5.9028 0.8329
-21.8319 -44.6140 6.4680 0.8184
-23.5842 -50.7528 7.2878 0.7979
-24.0705 -54.6459 7.7758 0.7859
-24.0961 -57.8261 8.1578 0.7767
-24.1049 -65.0970 9.0395 0.7558
-26.0458 -80.0800 10.9658 0.7120
-24.4667 -80.7022 10.9815 0.7117
-22.9722 -81.6456 11.0448 0.7103
-19.8397 -83.1980 11.1379 0.7082
3.2518 -37.1261 4.8531 0.8604
5.5246 -37.1477 4.8906 0.8594
6.8013 -35.7851 4.7434 0.8634
7.7466 -36.7211 4.8871 0.8595
8.7569 -37.7396 5.0450 0.8553
10.3890 -37.8052 5.1055 0.8537
11.5105 -38.8166 5.2723 0.8493
13.2466 -38.8691 5.3474 0.8473
14.1063 -38.8194 5.3785 0.8465
15.7748 -38.5156 5.4199 0.8454
37.5699 -16.0535 4.3872 0.8484
42.4339 -16.1485 4.8754 0.8331
42.1341 -15.0725 4.8052 0.8352
40.5633 -11.8079 4.5366 0.8437
44.2683 -11.9271 4.9231 0.8316
44.2704 -10.0391 4.8745 0.8331
44.2715 -9.1082 4.8535 0.8337
44.3540 -7.2818 4.8266 0.8346
44.3550 -6.3697 4.8118 0.8350
44.3560 -5.4628 4.7990 0.8354
44.3580 -3.6616 4.7794 0.8361
44.3590 -2.7657 4.7726 0.8363
44.3619 -0.0885 4.7637 0.8366
44.3629 0.8029 4.7645 0.8365
44.3639 1.6950 4.7673 0.8364
44.3658 3.4841 4.7787 0.8361
44.3668 4.3825 4.7874 0.8358
44.2882 6.1799 4.8018 0.8354
44.1364 10.7587 4.8782 0.8330
40.5948 10.7638 4.5098 0.8445
37.0735 11.4426 4.1663 0.8555
34.5244 12.1952 3.9318 0.8630
44.3800 16.6866 5.0913 0.8263
39.9837 17.8516 4.7020 0.8385
39.9847 18.8243 4.7457 0.8371
39.9857 19.8157 4.7921 0.8357
39.9890 22.9158 4.9492 0.8308
38.2178 22.9329 4.7860 0.8358
34.1987 22.4374 4.3921 0.8483
30.0844 22.4421 4.0303 0.8599
28.8580 22.4434 3.9257 0.8632
10.5845 8.9367 1.4875 0.9458
13.3239 11.7162 1.9052 0.9311
12.7971 11.7171 1.8632 0.9326
12.2925 11.7177 1.8236 0.9340
11.8087 11.7182 1.7864 0.9353
10.4497 11.7010 1.6846 0.9388
10.0510 11.7202 1.6579 0.9398
9.6496 11.7206 1.6302 0.9408
8.8850 11.7215 1.5794 0.9425
8.5200 11.7219 1.5561 0.9434
8.1655 11.7223 1.5340 0.9441
7.8207 11.7227 1.5132 0.9449
7.1579 11.7234 1.4750 0.9462
6.8386 11.7238 1.4574 0.9469
14.3835 28.4718 3.4253 0.8796
14.3884 33.3313 3.8984 0.8641
14.3904 35.2667 4.0901 0.8579
14.3976 42.4278 4.8111 0.8351
14.4006 45.4152 5.1161 0.8256
15.4074 52.2082 5.8452 0.8033
14.4125 57.2102 6.3353 0.7887
12.8433 68.0599 7.4374 0.7568
4.4968 68.0691 7.3253 0.7600
1.7556 68.0721 7.3121 0.7604
-2.3488 68.0766 7.3145 0.7603
-3.7194 68.0782 7.3212 0.7601
-6.4709 68.0812 7.3436 0.7595
-7.8540 68.0827 7.3593 0.7590
-10.6410 68.0857 7.3999 0.7579
-14.8912 68.0904 7.4845 0.7555
-16.3316 68.0920 7.5192 0.7545
-17.7859 68.0936 7.5573 0.7534
-3.9112 12.8405 1.4414 0.9474
-4.5224 12.9552 1.4735 0.9463
-4.7547 12.7890 1.4651 0.9466
-4.9087 11.7366 1.3661 0.9501
-5.4728 11.7372 1.3906 0.9492
-6.0586 11.7379 1.4184 0.9482
-6.3606 11.7382 1.4336 0.9477
-6.9851 11.7389 1.4668 0.9465
-7.3085 11.7392 1.4849 0.9459
-7.6402 11.7396 1.5041 0.9452
-7.9808 11.7399 1.5244 0.9445
-8.6908 11.7407 1.5686 0.9429
-9.0618 11.7411 1.5926 0.9421
-9.8398 11.7419 1.6451 0.9402
-10.6723 11.7428 1.7039 0.9382
-11.5679 11.7438 1.7701 0.9358
-12.0428 11.7443 1.8063 0.9346
-32.9483 27.3314 4.5969 0.8418
-33.6929 25.7362 4.5527 0.8432
-37.4268 25.1696 4.8432 0.8341
-39.1036 25.1714 4.9938 0.8294
-79.1417 -12.0693 8.5966 0.7246
-84.7956 -29.2489 9.6319 0.6971
-84.1213 -30.9209 9.6240 0.6973
-42.4723 -28.6434 5.5010 0.8138
-39.0011 -28.6470 5.1964 0.8231
-35.8417 -28.6123 4.9247 0.8315
-34.6686 -30.0335 4.9254 0.8315
-33.8730 -30.5568 4.8986 0.8323
-26.8913 -25.2569 3.9616 0.8621
-30.3883 -29.7127 4.5638 0.8428
-30.1196 -30.6575 4.6150 0.8412
-23.6029 -30.6644 4.1553 0.8558
-23.5320 -34.7138 4.5033 0.8447
-22.2063 -37.4304 4.6735 0.8394
-21.4922 -37.9437 4.6827 0.8391
-21.8419 -40.4344 4.9349 0.8312
-21.5475 -44.0329 5.2641 0.8210
-21.5529 -48.9303 5.7414 0.8065
-21.5562 -51.7307 6.0179 0.7982
-24.0873 -74.0585 8.3626 0.7310
-24.0937 -79.4721 8.9174 0.7160
-21.0795 -81.1367 9.0018 0.7137
4.8931 -38.1554 4.1307 0.8566
5.4807 -36.8525 4.0008 0.8608
6.1946 -36.5853 3.9845 0.8613
6.9802 -36.7265 4.0143 0.8604
8.4888 -36.5839 4.0328 0.8598
12.3805 -38.8680 4.3803 0.8487
13.2465 -38.8688 4.4095 0.8477
14.1949 -39.0632 4.4630 0.8460
15.8385 -38.6711 4.4874 0.8453
33.8844 -15.2908 3.1469 0.8614
44.2465 -14.8325 3.9504 0.8292
44.2476 -13.8505 3.9249 0.8302
40.5619 -11.8074 3.5762 0.8440
44.2508 -10.9738 3.8594 0.8328
44.2519 -10.0349 3.8412 0.8335
44.2560 -6.3555 3.7848 0.8357
44.2570 -5.4506 3.7748 0.8361
44.2599 -2.7595 3.7540 0.8369
44.2609 -1.8679 3.7501 0.8371
44.2629 -0.0883 3.7470 0.8372
44.2648 1.6912 3.7499 0.8371
44.2658 2.5826 3.7536 0.8369
44.2677 4.3727 3.7656 0.8365
44.2707 7.0868 3.7954 0.8353
44.2717 8.0024 3.8085 0.8348
44.2737 9.8543 3.8396 0.8335
44.2747 10.7924 3.8577 0.8328
40.5461 10.7509 3.5510 0.8450
33.9814 10.4882 3.0105 0.8670
33.1977 11.7265 2.9805 0.8682
33.5201 12.6034 3.0315 0.8661
43.6476 17.4199 3.9783 0.8281
39.9846 17.8520 3.7068 0.8388
40.3723 19.0066 3.7774 0.8360
40.3569 19.9997 3.8128 0.8346
39.9889 21.8605 3.8580 0.8328
39.9900 22.9164 3.9017 0.8311
36.6961 23.0349 3.6677 0.8404
34.1991 22.4377 3.4625 0.8486
32.7478 22.4393 3.3606 0.8527
31.3789 22.4408 3.2657 0.8565
30.0847 22.4423 3.1773 0.8601
28.8583 22.4437 3.0948 0.8635
14.5592 11.7999 1.5864 0.9275
11.3441 11.7189 1.3807 0.9366
10.0511 11.7203 1.3070 0.9399
9.6497 11.7207 1.2852 0.9409
8.8850 11.7216 1.2451 0.9427
7.8208 11.7228 1.1929 0.9450
7.4851 11.7231 1.1774 0.9457
7.1579 11.7235 1.1628 0.9464
6.8387 11.7238 1.1490 0.9470
14.8370 27.9593 2.6794 0.8807
14.3842 28.4732 2.7004 0.8798
14.3874 31.5704 2.9370 0.8700
14.3912 35.2687 3.2246 0.8582
14.3934 37.4053 3.3928 0.8514
14.3986 42.4307 3.7930 0.8354
14.4016 45.4184 4.0335 0.8259
14.4137 57.2154 4.9948 0.7891
14.2647 68.0587 5.8866 0.7564
11.4327 68.0619 5.8423 0.7580
10.0315 68.0634 5.8240 0.7587
8.6384 68.0649 5.8081 0.7592
7.2524 68.0665 5.7946 0.7597
5.8723 68.0680 5.7835 0.7601
4.4968 68.0695 5.7748 0.7604
-5.0931 68.0801 5.7793 0.7603
-6.4709 68.0816 5.7893 0.7599
-7.8541 68.0831 5.8016 0.7595
-9.2437 68.0847 5.8164 0.7589
-12.0473 68.0877 5.8533 0.7576
-14.8913 68.0909 5.9003 0.7559
-17.7860 68.0941 5.9577 0.7539
-19.2558 68.0957 5.9905 0.7527
-22.5742 69.0992 6.1537 0.7469
-26.1689 70.3882 6.3571 0.7397
-4.6338 11.7364 1.0682 0.9506
-4.9087 11.7367 1.0769 0.9502
-5.1883 11.7370 1.0863 0.9498
-5.4729 11.7373 1.0963 0.9493
-6.0586 11.7379 1.1182 0.9484
-6.3606 11.7383 1.1302 0.9478
-6.6693 11.7386 1.1429 0.9472
-6.9851 11.7390 1.1564 0.9466
-7.3086 11.7393 1.1706 0.9460
-7.6403 11.7397 1.1857 0.9453
-8.3263 11.7341 1.2180 0.9439
-8.6909 11.7408 1.2366 0.9430
-9.0619 11.7412 1.2555 0.9422
-9.8399 11.7420 1.2969 0.9404
-10.2488 11.7425 1.3194 0.9394
-12.5378 11.7449 1.4543 0.9334
-13.0544 11.7455 1.4865 0.9319
-14.7550 11.7473 1.5966 0.9271
-15.9980 11.7187 1.6787 0.9235
-16.7351 11.7494 1.7310 0.9212
-19.0619 11.7355 1.8949 0.9141
-88.1130 -13.4374 7.5453 0.6992
-45.4812 -30.6726 4.6438 0.8023
-43.5697 -30.6746 4.5107 0.8074
-35.4070 -30.6733 3.9656 0.8286
-34.0037 -30.6748 3.8767 0.8321
-26.6902 -30.6609 3.4412 0.8494
-22.0163 -28.6031 3.0555 0.8651
-21.4811 -29.0990 3.0618 0.8649
-23.5319 -34.7136 3.5502 0.8451
-23.5704 -36.3207 3.6653 0.8405
-22.2062 -37.4301 3.6842 0.8397
-21.4913 -37.9420 3.6914 0.8394
-22.9532 -44.6123 4.2471 0.8176
-22.4086 -53.7764 4.9317 0.7915
-21.5129 -54.6967 4.9755 0.7898
-24.1151 -65.1245 5.8788 0.7567
-25.0380 -72.0286 6.4553 0.7363
-24.1923 -74.3815 6.6213 0.7305
-22.5509 -74.3832 6.5798 0.7320
-21.0609 -88.3192 7.6861 0.6946
3.2383 -48.0634 4.0779 0.8242
3.3666 -38.4370 3.2662 0.8565
4.1133 -38.1318 3.2467 0.8573
4.7619 -37.1316 3.1690 0.8605
5.5082 -37.0374 3.1698 0.8604
10.8223 -42.7230 3.7309 0.8378
32.4885 -15.4539 2.2309 0.8657
49.4230 -17.6799 3.2549 0.8103
49.4098 -16.5633 3.2315 0.8115
49.3968 -15.4623 3.2097 0.8127
49.3589 -12.2406 3.1535 0.8156
49.3465 -11.1902 3.1377 0.8165
49.3222 -9.1186 3.1103 0.8179
49.3102 -8.0955 3.0987 0.8185
49.2630 -4.0664 3.0652 0.8203
49.2398 -2.0780 3.0561 0.8208
49.2283 -1.0874 3.0534 0.8209
49.1938 1.8795 3.0528 0.8209
49.1824 2.8695 3.0550 0.8208
49.1709 3.8614 3.0585 0.8206
49.1129 8.8774 3.0949 0.8187
49.1012 9.8979 3.1060 0.8181
49.0774 11.9631 3.1324 0.8167
49.0654 13.0098 3.1477 0.8159
34.9305 10.7811 2.2669 0.8637
32.2157 11.3796 2.1187 0.8720
31.8249 11.9660 2.1084 0.8726
32.4878 12.9660 2.1691 0.8692
40.0491 16.9242 2.6961 0.8401
39.9856 17.8524 2.7154 0.8390
40.4368 19.0372 2.7715 0.8360
40.4379 20.0398 2.7986 0.8345
39.9899 21.8611 2.8261 0.8331
39.9910 22.9170 2.8582 0.8313
38.2188 22.9335 2.7639 0.8364
36.5375 22.9354 2.6751 0.8412
34.1995 22.4379 2.5364 0.8488
10.5833 8.9358 0.8589 0.9460
11.8089 11.7184 1.0316 0.9355
10.8973 11.7195 0.9924 0.9379
10.0512 11.7204 0.9574 0.9400
9.6497 11.7208 0.9414 0.9410
9.2614 11.7212 0.9263 0.9419
8.8851 11.7217 0.9121 0.9428
8.5201 11.7221 0.8986 0.9436
8.1656 11.7225 0.8859 0.9444
7.8208 11.7229 0.8739 0.9451
7.4852 11.7232 0.8625 0.9458
6.8387 11.7239 0.8416 0.9471
14.8830 26.7346 1.8974 0.8846
14.8371 27.9595 1.9628 0.8809
14.3849 28.4746 1.9782 0.8800
14.3864 29.9583 2.0608 0.8753
14.3881 31.5720 2.1515 0.8702
14.3920 35.2707 2.3622 0.8584
14.3968 39.7806 2.6234 0.8440
14.5222 62.9593 4.0066 0.7719
14.4744 69.0590 4.3754 0.7537
5.9586 69.0684 4.2989 0.7574
0.3876 68.0745 4.2214 0.7612
-0.9802 68.0760 4.2219 0.7612
-5.0931 68.0805 4.2335 0.7606
-6.4709 68.0820 4.2408 0.7603
-7.8541 68.0836 4.2499 0.7598
-10.6412 68.0866 4.2733 0.7587
-3.6037 15.0250 0.9581 0.9400
-3.6073 12.7566 0.8221 0.9483
-3.8858 12.7569 0.8269 0.9480
-4.1677 12.7573 0.8322 0.9476
-4.4534 12.7576 0.8379 0.9473
-5.1883 11.7371 0.7958 0.9499
-6.3607 11.7383 0.8279 0.9479
-6.6694 11.7387 0.8372 0.9473
-7.3087 11.7394 0.8575 0.9461
-9.0619 11.7413 0.9197 0.9423
-9.8400 11.7421 0.9500 0.9404
-10.6724 11.7430 0.9840 0.9384
-11.5681 11.7440 1.0222 0.9361
-12.5379 11.7450 1.0653 0.9335
-14.7551 11.7474 1.1695 0.9272
-15.3802 11.7481 1.2001 0.9254
-15.9978 11.7186 1.2297 0.9236
-18.2555 11.7512 1.3463 0.9167
-19.9485 11.7353 1.4352 0.9114
-21.9554 11.7552 1.5443 0.9050
-25.5522 11.7591 1.7442 0.8934
-26.9693 11.7606 1.8245 0.8888
-28.5239 11.7623 1.9133 0.8837
-41.6274 5.4396 2.6033 0.8451
-55.3736 -5.0565 3.4482 0.8002
-84.4368 -29.1252 5.5387 0.6991
-33.0594 -28.6395 2.7123 0.8392
-29.2810 -28.6300 2.5394 0.8486
-25.9548 -28.6335 2.3965 0.8565
-23.9333 -28.6357 2.3142 0.8611
-22.9729 -28.6367 2.2766 0.8632
-22.0430 -28.6377 2.2410 0.8652
-21.5169 -30.4075 2.3099 0.8613
-21.5184 -31.7434 2.3781 0.8575
-21.5218 -34.6698 2.5304 0.8491
-21.5236 -36.2796 2.6158 0.8445
-21.5275 -39.8523 2.8088 0.8340
-21.4971 -43.9298 3.0328 0.8220
-23.5673 -50.7165 3.4679 0.7992
-26.1601 -62.7792 4.2174 0.7614
-26.1691 -70.6715 4.6732 0.7393
-23.8058 -73.1930 4.7728 0.7346
-20.3055 -78.1576 5.0075 0.7235
2.3275 -85.8951 5.3283 0.7087
2.4532 -51.9553 3.2254 0.8118
4.2674 -39.5602 2.4674 0.8526
6.4539 -38.1168 2.3973 0.8565
7.2993 -38.4055 2.4242 0.8550
8.7642 -37.7711 2.4044 0.8561
10.6805 -38.8658 2.4994 0.8508
11.5253 -38.8667 2.5139 0.8500
14.1245 -38.8695 2.5645 0.8473
31.5207 -14.9935 1.3763 0.8696
35.2606 -15.0667 1.5120 0.8577
55.7811 -21.2278 2.3534 0.7875
63.9427 -21.4351 2.6592 0.7634
68.7924 -21.5335 2.8423 0.7493
68.7971 -15.6009 2.7816 0.7540
69.0029 11.0460 2.7555 0.7560
68.8151 12.4387 2.7574 0.7558
63.9847 16.9657 2.6102 0.7672
37.4372 10.7360 1.5357 0.8556
34.8948 10.7702 1.4399 0.8640
37.7808 12.4976 1.5691 0.8527
31.2453 11.0369 1.3066 0.8758
39.9876 18.8257 1.7428 0.8378
39.9920 22.9176 1.8175 0.8315
38.2192 22.9337 1.7575 0.8366
34.7097 22.7727 1.6369 0.8469
34.0127 23.3061 1.6258 0.8478
32.6993 23.3851 1.5852 0.8514
29.7269 23.1192 1.4849 0.8601
12.2928 11.7180 0.6697 0.9343
11.8090 11.7186 0.6560 0.9356
10.8974 11.7196 0.6310 0.9379
10.4503 11.7017 0.6186 0.9391
10.0512 11.7205 0.6088 0.9401
9.6498 11.7209 0.5987 0.9410
9.2614 11.7213 0.5890 0.9420
8.1656 11.7226 0.5633 0.9444
7.1580 11.7237 0.5416 0.9465
14.8837 26.7359 1.2066 0.8847
14.8851 28.0500 1.2520 0.8806
15.3647 30.4141 1.3436 0.8725
15.3894 32.0468 1.4018 0.8674
14.3908 33.3368 1.4318 0.8647
14.3928 35.2727 1.5022 0.8586
14.3951 37.4098 1.5805 0.8518
14.3977 39.7831 1.6683 0.8442
14.4073 48.8196 2.0071 0.8157
14.4115 52.7124 2.1548 0.8035
14.4745 69.0594 2.7823 0.7539
11.6008 69.0626 2.7614 0.7555
10.1789 69.0641 2.7527 0.7562
7.3591 69.0672 2.7388 0.7573
3.1710 69.0719 2.7264 0.7582
0.3876 68.0749 2.6843 0.7615
-2.3488 68.0779 2.6860 0.7613
-3.7194 68.0795 2.6885 0.7611
-7.8542 68.0840 2.7024 0.7601
-9.2439 68.0855 2.7093 0.7595
-10.6412 68.0871 2.7173 0.7589
-12.0475 68.0886 2.7265 0.7582
-2.9524 13.4999 0.5449 0.9462
-3.0595 12.7561 0.5173 0.9488
-3.6073 12.7567 0.5227 0.9483
-4.9088 11.7369 0.5016 0.9503
-5.4729 11.7375 0.5107 0.9495
-6.0587 11.7381 0.5209 0.9485
-6.6694 11.7388 0.5324 0.9474
-6.9852 11.7391 0.5386 0.9468
-7.3087 11.7395 0.5453 0.9461
-7.6404 11.7398 0.5523 0.9455
-7.9809 11.7402 0.5598 0.9448
-8.3261 11.7338 0.5673 0.9440
-8.6910 11.7410 0.5760 0.9432
-9.0620 11.7414 0.5848 0.9424
-9.4447 11.7418 0.5942 0.9415
-9.8401 11.7422 0.6041 0.9405
-10.2490 11.7427 0.6146 0.9395
-10.6725 11.7431 0.6257 0.9385
-12.0431 11.7446 0.6633 0.9349
-13.5949 11.7463 0.7084 0.9306
-14.7553 11.7476 0.7437 0.9273
-15.3804 11.7482 0.7631 0.9254
-15.9977 11.7184 0.7819 0.9237
-16.7355 11.7497 0.8063 0.9214
-19.0891 11.7523 0.8839 0.9142
-19.9483 11.7352 0.9126 0.9115
-20.9318 11.7542 0.9466 0.9084
-24.2542 11.7578 1.0628 0.8977
-28.5244 11.7625 1.2166 0.8838
-30.2387 11.7643 1.2794 0.8782
-39.3604 11.7742 1.6200 0.8483
-42.4604 11.7776 1.7375 0.8383
-41.5627 5.4312 1.6528 0.8455
-77.3042 -13.3834 3.0935 0.7305
-46.3598 -28.6252 2.1484 0.8040
-32.7774 -21.1598 1.5384 0.8554
-42.3995 -28.5943 2.0165 0.8149
-40.6202 -28.5980 1.9588 0.8197
-33.2790 -27.6793 1.7068 0.8409
-31.9526 -27.6807 1.6670 0.8443
-27.5120 -26.9003 1.5172 0.8572
-29.9771 -30.5124 1.6866 0.8426
-27.4007 -30.2286 1.6088 0.8493
-23.4913 -30.5194 1.5186 0.8571
-23.0408 -33.9893 1.6191 0.8484
-23.1450 -35.6651 1.6765 0.8435
-23.2343 -37.4286 1.7371 0.8383
-22.2059 -37.4296 1.7161 0.8401
-21.4894 -37.9387 1.7193 0.8398
-20.9612 -38.8039 1.7390 0.8382
-20.5899 -42.0760 1.8471 0.8290
-21.5362 -48.8924 2.1066 0.8075
-22.3379 -79.3912 3.2520 0.7188
-21.0859 -81.1615 3.3065 0.7148
-21.0638 -88.3312 3.5807 0.6952
4.3876 -50.0943 1.9828 0.8177
10.5815 -82.5116 3.2802 0.7168
14.2600 -84.2197 3.3681 0.7104
10.2685 -48.6754 1.9616 0.8194
10.5255 -41.5515 1.6902 0.8423
10.6804 -38.8655 1.5893 0.8510
12.3637 -38.8153 1.6063 0.8495
13.2464 -38.8683 1.6192 0.8484
15.0155 -38.8703 1.6431 0.8464
15.9470 -38.9359 1.6591 0.8450
34.0731 -16.2076 0.6374 0.8599
33.4094 -15.0765 0.6191 0.8636
49.6627 -21.2207 0.9123 0.8057
55.7801 -21.2274 1.0081 0.7876
63.3480 -21.2357 1.1286 0.7655
67.8570 -21.2407 1.2011 0.7524
73.4122 -16.6475 1.2716 0.7400
72.7133 -14.9597 1.2540 0.7431
69.3002 16.8926 1.2049 0.7517
63.7322 16.8988 1.1138 0.7681
58.9453 16.9040 1.0358 0.7825
54.7830 16.9086 0.9685 0.7950
29.6303 11.1408 0.5347 0.8811
42.9001 17.1216 0.7802 0.8313
30.0291 12.6899 0.5507 0.8777
40.1897 19.9168 0.7577 0.8357
40.1738 20.9246 0.7651 0.8343
39.9918 21.8622 0.7699 0.8333
38.2196 22.9340 0.7529 0.8367
34.9611 22.9376 0.7063 0.8460
31.4243 23.4415 0.6622 0.8548
10.5815 8.9342 0.2339 0.9461
13.3248 11.7170 0.2997 0.9315
12.7976 11.7176 0.2931 0.9329
12.2929 11.7181 0.2869 0.9343
11.3444 11.7192 0.2755 0.9368
10.4506 11.7019 0.2650 0.9392
10.0388 11.7059 0.2605 0.9402
9.6376 11.7061 0.2561 0.9411
9.2495 11.7063 0.2520 0.9421
8.8736 11.7065 0.2481 0.9429
8.1434 11.6907 0.2407 0.9446
7.7993 11.6906 0.2374 0.9453
7.4644 11.6906 0.2343 0.9460
6.8193 11.6907 0.2286 0.9473
14.8858 28.0512 0.5364 0.8807
15.3648 30.4143 0.5756 0.8726
14.9649 32.8377 0.6096 0.8656
14.3916 33.3387 0.6134 0.8648
14.3960 37.4120 0.6771 0.8518
14.1000 38.9607 0.6999 0.8473
13.2843 39.1471 0.6983 0.8476
12.4555 39.2810 0.6961 0.8480
12.4712 45.6156 0.7988 0.8276
13.5940 53.9612 0.9400 0.8004
14.4746 69.0598 1.1919 0.7541
11.6009 69.0630 1.1829 0.7557
10.0316 68.0647 1.1622 0.7594
8.6386 68.0663 1.1590 0.7600
5.8724 68.0693 1.1541 0.7608
4.4969 68.0708 1.1523 0.7612
3.1251 68.0724 1.1511 0.7614
1.7556 68.0739 1.1503 0.7615
0.3876 68.0754 1.1499 0.7616
-2.3488 68.0784 1.1507 0.7615
-3.7195 68.0799 1.1517 0.7613
-5.0931 68.0814 1.1532 0.7610
-9.2439 68.0860 1.1607 0.7597
-2.8152 15.9106 0.2729 0.9374
-2.8170 14.2463 0.2453 0.9436
-2.8185 12.8875 0.2228 0.9486
-3.8858 12.7571 0.2253 0.9480
-4.1678 12.7574 0.2267 0.9477
-4.7432 12.7580 0.2299 0.9470
-5.6400 12.7590 0.2356 0.9457
-6.3608 11.7385 0.2255 0.9480
-7.3088 11.7396 0.2336 0.9462
-7.6405 11.7399 0.2366 0.9455
-7.9810 11.7403 0.2398 0.9448
-8.6911 11.7411 0.2468 0.9432
-9.4448 11.7419 0.2545 0.9415
-12.0432 11.7447 0.2842 0.9349
-13.0427 11.7350 0.2964 0.9322
-14.1487 11.7367 0.3105 0.9291
-16.7357 11.7498 0.3454 0.9215
-19.0893 11.7524 0.3787 0.9142
-21.9523 11.7536 0.4206 0.9052
-23.0462 11.7498 0.4370 0.9017
-25.5529 11.7594 0.4751 0.8936
-32.1410 11.7666 0.5782 0.8720
-34.2645 11.7689 0.6120 0.8651
-36.6528 11.7715 0.6503 0.8573
-46.0480 11.7817 0.8029 0.8268
-55.3644 -5.0557 0.9393 0.8006
-76.8761 -13.3092 1.3179 0.7319
-84.2264 -29.0526 1.5050 0.7002
-83.5958 -30.7278 1.5045 0.7003
-44.2167 -28.5445 0.8890 0.8101
-40.3523 -28.4094 0.8336 0.8208
-37.0390 -32.0870 0.8278 0.8220
-27.1605 -25.5097 0.6294 0.8615
-27.6878 -28.1822 0.6674 0.8538
-24.5355 -28.1856 0.6312 0.8611
-24.4822 -30.5181 0.6609 0.8551
-23.4912 -30.5191 0.6506 0.8572
-23.4169 -31.7213 0.6660 0.8541
-21.1211 -31.1573 0.6358 0.8602
-21.1227 -32.5488 0.6554 0.8562
-21.1243 -34.0295 0.6766 0.8519
-21.1260 -35.6094 0.6994 0.8473
-21.4884 -37.9370 0.7365 0.8399
-24.0094 -44.4469 0.8533 0.8170
-22.8687 -44.4481 0.8444 0.8188
-21.6829 -44.3096 0.8332 0.8209
-21.6734 -49.2039 0.9082 0.8065
-24.3301 -61.8594 1.1228 0.7665
-20.6171 -63.3889 1.1260 0.7659
-22.5562 -74.4007 1.3133 0.7327
-21.6282 -76.8689 1.3489 0.7265
6.4431 -95.6308 1.6190 0.6815
7.4673 -85.2551 1.4456 0.7101
11.9959 -93.5408 1.5930 0.6857
14.5370 -76.4868 1.3151 0.7324
10.1957 -43.9404 0.7620 0.8349
10.6803 -38.8653 0.6808 0.8511
11.5252 -38.8662 0.6848 0.8503
13.8844 -35.9423 0.6509 0.8571
48.0174 -21.6686 -0.2966 0.8100
49.6619 -21.2204 -0.3040 0.8057
53.5454 -21.6182 -0.3251 0.7938
56.3589 -21.4477 -0.3395 0.7857
64.0456 -21.4696 -0.3803 0.7632
68.7955 -21.5345 -0.4059 0.7495
40.5531 -11.8049 -0.2379 0.8446
96.0588 9.4887 -0.5435 0.6797
63.9876 16.9665 -0.3727 0.7674
32.5523 10.7680 -0.1931 0.8718
32.8542 11.6052 -0.1962 0.8699
39.9884 17.8537 -0.2466 0.8393
40.4397 19.0386 -0.2517 0.8363
40.4408 20.0413 -0.2541 0.8348
40.1744 20.9249 -0.2550 0.8343
39.9940 22.9187 -0.2595 0.8316
38.3865 23.0341 -0.2520 0.8360
36.6978 23.0360 -0.2439 0.8409
34.2063 23.4387 -0.2335 0.8472
31.4246 23.4418 -0.2207 0.8549
13.3249 11.7171 -0.0999 0.9315
12.7977 11.7177 -0.0977 0.9329
11.8092 11.7188 -0.0937 0.9356
10.8975 11.7197 -0.0901 0.9380
10.0313 11.6972 -0.0868 0.9402
9.2319 11.6840 -0.0838 0.9422
8.1218 11.6596 -0.0800 0.9447
7.7710 11.6482 -0.0788 0.9455
7.4376 11.6487 -0.0778 0.9462
7.1126 11.6492 -0.0768 0.9469
6.7955 11.6498 -0.0759 0.9475
14.9852 26.9182 -0.1735 0.8841
15.3649 30.4145 -0.1918 0.8726
14.3945 35.2768 -0.2145 0.8586
14.3969 37.4143 -0.2257 0.8518
13.2844 39.1473 -0.2327 0.8476
9.9584 39.5298 -0.2295 0.8495
8.2856 39.5316 -0.2274 0.8508
7.5248 39.8755 -0.2285 0.8502
8.3188 49.5239 -0.2827 0.8180
7.3495 49.8662 -0.2838 0.8174
8.6386 68.0667 -0.3863 0.7600
4.1185 62.3426 -0.3518 0.7789
0.3876 68.0758 -0.3833 0.7616
-2.3385 67.7788 -0.3818 0.7624
-10.4616 66.9377 -0.3814 0.7626
-13.2662 67.0908 -0.3850 0.7607
-3.2823 13.6849 -0.0792 0.9453
-3.4246 13.1110 -0.0763 0.9472
-3.7076 13.1113 -0.0767 0.9470
-3.9823 13.0740 -0.0769 0.9468
-4.5641 13.0746 -0.0780 0.9461
-29.4968 70.5270 -0.4304 0.7365
-5.7630 11.7379 -0.0736 0.9490
-6.3608 11.7386 -0.0752 0.9480
-6.6695 11.7389 -0.0760 0.9474
-7.3088 11.7396 -0.0779 0.9462
-8.3259 11.7336 -0.0810 0.9441
-9.8402 11.7424 -0.0863 0.9406
-10.2492 11.7429 -0.0878 0.9396
-11.1120 11.7438 -0.0910 0.9374
-12.0433 11.7448 -0.0947 0.9349
-12.5237 11.7318 -0.0966 0.9337
-14.1162 11.7097 -0.1033 0.9293
-14.6724 11.6815 -0.1056 0.9277
-16.7358 11.7499 -0.1151 0.9215
-17.4732 11.7508 -0.1186 0.9192
-18.2561 11.7516 -0.1222 0.9168
-19.9478 11.7349 -0.1303 0.9116
-22.9030 11.6768 -0.1447 0.9023
-25.5533 11.7596 -0.1584 0.8936
-26.9706 11.7612 -0.1657 0.8890
-30.2398 11.7647 -0.1827 0.8783
-32.1165 11.7576 -0.1926 0.8721
-34.0960 11.7110 -0.2030 0.8657
-43.9510 11.2452 -0.2554 0.8340
-55.3568 -5.0550 -0.3130 0.8006
-76.8508 -13.3049 -0.4391 0.7320
-76.6848 -14.8687 -0.4398 0.7316
-82.0719 -28.3095 -0.4888 0.7066
-82.0129 -30.1460 -0.4920 0.7050
-32.9171 -17.6797 -0.2104 0.8612
-30.6777 -18.9421 -0.2030 0.8657
-30.0361 -19.3901 -0.2013 0.8667
-29.9199 -20.1780 -0.2032 0.8656
-43.3319 -30.5072 -0.2984 0.8090
-29.4056 -22.5222 -0.2085 0.8623
-37.3253 -29.7967 -0.2689 0.8261
-25.7014 -23.1853 -0.1949 0.8707
-27.2246 -25.5699 -0.2103 0.8612
-30.3837 -29.7081 -0.2392 0.8437
-25.5452 -27.0683 -0.2096 0.8617
-26.5638 -30.5156 -0.2278 0.8506
-25.5054 -30.5167 -0.2239 0.8529
-23.4910 -30.5189 -0.2168 0.8572
-23.4161 -31.7202 -0.2220 0.8541
-23.4175 -33.0935 -0.2283 0.8503
-23.4191 -34.5472 -0.2350 0.8462
-23.2340 -37.4280 -0.2480 0.8384
-22.2056 -37.4291 -0.2450 0.8402
-22.8686 -44.4478 -0.2814 0.8188
-18.2522 -39.2784 -0.2439 0.8409
-18.3009 -41.5474 -0.2556 0.8339
-18.1314 -46.0992 -0.2789 0.8202
-18.0969 -52.0607 -0.3103 0.8021
-18.0969 -55.6404 -0.3294 0.7913
-18.0409 -59.5071 -0.3501 0.7798
-17.8027 -81.9159 -0.4720 0.7151
11.5779 -90.2808 -0.5125 0.6948
10.5187 -49.8613 -0.2869 0.8156
10.1967 -43.9445 -0.2540 0.8349
10.2280 -37.2192 -0.2173 0.8569
12.1737 -35.7208 -0.2125 0.8599
12.9816 -35.7242 -0.2140 0.8590
14.6345 -35.7313 -0.2174 0.8569
31.6904 -15.0742 -0.9881 0.8690
56.3052 -21.4273 -1.6964 0.7858
29.7533 -9.9740 -0.8836 0.8820
29.8513 -9.3441 -0.8808 0.8823
79.5383 -14.7049 -2.2776 0.7235
69.1877 -11.3588 -1.9743 0.7554
85.2417 -10.4982 -2.4184 0.7092
85.9001 -3.6251 -2.4209 0.7089
85.9376 -1.8983 -2.4204 0.7089
85.9419 -0.1714 -2.4199 0.7090
85.9121 1.5548 -2.4195 0.7090
60.1394 5.9405 -1.7016 0.7852
51.9473 6.1874 -1.4731 0.8111
50.7721 7.0846 -1.4435 0.8145
79.2181 15.9689 -2.2755 0.7237
79.0830 17.6020 -2.2813 0.7231
69.3038 16.8935 -2.0086 0.7517
63.7352 16.8996 -1.8567 0.7681
59.1216 16.9546 -1.7318 0.7818
54.7114 16.8865 -1.6123 0.7952
31.9171 11.2742 -0.9531 0.8733
31.9179 12.0010 -0.9602 0.8724
31.9187 12.7389 -0.9677 0.8715
31.1945 13.1823 -0.9535 0.8733
39.9894 17.8541 -1.2331 0.8393
40.4407 19.0390 -1.2586 0.8362
40.3918 20.0170 -1.2693 0.8349
39.9938 21.8633 -1.2834 0.8333
36.5392 22.9364 -1.2148 0.8414
34.9619 22.9381 -1.1774 0.8459
33.7060 23.0959 -1.1505 0.8492
32.3304 23.1213 -1.1192 0.8530
31.0268 23.1451 -1.0900 0.8565
29.7290 23.1209 -1.0605 0.8601
14.5606 11.8011 -0.5277 0.9277
10.5796 8.9326 -0.3899 0.9461
13.3250 11.7172 -0.4996 0.9315
11.8093 11.7189 -0.4685 0.9356
11.3446 11.7194 -0.4593 0.9368
10.4510 11.7024 -0.4418 0.9391
10.0313 11.6972 -0.4339 0.9402
9.6124 11.6755 -0.4258 0.9413
8.8403 11.6626 -0.4121 0.9431
8.4723 11.6563 -0.4058 0.9440
8.1064 11.6376 -0.3994 0.9448
7.7518 11.6194 -0.3933 0.9456
7.4110 11.6071 -0.3878 0.9464
6.7718 11.6091 -0.3784 0.9476
14.8872 28.0538 -0.8943 0.8807
14.9653 32.8385 -1.0162 0.8655
14.3932 33.3423 -1.0226 0.8647
14.3953 35.2788 -1.0729 0.8586
14.1002 38.9612 -1.1667 0.8472
13.2845 39.1476 -1.1640 0.8475
12.5336 39.5271 -1.1676 0.8471
10.8072 39.5291 -1.1539 0.8488
7.3059 68.5686 -1.9417 0.7589
5.9156 68.5701 -1.9380 0.7593
2.7794 60.5422 -1.7065 0.7846
-0.9741 67.6577 -1.9053 0.7628
-2.3344 67.6592 -1.9063 0.7627
-3.7468 68.5808 -1.9340 0.7597
-5.1306 68.5823 -1.9365 0.7594
-5.7921 60.9400 -1.7237 0.7827
-6.9868 60.5655 -1.7167 0.7835
-9.3119 68.5869 -1.9490 0.7581
-11.9734 67.6698 -1.9350 0.7596
-13.2663 67.0912 -1.9257 0.7606
-3.2820 13.6836 -0.3962 0.9452
-3.7076 13.1114 -0.3837 0.9469
-3.9824 13.0741 -0.3848 0.9468
-4.2836 13.1121 -0.3884 0.9463
-4.8750 13.1127 -0.3939 0.9456
-4.8686 12.3311 -0.3733 0.9483
-29.3818 66.4682 -2.0463 0.7477
-29.3857 63.0218 -1.9580 0.7571
-6.0588 11.7383 -0.3720 0.9485
-6.3609 11.7387 -0.3759 0.9480
-6.6695 11.7390 -0.3802 0.9474
-6.9854 11.7394 -0.3846 0.9468
-7.3089 11.7397 -0.3894 0.9462
-7.6406 11.7401 -0.3944 0.9455
-8.6912 11.7412 -0.4113 0.9432
-9.4450 11.7421 -0.4243 0.9415
-10.2492 11.7429 -0.4389 0.9395
-11.5685 11.7444 -0.4642 0.9362
-12.0434 11.7449 -0.4737 0.9349
-13.0111 11.7065 -0.4928 0.9324
-14.0831 11.6823 -0.5152 0.9294
-15.2178 11.6241 -0.5392 0.9262
-15.8540 11.6133 -0.5534 0.9244
-17.4734 11.7509 -0.5929 0.9192
-19.9476 11.7348 -0.6517 0.9115
-21.8133 11.6791 -0.6967 0.9057
-22.8225 11.6357 -0.7213 0.9026
-25.5537 11.7598 -0.7921 0.8935
-26.9710 11.7613 -0.8285 0.8889
-28.5258 11.7630 -0.8688 0.8838
-38.7888 11.6032 -1.1400 0.8504
-42.3911 10.8461 -1.2321 0.8394
-53.8158 10.3616 -1.5432 0.8031
-72.8853 12.5203 -2.0824 0.7438
-72.8984 11.0197 -2.0760 0.7445
-66.4376 7.3275 -1.8821 0.7653
-60.2469 -1.8555 -1.6972 0.7857
-64.2113 -7.1669 -1.8193 0.7722
-65.4576 -8.6406 -1.8591 0.7678
-66.4160 -10.1286 -1.8918 0.7643
-70.1957 -15.0798 -2.0217 0.7503
-76.3242 -26.3268 -2.2734 0.7239
-77.0652 -28.3273 -2.3119 0.7200
-78.7934 -32.6122 -2.4012 0.7109
-76.7716 -39.2674 -2.4281 0.7082
-23.9589 -16.8679 -0.8251 0.8894
-23.4508 -17.2251 -0.8193 0.8901
-22.7769 -17.4452 -0.8079 0.8915
-22.3603 -17.8502 -0.8056 0.8918
-21.0748 -18.2572 -0.7851 0.8944
-20.5748 -18.5605 -0.7802 0.8950
-19.5275 -19.0933 -0.7690 0.8965
-19.2879 -20.4379 -0.7913 0.8936
-18.7386 -21.5263 -0.8036 0.8921
-18.6779 -22.3477 -0.8201 0.8900
-18.2458 -23.7044 -0.8423 0.8872
-17.8151 -25.1761 -0.8684 0.8839
-17.6344 -28.4075 -0.9415 0.8748
-17.6328 -34.2715 -1.0852 0.8571
-17.6805 -36.1305 -1.1326 0.8513
-17.6591 -42.3784 -1.2927 0.8322
-17.6673 -44.9190 -1.3591 0.8244
-17.7070 -47.8188 -1.4358 0.8154
-17.6630 -54.3064 -1.6080 0.7957
-17.7358 -58.5009 -1.7213 0.7830
-18.7758 -66.7312 -1.9520 0.7578
-17.3673 -79.9126 -2.3027 0.7209
-16.3404 -83.2093 -2.3877 0.7122
-14.7212 -83.8378 -2.3968 0.7113
-12.0078 -89.3187 -2.5377 0.6972
-10.2042 -89.4827 -2.5360 0.6974
-8.3989 -89.6097 -2.5343 0.6976
-6.5925 -89.7000 -2.5326 0.6977
-4.7859 -89.7539 -2.5309 0.6979
-1.1750 -89.7507 -2.5274 0.6983
0.6279 -89.6948 -2.5257 0.6984
4.1870 -88.6735 -2.4996 0.7010
5.6506 -83.8678 -2.3669 0.7144
7.3293 -83.6792 -2.3652 0.7145
6.5516 -51.0875 -1.4503 0.8137
4.9748 -33.4507 -0.9523 0.8734
5.7289 -30.1428 -0.8640 0.8845
10.7000 -50.7208 -1.4596 0.8127
9.9634 -36.2562 -1.0587 0.8603
11.3769 -35.7172 -1.0555 0.8607
12.1736 -35.7206 -1.0626 0.8598
13.8014 -35.7275 -1.0785 0.8579
22.8704 -9.7724 -1.2613 0.9052
22.9763 -9.2764 -1.2566 0.9055
28.5295 -8.9303 -1.5161 0.8872
30.4503 -8.8640 -1.6084 0.8807
47.6767 -8.8144 -2.4589 0.8235
48.0978 -5.9236 -2.4577 0.8236
48.2832 -3.9855 -2.4570 0.8236
48.3920 -2.0422 -2.4563 0.8237
48.4176 -1.0695 -2.4561 0.8237
48.4240 -0.0966 -2.4558 0.8237
48.1687 4.7581 -2.4547 0.8238
48.0602 5.7244 -2.4546 0.8238
47.9328 6.6884 -2.4544 0.8238
46.2121 7.3976 -2.3734 0.8291
44.5477 8.9800 -2.3046 0.8336
40.4789 9.0097 -2.1031 0.8470
44.1491 10.7618 -2.3045 0.8336
43.4203 13.4015 -2.3045 0.8336
43.1545 14.2751 -2.3052 0.8336
30.5031 10.7747 -1.6406 0.8785
30.9754 11.6466 -1.6783 0.8759
30.7363 12.2670 -1.6783 0.8759
30.6248 12.9416 -1.6861 0.8753
39.9914 18.8275 -2.2416 0.8378
39.4961 22.6334 -2.3086 0.8333
37.7220 22.6354 -2.2310 0.8385
36.0625 22.6372 -2.1593 0.8432
32.0790 22.9415 -2.0001 0.8539
30.7559 22.9430 -1.9459 0.8575
14.5609 11.8013 -0.9505 0.9277
10.5787 8.9318 -0.7021 0.9461
13.3252 11.7173 -0.8999 0.9314
11.8094 11.7190 -0.8437 0.9355
11.3447 11.7195 -0.8272 0.9368
10.8977 11.7199 -0.8116 0.9379
10.4512 11.7026 -0.7957 0.9391
8.8238 11.6408 -0.7408 0.9432
8.4560 11.6339 -0.7294 0.9440
8.0911 11.6155 -0.7179 0.9449
7.7373 11.5977 -0.7070 0.9457
7.0625 11.5673 -0.6873 0.9472
10.1908 18.3059 -1.0625 0.9195
9.1029 17.1537 -0.9848 0.9252
9.0903 17.9940 -1.0224 0.9224
9.2684 21.4706 -1.1860 0.9106
14.8976 36.5096 -1.9998 0.8539
14.9001 38.7220 -2.1041 0.8469
14.1003 38.9614 -2.1013 0.8471
14.0030 41.2650 -2.2099 0.8399
10.8182 39.5694 -2.0804 0.8485
10.8567 47.0681 -2.4497 0.8241
7.4477 39.4672 -2.0369 0.8514
6.6370 39.5117 -2.0319 0.8517
6.1020 48.0797 -2.4579 0.8236
4.1704 48.3414 -2.4607 0.8234
2.2275 48.5202 -2.4633 0.8232
1.2528 48.5783 -2.4644 0.8231
-0.7002 48.6310 -2.4665 0.8230
-1.6777 48.6261 -2.4675 0.8229
-3.6322 48.5530 -2.4692 0.8228
-7.5258 48.1536 -2.4717 0.8227
-3.2817 13.6824 -0.7136 0.9452
-3.7076 13.1115 -0.6910 0.9469
-3.9824 13.0742 -0.6931 0.9467
-4.2836 13.1121 -0.6996 0.9463
-4.5641 13.0748 -0.7023 0.9460
-4.8751 13.1128 -0.7095 0.9455
-4.8690 12.3322 -0.6724 0.9483
-8.7609 20.9474 -1.1515 0.9131
-9.3572 21.1681 -1.1737 0.9115
-5.7631 11.7381 -0.6632 0.9490
-6.6696 11.7391 -0.6847 0.9474
-6.9854 11.7395 -0.6928 0.9468
-7.9812 11.7406 -0.7200 0.9447
-9.0623 11.7417 -0.7522 0.9423
-11.1122 11.7440 -0.8199 0.9373
-11.5686 11.7445 -0.8360 0.9361
-12.5239 11.7319 -0.8703 0.9336
-13.0112 11.7066 -0.8876 0.9323
-13.5185 11.6802 -0.9060 0.9309
-14.0502 11.6549 -0.9258 0.9295
-14.6063 11.6290 -0.9468 0.9280
-18.2565 11.7519 -1.1011 0.9167
-19.9474 11.7347 -1.1737 0.9115
-21.7072 11.6223 -1.2487 0.9061
-23.6111 11.4461 -1.3307 0.9002
-28.5262 11.7632 -1.5649 0.8837
-30.2408 11.7651 -1.6456 0.8781
-38.1331 11.4071 -2.0186 0.8526
-40.4648 11.2240 -2.1296 0.8452
-42.3902 10.8459 -2.2190 0.8392
-46.2390 9.8702 -2.3978 0.8275
-40.9223 6.1861 -2.0989 0.8472
-47.1497 2.3393 -2.3941 0.8277
-47.2171 0.4435 -2.3947 0.8277
-49.8657 -1.5359 -2.5301 0.8189
-49.9983 -5.5805 -2.5514 0.8175
-49.8791 -6.5842 -2.5515 0.8175
-49.5794 -8.5835 -2.5518 0.8175
-49.1977 -10.5689 -2.5519 0.8175
-48.9766 -11.5554 -2.5520 0.8175
-48.4737 -13.5138 -2.5521 0.8175
-48.1923 -14.4849 -2.5520 0.8175
-47.5701 -16.4086 -2.5520 0.8175
-46.4905 -19.2422 -2.5517 0.8175
-42.4835 -20.6636 -2.3959 0.8276
-42.0565 -21.5112 -2.3957 0.8276
-31.3128 -16.8180 -1.8026 0.8673
-27.2054 -16.0524 -1.6020 0.8812
-23.3378 -17.1421 -1.4685 0.8905
-21.0518 -18.2373 -1.4125 0.8944
-20.5305 -18.5205 -1.4022 0.8952
-18.9478 -20.9033 -1.4308 0.8932
-18.2194 -23.6701 -1.5148 0.8872
-17.6692 -27.2272 -1.6461 0.8781
-17.6259 -28.3938 -1.6949 0.8747
-17.7580 -29.9325 -1.7650 0.8699
-17.7859 -31.4002 -1.8301 0.8654
-17.4539 -33.9238 -1.9348 0.8583
-17.4605 -35.6809 -2.0146 0.8529
-17.4676 -37.5899 -2.1021 0.8470
-17.4754 -39.6733 -2.1985 0.8406
-16.2764 -43.9554 -2.3771 0.8288
-12.5298 -48.2283 -2.5271 0.8191
-11.5544 -48.4536 -2.5262 0.8191
-7.6166 -49.1552 -2.5226 0.8194
-6.6251 -49.2803 -2.5217 0.8194
-5.6317 -49.3855 -2.5208 0.8195
-2.6437 -49.5798 -2.5180 0.8197
-0.6494 -49.6085 -2.5161 0.8198
2.3373 -49.5007 -2.5132 0.8200
3.3300 -49.4247 -2.5122 0.8200
4.3083 -49.1886 -2.5041 0.8206
5.9104 -46.0878 -2.3564 0.8302
5.7289 -30.1426 -1.5560 0.8844
10.1654 -43.8099 -2.2808 0.8352
9.1839 -36.2551 -1.8967 0.8609
12.1735 -35.7203 -1.9138 0.8597
12.2624 -29.9398 -1.6408 0.8785
21.3694 -10.1648 -1.7351 0.9095
21.2761 -9.6012 -1.7115 0.9106
23.2913 -8.8636 -1.8272 0.9049
24.7336 -8.8479 -1.9261 0.9000
27.9834 -9.3807 -2.1640 0.8884
28.3095 -8.8615 -2.1750 0.8878
32.3920 -9.4292 -2.4736 0.8734
32.5704 -8.7753 -2.4733 0.8735
32.7356 -8.1181 -2.4730 0.8735
32.8879 -7.4579 -2.4726 0.8735
33.3645 -4.7914 -2.4715 0.8736
33.5230 -3.4465 -2.4709 0.8736
33.5823 -2.7721 -2.4707 0.8736
33.6282 -2.0967 -2.4705 0.8736
33.6606 -1.4205 -2.4703 0.8736
33.6795 -0.7440 -2.4701 0.8736
33.6214 1.9616 -2.4694 0.8736
33.5733 2.6365 -2.4692 0.8737
33.3491 4.6534 -2.4689 0.8737
33.1331 5.9890 -2.4688 0.8737
32.8646 7.3149 -2.4687 0.8737
32.2833 7.8694 -2.4364 0.8752
30.5613 8.1034 -2.3183 0.8809
29.1252 10.9509 -2.2815 0.8827
28.9001 11.5342 -2.2815 0.8827
28.5331 12.7392 -2.2912 0.8822
28.3358 14.0424 -2.3188 0.8809
27.8033 15.1991 -2.3233 0.8807
27.5189 15.7698 -2.3256 0.8805
27.2227 16.3352 -2.3278 0.8804
26.9148 16.8949 -2.3300 0.8803
26.2641 17.9966 -2.3345 0.8801
25.9217 18.5380 -2.3367 0.8800
25.2030 19.6009 -2.3410 0.8798
14.5612 11.8015 -1.3743 0.9276
13.3253 11.7174 -1.3011 0.9313
12.7980 11.7180 -1.2723 0.9328
11.8095 11.7191 -1.2199 0.9354
11.3448 11.7196 -1.1960 0.9367
10.8978 11.7200 -1.1734 0.9378
10.4514 11.7028 -1.1505 0.9390
10.0073 11.6693 -1.1272 0.9402
9.5931 11.6521 -1.1066 0.9413
8.8074 11.6191 -1.0690 0.9432
8.4338 11.6033 -1.0518 0.9441
8.0718 11.5879 -1.0355 0.9449
7.7207 11.5728 -1.0200 0.9457
7.3797 11.5581 -1.0055 0.9465
9.3390 16.0102 -1.3590 0.9284
9.6801 19.1614 -1.5741 0.9175
9.4869 20.8171 -1.6774 0.9123
12.9107 29.9083 -2.3885 0.8775
12.3152 30.1809 -2.3901 0.8774
11.7136 30.4412 -2.3916 0.8774
11.1065 30.6890 -2.3930 0.8773
10.4939 30.9241 -2.3944 0.8772
9.8762 31.1464 -2.3958 0.8772
7.9949 31.7359 -2.3996 0.8770
7.3595 31.9062 -2.4009 0.8769
6.7203 32.0633 -2.4020 0.8769
4.7832 32.4539 -2.4053 0.8767
4.1319 32.5568 -2.4063 0.8767
2.8229 32.7219 -2.4082 0.8766
2.1658 32.7838 -2.4090 0.8765
0.1872 32.8861 -2.4113 0.8764
-1.1346 32.8845 -2.4126 0.8764
-2.4558 32.8276 -2.4137 0.8763
-3.1154 32.7784 -2.4142 0.8763
-3.7740 32.7150 -2.4146 0.8763
-5.7402 32.4416 -2.4156 0.8762
-3.2664 14.9357 -1.1210 0.9405
-3.2814 13.6811 -1.0316 0.9451
-3.1564 12.0844 -0.9158 0.9511
-3.6413 11.9544 -0.9163 0.9511
-4.5642 13.0749 -1.0154 0.9460
-4.8751 13.1129 -1.0258 0.9454
-8.7540 20.9310 -1.6635 0.9130
-9.2528 20.9319 -1.6780 0.9123
-5.7631 11.7382 -0.9588 0.9489
-6.3610 11.7388 -0.9790 0.9479
-6.6696 11.7392 -0.9900 0.9473
-7.3090 11.7399 -1.0140 0.9460
-7.9812 11.7406 -1.0409 0.9447
-9.4451 11.7422 -1.1049 0.9414
-9.8405 11.7427 -1.1234 0.9404
-12.0436 11.7451 -1.2335 0.9348
-12.4924 11.7024 -1.2551 0.9337
-12.9501 11.6517 -1.2773 0.9325
-14.5055 11.5487 -1.3595 0.9283
-15.5870 11.4176 -1.4167 0.9254
-17.4738 11.7511 -1.5440 0.9190
-18.2567 11.7520 -1.5920 0.9166
-19.9472 11.7345 -1.6969 0.9114
-25.5544 11.7601 -2.0626 0.8933
-30.4266 11.1390 -2.3757 0.8781
-30.6490 10.5271 -2.3761 0.8781
-31.4137 8.0375 -2.3775 0.8781
-31.5732 7.4058 -2.3778 0.8780
-31.7198 6.7709 -2.3782 0.8780
-33.9443 5.8310 -2.5253 0.8710
-34.1625 5.1642 -2.5333 0.8706
-34.2632 4.4773 -2.5336 0.8706
-34.5256 1.7130 -2.5346 0.8705
-34.3730 -3.8365 -2.5360 0.8705
-34.2905 -4.5265 -2.5361 0.8705
-34.1939 -5.2147 -2.5362 0.8705
-33.8203 -7.2655 -2.5364 0.8705
-33.1288 -9.9573 -2.5364 0.8705
-29.4880 -13.6171 -2.3815 0.8779
-24.6923 -12.0101 -2.0133 0.8957
-28.9144 -14.7892 -2.3813 0.8779
-27.2414 -16.0736 -2.3192 0.8809
-25.7055 -15.8720 -2.2151 0.8859
-24.8477 -16.0407 -2.1685 0.8881
-23.0912 -16.9609 -2.1007 0.8914
-21.9774 -17.5445 -2.0619 0.8933
-21.4353 -17.8285 -2.0443 0.8942
-20.3776 -18.3826 -2.0122 0.8958
-19.8606 -18.6535 -1.9978 0.8965
-18.6119 -21.3807 -2.0784 0.8925
-18.2028 -22.6905 -2.1329 0.8899
-17.5454 -24.7950 -2.2272 0.8853
-17.4225 -25.7013 -2.2766 0.8829
-17.4268 -26.8537 -2.3472 0.8795
-16.5129 -27.8337 -2.3730 0.8783
-14.7977 -28.7610 -2.3716 0.8783
-14.5025 -29.6362 -2.4192 0.8761
-14.4666 -31.1319 -2.5171 0.8714
-13.8754 -31.5006 -2.5238 0.8711
-11.9450 -32.2582 -2.5222 0.8711
-9.9734 -32.8967 -2.5205 0.8712
-7.9681 -33.4142 -2.5187 0.8713
-7.2934 -33.5595 -2.5181 0.8713
-6.6161 -33.6910 -2.5175 0.8714
-5.9365 -33.8089 -2.5169 0.8714
-4.5713 -34.0030 -2.5156 0.8714
-3.8863 -34.0795 -2.5150 0.8715
-3.2000 -34.1420 -2.5143 0.8715
-0.4484 -34.2532 -2.5117 0.8716
0.2397 -34.2463 -2.5111 0.8717
2.9850 -34.0803 -2.5084 0.8718
3.6681 -34.0043 -2.5077 0.8718
4.3378 -33.8253 -2.5005 0.8722
5.9906 -31.5194 -2.3524 0.8793
8.4923 -30.9031 -2.3499 0.8794
9.1089 -30.7179 -2.3492 0.8794
10.9338 -30.0889 -2.3473 0.8795
22.0989 -8.9221 -2.2880 0.9087
24.5009 -8.2133 -2.4809 0.9014
24.6581 -7.7185 -2.4806 0.9014
25.0702 -6.2172 -2.4798 0.9014
25.2947 -5.2040 -2.4793 0.9014
25.6782 -2.6400 -2.4782 0.9015
25.7241 -2.1234 -2.4780 0.9015
25.6170 3.0512 -2.4767 0.9015
25.5498 3.5652 -2.4767 0.9015
25.1791 5.6043 -2.4765 0.9015
25.0612 6.1089 -2.4764 0.9015
24.9333 6.6111 -2.4764 0.9015
23.6859 7.8351 -2.3951 0.9046
22.8411 8.0683 -2.3256 0.9072
22.6748 8.5256 -2.3257 0.9072
22.3149 9.4300 -2.3258 0.9072
22.1216 9.8767 -2.3258 0.9072
21.9194 10.3194 -2.3259 0.9072
21.4888 11.1925 -2.3261 0.9072
21.0238 12.0478 -2.3263 0.9072
20.2633 13.2945 -2.3267 0.9072
19.9934 13.6998 -2.3268 0.9072
19.7191 14.1022 -2.3274 0.9072
15.2889 11.8905 -1.8595 0.9251
12.7981 11.7181 -1.6659 0.9326
11.8096 11.7192 -1.5973 0.9353
9.9684 11.6239 -1.4701 0.9403
9.5242 11.5683 -1.4386 0.9416
8.7462 11.5384 -1.3900 0.9435
8.3761 11.5240 -1.3677 0.9444
7.6696 11.4961 -1.3268 0.9460
6.9667 11.4102 -1.2835 0.9477
9.5445 16.3625 -1.8186 0.9267
9.7695 22.6315 -2.3665 0.9057
4.5192 11.7445 -1.2081 0.9507
3.9852 11.7440 -1.1906 0.9514
3.7246 11.7463 -1.1830 0.9517
3.4686 11.7535 -1.1765 0.9519
3.2263 11.8009 -1.1745 0.9520
5.5619 24.1131 -2.3758 0.9053
3.1210 24.5911 -2.3798 0.9052
2.1318 24.7111 -2.3812 0.9051
1.6354 24.7555 -2.3818 0.9051
1.1381 24.7897 -2.3824 0.9051
0.6400 24.8134 -2.3830 0.9051
-0.3575 24.8299 -2.3840 0.9050
-1.3552 24.8046 -2.3849 0.9050
-1.8535 24.7765 -2.3853 0.9050
-2.8481 24.6892 -2.3860 0.9050
-3.3440 24.6299 -2.3863 0.9049
-3.2664 14.9358 -1.4678 0.9404
-3.1202 11.9458 -1.1853 0.9516
-3.3225 11.7495 -1.1722 0.9521
-3.5775 11.7450 -1.1787 0.9519
-4.5642 13.0750 -1.3295 0.9459
-4.8611 13.0753 -1.3392 0.9455
-8.7579 20.9402 -2.1791 0.9128
-7.3090 11.7400 -1.3277 0.9459
-7.6407 11.7404 -1.3448 0.9453
-9.0624 11.7419 -1.4240 0.9421
-9.4452 11.7423 -1.4468 0.9412
-9.8405 11.7428 -1.4709 0.9403
-11.1124 11.7442 -1.5522 0.9371
-12.9166 11.6216 -1.6681 0.9326
-13.3540 11.5382 -1.6943 0.9315
-15.3356 11.2335 -1.8250 0.9265
-15.7966 11.0906 -1.8530 0.9254
-17.4740 11.7513 -2.0217 0.9189
-19.0904 11.7531 -2.1523 0.9139
-21.4970 12.0716 -2.3670 0.9057
-21.7384 11.6390 -2.3673 0.9057
-22.1947 10.7594 -2.3680 0.9056
-23.1770 8.4849 -2.3695 0.9056
-23.3456 8.0186 -2.3698 0.9056
-23.5047 7.5488 -2.3701 0.9056
-24.8288 7.4272 -2.4881 0.9011
-25.6049 6.0058 -2.5249 0.8997
-25.8306 4.9734 -2.5254 0.8997
-25.9277 4.4539 -2.5256 0.8997
-26.0142 3.9325 -2.5259 0.8997
-26.3102 0.7759 -2.5270 0.8996
-26.3220 0.2472 -2.5272 0.8996
-26.3136 -0.8105 -2.5274 0.8996
-26.2933 -1.3390 -2.5276 0.8996
-26.2623 -1.8670 -2.5277 0.8996
-26.1050 -3.4460 -2.5279 0.8996
-25.6949 -4.9821 -2.5128 0.9002
-25.5038 -6.5609 -2.5282 0.8996
-25.3670 -7.0720 -2.5282 0.8996
-25.2197 -7.5801 -2.5282 0.8996
-25.0622 -8.0852 -2.5282 0.8996
-24.8945 -8.5870 -2.5282 0.8996
-24.5286 -9.5798 -2.5281 0.8996
-24.3307 -10.0704 -2.5280 0.8996
-24.1228 -10.5569 -2.5280 0.8996
-23.6157 -11.4865 -2.5212 0.8999
-22.7545 -11.6386 -2.4537 0.9024
-21.2917 -12.5630 -2.3734 0.9054
-19.9181 -14.6302 -2.3727 0.9055
-18.6732 -16.1767 -2.3719 0.9055
-18.3428 -16.5471 -2.3717 0.9055
-18.0050 -16.9107 -2.3714 0.9055
-17.6599 -17.2672 -2.3712 0.9055
-17.3077 -17.6168 -2.3710 0.9055
-16.9485 -17.9590 -2.3707 0.9055
-15.4449 -19.2528 -2.3696 0.9056
-14.4837 -20.4682 -2.4073 0.9042
-14.4594 -21.3302 -2.4740 0.9016
-14.2726 -21.9933 -2.5171 0.9000
-13.3980 -22.5834 -2.5210 0.8999
-12.9398 -22.8447 -2.5206 0.8999
-12.4764 -23.0966 -2.5202 0.8999
-12.0080 -23.3391 -2.5198 0.8999
-11.5350 -23.5720 -2.5195 0.8999
-10.5754 -24.0087 -2.5187 0.8999
-9.1054 -24.5899 -2.5174 0.9000
-8.1075 -24.9273 -2.5165 0.9000
-7.0971 -25.2240 -2.5157 0.9001
-6.0759 -25.4795 -2.5147 0.9001
-5.0456 -25.6936 -2.5138 0.9001
-4.0079 -25.8658 -2.5129 0.9002
-2.9644 -25.9959 -2.5119 0.9002
-2.4411 -26.0452 -2.5114 0.9002
-1.3924 -26.1120 -2.5104 0.9003
-0.8673 -26.1295 -2.5099 0.9003
-0.3422 -26.1364 -2.5094 0.9003
1.2321 -26.0938 -2.5079 0.9003
2.7999 -25.9563 -2.5064 0.9004
4.3449 -25.6612 -2.4987 0.9007
4.5739 -24.0657 -2.3518 0.9063
5.0554 -23.9640 -2.3513 0.9063
7.4255 -23.3120 -2.3489 0.9064
8.3525 -22.9853 -2.3479 0.9064
19.2442 -8.2230 -2.4859 0.9192
19.6986 -7.0467 -2.4851 0.9192
19.8343 -6.6489 -2.4849 0.9192
20.3922 -4.6243 -2.4838 0.9192
20.6291 -3.3868 -2.4833 0.9192
20.6915 -2.9715 -2.4831 0.9192
20.7457 -2.5550 -2.4829 0.9192
20.8955 -0.0417 -2.4821 0.9193
20.8785 0.7977 -2.4819 0.9193
20.8575 1.2169 -2.4818 0.9193
20.7444 2.4708 -2.4816 0.9193
20.5566 3.7157 -2.4814 0.9193
20.3902 4.5384 -2.4813 0.9193
20.1912 5.3537 -2.4813 0.9193
19.9599 6.1605 -2.4813 0.9193
19.8322 6.5603 -2.4813 0.9193
19.6966 6.9575 -2.4813 0.9193
19.3526 7.7237 -2.4751 0.9195
17.7500 8.3565 -2.3304 0.9240
17.5791 8.7117 -2.3305 0.9240
17.4011 9.0634 -2.3306 0.9240
17.2161 9.4115 -2.3307 0.9240
17.0242 9.7558 -2.3307 0.9240
