ply
format ascii 1.0
element vertex 1528
property float32 x
property float32 y
property float32 z
property float32 I
end_header
-32.5703 11.8129 -0.1951 0.8706
-34.6122 11.7714 -0.2058 0.8640
-37.3642 11.8746 -0.2207 0.8549
-43.1241 11.8185 -0.2517 0.8362
-68.6198 11.5625 -0.3918 0.7570
-70.0099 8.9188 -0.3973 0.7540
-77.0004 6.6762 -0.4351 0.7341
-62.2930 -5.9051 -0.3523 0.7786
-62.4411 -7.1888 -0.3539 0.7777
-71.3930 -9.6779 -0.4056 0.7496
-77.9686 -27.2168 -0.4650 0.7187
-76.9115 -28.5955 -0.4620 0.7202
-77.4847 -30.5959 -0.4690 0.7166
-77.4451 -32.3953 -0.4726 0.7148
-28.0464 -17.4696 -0.1860 0.8762
-39.3960 -26.7961 -0.2683 0.8265
-26.6239 -18.9030 -0.1838 0.8776
-25.6021 -18.9633 -0.1794 0.8803
-25.2379 -20.3147 -0.1824 0.8785
-33.9698 -28.4878 -0.2496 0.8375
-32.6197 -28.4922 -0.2438 0.8409
-32.6502 -30.9198 -0.2532 0.8354
-21.7023 -21.3961 -0.1716 0.8852
-20.7885 -22.2132 -0.1713 0.8854
-25.2247 -30.4422 -0.2226 0.8537
-20.6318 -27.0430 -0.1915 0.8728
-20.4546 -30.4580 -0.2066 0.8635
-19.5794 -30.4608 -0.2039 0.8652
-18.7373 -30.4815 -0.2014 0.8666
-18.7420 -31.9103 -0.2084 0.8624
-18.7471 -33.4412 -0.2158 0.8578
-18.7525 -35.0870 -0.2240 0.8529
-18.7584 -36.8626 -0.2329 0.8475
-13.4125 -30.8268 -0.1893 0.8742
-13.3529 -36.5743 -0.2192 0.8558
-13.3733 -44.8604 -0.2636 0.8292
-13.3812 -52.5151 -0.3051 0.8051
20.0876 -84.5822 -0.4894 0.7063
15.1634 -46.7544 -0.2767 0.8215
10.4466 -30.1319 -0.1796 0.8802
15.1818 -41.1001 -0.2467 0.8392
18.3652 -35.7544 -0.2263 0.8515
19.2868 -35.7603 -0.2288 0.8500
19.1886 -32.3892 -0.2120 0.8602
19.1933 -30.9600 -0.2051 0.8644
19.1978 -29.6200 -0.1987 0.8683
19.2096 -26.0500 -0.1822 0.8786
19.2131 -24.9868 -0.1775 0.8815
19.2165 -23.9774 -0.1730 0.8843
19.2197 -23.0172 -0.1688 0.8870
19.2256 -21.2274 -0.1612 0.8918
20.7064 -21.0919 -0.1664 0.8885
23.3759 -21.1008 -0.1773 0.8816
24.3465 -21.1040 -0.1814 0.8791
31.3156 -21.1271 -0.2127 0.8598
35.8223 -21.1420 -0.2342 0.8467
37.5366 -21.1477 -0.2426 0.8417
39.3788 -21.1538 -0.2517 0.8363
36.1357 -17.5770 -0.2256 0.8515
37.5296 -17.3310 -0.2327 0.8476
34.4573 -15.0790 -0.2118 0.8603
36.6055 -15.1495 -0.2231 0.8534
69.0332 -22.2619 -0.4084 0.7482
78.4477 -21.8572 -0.4585 0.7220
75.2710 -11.4579 -0.4287 0.7374
80.3925 12.2001 -0.4578 0.7223
65.4700 16.7984 -0.3806 0.7631
37.5790 11.2708 -0.2209 0.8548
47.0923 17.2818 -0.2824 0.8182
44.9830 20.7481 -0.2789 0.8202
40.7968 22.9600 -0.2636 0.8292
18.1215 11.6907 -0.1214 0.9174
17.3493 11.6932 -0.1178 0.9197
15.2383 11.6659 -0.1080 0.9261
14.0323 11.6667 -0.1027 0.9296
12.3908 11.6348 -0.0957 0.9343
11.9037 11.6367 -0.0937 0.9356
11.4870 11.6902 -0.0923 0.9365
21.7305 23.0234 -0.1782 0.8811
20.8739 23.0262 -0.1750 0.8831
19.6792 23.5457 -0.1728 0.8845
19.7829 24.6612 -0.1780 0.8812
19.7900 26.8116 -0.1876 0.8752
20.2000 29.8049 -0.2027 0.8659
19.2252 37.3868 -0.2367 0.8452
19.0399 38.9324 -0.2440 0.8408
16.4478 39.5053 -0.2409 0.8427
15.5244 39.5084 -0.2390 0.8438
14.6153 39.5114 -0.2372 0.8449
12.8172 39.4590 -0.2336 0.8471
13.9066 49.5061 -0.2895 0.8141
11.8820 49.9301 -0.2890 0.8144
11.9131 68.0559 -0.3890 0.7585
8.2041 61.2877 -0.3481 0.7809
0.9562 13.1232 -0.0741 0.9487
0.1489 12.0038 -0.0676 0.9531
-0.0952 12.3440 -0.0695 0.9518
-3.2189 67.1062 -0.3783 0.7643
-4.6415 68.1109 -0.3844 0.7610
-1.0389 11.7542 -0.0664 0.9539
-1.2776 11.7550 -0.0666 0.9538
-1.5175 11.7558 -0.0667 0.9537
-2.0013 11.7574 -0.0671 0.9534
-2.4918 11.7590 -0.0677 0.9531
-2.9910 11.7607 -0.0683 0.9526
-3.2444 11.7615 -0.0687 0.9524
-4.0227 11.7641 -0.0700 0.9515
-1.6190 11.7561 -0.3342 0.9536
-1.8608 11.7569 -0.3352 0.9535
-2.1041 11.7577 -0.3363 0.9533
-2.5963 11.7594 -0.3391 0.9530
-2.8457 11.7602 -0.3407 0.9527
-3.0975 11.7610 -0.3425 0.9525
-3.3521 11.7619 -0.3444 0.9522
-3.6003 11.7325 -0.3456 0.9521
-4.1347 11.7644 -0.3511 0.9513
-4.4027 11.7653 -0.3537 0.9510
-4.6749 11.7662 -0.3565 0.9506
-5.5194 11.7690 -0.3660 0.9493
-5.8115 11.7700 -0.3696 0.9488
-6.4136 11.7720 -0.3775 0.9478
-6.7247 11.7730 -0.3818 0.9472
-8.0279 11.7492 -0.4007 0.9446
-9.8516 11.6969 -0.4306 0.9406
-11.6725 11.7894 -0.4671 0.9358
-13.1781 11.7944 -0.4980 0.9317
-13.7259 11.7962 -0.5096 0.9301
-14.3001 11.7982 -0.5220 0.9285
-15.5277 11.7945 -0.5491 0.9249
-16.1512 11.7634 -0.5626 0.9232
-16.8137 11.7359 -0.5774 0.9212
-17.5347 11.7219 -0.5939 0.9191
-22.2375 11.8245 -0.7092 0.9041
-23.2894 11.7893 -0.7350 0.9008
-34.3688 11.6886 -1.0222 0.8648
-37.6227 11.1288 -1.1047 0.8547
-40.7148 10.2826 -1.1824 0.8453
-48.9854 11.3285 -1.4157 0.8178
-68.0487 14.3018 -1.9580 0.7571
-68.1550 11.4842 -1.9462 0.7584
-61.7115 7.8616 -1.7517 0.7796
-84.4687 5.6150 -2.3837 0.7127
-84.5768 3.9157 -2.3841 0.7126
-84.6179 2.2136 -2.3835 0.7127
-84.4839 0.5105 -2.3789 0.7131
-84.4793 -1.1886 -2.3790 0.7131
-55.3841 -1.8937 -1.5604 0.8011
-56.3745 -3.0637 -1.5897 0.7978
-57.4655 -4.2835 -1.6226 0.7941
-58.3108 -5.5276 -1.6493 0.7911
-60.5579 -8.2091 -1.7208 0.7831
-61.5083 -9.6013 -1.7529 0.7795
-64.9610 -14.1982 -1.8723 0.7664
-66.8810 -17.4630 -1.9464 0.7584
-67.8847 -19.1914 -1.9864 0.7541
-62.5169 -20.4221 -1.8519 0.7686
-64.6237 -22.5584 -1.9273 0.7604
-72.0855 -26.8012 -2.1655 0.7351
-72.5933 -28.6644 -2.1977 0.7318
-74.0156 -34.5206 -2.2997 0.7212
-73.3244 -36.0108 -2.3002 0.7212
-71.8539 -38.9502 -2.3014 0.7210
-25.1965 -16.4068 -0.8466 0.8866
-23.9158 -16.2669 -0.8144 0.8907
-22.6613 -16.0896 -0.7826 0.8947
-21.5119 -15.9337 -0.7538 0.8984
-20.1923 -16.2534 -0.7299 0.9015
-19.8234 -16.6243 -0.7285 0.9017
-18.9599 -17.2453 -0.7217 0.9025
-18.3600 -17.3870 -0.7120 0.9038
-17.9446 -17.6915 -0.7096 0.9041
-17.3484 -17.8057 -0.7000 0.9053
-16.8432 -17.9976 -0.6941 0.9061
-15.9333 -18.4604 -0.6866 0.9070
-15.7058 -18.9544 -0.6931 0.9062
-14.4996 -19.8194 -0.6915 0.9064
-14.1951 -21.1372 -0.7169 0.9031
-13.9980 -21.7776 -0.7290 0.9016
-13.5244 -24.1249 -0.7788 0.8952
-13.1517 -24.6076 -0.7857 0.8944
-12.9154 -25.3803 -0.8019 0.8923
-12.9807 -28.2665 -0.8758 0.8830
-13.0902 -30.0859 -0.9239 0.8770
-13.0563 -33.6457 -1.0162 0.8655
-13.0018 -37.9659 -1.1300 0.8516
-13.0321 -43.7159 -1.2845 0.8332
-13.0716 -47.3031 -1.3819 0.8217
-14.1632 -66.6867 -1.9196 0.7612
-12.7690 -74.8117 -2.1370 0.7381
-10.7053 -82.6364 -2.3463 0.7165
-7.8599 -88.4724 -2.5010 0.7009
-0.7265 -88.9950 -2.5060 0.7004
1.0639 -89.0354 -2.5072 0.7003
2.8556 -89.0406 -2.5085 0.7001
9.4107 -83.2939 -2.3603 0.7150
16.1049 -82.4283 -2.3649 0.7146
19.4251 -81.7924 -2.3672 0.7143
10.1128 -33.4601 -0.9843 0.8695
17.4627 -35.7485 -1.1203 0.8528
20.2289 -35.7664 -1.1570 0.8484
19.1928 -30.9591 -1.0257 0.8644
19.2054 -27.1717 -0.9369 0.8753
19.2160 -23.9768 -0.8652 0.8843
11.8601 -13.6364 -0.5089 0.9302
20.7063 -21.0919 -0.8323 0.8885
23.3759 -21.1007 -0.8867 0.8816
28.7387 -21.1185 -1.0042 0.8670
29.9900 -21.1226 -1.0329 0.8635
32.7231 -21.1317 -1.0968 0.8557
34.1732 -21.1066 -1.1310 0.8515
35.8222 -21.1420 -1.1713 0.8467
36.2809 -16.7543 -1.1253 0.8522
36.5388 -15.1219 -1.1135 0.8536
34.4254 -10.3420 -1.0121 0.8660
34.4286 -9.5926 -1.0064 0.8667
36.1105 -9.2828 -1.0499 0.8614
83.2323 -19.6206 -2.4079 0.7102
44.8380 -9.6223 -1.2913 0.8323
73.5789 -11.2003 -2.0957 0.7424
90.5275 -10.0753 -2.5648 0.6946
91.0769 -0.9367 -2.5647 0.6946
91.0322 2.7262 -2.5644 0.6946
90.9530 4.5560 -2.5643 0.6946
90.8371 6.3837 -2.5641 0.6946
55.5042 6.1518 -1.5725 0.7997
83.1678 12.6212 -2.3686 0.7142
84.1787 16.2617 -2.4141 0.7096
84.0548 17.9983 -2.4205 0.7089
70.9986 16.7026 -2.0537 0.7469
60.0834 16.7110 -1.7560 0.7791
35.6907 10.7044 -1.0492 0.8615
36.4031 11.7210 -1.0769 0.8581
36.3340 12.5106 -1.0820 0.8575
44.8715 17.4985 -1.3562 0.8247
44.9786 19.6590 -1.3822 0.8217
44.7856 21.7597 -1.4020 0.8193
42.5905 22.8541 -1.3610 0.8241
40.6203 22.8606 -1.3125 0.8298
38.9748 22.9786 -1.2740 0.8344
18.9430 11.6880 -0.6268 0.9148
17.3494 11.6933 -0.5891 0.9197
15.2382 11.6658 -0.5404 0.9261
13.9995 11.6395 -0.5126 0.9297
13.4433 11.6421 -0.5008 0.9313
12.8828 11.6183 -0.4885 0.9329
12.3453 11.5921 -0.4768 0.9345
11.8525 11.5866 -0.4667 0.9358
11.4869 11.6901 -0.4615 0.9365
21.6365 22.9237 -0.8876 0.8815
19.6820 24.5354 -0.8857 0.8817
19.6891 26.6748 -0.9336 0.8758
19.9991 29.5084 -1.0037 0.8671
19.9813 30.7982 -1.0337 0.8634
19.2186 35.5951 -1.1390 0.8505
19.2245 37.3855 -1.1837 0.8452
17.3867 39.5022 -1.2153 0.8414
15.5245 39.5084 -1.1953 0.8438
13.7197 39.5144 -1.1778 0.8459
12.8171 39.4588 -1.1682 0.8470
11.1347 39.6382 -1.1593 0.8481
12.8266 49.4609 -1.4388 0.8151
11.1253 51.3108 -1.4784 0.8105
13.4259 68.5510 -1.9669 0.7561
10.5852 68.5604 -1.9534 0.7576
1.4843 13.0838 -0.3708 0.9487
1.2219 13.1223 -0.3711 0.9486
0.9562 13.1232 -0.3705 0.9487
0.6913 13.1241 -0.3701 0.9488
0.1489 12.0036 -0.3380 0.9531
-0.0952 12.3437 -0.3476 0.9518
-0.3533 12.6970 -0.3577 0.9504
-1.0389 11.7542 -0.3323 0.9539
-1.5175 11.7558 -0.3338 0.9537
-2.7402 11.7598 -0.3400 0.9528
-2.9910 11.7607 -0.3417 0.9526
-3.2444 11.7615 -0.3435 0.9524
-20.3457 68.3632 -2.0084 0.7517
-3.7600 11.7632 -0.3477 0.9518
-4.0228 11.7641 -0.3501 0.9515
-1.8608 11.7569 -0.6037 0.9534
-2.5963 11.7594 -0.6107 0.9529
-2.8457 11.7602 -0.6136 0.9527
-3.6003 11.7322 -0.6224 0.9520
-3.8704 11.7636 -0.6280 0.9516
-4.6749 11.7662 -0.6421 0.9506
-4.9515 11.7672 -0.6474 0.9502
-5.5195 11.7691 -0.6592 0.9493
-6.1094 11.7710 -0.6726 0.9483
-6.7247 11.7731 -0.6876 0.9471
-7.0431 11.7741 -0.6958 0.9465
-7.3675 11.7724 -0.7043 0.9459
-7.6968 11.7657 -0.7130 0.9452
-8.0280 11.7492 -0.7217 0.9446
-9.0750 11.6990 -0.7509 0.9424
-10.2235 11.6545 -0.7862 0.9398
-10.6264 11.6333 -0.7991 0.9388
-11.0450 11.6138 -0.8128 0.9378
-11.6726 11.7895 -0.8414 0.9357
-12.6546 11.7927 -0.8772 0.9331
-13.1781 11.7944 -0.8969 0.9316
-14.3001 11.7982 -0.9402 0.9284
-14.9032 11.8002 -0.9640 0.9267
-16.7968 11.7241 -1.0388 0.9212
-17.4758 11.6825 -1.0661 0.9193
-20.2191 11.8178 -1.1877 0.9105
-21.1917 11.8210 -1.2306 0.9074
-24.5895 11.8323 -1.3839 0.8965
-27.3127 11.8147 -1.5092 0.8876
-29.9024 11.5308 -1.6253 0.8795
-32.1854 11.6733 -1.7363 0.8719
-35.6897 11.3424 -1.8992 0.8607
-37.6260 10.3117 -1.9785 0.8553
-40.1346 10.1360 -2.0993 0.8472
-44.7664 10.3527 -2.3302 0.8319
-44.9163 9.4400 -2.3277 0.8321
-36.3950 6.8880 -1.8785 0.8621
-36.0915 6.0814 -1.8562 0.8636
-35.7951 5.2936 -1.8351 0.8651
-45.5211 3.9469 -2.3172 0.8328
-45.6772 1.1949 -2.3173 0.8328
-45.6929 0.2761 -2.3173 0.8328
-45.6903 -0.6429 -2.3174 0.8328
-45.6694 -1.5616 -2.3174 0.8328
-48.0419 -3.5810 -2.4432 0.8245
-48.4494 -4.5928 -2.4681 0.8229
-48.2305 -6.5380 -2.4683 0.8229
-48.0923 -7.5071 -2.4685 0.8229
-47.7581 -9.4362 -2.4688 0.8229
-47.5624 -10.3955 -2.4690 0.8228
-47.1139 -12.3017 -2.4694 0.8228
-46.8613 -13.2479 -2.4697 0.8228
-46.5900 -14.1890 -2.4699 0.8228
-45.6645 -16.9779 -2.4707 0.8227
-44.9557 -18.8050 -2.4713 0.8227
-44.5741 -19.7077 -2.4716 0.8227
-44.1747 -20.6029 -2.4720 0.8227
-43.7574 -21.4900 -2.4723 0.8226
-29.8014 -17.7410 -1.7589 0.8703
-22.6441 -16.0774 -1.4084 0.8947
-18.7758 -17.0779 -1.2872 0.9033
-18.2995 -17.3297 -1.2782 0.9040
-14.7521 -19.3362 -1.2334 0.9072
-14.4927 -19.8099 -1.2448 0.9064
-14.3874 -20.5196 -1.2709 0.9045
-14.1786 -21.1127 -1.2898 0.9032
-14.0506 -21.8594 -1.3178 0.9012
-13.0283 -26.9287 -1.5171 0.8871
-12.9839 -28.2735 -1.5778 0.8828
-13.0016 -29.8824 -1.6527 0.8776
-12.7937 -35.0428 -1.8919 0.8612
-11.4109 -44.7823 -2.3437 0.8310
-10.5108 -45.0149 -2.3443 0.8310
-9.9260 -46.7359 -2.4230 0.8258
-9.2612 -48.3731 -2.4978 0.8210
-7.3125 -48.7331 -2.4991 0.8209
-6.3328 -48.8839 -2.4998 0.8208
-4.3644 -49.1260 -2.5012 0.8208
-3.3765 -49.2174 -2.5019 0.8207
-2.3867 -49.2890 -2.5026 0.8207
-1.3954 -49.3406 -2.5033 0.8206
-0.4030 -49.3723 -2.5040 0.8206
0.5901 -49.3840 -2.5047 0.8205
1.5835 -49.3757 -2.5053 0.8205
2.5768 -49.3474 -2.5060 0.8204
3.5697 -49.2990 -2.5067 0.8204
6.5411 -49.0343 -2.5088 0.8203
7.5279 -48.9060 -2.5094 0.8202
8.5121 -48.7577 -2.5101 0.8202
9.8335 -45.4530 -2.3584 0.8301
10.3759 -40.0856 -2.0999 0.8472
10.4537 -30.1525 -1.6185 0.8800
13.7852 -37.3194 -2.0176 0.8527
14.2344 -36.2738 -1.9762 0.8555
15.3799 -34.9862 -1.9382 0.8581
17.4627 -35.7484 -2.0177 0.8527
16.9472 -29.9641 -1.7458 0.8712
19.1874 -32.3872 -1.9091 0.8600
16.7747 -23.7329 -1.4739 0.8901
16.7682 -22.7393 -1.4328 0.8930
19.2122 -24.9855 -1.5984 0.8814
19.2155 -23.9762 -1.5583 0.8842
19.2187 -23.0160 -1.5207 0.8868
19.2247 -21.2264 -1.4524 0.8916
19.8868 -21.0891 -1.4700 0.8904
21.5591 -21.0947 -1.5297 0.8862
24.3464 -21.1039 -1.6340 0.8789
25.3634 -21.1073 -1.6734 0.8762
27.3069 -19.2328 -1.6939 0.8748
34.2435 -20.2102 -2.0165 0.8528
39.1822 -21.0482 -2.2557 0.8368
34.4317 -17.6133 -1.9614 0.8565
34.9841 -17.0172 -1.9730 0.8557
43.3653 -17.9471 -2.3801 0.8286
27.2914 -10.0295 -1.4746 0.8901
27.3457 -9.4297 -1.4669 0.8906
32.8663 -9.1573 -1.7303 0.8723
46.8157 -9.0660 -2.4183 0.8261
49.4391 -7.5257 -2.5362 0.8185
49.5814 -6.5301 -2.5362 0.8185
49.7033 -5.5318 -2.5362 0.8185
49.8047 -4.5312 -2.5362 0.8185
49.9865 -1.5198 -2.5362 0.8185
50.0060 -0.5143 -2.5361 0.8185
49.5697 6.5056 -2.5354 0.8185
49.3895 7.4952 -2.5334 0.8187
46.2604 7.9751 -2.3807 0.8286
45.2333 8.7382 -2.3364 0.8315
45.6846 10.7474 -2.3801 0.8286
44.9408 13.4787 -2.3794 0.8287
35.4387 12.2024 -1.9008 0.8606
35.4413 13.0061 -1.9146 0.8597
42.9609 19.8154 -2.3993 0.8274
41.8422 22.4525 -2.4082 0.8268
40.0904 22.5624 -2.3330 0.8317
38.7851 22.8668 -2.2834 0.8350
18.9430 11.6880 -1.1288 0.9147
18.1216 11.6907 -1.0937 0.9173
15.2380 11.6657 -0.9732 0.9260
13.9979 11.6382 -0.9232 0.9297
12.8523 11.5908 -0.8777 0.9330
11.8057 11.5409 -0.8373 0.9360
13.8650 14.6898 -1.0244 0.9223
13.8837 15.9484 -1.0723 0.9188
13.9015 16.6328 -1.0993 0.9168
14.0322 18.2318 -1.1668 0.9120
14.1334 19.1480 -1.2070 0.9091
19.7007 30.3658 -1.8357 0.8650
19.7053 31.7535 -1.8952 0.8610
19.7210 36.5256 -2.1051 0.8468
19.7270 38.3628 -2.1877 0.8413
19.0400 38.9325 -2.1979 0.8407
18.8343 40.5588 -2.2679 0.8360
17.3769 39.4799 -2.1876 0.8413
16.2006 41.2292 -2.2465 0.8374
16.9424 45.8023 -2.4766 0.8223
16.0221 46.1457 -2.4773 0.8223
11.9645 39.5218 -2.0941 0.8476
12.2709 47.3178 -2.4791 0.8222
11.3180 47.5598 -2.4793 0.8222
10.3600 47.7812 -2.4795 0.8222
9.3974 47.9816 -2.4796 0.8222
6.4866 48.4572 -2.4794 0.8222
1.4843 13.0838 -0.6678 0.9486
1.2219 13.1224 -0.6684 0.9486
0.9562 13.1232 -0.6673 0.9487
0.6913 13.1241 -0.6665 0.9487
0.4215 12.9579 -0.6575 0.9494
0.1489 12.0033 -0.6088 0.9531
-1.2776 11.7550 -0.5997 0.9537
-1.5175 11.7558 -0.6011 0.9536
-2.0013 11.7574 -0.6048 0.9534
-2.7402 11.7598 -0.6124 0.9528
-3.2444 11.7615 -0.6188 0.9523
-13.8294 46.4678 -2.4587 0.8235
-3.7600 11.7632 -0.6263 0.9517
-4.0228 11.7641 -0.6305 0.9514
-1.6190 11.7561 -0.8701 0.9535
-1.8608 11.7569 -0.8728 0.9534
-2.3492 11.7586 -0.8792 0.9530
-2.5963 11.7594 -0.8830 0.9528
-2.8457 11.7602 -0.8872 0.9526
-3.3521 11.7619 -0.8967 0.9521
-3.8704 11.7636 -0.9080 0.9515
-4.4027 11.7654 -0.9211 0.9509
-4.6749 11.7663 -0.9283 0.9505
-5.2330 11.7681 -0.9443 0.9497
-6.1094 11.7710 -0.9724 0.9482
-6.4137 11.7720 -0.9829 0.9477
-6.7247 11.7731 -0.9941 0.9471
-7.0431 11.7741 -1.0060 0.9465
-8.0245 11.7442 -1.0429 0.9445
-8.3612 11.7236 -1.0558 0.9439
-8.7064 11.7025 -1.0695 0.9432
-10.1853 11.6109 -1.1325 0.9399
-12.1534 11.7911 -1.2416 0.9343
-12.6546 11.7927 -1.2683 0.9330
-13.1782 11.7945 -1.2967 0.9315
-14.3001 11.7982 -1.3593 0.9283
-14.9032 11.8002 -1.3938 0.9266
-15.5066 11.7784 -1.4278 0.9249
-17.3211 11.5791 -1.5277 0.9198
-18.6014 11.3802 -1.5989 0.9163
-22.2377 11.8245 -1.8467 0.9039
-23.2900 11.7896 -1.9140 0.9006
-25.9203 11.8367 -2.0893 0.8920
-29.3879 12.0167 -2.3280 0.8804
-30.7737 7.7719 -2.3272 0.8805
-30.9229 7.1513 -2.3272 0.8805
-31.0597 6.5278 -2.3271 0.8805
-32.7266 4.8398 -2.4257 0.8757
-33.4854 4.2658 -2.4751 0.8734
-33.7205 2.2415 -2.4779 0.8732
-33.7951 0.2042 -2.4780 0.8732
-33.7929 -0.4755 -2.4780 0.8732
-33.7773 -1.1550 -2.4781 0.8732
-33.5791 -3.8660 -2.4784 0.8732
-33.4959 -4.5406 -2.4785 0.8732
-33.2892 -5.8844 -2.4787 0.8732
-32.8791 -7.8822 -2.4791 0.8732
-32.7159 -8.5423 -2.4792 0.8732
-32.3502 -9.8523 -2.4796 0.8732
-31.9326 -11.1468 -2.4799 0.8731
-31.4635 -12.4238 -2.4803 0.8731
-30.6589 -14.2992 -2.4805 0.8731
-27.9431 -15.1473 -2.3305 0.8803
-27.3172 -16.2621 -2.3310 0.8803
-26.5310 -16.5256 -2.2918 0.8822
-25.0945 -16.3404 -2.1957 0.8868
-22.5528 -16.0125 -2.0280 0.8950
-20.4701 -15.8093 -1.8964 0.9015
-18.9912 -16.5882 -1.8489 0.9038
-17.5797 -17.3317 -1.8101 0.9057
-16.0306 -18.5731 -1.7989 0.9063
-15.5452 -18.7605 -1.7864 0.9069
-14.7999 -19.3988 -1.7890 0.9068
-14.2366 -20.3046 -1.8183 0.9053
-13.8511 -21.5490 -1.8783 0.9024
-12.9946 -24.3136 -2.0214 0.8953
-12.7592 -25.0734 -2.0628 0.8933
-10.3698 -22.5812 -1.8219 0.9051
-11.5588 -29.7868 -2.3427 0.8797
-10.9595 -30.0187 -2.3431 0.8797
-10.3555 -30.2385 -2.3436 0.8797
-9.8383 -30.7311 -2.3659 0.8786
-9.7056 -32.5573 -2.4910 0.8726
-8.4104 -33.0070 -2.4975 0.8723
-5.7352 -33.6015 -2.4994 0.8722
-3.7008 -33.9056 -2.5008 0.8721
-3.0187 -33.9796 -2.5013 0.8721
-0.9650 -34.1193 -2.5027 0.8721
-0.2787 -34.1383 -2.5032 0.8720
0.4080 -34.1436 -2.5037 0.8720
1.7813 -34.1125 -2.5046 0.8720
3.8371 -33.9622 -2.5060 0.8719
5.2016 -33.7931 -2.5070 0.8719
8.5756 -33.1305 -2.5093 0.8717
9.0805 -32.3822 -2.4659 0.8738
9.3010 -30.7742 -2.3572 0.8790
9.8035 -30.2278 -2.3298 0.8803
10.5347 -30.3860 -2.3581 0.8790
11.7521 -29.9482 -2.3589 0.8789
12.3541 -29.7109 -2.3593 0.8789
14.7115 -28.6412 -2.3609 0.8789
15.8564 -28.0360 -2.3616 0.8788
16.9762 -27.3837 -2.3624 0.8788
17.5262 -27.0409 -2.3627 0.8788
18.0691 -26.6870 -2.3631 0.8787
17.4813 -22.7345 -2.1028 0.8913
19.1106 -23.8454 -2.2406 0.8847
19.7876 -20.9839 -2.1148 0.8908
20.6030 -20.9866 -2.1564 0.8887
20.6230 -20.1787 -2.1156 0.8907
24.2250 -20.9986 -2.3506 0.8793
24.8182 -20.6536 -2.3674 0.8785
25.2313 -20.1525 -2.3677 0.8785
25.6342 -19.6431 -2.3679 0.8785
26.0266 -19.1255 -2.3682 0.8785
26.4087 -18.6002 -2.3684 0.8785
22.4055 -12.0359 -1.8648 0.9030
29.0667 -14.1388 -2.3700 0.8784
29.6157 -12.9603 -2.3703 0.8784
29.8722 -12.3629 -2.3705 0.8784
25.9883 -9.5506 -2.0301 0.8949
27.5950 -8.8989 -2.1259 0.8902
29.6058 -8.8941 -2.2666 0.8834
33.1731 -9.2427 -2.5250 0.8710
33.3534 -8.5740 -2.5251 0.8710
33.5201 -7.9018 -2.5251 0.8710
33.6731 -7.2263 -2.5252 0.8710
33.8124 -6.5478 -2.5253 0.8710
34.0495 -5.1831 -2.5253 0.8710
34.1473 -4.4974 -2.5254 0.8710
34.3008 -3.1206 -2.5254 0.8710
34.4263 -1.0467 -2.5254 0.8710
34.4399 -0.3542 -2.5253 0.8710
33.8054 6.5305 -2.5245 0.8710
33.6654 7.2086 -2.5244 0.8710
33.1084 7.7888 -2.4938 0.8725
31.3129 8.0343 -2.3703 0.8784
31.1430 8.6618 -2.3701 0.8784
30.9603 9.2857 -2.3700 0.8784
30.7651 9.9057 -2.3698 0.8784
29.8600 12.3419 -2.3690 0.8785
29.6030 12.9387 -2.3688 0.8785
27.9237 16.4632 -2.3768 0.8781
18.9431 11.6880 -1.6321 0.9146
18.1216 11.6908 -1.5812 0.9171
17.3494 11.6933 -1.5341 0.9195
16.6218 11.6957 -1.4902 0.9217
15.2379 11.6655 -1.4071 0.9259
14.5186 11.5853 -1.3619 0.9282
13.3259 11.5405 -1.2926 0.9317
12.7733 11.5195 -1.2612 0.9333
12.2466 11.4994 -1.2318 0.9348
11.7164 11.4536 -1.2014 0.9364
14.2575 15.7277 -1.5565 0.9184
14.2106 16.3240 -1.5869 0.9169
14.2524 17.7669 -1.6701 0.9127
14.3268 20.2499 -1.8188 0.9053
14.3553 21.1812 -1.8761 0.9025
17.8939 27.5808 -2.4106 0.8765
17.3427 27.9463 -2.4116 0.8764
16.7835 28.3003 -2.4125 0.8764
16.2169 28.6424 -2.4134 0.8763
13.8799 29.8897 -2.4163 0.8762
12.6729 30.4385 -2.4175 0.8761
12.0608 30.6937 -2.4180 0.8761
10.8209 31.1655 -2.4189 0.8761
10.1935 31.3817 -2.4193 0.8760
9.5616 31.5844 -2.4196 0.8760
8.9255 31.7738 -2.4199 0.8760
6.3448 32.3957 -2.4205 0.8760
5.6920 32.5167 -2.4205 0.8760
4.3796 32.7171 -2.4203 0.8760
0.6913 13.1241 -0.9636 0.9487
0.4215 12.9581 -0.9506 0.9493
0.1489 12.0031 -0.8802 0.9530
-0.3533 12.6970 -0.9313 0.9503
-1.5794 32.9273 -2.4171 0.8762
-2.2407 32.8804 -2.4165 0.8762
-1.5175 11.7558 -0.8691 0.9536
-2.0013 11.7574 -0.8745 0.9533
-2.7402 11.7599 -0.8854 0.9527
-2.9910 11.7607 -0.8898 0.9525
-3.2444 11.7615 -0.8946 0.9522
-3.7600 11.7632 -0.9055 0.9517
-4.0228 11.7641 -0.9116 0.9514
-1.6190 11.7562 -1.1393 0.9534
-2.5963 11.7594 -1.1561 0.9528
-2.8457 11.7602 -1.1616 0.9525
-3.3521 11.7619 -1.1742 0.9520
-3.8704 11.7636 -1.1889 0.9515
-4.1347 11.7645 -1.1972 0.9511
-4.9516 11.7672 -1.2257 0.9500
-5.5195 11.7691 -1.2480 0.9491
-5.8115 11.7701 -1.2602 0.9486
-7.0431 11.7741 -1.3172 0.9464
-7.3668 11.7713 -1.3332 0.9457
-7.9835 11.6841 -1.3586 0.9447
-8.3085 11.6497 -1.3737 0.9441
-8.6508 11.6277 -1.3914 0.9434
-9.0021 11.6051 -1.4100 0.9427
-9.7341 11.5575 -1.4507 0.9411
-10.1164 11.5324 -1.4728 0.9402
-10.8263 11.3837 -1.5082 0.9388
-12.1534 11.7911 -1.6257 0.9342
-12.6546 11.7928 -1.6607 0.9329
-13.7260 11.7963 -1.7375 0.9299
-15.5066 11.7785 -1.8695 0.9247
-16.5839 11.5755 -1.9416 0.9219
-14.7256 9.0090 -1.6573 0.9330
-20.2074 11.8109 -2.2471 0.9102
-21.6846 10.9769 -2.3334 0.9070
-21.8998 10.5381 -2.3332 0.9070
-22.4922 9.1971 -2.3329 0.9070
-22.6716 8.7425 -2.3328 0.9070
-22.8420 8.2845 -2.3327 0.9070
-25.0827 6.3347 -2.4837 0.9013
-25.3161 5.3207 -2.4836 0.9013
-25.5898 3.7844 -2.4835 0.9013
-25.7710 2.2344 -2.4834 0.9013
-25.8592 0.6764 -2.4835 0.9013
-25.8660 -0.3640 -2.4835 0.9013
-25.8539 -0.8841 -2.4835 0.9013
-25.7984 -1.9230 -2.4836 0.9013
-25.5633 -3.9904 -2.4839 0.9013
-25.3841 -5.0155 -2.4841 0.9012
-25.2791 -5.5252 -2.4842 0.9012
-25.1640 -6.0327 -2.4843 0.9012
-24.6028 -8.0369 -2.4848 0.9012
-24.4376 -8.5305 -2.4850 0.9012
-24.2626 -9.0208 -2.4851 0.9012
-23.4655 -10.9442 -2.4858 0.9012
-21.6744 -11.7492 -2.3669 0.9057
-20.1180 -13.6837 -2.3359 0.9069
-19.2618 -14.8761 -2.3365 0.9068
-18.9606 -15.2619 -2.3367 0.9068
-18.6517 -15.6417 -2.3370 0.9068
-18.3353 -16.0153 -2.3372 0.9068
-17.6802 -16.7432 -2.3377 0.9068
-16.6440 -17.7847 -2.3385 0.9068
-16.2214 -18.0473 -2.3297 0.9071
-15.7782 -18.2807 -2.3183 0.9075
-14.5992 -19.1357 -2.3107 0.9078
-13.9956 -19.9608 -2.3405 0.9067
-13.5931 -20.2408 -2.3408 0.9067
-12.7715 -20.7764 -2.3414 0.9066
-11.9288 -21.2787 -2.3420 0.9066
-11.5000 -21.5171 -2.3423 0.9066
-10.6283 -21.9681 -2.3429 0.9066
-10.1858 -22.1804 -2.3432 0.9066
-9.7897 -22.5002 -2.3557 0.9061
-8.4266 -24.6061 -2.4970 0.9008
-7.9312 -24.7740 -2.4973 0.9007
-6.4257 -25.2180 -2.4984 0.9007
-5.9181 -25.3457 -2.4988 0.9007
-4.8956 -25.5706 -2.4995 0.9007
-4.3810 -25.6676 -2.4999 0.9007
-3.8645 -25.7543 -2.5002 0.9006
-2.8266 -25.8964 -2.5009 0.9006
-2.3056 -25.9517 -2.5013 0.9006
-1.7835 -25.9967 -2.5017 0.9006
-0.7369 -26.0550 -2.5024 0.9006
-0.2128 -26.0683 -2.5028 0.9005
0.3115 -26.0711 -2.5031 0.9005
1.3600 -26.0450 -2.5039 0.9005
1.8838 -26.0162 -2.5042 0.9005
3.9706 -25.7954 -2.5057 0.9004
4.4892 -25.7140 -2.5060 0.9004
5.0061 -25.6222 -2.5064 0.9004
5.5211 -25.5199 -2.5067 0.9004
6.0340 -25.4072 -2.5071 0.9004
7.0527 -25.1509 -2.5078 0.9004
8.0606 -24.8538 -2.5084 0.9003
9.1475 -23.3107 -2.4041 0.9043
9.4255 -22.6678 -2.3569 0.9061
9.8807 -22.4766 -2.3572 0.9060
10.3321 -22.2762 -2.3575 0.9060
11.2223 -21.8483 -2.3581 0.9060
11.6608 -21.6208 -2.3584 0.9060
12.0948 -21.3846 -2.3586 0.9060
12.5239 -21.1395 -2.3589 0.9060
15.3783 -19.1883 -2.3608 0.9059
15.7627 -18.8772 -2.3610 0.9059
16.5124 -18.2318 -2.3615 0.9059
17.2356 -17.5565 -2.3620 0.9059
17.5868 -17.2080 -2.3622 0.9059
17.9310 -16.8524 -2.3624 0.9058
19.2339 -15.3623 -2.3632 0.9058
19.8392 -14.5787 -2.3636 0.9058
20.9526 -12.9411 -2.3643 0.9058
21.2100 -12.5179 -2.3645 0.9058
21.9302 -11.2183 -2.3649 0.9058
22.9322 -11.1549 -2.4483 0.9026
23.7708 -10.9772 -2.5137 0.9001
24.4402 -9.5438 -2.5189 0.8999
24.6282 -9.0507 -2.5190 0.8999
24.9740 -8.0537 -2.5192 0.8999
25.1317 -7.5500 -2.5193 0.8999
25.2792 -7.0433 -2.5194 0.8999
25.4164 -6.5337 -2.5194 0.8999
25.6597 -5.5066 -2.5195 0.8999
25.7657 -4.9896 -2.5196 0.8999
25.8612 -4.4705 -2.5196 0.8999
25.9462 -3.9496 -2.5197 0.8999
26.0206 -3.4270 -2.5197 0.8999
26.1801 -1.8518 -2.5197 0.8999
26.2120 -1.3250 -2.5197 0.8999
26.2436 -0.2699 -2.5197 0.8999
26.2326 0.7856 -2.5196 0.8999
26.2110 1.3130 -2.5195 0.8999
26.1787 1.8398 -2.5195 0.8999
26.0823 2.8908 -2.5194 0.8999
26.0181 3.4146 -2.5193 0.8999
25.9433 3.9371 -2.5192 0.8999
25.7621 4.9767 -2.5190 0.8999
25.6558 5.4936 -2.5189 0.8999
25.5390 6.0081 -2.5188 0.8999
25.4119 6.5202 -2.5187 0.8999
25.2743 7.0295 -2.5186 0.8999
24.1421 7.7732 -2.4349 0.9031
23.2894 8.0191 -2.3647 0.9058
23.1221 8.4852 -2.3646 0.9058
22.7593 9.4070 -2.3643 0.9058
22.5639 9.8621 -2.3641 0.9058
22.1459 10.7599 -2.3638 0.9058
21.9234 11.2022 -2.3636 0.9058
18.9431 11.6881 -2.1370 0.9144
18.1217 11.6908 -2.0704 0.9170
17.3495 11.6933 -2.0086 0.9194
14.4829 11.5568 -1.7788 0.9282
13.7845 11.4608 -1.7210 0.9305
12.6665 11.4232 -1.6375 0.9338
14.3541 14.0321 -1.9272 0.9225
14.4200 15.9068 -2.0612 0.9173
14.4714 17.3147 -2.1664 0.9133
14.4998 18.0753 -2.2247 0.9111
14.7328 19.1420 -2.3190 0.9075
14.5055 19.6520 -2.3450 0.9065
7.9751 11.7672 -1.3647 0.9445
7.6216 11.7475 -1.3444 0.9453
7.2920 11.7505 -1.3277 0.9459
6.9687 11.7506 -1.3116 0.9466
6.6531 11.7508 -1.2964 0.9472
5.1726 11.7520 -1.2327 0.9497
4.8930 11.7523 -1.2222 0.9501
3.8193 11.7581 -1.1869 0.9515
6.2491 24.0972 -2.3900 0.9048
5.2755 24.3309 -2.3902 0.9048
4.7852 24.4325 -2.3902 0.9048
1.3464 11.8682 -1.1467 0.9531
1.1056 11.8732 -1.1448 0.9532
0.9535 13.0856 -1.2596 0.9486
-0.0951 12.3429 -1.1850 0.9516
-1.6906 24.8079 -2.3872 0.9049
-1.0389 11.7542 -1.1329 0.9537
-1.7586 11.7566 -1.1413 0.9534
-2.4919 11.7591 -1.1540 0.9528
-2.7403 11.7599 -1.1593 0.9526
-3.2444 11.7616 -1.1713 0.9522
-6.2650 21.0510 -2.1086 0.9155
-3.7600 11.7633 -1.1856 0.9516
-4.0228 11.7641 -1.1936 0.9513
-1.8608 11.7570 -1.4139 0.9532
-2.3492 11.7586 -1.4244 0.9528
-3.6000 11.7314 -1.4577 0.9518
-3.8704 11.7636 -1.4710 0.9513
-4.4028 11.7654 -1.4922 0.9507
-4.6749 11.7663 -1.5039 0.9503
-4.9516 11.7672 -1.5165 0.9499
-5.2330 11.7681 -1.5299 0.9494
-6.1094 11.7711 -1.5754 0.9480
-6.7248 11.7731 -1.6105 0.9469
-7.3664 11.7707 -1.6494 0.9456
-8.9439 11.5301 -1.7334 0.9429
-10.6715 11.2210 -1.8394 0.9395
-11.0078 11.1180 -1.8585 0.9389
-12.1534 11.7911 -2.0114 0.9341
-12.6547 11.7928 -2.0547 0.9327
-13.7260 11.7963 -2.1499 0.9297
-15.9054 11.5844 -2.3373 0.9238
-16.3564 10.9342 -2.3371 0.9238
-16.5721 10.6025 -2.3369 0.9238
-14.5649 8.9107 -2.0282 0.9335
-16.9832 9.9265 -2.3367 0.9238
-17.8898 8.1696 -2.3362 0.9238
-19.4797 7.5117 -2.4800 0.9193
-19.6747 7.1358 -2.4860 0.9192
-19.9552 6.3418 -2.4872 0.9191
-20.0782 5.9392 -2.4872 0.9191
-20.1931 5.5341 -2.4871 0.9191
-20.5712 3.8932 -2.4869 0.9191
-20.8574 1.8084 -2.4869 0.9191
-20.8896 1.3886 -2.4869 0.9191
-20.9133 0.9682 -2.4869 0.9191
-20.9242 -0.7155 -2.4870 0.9191
-20.8792 -1.5563 -2.4870 0.9191
-20.8441 -1.9759 -2.4871 0.9191
-20.8006 -2.3948 -2.4871 0.9191
-20.7487 -2.8127 -2.4872 0.9191
-20.6200 -3.6449 -2.4873 0.9191
-20.4580 -4.4714 -2.4875 0.9191
-20.3647 -4.8821 -2.4876 0.9191
-20.2631 -5.2908 -2.4877 0.9191
-20.1535 -5.6975 -2.4878 0.9191
-19.9098 -6.5039 -2.4880 0.9191
-19.7759 -6.9032 -2.4881 0.9191
-19.4842 -7.6936 -2.4884 0.9191
-19.1612 -8.4718 -2.4886 0.9191
-18.9880 -8.8559 -2.4888 0.9191
-18.8072 -9.2365 -2.4889 0.9191
-18.4229 -9.9866 -2.4892 0.9191
-18.2195 -10.3557 -2.4894 0.9190
-17.7907 -11.0815 -2.4897 0.9190
-16.7087 -11.8632 -2.4341 0.9208
-15.7765 -12.1844 -2.3679 0.9228
-15.0895 -12.6544 -2.3393 0.9237
-14.5709 -13.2531 -2.3397 0.9237
-14.0286 -13.8307 -2.3401 0.9237
-13.7489 -14.1113 -2.3403 0.9237
-13.1727 -14.6555 -2.3407 0.9237
-12.8766 -14.9188 -2.3409 0.9237
-12.5751 -15.1762 -2.3412 0.9237
-11.3194 -16.1440 -2.3421 0.9236
-10.5291 -17.1285 -2.3883 0.9222
-10.3377 -17.6011 -2.4247 0.9211
-9.8831 -18.4918 -2.4906 0.9190
-8.3857 -19.2733 -2.4967 0.9188
-7.9973 -19.4403 -2.4970 0.9188
-7.6056 -19.5993 -2.4973 0.9188
-7.2107 -19.7505 -2.4976 0.9188
-6.0088 -20.1563 -2.4984 0.9188
-5.1946 -20.3864 -2.4990 0.9187
-4.3716 -20.5835 -2.4996 0.9187
-3.1236 -20.8170 -2.5004 0.9187
-2.7047 -20.8781 -2.5007 0.9187
-2.2846 -20.9307 -2.5010 0.9187
-1.8634 -20.9749 -2.5013 0.9187
-1.0187 -21.0378 -2.5019 0.9187
-0.5955 -21.0565 -2.5022 0.9186
0.2517 -21.0684 -2.5028 0.9186
0.6754 -21.0615 -2.5031 0.9186
1.0990 -21.0461 -2.5034 0.9186
1.5222 -21.0222 -2.5037 0.9186
3.6269 -20.7752 -2.5051 0.9186
4.4604 -20.6172 -2.5057 0.9185
5.2871 -20.4258 -2.5063 0.9185
5.6974 -20.3176 -2.5065 0.9185
6.1055 -20.2012 -2.5068 0.9185
6.5112 -20.0765 -2.5071 0.9185
8.1069 -19.4967 -2.5082 0.9185
8.4982 -19.3317 -2.5084 0.9185
9.1669 -18.7660 -2.4809 0.9193
9.2362 -17.9815 -2.4012 0.9218
9.4173 -17.4610 -2.3566 0.9232
10.1138 -17.0716 -2.3570 0.9232
11.1279 -16.4353 -2.3577 0.9232
11.7820 -15.9775 -2.3581 0.9231
11.7967 -13.5635 -2.1353 0.9302
13.6265 -14.4503 -2.3593 0.9231
13.9154 -14.1745 -2.3595 0.9231
14.4763 -13.6055 -2.3598 0.9231
14.7480 -13.3126 -2.3600 0.9231
15.0139 -13.0143 -2.3602 0.9231
15.5272 -12.4017 -2.3605 0.9231
15.7744 -12.0877 -2.3607 0.9231
16.2498 -11.4451 -2.3610 0.9231
16.5797 -11.1855 -2.3757 0.9226
17.2979 -11.1705 -2.4459 0.9204
18.8499 -9.6426 -2.5151 0.9182
19.0408 -9.2620 -2.5152 0.9182
19.7265 -7.7031 -2.5156 0.9182
20.0216 -6.9041 -2.5157 0.9182
20.1569 -6.5002 -2.5158 0.9182
20.4030 -5.6847 -2.5159 0.9182
20.6160 -4.8599 -2.5160 0.9182
20.7099 -4.4445 -2.5161 0.9182
20.7953 -4.0271 -2.5161 0.9182
20.8724 -3.6081 -2.5161 0.9182
20.9409 -3.1877 -2.5161 0.9182
21.0524 -2.3431 -2.5162 0.9182
21.1554 -1.0694 -2.5162 0.9182
21.1725 -0.6437 -2.5162 0.9182
21.1810 -0.2179 -2.5161 0.9182
21.1721 0.6341 -2.5161 0.9182
21.1548 1.0597 -2.5160 0.9182
21.1289 1.4849 -2.5160 0.9182
21.0512 2.3332 -2.5159 0.9182
20.9393 3.1777 -2.5158 0.9182
20.8706 3.5980 -2.5157 0.9182
20.6136 4.8494 -2.5155 0.9182
20.4004 5.6740 -2.5153 0.9182
20.1540 6.4891 -2.5150 0.9182
20.0185 6.8928 -2.5149 0.9183
18.7777 7.7613 -2.4135 0.9214
17.8772 8.6859 -2.3609 0.9231
17.5113 9.3966 -2.3606 0.9231
17.3176 9.7462 -2.3605 0.9231
15.2432 8.9870 -2.1019 0.9312
16.4738 11.1031 -2.3598 0.9231
16.2460 11.4313 -2.3597 0.9231
16.0116 11.7548 -2.3595 0.9231
15.2376 11.6653 -2.2795 0.9256
15.5235 12.3872 -2.3591 0.9231
13.0339 11.2876 -2.0481 0.9329
11.7354 11.0194 -1.9122 0.9372
14.1955 13.8771 -2.3581 0.9231
11.4864 11.6896 -1.9467 0.9361
13.3463 14.7225 -2.3605 0.9231
13.0519 14.9929 -2.3612 0.9231
12.7519 15.2573 -2.3620 0.9230
12.4464 15.5155 -2.3627 0.9230
12.1355 15.7674 -2.3635 0.9230
10.8410 16.7097 -2.3660 0.9229
10.5053 16.9284 -2.3666 0.9229
9.8205 17.3450 -2.3677 0.9228
9.4716 17.5425 -2.3681 0.9228
8.0369 18.2596 -2.3698 0.9228
7.2982 18.5731 -2.3704 0.9228
6.5469 18.8558 -2.3710 0.9227
5.3992 19.2207 -2.3715 0.9227
4.6224 19.4240 -2.3717 0.9227
4.2310 19.5135 -2.3718 0.9227
3.8377 19.5949 -2.3718 0.9227
3.4429 19.6681 -2.3718 0.9227
3.0467 19.7331 -2.3718 0.9227
1.5911 11.8863 -1.4245 0.9528
1.1070 11.8879 -1.4182 0.9530
0.9450 12.9698 -1.5447 0.9490
0.4215 12.9583 -1.5401 0.9491
-0.3533 12.6969 -1.5088 0.9501
-0.9558 19.9272 -2.3698 0.9228
-1.2776 11.7550 -1.4046 0.9535
-1.7587 11.7566 -1.4121 0.9532
-2.0013 11.7574 -1.4167 0.9531
-2.4919 11.7591 -1.4278 0.9527
-3.2444 11.7616 -1.4493 0.9520
-5.6754 19.0700 -2.3634 0.9230
-3.7600 11.7633 -1.4670 0.9515
-4.0228 11.7641 -1.4769 0.9512
-1.6190 11.7562 -1.6814 0.9532
-1.8608 11.7570 -1.6866 0.9530
-2.3492 11.7586 -1.6990 0.9527
-3.0975 11.7611 -1.7232 0.9521
-3.8704 11.7636 -1.7547 0.9512
-4.1347 11.7645 -1.7669 0.9509
-4.6750 11.7663 -1.7939 0.9501
-5.2330 11.7682 -1.8248 0.9493
-5.5195 11.7691 -1.8418 0.9488
-6.1094 11.7711 -1.8791 0.9478
-6.7248 11.7731 -1.9211 0.9467
-7.0431 11.7742 -1.9440 0.9461
-7.9836 11.6842 -2.0051 0.9444
-8.2917 11.6262 -2.0233 0.9439
-10.8943 12.4193 -2.3408 0.9354
-11.6211 11.7374 -2.3403 0.9354
-12.5236 10.7630 -2.3397 0.9355
-13.3451 9.7197 -2.3392 0.9355
-14.2501 8.3290 -2.3387 0.9355
-14.4141 8.0404 -2.3386 0.9355
-14.5723 7.7486 -2.3385 0.9355
-15.1374 7.6627 -2.4040 0.9338
-15.7926 7.5993 -2.4832 0.9316
-16.1283 6.9766 -2.4898 0.9315
-16.3948 6.3221 -2.4897 0.9315
-16.7449 5.3216 -2.4895 0.9315
-16.9447 4.6438 -2.4894 0.9315
-17.0344 4.3020 -2.4894 0.9315
-17.1931 3.6135 -2.4893 0.9315
-17.2621 3.2670 -2.4893 0.9315
-17.3792 2.5701 -2.4892 0.9315
-17.4273 2.2201 -2.4892 0.9315
-17.4684 1.8692 -2.4892 0.9315
-17.5024 1.5175 -2.4892 0.9315
-17.5294 1.1652 -2.4892 0.9315
-17.5493 0.8125 -2.4892 0.9315
-17.5667 -0.2472 -2.4893 0.9315
-17.4910 -1.6581 -2.4894 0.9315
-17.3602 -2.7099 -2.4895 0.9315
-16.9107 -4.7807 -2.4900 0.9315
-16.8117 -5.1200 -2.4901 0.9315
-16.7060 -5.4573 -2.4902 0.9315
-16.5935 -5.7924 -2.4903 0.9315
-16.4743 -6.1251 -2.4904 0.9315
-16.3485 -6.4555 -2.4905 0.9315
-16.2161 -6.7832 -2.4906 0.9314
-16.0772 -7.1083 -2.4907 0.9314
-15.6216 -8.0660 -2.4911 0.9314
-15.1093 -8.9947 -2.4915 0.9314
-14.7372 -9.5961 -2.4918 0.9314
-14.5421 -9.8911 -2.4919 0.9314
-13.9219 -10.7520 -2.4924 0.9314
-13.7038 -11.0306 -2.4926 0.9314
-13.4801 -11.3047 -2.4927 0.9314
-12.7767 -12.0995 -2.4933 0.9314
-12.5317 -12.3549 -2.4934 0.9314
-12.2816 -12.6053 -2.4936 0.9314
-11.7666 -13.0911 -2.4940 0.9314
-11.5019 -13.3261 -2.4942 0.9314
-10.9585 -13.7801 -2.4946 0.9313
-10.6801 -13.9988 -2.4948 0.9313
-10.3973 -14.2119 -2.4950 0.9313
-8.9219 -15.1905 -2.4961 0.9313
-8.6154 -15.3682 -2.4963 0.9313
-7.6751 -15.8640 -2.4970 0.9313
-7.3552 -16.0167 -2.4972 0.9313
-7.0323 -16.1628 -2.4975 0.9313
-6.7065 -16.3025 -2.4977 0.9313
-6.3779 -16.4356 -2.4979 0.9313
-6.0467 -16.5621 -2.4982 0.9312
-5.7129 -16.6820 -2.4984 0.9312
-5.0385 -16.9015 -2.4989 0.9312
-4.0114 -17.1795 -2.4996 0.9312
-3.3179 -17.3303 -2.5001 0.9312
-2.6189 -17.4531 -2.5006 0.9312
-2.2676 -17.5040 -2.5009 0.9312
-1.2084 -17.6141 -2.5016 0.9312
-0.8540 -17.6366 -2.5018 0.9312
-0.4992 -17.6520 -2.5021 0.9311
0.5662 -17.6551 -2.5028 0.9311
0.9212 -17.6419 -2.5031 0.9311
1.2760 -17.6215 -2.5033 0.9311
2.3368 -17.5176 -2.5040 0.9311
2.6889 -17.4688 -2.5043 0.9311
3.3898 -17.3499 -2.5048 0.9311
4.7748 -17.0278 -2.5057 0.9310
5.1168 -16.9299 -2.5059 0.9310
6.4357 -16.4003 -2.4963 0.9313
6.7935 -16.3380 -2.5071 0.9310
7.1213 -16.1995 -2.5073 0.9310
8.7153 -15.4093 -2.5084 0.9310
9.0241 -15.2322 -2.5086 0.9310
9.6309 -14.8594 -2.5090 0.9310
9.9244 -14.6577 -2.5081 0.9310
11.0207 -13.7512 -2.4969 0.9313
11.2525 -13.4759 -2.4875 0.9315
11.5025 -13.2252 -2.4835 0.9316
11.7525 -12.9762 -2.4806 0.9317
12.0241 -12.7511 -2.4833 0.9316
12.8775 -12.1029 -2.5040 0.9311
13.6191 -11.3337 -2.5105 0.9309
14.0713 -10.7826 -2.5118 0.9309
14.8953 -9.6190 -2.5123 0.9309
15.2714 -9.0130 -2.5125 0.9309
15.4502 -8.7045 -2.5126 0.9309
15.7890 -8.0768 -2.5128 0.9309
15.9488 -7.7579 -2.5129 0.9309
16.7697 -5.7828 -2.5134 0.9308
16.9895 -5.1040 -2.5135 0.9308
17.0890 -4.7614 -2.5136 0.9308
17.1816 -4.4168 -2.5136 0.9308
17.5393 -2.6699 -2.5138 0.9308
17.5895 -2.3164 -2.5138 0.9308
17.6973 -1.2518 -2.5138 0.9308
17.7332 -0.5392 -2.5138 0.9308
17.7403 0.1744 -2.5137 0.9308
17.6968 1.2437 -2.5136 0.9308
17.6680 1.5993 -2.5136 0.9308
17.4163 3.3645 -2.5133 0.9308
17.2659 4.0619 -2.5132 0.9308
17.1802 4.4081 -2.5131 0.9309
17.0875 4.7525 -2.5130 0.9309
16.9879 5.0950 -2.5129 0.9309
16.8813 5.4354 -2.5128 0.9309
16.6478 6.1093 -2.5126 0.9309
16.5209 6.4426 -2.5125 0.9309
16.3872 6.7733 -2.5124 0.9309
16.0856 7.4194 -2.5099 0.9309
15.1684 7.7506 -2.4135 0.9335
14.6690 7.8714 -2.3588 0.9350
14.5069 8.1643 -2.3586 0.9350
13.6100 9.5765 -2.3579 0.9350
13.2122 10.1147 -2.3576 0.9350
12.5756 10.8907 -2.3571 0.9350
12.1258 11.3860 -2.3568 0.9350
11.8935 11.6267 -2.3566 0.9350
11.1682 12.3198 -2.3561 0.9350
10.9173 12.5409 -2.3559 0.9350
10.4025 12.9677 -2.3555 0.9350
10.1388 13.1731 -2.3553 0.9350
9.5993 13.5679 -2.3549 0.9351
9.0449 13.9414 -2.3547 0.9351
8.7645 14.1233 -2.3551 0.9351
7.9013 14.6341 -2.3564 0.9350
7.6066 14.7924 -2.3568 0.9350
6.3967 15.3641 -2.3581 0.9350
6.0872 15.4913 -2.3583 0.9350
5.7749 15.6121 -2.3585 0.9350
5.1433 15.8342 -2.3589 0.9350
4.1799 16.1182 -2.3593 0.9349
3.8550 16.1995 -2.3594 0.9349
2.8713 16.4030 -2.3595 0.9349
2.5409 16.4572 -2.3594 0.9349
1.5911 11.8863 -1.6992 0.9527
1.3485 11.8871 -1.6951 0.9528
0.6832 12.9707 -1.8404 0.9489
0.1489 12.0024 -1.7007 0.9527
-0.0951 12.3424 -1.7488 0.9514
-1.1312 16.5998 -2.3575 0.9350
-1.0389 11.7543 -1.6719 0.9534
-1.2776 11.7550 -1.6754 0.9534
-2.2456 11.7583 -1.6961 0.9528
-2.4919 11.7591 -1.7031 0.9526
-4.7360 15.9133 -2.3525 0.9351
-2.3492 11.7586 -1.9754 0.9526
-2.8457 11.7603 -1.9933 0.9521
-3.0975 11.7611 -2.0036 0.9519
-4.1347 11.7645 -2.0543 0.9507
-4.6750 11.7663 -2.0858 0.9500
-5.5195 11.7691 -2.1415 0.9487
-6.1094 11.7711 -2.1848 0.9477
-7.0410 11.7706 -2.2595 0.9459
-7.3657 11.7696 -2.2873 0.9453
-8.0230 11.7420 -2.3428 0.9440
-8.7148 11.2347 -2.3423 0.9440
-8.9384 11.0565 -2.3422 0.9440
-9.1584 10.8739 -2.3421 0.9440
-9.5871 10.4955 -2.3418 0.9440
-9.7957 10.3000 -2.3417 0.9440
-10.0003 10.1004 -2.3415 0.9440
-10.5894 9.4775 -2.3411 0.9440
-11.1400 8.8205 -2.3408 0.9440
-11.3146 8.5943 -2.3407 0.9440
-12.0076 7.6823 -2.3483 0.9439
-13.0234 7.6120 -2.4851 0.9407
-13.3549 7.1012 -2.4918 0.9405
-13.8807 6.0044 -2.4915 0.9405
-13.9982 5.7239 -2.4914 0.9405
-14.1102 5.4411 -2.4913 0.9405
-14.3169 4.8691 -2.4912 0.9405
-14.4116 4.5801 -2.4912 0.9405
-14.7322 3.4070 -2.4910 0.9405
-14.8569 2.8118 -2.4910 0.9405
-14.9992 1.9108 -2.4909 0.9405
-15.0345 1.6087 -2.4909 0.9405
-15.0870 1.0029 -2.4909 0.9405
-15.1152 0.3954 -2.4909 0.9405
-15.1202 0.0913 -2.4909 0.9405
-15.1191 -0.2127 -2.4910 0.9405
-15.1119 -0.5167 -2.4910 0.9405
-15.0793 -1.1240 -2.4910 0.9405
-14.9411 -2.3323 -2.4912 0.9405
-14.8915 -2.6323 -2.4913 0.9405
-14.8359 -2.9313 -2.4913 0.9405
-14.7743 -3.2292 -2.4914 0.9405
-14.7068 -3.5257 -2.4914 0.9405
-14.5539 -4.1145 -2.4916 0.9405
-14.0697 -5.5556 -2.4920 0.9405
-13.9557 -5.8377 -2.4921 0.9405
-13.7108 -6.3946 -2.4923 0.9405
-13.5800 -6.6694 -2.4924 0.9405
-13.4437 -6.9414 -2.4925 0.9405
-12.6820 -8.2579 -2.4931 0.9405
-12.3410 -8.7621 -2.4934 0.9405
-12.1630 -9.0090 -2.4935 0.9405
-11.9801 -9.2523 -2.4936 0.9405
-11.7922 -9.4919 -2.4938 0.9405
-11.5997 -9.7277 -2.4939 0.9405
-11.4024 -9.9596 -2.4941 0.9405
-11.2005 -10.1875 -2.4942 0.9405
-10.9940 -10.4114 -2.4944 0.9405
-10.7831 -10.6310 -2.4946 0.9405
-10.3483 -11.0575 -2.4949 0.9405
-10.1245 -11.2641 -2.4950 0.9404
-9.6647 -11.6637 -2.4954 0.9404
-9.4288 -11.8565 -2.4956 0.9404
-8.6986 -12.4062 -2.4961 0.9404
-8.1939 -12.7478 -2.4965 0.9404
-7.6758 -13.0690 -2.4969 0.9404
-7.4120 -13.2217 -2.4970 0.9404
-6.8755 -13.5112 -2.4974 0.9404
-6.3276 -13.7789 -2.4978 0.9404
-6.0497 -13.9044 -2.4980 0.9404
-5.7693 -14.0244 -2.4982 0.9404
-5.2016 -14.2474 -2.4986 0.9404
-4.6252 -14.4474 -2.4990 0.9404
-4.3341 -14.5387 -2.4993 0.9404
-3.7466 -14.7037 -2.4997 0.9403
-3.4504 -14.7773 -2.4999 0.9403
-3.1528 -14.8449 -2.5001 0.9403
-1.9504 -15.0554 -2.5009 0.9403
-1.3436 -15.1242 -2.5014 0.9403
-1.0393 -15.1495 -2.5016 0.9403
-0.4294 -15.1816 -2.5020 0.9403
0.1815 -15.1891 -2.5024 0.9403
1.0973 -15.1544 -2.5031 0.9403
1.4020 -15.1305 -2.5033 0.9403
1.7061 -15.1005 -2.5035 0.9403
2.9150 -14.9195 -2.5043 0.9402
3.2147 -14.8591 -2.5045 0.9402
3.5131 -14.7926 -2.5047 0.9402
3.8102 -14.7202 -2.5049 0.9402
4.3998 -14.5574 -2.5053 0.9402
4.6920 -14.4671 -2.5055 0.9402
4.9824 -14.3710 -2.5057 0.9402
5.5570 -14.1612 -2.5061 0.9402
5.8411 -14.0476 -2.5063 0.9402
6.4023 -13.8035 -2.5067 0.9402
6.6790 -13.6729 -2.5068 0.9402
6.9532 -13.5368 -2.5070 0.9402
8.0207 -12.9379 -2.5077 0.9402
8.2799 -12.7749 -2.5079 0.9402
9.2821 -12.0714 -2.5086 0.9401
9.7612 -11.6898 -2.5089 0.9401
10.2246 -11.2892 -2.5092 0.9401
10.6715 -10.8702 -2.5095 0.9401
11.7119 -9.7465 -2.5101 0.9401
12.8034 -8.2681 -2.5108 0.9401
13.1265 -7.7471 -2.5110 0.9401
13.7085 -6.6682 -2.5113 0.9401
13.8402 -6.3913 -2.5114 0.9401
14.0868 -5.8300 -2.5115 0.9401
14.6025 -4.3869 -2.5118 0.9401
14.6880 -4.0924 -2.5119 0.9401
14.7676 -3.7962 -2.5119 0.9401
14.8411 -3.4986 -2.5119 0.9401
14.9086 -3.1994 -2.5120 0.9401
15.0255 -2.5974 -2.5120 0.9401
15.0748 -2.2947 -2.5120 0.9401
15.1550 -1.6867 -2.5120 0.9401
15.1859 -1.3816 -2.5120 0.9401
15.2476 -0.1568 -2.5120 0.9401
15.2476 0.1499 -2.5120 0.9401
15.2414 0.4565 -2.5120 0.9401
15.2290 0.7628 -2.5120 0.9401
15.2104 1.0689 -2.5119 0.9401
15.1856 1.3746 -2.5119 0.9401
15.1175 1.9840 -2.5118 0.9401
15.0743 2.2876 -2.5118 0.9401
14.9079 3.1922 -2.5116 0.9401
14.6016 4.3793 -2.5113 0.9401
14.4127 4.9626 -2.5111 0.9401
14.3095 5.2513 -2.5111 0.9401
14.2005 5.5378 -2.5110 0.9401
13.9652 6.1038 -2.5108 0.9401
13.8391 6.3832 -2.5107 0.9401
13.4273 7.2051 -2.5103 0.9401
13.2624 7.4639 -2.5071 0.9402
13.0865 7.7155 -2.5027 0.9403
12.5446 7.7401 -2.4283 0.9420
11.5309 8.4654 -2.3565 0.9437
11.1799 8.9212 -2.3563 0.9437
10.9976 9.1437 -2.3561 0.9437
10.6197 9.5773 -2.3559 0.9437
9.8133 10.3971 -2.3552 0.9437
9.3860 10.7818 -2.3549 0.9437
8.9436 11.1490 -2.3546 0.9437
8.7169 11.3258 -2.3544 0.9437
8.2533 11.6654 -2.3541 0.9437
8.0164 11.8282 -2.3539 0.9437
7.7764 11.9861 -2.3537 0.9437
7.2870 12.2872 -2.3534 0.9437
6.5313 12.7013 -2.3528 0.9437
6.2741 12.8291 -2.3527 0.9437
6.0143 12.9516 -2.3525 0.9438
5.7522 13.0689 -2.3523 0.9438
4.9525 13.3887 -2.3517 0.9438
4.6819 13.4845 -2.3515 0.9438
4.1352 13.6596 -2.3511 0.9438
3.8593 13.7388 -2.3509 0.9438
3.3032 13.8804 -2.3505 0.9438
3.0234 13.9443 -2.3506 0.9438
1.5911 11.8864 -1.9756 0.9525
1.3485 11.8872 -1.9708 0.9527
1.1070 11.8880 -1.9669 0.9528
0.6832 12.9707 -2.1397 0.9487
-0.3533 12.6969 -2.0925 0.9498
-0.6832 14.2433 -2.3491 0.9438
-1.5175 11.7559 -1.9527 0.9531
-1.7587 11.7567 -1.9583 0.9530
-2.0013 11.7575 -1.9648 0.9528
-2.2456 11.7583 -1.9721 0.9526
-2.7403 11.7599 -1.9892 0.9522
-3.2444 11.7616 -2.0100 0.9517
-1.6189 11.7553 -2.2304 0.9529
-2.3461 11.7431 -2.2509 0.9524
-3.1790 12.0704 -2.3461 0.9505
-3.4209 12.0032 -2.3460 0.9505
-3.9002 11.8544 -2.3457 0.9505
-4.1376 11.7727 -2.3455 0.9505
-4.3732 11.6863 -2.3453 0.9505
-4.6070 11.5952 -2.3452 0.9505
-4.8389 11.4995 -2.3450 0.9505
-5.0689 11.3991 -2.3449 0.9505
-5.5224 11.1846 -2.3446 0.9505
-5.9669 10.9521 -2.3443 0.9505
-6.4017 10.7020 -2.3440 0.9505
-6.6153 10.5705 -2.3438 0.9505
-7.2393 10.1506 -2.3434 0.9505
-7.4416 10.0024 -2.3433 0.9505
-7.6408 9.8502 -2.3432 0.9505
-8.4059 9.2024 -2.3427 0.9505
-8.5888 9.0310 -2.3426 0.9505
-9.1164 8.4955 -2.3422 0.9505
-9.4498 8.1213 -2.3420 0.9506
-9.6108 7.9293 -2.3419 0.9506
-11.0166 7.3646 -2.4908 0.9475
-11.1737 7.1487 -2.4933 0.9474
-11.4514 6.6932 -2.4931 0.9474
-11.5833 6.4613 -2.4930 0.9474
-11.7106 6.2269 -2.4930 0.9474
-11.9508 5.7507 -2.4928 0.9475
-12.1718 5.2652 -2.4927 0.9475
-12.3731 4.7712 -2.4926 0.9475
-12.4663 4.5214 -2.4925 0.9475
-12.8562 3.2468 -2.4923 0.9475
-13.0750 2.2032 -2.4922 0.9475
-13.1529 1.6756 -2.4922 0.9475
-13.1839 1.4107 -2.4922 0.9475
-13.2450 0.6132 -2.4922 0.9475
-13.2581 -0.1865 -2.4922 0.9475
-13.2401 -0.7195 -2.4923 0.9475
-13.2007 -1.2514 -2.4923 0.9475
-13.1731 -1.5166 -2.4924 0.9475
-13.1019 -2.0452 -2.4925 0.9475
-12.9555 -2.8316 -2.4926 0.9475
-12.8317 -3.3504 -2.4927 0.9475
-12.7621 -3.6079 -2.4928 0.9475
-12.6873 -3.8639 -2.4929 0.9475
-12.6074 -4.1184 -2.4929 0.9475
-12.4323 -4.6223 -2.4931 0.9474
-12.3372 -4.8715 -2.4932 0.9474
-12.2372 -5.1188 -2.4932 0.9474
-11.9076 -5.8480 -2.4935 0.9474
-11.6637 -6.3226 -2.4937 0.9474
-11.1198 -7.2407 -2.4941 0.9474
-10.9725 -7.4632 -2.4942 0.9474
-10.6645 -7.8991 -2.4945 0.9474
-10.5040 -8.1124 -2.4946 0.9474
-10.3393 -8.3224 -2.4947 0.9474
-10.1703 -8.5291 -2.4949 0.9474
-9.6391 -9.1283 -2.4953 0.9474
-8.8764 -9.8756 -2.4958 0.9474
-8.6766 -10.0527 -2.4960 0.9474
-8.2663 -10.3947 -2.4963 0.9474
-7.8426 -10.7201 -2.4966 0.9474
-7.4062 -11.0282 -2.4969 0.9474
-7.1834 -11.1756 -2.4971 0.9474
-6.9576 -11.3186 -2.4972 0.9474
-6.7291 -11.4569 -2.4974 0.9474
-6.4977 -11.5907 -2.4976 0.9474
-6.2638 -11.7198 -2.4978 0.9474
-5.3032 -12.1887 -2.4984 0.9473
-5.0574 -12.2937 -2.4986 0.9473
-4.5596 -12.4889 -2.4990 0.9473
-4.3078 -12.5790 -2.4992 0.9473
-3.5423 -12.8187 -2.4997 0.9473
-3.2840 -12.8882 -2.4999 0.9473
-3.0244 -12.9526 -2.5001 0.9473
-2.5015 -13.0657 -2.5004 0.9473
-2.2384 -13.1143 -2.5006 0.9473
-1.9743 -13.1577 -2.5008 0.9473
-1.7095 -13.1957 -2.5010 0.9473
-1.4439 -13.2284 -2.5012 0.9473
-0.6437 -13.2944 -2.5017 0.9473
0.1591 -13.3119 -2.5023 0.9473
0.9617 -13.2811 -2.5029 0.9472
1.2286 -13.2600 -2.5030 0.9472
1.7611 -13.2018 -2.5034 0.9472
2.0264 -13.1647 -2.5036 0.9472
3.3389 -12.8994 -2.5045 0.9472
3.5979 -12.8305 -2.5047 0.9472
4.1115 -12.6772 -2.5050 0.9472
4.6186 -12.5033 -2.5053 0.9472
5.3651 -12.2046 -2.5058 0.9472
5.6098 -12.0950 -2.5060 0.9472
6.0924 -11.8611 -2.5063 0.9472
6.3302 -11.7370 -2.5065 0.9472
6.5653 -11.6080 -2.5066 0.9472
7.0276 -11.3360 -2.5070 0.9472
7.4787 -11.0455 -2.5072 0.9472
7.6997 -10.8936 -2.5074 0.9472
7.9177 -10.7371 -2.5075 0.9472
8.1325 -10.5763 -2.5077 0.9471
8.5521 -10.2418 -2.5079 0.9471
8.7568 -10.0683 -2.5081 0.9471
8.9580 -9.8907 -2.5082 0.9471
9.3494 -9.5234 -2.5085 0.9471
9.5394 -9.3339 -2.5086 0.9471
9.7257 -9.1407 -2.5087 0.9471
9.9080 -8.9436 -2.5088 0.9471
10.2605 -8.5387 -2.5090 0.9471
11.0681 -7.4671 -2.5095 0.9471
11.2164 -7.2432 -2.5096 0.9471
11.3602 -7.0165 -2.5097 0.9471
11.4994 -6.7868 -2.5098 0.9471
11.6339 -6.5544 -2.5099 0.9471
11.8887 -6.0816 -2.5100 0.9471
12.0090 -5.8415 -2.5101 0.9471
12.1244 -5.5990 -2.5102 0.9471
12.3403 -5.1071 -2.5103 0.9471
12.4408 -4.8581 -2.5103 0.9471
12.7118 -4.0993 -2.5105 0.9471
12.8667 -3.5850 -2.5106 0.9471
12.9364 -3.3255 -2.5106 0.9471
13.0008 -3.0647 -2.5106 0.9471
13.0600 -2.8027 -2.5107 0.9471
13.3028 -1.2103 -2.5107 0.9471
13.3407 -0.6744 -2.5107 0.9471
13.3569 -0.1374 -2.5107 0.9471
13.3514 0.3998 -2.5107 0.9471
13.3406 0.6683 -2.5106 0.9471
13.3243 0.9364 -2.5106 0.9471
13.3026 1.2041 -2.5106 0.9471
13.2755 1.4714 -2.5106 0.9471
13.2052 2.0040 -2.5105 0.9471
13.1134 2.5332 -2.5104 0.9471
13.0596 2.7964 -2.5103 0.9471
12.8663 3.5785 -2.5102 0.9471
12.7113 4.0928 -2.5100 0.9471
12.6260 4.3474 -2.5099 0.9471
12.5357 4.6003 -2.5099 0.9471
12.4402 4.8513 -2.5098 0.9471
12.3398 5.1003 -2.5097 0.9471
12.2343 5.3473 -2.5096 0.9471
12.1238 5.5920 -2.5095 0.9471
11.8882 6.0745 -2.5093 0.9471
11.7632 6.3121 -2.5092 0.9471
11.6334 6.5471 -2.5091 0.9471
11.3598 7.0091 -2.5089 0.9471
10.4644 7.0529 -2.3719 0.9499
10.2773 7.2315 -2.3620 0.9501
10.0457 7.6906 -2.3780 0.9498
9.7950 7.8160 -2.3554 0.9503
9.6353 8.0110 -2.3553 0.9503
9.3044 8.3911 -2.3550 0.9503
9.1333 8.5760 -2.3549 0.9503
8.4127 9.2801 -2.3543 0.9503
8.2238 9.4468 -2.3542 0.9503
8.0317 9.6097 -2.3541 0.9503
7.8363 9.7687 -2.3539 0.9503
7.2317 10.2215 -2.3535 0.9503
7.0242 10.3642 -2.3533 0.9503
6.8139 10.5027 -2.3532 0.9503
6.6009 10.6369 -2.3530 0.9503
6.1670 10.8922 -2.3527 0.9503
5.7233 11.1299 -2.3524 0.9503
5.2703 11.3495 -2.3520 0.9503
5.0407 11.4523 -2.3519 0.9503
4.8090 11.5506 -2.3517 0.9504
4.5755 11.6441 -2.3515 0.9504
4.1029 11.8170 -2.3512 0.9504
3.6239 11.9707 -2.3509 0.9504
3.3822 12.0403 -2.3507 0.9504
2.8949 12.1647 -2.3503 0.9504
2.6495 12.2196 -2.3502 0.9504
2.4030 12.2695 -2.3500 0.9504
2.1556 12.3144 -2.3498 0.9504
1.9074 12.3544 -2.3497 0.9504
1.5911 11.8864 -2.2541 0.9524
0.6573 12.4788 -2.3488 0.9504
0.4062 12.4886 -2.3486 0.9504
0.1489 12.0019 -2.2561 0.9523
-0.3475 12.4875 -2.3481 0.9504
-0.5985 12.4771 -2.3479 0.9504
-0.8492 12.4616 -2.3477 0.9504
-1.0389 11.7543 -2.2180 0.9531
-1.2776 11.7551 -2.2225 0.9530
-1.5175 11.7559 -2.2280 0.9529
-1.7580 11.7525 -2.2336 0.9528
-1.9995 11.7469 -2.2397 0.9527
-2.2422 11.7406 -2.2467 0.9525
-2.4900 11.7505 -2.2577 0.9523
-2.8329 12.1576 -2.3464 0.9505
-3.3190 12.0322 -2.3460 0.9505
-1.7359 10.9677 -2.3472 0.9556
-1.9559 10.9298 -2.3471 0.9556
-2.1752 10.8876 -2.3469 0.9556
-2.6109 10.7900 -2.3466 0.9556
-3.2562 10.6109 -2.3462 0.9556
-3.6798 10.4701 -2.3459 0.9556
-4.0973 10.3125 -2.3456 0.9556
-4.3036 10.2274 -2.3455 0.9556
-4.9116 9.9475 -2.3451 0.9557
-5.3071 9.7409 -2.3448 0.9557
-6.0714 9.2809 -2.3443 0.9557
-6.2564 9.1565 -2.3442 0.9557
-6.4390 9.0284 -2.3441 0.9557
-6.6189 8.8966 -2.3439 0.9557
-6.9706 8.6224 -2.3437 0.9557
-7.1423 8.4801 -2.3436 0.9557
-7.4768 8.1853 -2.3434 0.9557
-8.9199 7.6659 -2.4861 0.9531
-9.6762 6.7540 -2.4943 0.9529
-9.9394 6.3590 -2.4942 0.9529
-10.0649 6.1577 -2.4941 0.9529
-10.1864 5.9538 -2.4940 0.9529
-10.3038 5.7476 -2.4940 0.9529
