ply
format ascii 1.0
element vertex 1589
property float32 x
property float32 y
property float32 z
property float32 I
end_header
-9.8052 -10.2675 -1.3630 0.9445
-9.9028 -10.7955 -1.4064 0.9428
20.9643 -1.3681 -2.4956 0.9189
20.9962 0.7397 -2.4956 0.9189
20.9499 1.5819 -2.4956 0.9189
20.9140 2.0022 -2.4957 0.9189
20.8698 2.4217 -2.4957 0.9189
20.4291 4.9123 -2.4959 0.9188
20.3267 5.3215 -2.4959 0.9188
20.0974 6.1333 -2.4960 0.9188
19.8358 6.9354 -2.4961 0.9188
19.6930 7.3324 -2.4961 0.9188
19.0790 7.9897 -2.4570 0.9201
18.0776 8.0006 -2.3483 0.9235
17.8830 8.3477 -2.3443 0.9236
17.3495 9.4097 -2.3445 0.9236
16.7531 10.4379 -2.3447 0.9236
6.3210 5.7470 -1.0148 0.9662
6.0720 5.7475 -0.9931 0.9669
5.8384 5.7529 -0.9736 0.9675
5.6136 5.7581 -0.9552 0.9681
5.3979 5.7639 -0.9380 0.9687
5.1883 5.7679 -0.9215 0.9692
4.9886 5.7750 -0.9065 0.9697
4.7942 5.7806 -0.8921 0.9702
4.6076 5.7882 -0.8788 0.9706
4.4293 5.7995 -0.8668 0.9710
4.2589 5.8147 -0.8562 0.9714
4.0985 5.8380 -0.8473 0.9717
3.8739 6.0181 -0.8502 0.9716
3.8124 6.1923 -0.8638 0.9711
3.7699 6.4078 -0.8831 0.9705
3.7584 7.0187 -0.9457 0.9684
7.6449 16.6078 -2.1717 0.9290
7.2434 16.6051 -2.1519 0.9296
6.8489 16.6025 -2.1334 0.9302
6.4220 16.4996 -2.1031 0.9312
6.0425 16.4971 -2.0869 0.9317
5.0969 17.0258 -2.1111 0.9309
5.1360 18.5001 -2.2807 0.9256
4.7638 18.6004 -2.2808 0.9256
4.3897 18.6932 -2.2809 0.9256
3.2065 16.6283 -2.0116 0.9341
2.8611 16.6260 -2.0040 0.9343
1.8221 16.4691 -1.9682 0.9354
1.4879 16.4669 -1.9640 0.9356
1.1551 16.4647 -1.9606 0.9357
-0.1972 19.2122 -2.2823 0.9255
-0.9683 19.1907 -2.2825 0.9255
-1.4984 16.4994 -1.9680 0.9354
-2.1814 16.5925 -1.9879 0.9348
-2.4995 16.4493 -1.9764 0.9352
-2.8365 16.4381 -1.9815 0.9350
-3.1771 16.4359 -1.9885 0.9348
-3.5203 16.4336 -1.9964 0.9345
-3.8663 16.4313 -2.0051 0.9343
-4.2540 16.5787 -2.0331 0.9334
-6.1348 17.8246 -2.2392 0.9269
-6.2348 16.9981 -2.1507 0.9297
-7.2322 16.5590 -2.1464 0.9298
-8.4237 16.5010 -2.2007 0.9281
-8.8442 16.4982 -2.2236 0.9274
-9.2737 16.4954 -2.2478 0.9266
-9.7129 16.4925 -2.2736 0.9258
-11.4368 16.2752 -2.3629 0.9230
-12.0728 15.7925 -2.3613 0.9230
-12.6879 15.2842 -2.3596 0.9231
-12.9873 15.0208 -2.3587 0.9231
-13.2811 14.7514 -2.3578 0.9232
-13.5692 14.4761 -2.3569 0.9232
-14.1278 13.9084 -2.3550 0.9232
-14.3980 13.6162 -2.3540 0.9233
-14.6690 13.3248 -2.3540 0.9233
-15.6924 12.1066 -2.3543 0.9233
-12.2000 8.2909 -1.7522 0.9423
-16.8288 10.4744 -2.3546 0.9233
-17.0361 10.1347 -2.3547 0.9233
-17.7956 8.7362 -2.3549 0.9233
-18.1326 8.0151 -2.3549 0.9232
-18.2901 7.6496 -2.3550 0.9232
-18.7326 7.3965 -2.3923 0.9221
-20.3158 5.7469 -2.5079 0.9185
-20.5305 4.9268 -2.5080 0.9185
-20.6254 4.5137 -2.5080 0.9185
-20.9214 2.8447 -2.5080 0.9185
-20.9744 2.4242 -2.5080 0.9185
-21.0189 2.0026 -2.5080 0.9185
-21.0548 1.5802 -2.5081 0.9185
-21.1012 0.7338 -2.5080 0.9185
-21.1117 0.3101 -2.5080 0.9185
-21.1069 -0.5376 -2.5080 0.9185
-21.0680 -1.3844 -2.5080 0.9185
-21.0359 -1.8071 -2.5080 0.9185
-20.9952 -2.2290 -2.5079 0.9185
-20.8884 -3.0699 -2.5079 0.9185
-20.8223 -3.4885 -2.5079 0.9185
-20.5737 -4.7353 -2.5078 0.9185
-20.3664 -5.5572 -2.5077 0.9185
-19.3845 -8.3539 -2.5073 0.9185
-18.8451 -9.5048 -2.5071 0.9185
-18.4474 -10.2531 -2.5070 0.9185
-14.0505 -9.3587 -2.0053 0.9343
-13.4525 -9.3555 -1.9464 0.9361
-12.8828 -9.3486 -1.8908 0.9379
-12.3340 -9.3340 -1.8374 0.9396
-10.8880 -9.3216 -1.7026 0.9439
-10.1413 -9.4135 -1.6436 0.9458
-9.8168 -9.8750 -1.6540 0.9455
17.6021 -0.7942 -2.4966 0.9313
17.6199 -0.0870 -2.4966 0.9313
17.6181 0.2667 -2.4966 0.9313
17.5934 0.9738 -2.4966 0.9313
17.5403 1.6792 -2.4966 0.9313
17.5033 2.0310 -2.4967 0.9313
17.4591 2.3820 -2.4967 0.9313
17.4079 2.7320 -2.4967 0.9313
17.2125 3.7750 -2.4968 0.9313
17.0475 4.4630 -2.4969 0.9313
16.9547 4.8044 -2.4969 0.9313
16.8551 5.1438 -2.4969 0.9313
16.5158 6.1493 -2.4970 0.9313
16.3893 6.4798 -2.4971 0.9313
16.1166 7.1327 -2.4972 0.9313
15.9705 7.4549 -2.4972 0.9313
15.7894 7.7602 -2.4928 0.9314
15.3785 7.9454 -2.4526 0.9325
14.6640 7.9532 -2.3636 0.9348
13.8714 9.0340 -2.3455 0.9353
8.2881 5.6379 -1.4203 0.9603
7.9322 5.6320 -1.3784 0.9615
7.6044 5.6322 -1.3408 0.9625
7.3013 5.6382 -1.3071 0.9634
7.0119 5.6429 -1.2753 0.9643
6.2278 5.6623 -1.1926 0.9666
5.9903 5.6701 -1.1687 0.9672
5.5480 5.6908 -1.1261 0.9684
4.9411 5.7201 -1.0710 0.9699
4.7552 5.7336 -1.0554 0.9704
4.5655 5.7353 -1.0387 0.9708
4.3929 5.7518 -1.0255 0.9712
4.2252 5.7687 -1.0132 0.9715
4.0636 5.7884 -1.0021 0.9718
3.8440 5.9717 -1.0063 0.9717
3.7341 6.3470 -1.0434 0.9707
3.6840 6.5599 -1.0660 0.9701
7.2393 14.9299 -2.3510 0.9352
6.6378 15.2168 -2.3523 0.9351
5.4010 15.7156 -2.3546 0.9351
4.7679 15.9266 -2.3556 0.9350
3.4775 16.2697 -2.3573 0.9350
2.8074 16.3138 -2.3455 0.9353
2.4930 16.4570 -2.3584 0.9350
2.1624 16.5059 -2.3587 0.9350
1.1551 16.4647 -2.3386 0.9355
0.4873 16.2984 -2.3103 0.9362
-0.1673 16.2940 -2.3088 0.9363
-2.1404 16.2809 -2.3267 0.9358
-3.1614 16.3546 -2.3602 0.9349
-3.8149 16.2125 -2.3599 0.9349
-4.1392 16.1314 -2.3597 0.9349
-5.1012 15.8484 -2.3590 0.9350
-6.0435 15.5066 -2.3581 0.9350
-6.3526 15.3798 -2.3577 0.9350
-6.6590 15.2467 -2.3573 0.9350
-6.9625 15.1073 -2.3569 0.9350
-7.2630 14.9617 -2.3565 0.9350
-7.5605 14.8100 -2.3560 0.9350
-7.8546 14.6522 -2.3555 0.9350
-8.7164 14.1433 -2.3540 0.9351
-9.2725 13.7751 -2.3528 0.9351
-9.5461 13.5847 -2.3525 0.9351
-10.3475 12.9867 -2.3527 0.9351
-10.8611 12.5617 -2.3529 0.9351
-11.1114 12.3415 -2.3530 0.9351
-11.3572 12.1163 -2.3530 0.9351
-11.5985 11.8862 -2.3531 0.9351
-11.8351 11.6512 -2.3532 0.9351
-7.3837 6.7072 -1.4134 0.9605
-12.7329 10.6654 -2.3534 0.9351
-12.9447 10.4079 -2.3535 0.9351
-13.1514 10.1462 -2.3535 0.9351
-13.5487 9.6106 -2.3536 0.9351
-12.1091 8.2291 -2.0744 0.9426
-13.9241 9.0593 -2.3537 0.9351
-13.1900 8.2096 -2.2013 0.9392
-14.6070 7.9138 -2.3539 0.9351
-15.1591 7.4419 -2.3927 0.9341
-16.1613 7.1437 -2.5036 0.9311
-16.4560 6.4975 -2.5068 0.9310
-16.9249 5.1568 -2.5069 0.9310
-17.0251 4.8160 -2.5069 0.9310
-17.1185 4.4733 -2.5070 0.9310
-17.2050 4.1288 -2.5070 0.9310
-17.3570 3.4349 -2.5070 0.9310
-17.4226 3.0858 -2.5070 0.9310
-17.4811 2.7354 -2.5070 0.9310
-17.5325 2.3839 -2.5070 0.9310
-17.5769 2.0315 -2.5070 0.9310
-17.6141 1.6782 -2.5070 0.9310
-17.6443 1.3243 -2.5070 0.9310
-17.6673 0.9698 -2.5070 0.9310
-17.6832 0.6150 -2.5070 0.9310
-17.6880 -0.4505 -2.5070 0.9310
-17.6285 -1.5143 -2.5070 0.9310
-17.5049 -2.5726 -2.5069 0.9310
-17.3178 -3.6215 -2.5068 0.9310
-17.2414 -3.9684 -2.5068 0.9310
-17.1581 -4.3136 -2.5068 0.9310
-16.8666 -5.3383 -2.5067 0.9310
-16.7557 -5.6758 -2.5066 0.9310
-16.6381 -6.0109 -2.5066 0.9310
-16.5138 -6.3435 -2.5065 0.9310
-16.3828 -6.6737 -2.5065 0.9310
-16.1011 -7.3256 -2.5064 0.9310
-15.9505 -7.6472 -2.5063 0.9310
-15.7934 -7.9657 -2.5063 0.9310
-15.6300 -8.2809 -2.5062 0.9310
-15.4603 -8.5928 -2.5062 0.9310
-15.1021 -9.2061 -2.5060 0.9310
-14.7197 -9.8044 -2.5059 0.9310
-13.4494 -9.3534 -2.3212 0.9360
-14.3135 -10.3868 -2.5058 0.9310
-10.1122 -9.3865 -1.9549 0.9458
-9.8710 -9.5386 -1.9449 0.9461
-9.8924 -10.7842 -2.0735 0.9426
15.0751 -1.5935 -2.4973 0.9404
15.1040 -1.2906 -2.4973 0.9404
15.1437 -0.6833 -2.4973 0.9404
15.1499 0.5337 -2.4973 0.9404
15.1362 0.8378 -2.4973 0.9404
15.0905 1.4447 -2.4974 0.9404
15.0586 1.7473 -2.4974 0.9404
15.0205 2.0493 -2.4974 0.9404
14.9765 2.3504 -2.4974 0.9404
14.9264 2.6506 -2.4974 0.9404
14.7403 3.5444 -2.4975 0.9404
14.5865 4.1333 -2.4976 0.9404
14.0998 5.5746 -2.4977 0.9404
13.9853 5.8566 -2.4978 0.9404
13.3292 7.2293 -2.4980 0.9404
13.1788 7.4939 -2.4975 0.9404
8.5843 5.8394 -1.7103 0.9588
7.5863 5.6188 -1.5552 0.9625
7.2860 5.6264 -1.5165 0.9634
6.7074 5.6235 -1.4419 0.9651
6.4388 5.6222 -1.4082 0.9659
5.9396 5.6222 -1.3473 0.9674
5.7079 5.6243 -1.3201 0.9680
5.3005 5.6599 -1.2774 0.9691
4.8830 5.6528 -1.2306 0.9702
4.5086 5.6638 -1.1926 0.9711
4.3354 5.6766 -1.1767 0.9715
4.0164 5.7211 -1.1516 0.9721
3.7861 5.8817 -1.1523 0.9720
3.7093 6.0247 -1.1655 0.9717
3.6399 6.1870 -1.1826 0.9713
3.5938 6.3992 -1.2091 0.9707
5.9596 12.9466 -2.3479 0.9439
5.6987 13.0640 -2.3480 0.9439
5.1701 13.2832 -2.3482 0.9439
4.9025 13.3847 -2.3482 0.9439
4.6330 13.4809 -2.3483 0.9439
3.8136 13.7368 -2.3486 0.9438
3.2593 13.8798 -2.3487 0.9438
2.9801 13.9425 -2.3488 0.9438
2.7000 14.0015 -2.3491 0.9438
2.1363 14.1021 -2.3497 0.9438
0.7127 14.2519 -2.3508 0.9438
0.4265 14.2642 -2.3509 0.9438
0.1400 14.2707 -2.3511 0.9438
-0.1465 14.2713 -2.3512 0.9438
-0.4330 14.2660 -2.3513 0.9438
-1.0053 14.2379 -2.3514 0.9438
-1.2910 14.2150 -2.3514 0.9438
-2.1442 14.1112 -2.3514 0.9438
-2.4270 14.0650 -2.3513 0.9438
-2.7087 14.0129 -2.3512 0.9438
-2.9894 13.9551 -2.3511 0.9438
-3.5467 13.8222 -2.3508 0.9438
-4.3726 13.5847 -2.3510 0.9438
-5.1828 13.2981 -2.3512 0.9438
-5.7128 13.0802 -2.3514 0.9438
-5.9744 12.9633 -2.3515 0.9438
-6.2337 12.8412 -2.3515 0.9438
-7.2445 12.3012 -2.3518 0.9438
-7.4902 12.1537 -2.3519 0.9438
-7.7329 12.0012 -2.3520 0.9438
-8.2089 11.6818 -2.3521 0.9438
-8.8979 11.1674 -2.3523 0.9438
-9.3395 10.8018 -2.3524 0.9438
-9.5547 10.6124 -2.3525 0.9438
-10.3762 9.8127 -2.3527 0.9437
-7.2968 6.6282 -1.6240 0.9608
-8.0314 6.1962 -1.6711 0.9597
-8.3778 5.9427 -1.6921 0.9592
-11.9728 7.7898 -2.3531 0.9437
-13.1168 7.4508 -2.4851 0.9407
-13.3530 7.2344 -2.5019 0.9403
-13.6551 6.7035 -2.5060 0.9402
-13.9135 6.1502 -2.5060 0.9402
-14.0344 5.8697 -2.5061 0.9402
-14.1495 5.5868 -2.5061 0.9402
-14.2589 5.3017 -2.5061 0.9402
-14.3627 5.0145 -2.5062 0.9402
-14.4605 4.7252 -2.5062 0.9402
-14.5526 4.4340 -2.5062 0.9402
-14.6388 4.1410 -2.5062 0.9402
-14.7191 3.8463 -2.5062 0.9402
-14.9241 2.9534 -2.5063 0.9402
-14.9805 2.6532 -2.5063 0.9402
-15.1131 1.7467 -2.5063 0.9402
-15.1452 1.4430 -2.5063 0.9402
-15.2045 0.5288 -2.5063 0.9402
-15.2121 0.2234 -2.5063 0.9402
-15.2134 -0.0820 -2.5063 0.9402
-15.1978 -0.6926 -2.5063 0.9402
-15.1283 -1.6061 -2.5062 0.9402
-15.0929 -1.9094 -2.5062 0.9402
-15.0038 -2.5137 -2.5062 0.9402
-14.9502 -2.8144 -2.5061 0.9402
-14.7532 -3.7091 -2.5061 0.9402
-14.5027 -4.5902 -2.5060 0.9402
-14.3063 -5.1685 -2.5059 0.9402
-14.1995 -5.4545 -2.5059 0.9402
-13.8448 -6.2990 -2.5057 0.9402
-13.7153 -6.5756 -2.5057 0.9402
-13.2938 -7.3887 -2.5056 0.9402
-12.9860 -7.9161 -2.5054 0.9402
-12.8242 -8.1750 -2.5054 0.9402
-12.6572 -8.4306 -2.5053 0.9402
-12.4851 -8.6828 -2.5053 0.9402
-12.3080 -8.9315 -2.5052 0.9402
-11.9390 -9.4179 -2.5051 0.9402
-11.7473 -9.6554 -2.5050 0.9402
-10.4789 -9.3424 -2.3127 0.9447
-11.1439 -10.3442 -2.5048 0.9402
-10.9337 -10.5656 -2.5048 0.9402
-10.7191 -10.7826 -2.5047 0.9402
13.2156 -1.3970 -2.4979 0.9473
13.2610 -0.8654 -2.4978 0.9473
13.2757 -0.5990 -2.4979 0.9473
13.2851 -0.3323 -2.4979 0.9473
13.2891 -0.0656 -2.4979 0.9473
13.2517 1.0007 -2.4979 0.9473
13.2290 1.2665 -2.4979 0.9473
13.1677 1.7965 -2.4979 0.9473
13.1291 2.0605 -2.4980 0.9473
13.0360 2.5859 -2.4980 0.9473
12.5462 4.3867 -2.4982 0.9473
12.4558 4.6377 -2.4982 0.9473
11.9292 5.8630 -2.4984 0.9473
11.8093 6.1014 -2.4984 0.9473
11.5553 6.5707 -2.4985 0.9473
11.2826 7.0295 -2.4986 0.9473
8.2953 5.6428 -1.8857 0.9600
8.2483 5.8565 -1.9014 0.9597
7.2869 5.6270 -1.7305 0.9632
7.0019 5.6350 -1.6893 0.9641
6.7244 5.6378 -1.6494 0.9649
5.4715 5.6123 -1.4733 0.9686
5.0462 5.6099 -1.4183 0.9698
4.6520 5.6091 -1.3697 0.9708
4.1481 5.6635 -1.3195 0.9718
3.9830 5.6736 -1.3030 0.9722
3.8510 5.7265 -1.2971 0.9723
3.6664 5.9551 -1.3145 0.9719
3.6255 6.1624 -1.3439 0.9713
3.6019 6.4135 -1.3826 0.9705
4.9950 11.4509 -2.3482 0.9504
4.5316 11.6428 -2.3483 0.9504
3.8230 11.8956 -2.3485 0.9504
3.5835 11.9703 -2.3486 0.9504
3.3426 12.0402 -2.3487 0.9504
3.1003 12.1053 -2.3488 0.9504
2.6120 12.2207 -2.3489 0.9504
2.3663 12.2711 -2.3490 0.9504
1.8719 12.3570 -2.3491 0.9504
1.6235 12.3924 -2.3492 0.9504
1.3745 12.4229 -2.3493 0.9504
0.8747 12.4689 -2.3494 0.9504
0.3736 12.4947 -2.3496 0.9504
0.1227 12.5001 -2.3496 0.9504
-0.9793 6.4450 -1.2253 0.9738
-1.1019 6.3858 -1.2180 0.9740
-1.2262 6.3436 -1.2144 0.9740
-1.3523 6.3130 -1.2135 0.9741
-1.7319 6.2275 -1.2149 0.9740
-1.8604 6.2043 -1.2175 0.9740
-4.0704 11.8263 -2.3509 0.9504
-4.3071 11.7426 -2.3509 0.9504
-4.7752 11.5609 -2.3511 0.9504
-5.0065 11.4630 -2.3511 0.9504
-5.2357 11.3605 -2.3512 0.9504
-5.4629 11.2534 -2.3513 0.9504
-5.6879 11.1418 -2.3513 0.9504
-5.9105 11.0257 -2.3514 0.9504
-6.7767 10.5171 -2.3516 0.9504
-7.1937 10.2371 -2.3518 0.9504
-7.3980 10.0909 -2.3518 0.9503
-8.1843 9.4658 -2.3520 0.9503
-8.5581 9.1300 -2.3521 0.9503
-6.7869 6.9553 -1.8266 0.9612
-7.0596 6.6762 -1.8263 0.9612
-7.4739 6.5201 -1.8642 0.9604
-7.8109 6.2802 -1.8838 0.9600
-8.2238 6.0852 -1.9229 0.9592
-11.1545 7.2573 -2.5013 0.9473
-11.3144 7.0422 -2.5049 0.9472
-11.4552 6.8147 -2.5053 0.9472
-11.5899 6.5835 -2.5054 0.9472
-11.8451 6.1131 -2.5054 0.9472
-12.2979 5.1434 -2.5055 0.9472
-12.3988 4.8956 -2.5056 0.9472
-12.4947 4.6457 -2.5056 0.9472
-12.6713 4.1405 -2.5056 0.9472
-12.8274 3.6286 -2.5057 0.9472
-12.9629 3.1108 -2.5057 0.9472
-13.1268 2.3249 -2.5057 0.9472
-13.2096 1.7961 -2.5057 0.9472
-13.2711 1.2644 -2.5057 0.9472
-13.2938 0.9978 -2.5057 0.9472
-13.3111 0.7307 -2.5057 0.9472
-13.3268 -0.3395 -2.5057 0.9472
-13.3172 -0.6069 -2.5057 0.9472
-13.3023 -0.8741 -2.5057 0.9472
-13.2820 -1.1410 -2.5057 0.9472
-13.2253 -1.6732 -2.5057 0.9472
-13.1890 -1.9383 -2.5056 0.9472
-13.1473 -2.2027 -2.5056 0.9472
-13.1004 -2.4662 -2.5056 0.9472
-12.9278 -3.2501 -2.5055 0.9472
-12.7083 -4.0222 -2.5055 0.9472
-12.5363 -4.5290 -2.5054 0.9472
-12.3441 -5.0284 -2.5053 0.9472
-12.2405 -5.2752 -2.5053 0.9472
-12.1319 -5.5197 -2.5052 0.9472
-12.0185 -5.7621 -2.5052 0.9472
-11.9002 -6.0021 -2.5052 0.9472
-11.7771 -6.2396 -2.5051 0.9472
-11.5168 -6.7071 -2.5050 0.9472
-11.0915 -7.3878 -2.5049 0.9472
-10.4623 -8.2530 -2.5047 0.9472
-9.9459 -8.8672 -2.5045 0.9472
-9.7657 -9.0649 -2.5045 0.9472
-9.3935 -9.4491 -2.5044 0.9472
-9.2017 -9.6356 -2.5043 0.9472
11.7535 -1.2424 -2.4983 0.9528
11.7760 -1.0062 -2.4983 0.9528
11.8069 -0.5327 -2.4983 0.9528
11.8153 -0.2956 -2.4983 0.9528
11.8177 0.1789 -2.4983 0.9528
11.8010 0.6532 -2.4983 0.9528
11.7856 0.8899 -2.4983 0.9528
11.4922 2.7633 -2.4985 0.9528
11.3722 3.2225 -2.4985 0.9528
11.1580 3.9013 -2.4986 0.9528
11.0775 4.1245 -2.4986 0.9528
10.9033 4.5660 -2.4987 0.9528
10.8096 4.7840 -2.4987 0.9528
10.7115 5.0001 -2.4987 0.9528
10.6091 5.2142 -2.4988 0.9528
10.5025 5.4262 -2.4988 0.9528
10.2765 5.8436 -2.4989 0.9528
9.9066 6.4519 -2.4990 0.9528
8.3133 5.6550 -2.1253 0.9597
7.9719 5.6602 -2.0667 0.9608
7.2885 5.6283 -1.9465 0.9631
7.0077 5.6396 -1.9014 0.9639
6.4673 5.6471 -1.8149 0.9655
6.2094 5.6456 -1.7740 0.9663
5.2497 5.6057 -1.6234 0.9691
5.0365 6.0727 -1.6677 0.9683
4.2886 5.6152 -1.4935 0.9715
3.8507 5.7261 -1.4586 0.9722
3.7517 5.8282 -1.4651 0.9721
3.6163 6.1468 -1.5075 0.9713
3.5831 6.3802 -1.5468 0.9705
3.5709 6.6685 -1.5990 0.9695
3.5383 6.9389 -1.6464 0.9687
4.8468 9.9957 -2.3482 0.9556
4.6453 10.0913 -2.3482 0.9556
4.4419 10.1828 -2.3483 0.9556
4.0298 10.3534 -2.3484 0.9556
2.5403 10.8179 -2.3489 0.9556
2.3227 10.8670 -2.3490 0.9556
1.8847 10.9521 -2.3491 0.9556
1.6645 10.9880 -2.3491 0.9556
1.2222 11.0466 -2.3493 0.9556
0.7778 11.0874 -2.3494 0.9556
0.5551 11.1011 -2.3495 0.9556
0.1091 11.1151 -2.3496 0.9556
-0.1141 11.1153 -2.3497 0.9556
-0.3372 11.1111 -2.3497 0.9556
-0.7830 11.0892 -2.3499 0.9556
-0.9356 6.1574 -1.3165 0.9749
-1.0265 5.9487 -1.2760 0.9756
-1.2711 5.9337 -1.2827 0.9755
-1.3931 5.9205 -1.2857 0.9754
-1.6438 5.9108 -1.2969 0.9752
-1.7711 5.9065 -1.3034 0.9751
-2.7846 7.1447 -1.6209 0.9691
-2.9710 7.1929 -1.6450 0.9687
-3.2996 7.1595 -1.6664 0.9683
-4.8572 10.0058 -2.3511 0.9555
-5.0572 9.9065 -2.3511 0.9555
-5.2552 9.8032 -2.3512 0.9555
-5.4511 9.6960 -2.3512 0.9555
-5.6448 9.5848 -2.3513 0.9555
-6.3960 9.1019 -2.3515 0.9555
-6.5776 8.9719 -2.3515 0.9555
-7.4443 8.2684 -2.3518 0.9555
-7.6089 8.1175 -2.3518 0.9555
-6.8178 6.9869 -2.0635 0.9609
-8.3006 7.5400 -2.3704 0.9552
-7.4384 6.4891 -2.0865 0.9604
-7.7852 6.2595 -2.1116 0.9600
-8.1635 6.0406 -2.1466 0.9593
-8.5972 5.8425 -2.1972 0.9584
-9.9328 6.4625 -2.5049 0.9527
-10.0607 6.2619 -2.5049 0.9527
-10.1845 6.0587 -2.5049 0.9527
-10.7410 5.0079 -2.5051 0.9527
-10.8395 4.7913 -2.5051 0.9527
-10.9336 4.5728 -2.5051 0.9527
-11.1085 4.1303 -2.5052 0.9527
-11.1892 3.9065 -2.5052 0.9527
-11.2655 3.6811 -2.5052 0.9527
-11.4043 3.2260 -2.5052 0.9527
-11.4668 2.9964 -2.5052 0.9527
-11.5247 2.7657 -2.5053 0.9527
-11.6265 2.3006 -2.5053 0.9527
-11.6704 2.0670 -2.5053 0.9527
-11.7096 1.8323 -2.5053 0.9527
-11.7441 1.5968 -2.5053 0.9527
-11.8189 0.8871 -2.5053 0.9527
-11.8343 0.6496 -2.5053 0.9527
-11.8450 0.4119 -2.5053 0.9527
-11.8482 -0.3018 -2.5053 0.9527
-11.7581 -1.4875 -2.5052 0.9527
-11.7258 -1.7233 -2.5052 0.9527
-11.6887 -1.9583 -2.5052 0.9527
-11.6005 -2.4259 -2.5052 0.9527
-11.5494 -2.6583 -2.5051 0.9527
-11.4936 -2.8895 -2.5051 0.9527
-11.3681 -3.3485 -2.5051 0.9527
-11.2985 -3.5760 -2.5050 0.9527
-11.2243 -3.8021 -2.5050 0.9527
-10.6853 -5.1229 -2.5048 0.9527
-10.5802 -5.3363 -2.5048 0.9527
-10.4708 -5.5475 -2.5048 0.9527
-10.3571 -5.7565 -2.5047 0.9527
-10.1174 -6.1674 -2.5046 0.9527
-9.9914 -6.3692 -2.5046 0.9527
-9.8613 -6.5684 -2.5046 0.9527
-9.4476 -7.1496 -2.5044 0.9527
-8.6827 -8.0596 -2.5042 0.9527
10.6207 -0.4792 -2.4986 0.9573
10.6314 -0.0525 -2.4986 0.9573
10.6249 0.3743 -2.4987 0.9573
10.6153 0.5875 -2.4987 0.9573
10.6014 0.8005 -2.4987 0.9573
10.5342 1.4372 -2.4987 0.9573
10.4681 1.8589 -2.4987 0.9573
10.4288 2.0687 -2.4988 0.9573
10.3852 2.2777 -2.4988 0.9573
10.1694 3.1035 -2.4989 0.9573
9.9644 3.7101 -2.4989 0.9573
9.6351 4.4977 -2.4990 0.9572
9.5430 4.6902 -2.4991 0.9572
9.1365 5.4409 -2.4992 0.9572
9.0256 5.6233 -2.4993 0.9572
8.9110 5.8035 -2.4993 0.9572
7.6293 5.6507 -2.2313 0.9617
8.4173 6.5000 -2.4995 0.9572
7.0378 5.6638 -2.1231 0.9636
6.8336 5.7292 -2.0958 0.9640
6.1732 5.6126 -1.9608 0.9663
5.9342 5.6170 -1.9204 0.9670
5.7139 5.6303 -1.8853 0.9676
5.2485 5.6044 -1.8046 0.9689
4.8502 5.6148 -1.7438 0.9700
4.6400 5.5946 -1.7082 0.9706
4.1164 5.6202 -1.6373 0.9718
3.9713 5.6568 -1.6244 0.9720
3.8439 5.7161 -1.6189 0.9721
3.6539 5.9348 -1.6380 0.9718
3.5258 6.2781 -1.6923 0.9708
3.4985 6.5333 -1.7418 0.9700
3.5045 6.8726 -1.8131 0.9688
4.3594 8.9906 -2.3483 0.9598
4.1782 9.0766 -2.3484 0.9598
3.9952 9.1588 -2.3484 0.9598
3.8106 9.2374 -2.3485 0.9598
3.6245 9.3123 -2.3485 0.9598
3.4369 9.3834 -2.3486 0.9598
3.2479 9.4507 -2.3486 0.9598
2.8661 9.5740 -2.3488 0.9598
2.6734 9.6298 -2.3488 0.9598
2.4796 9.6818 -2.3489 0.9598
2.2848 9.7298 -2.3489 0.9598
2.0891 9.7740 -2.3490 0.9598
0.7500 6.7785 -1.6028 0.9724
0.3317 6.6328 -1.5608 0.9731
-0.0691 6.7355 -1.5831 0.9727
-0.2094 6.9004 -1.6225 0.9720
-0.3500 6.9371 -1.6325 0.9719
-0.7013 6.3127 -1.4928 0.9742
-0.7974 6.0657 -1.4378 0.9752
-1.3807 5.8678 -1.4167 0.9755
-1.5046 5.8637 -1.4228 0.9754
-1.7563 5.8569 -1.4371 0.9752
-2.0140 5.8515 -1.4544 0.9749
-2.1461 5.8510 -1.4647 0.9747
-2.2781 5.8451 -1.4744 0.9746
-2.7219 6.2321 -1.5983 0.9724
-3.2115 6.2909 -1.6600 0.9714
-4.9023 8.7199 -2.3510 0.9597
-5.0765 8.6199 -2.3511 0.9597
-5.2486 8.5164 -2.3511 0.9597
-5.7521 8.1855 -2.3513 0.9597
-6.0762 7.9484 -2.3514 0.9597
-6.2347 7.8249 -2.3514 0.9597
-6.3906 7.6983 -2.3515 0.9597
-7.0758 7.5487 -2.4317 0.9584
-6.7643 6.9321 -2.2763 0.9610
-6.9928 6.8842 -2.3062 0.9605
-7.8826 7.1604 -2.5028 0.9572
-8.0296 7.0049 -2.5043 0.9572
-8.1687 6.8424 -2.5044 0.9572
-8.3046 6.6771 -2.5044 0.9572
-8.4371 6.5091 -2.5044 0.9572
-8.2031 6.0699 -2.3983 0.9589
-8.3966 5.9560 -2.4195 0.9586
-8.8139 5.9897 -2.5045 0.9572
-8.9325 5.8117 -2.5046 0.9572
-9.0475 5.6313 -2.5046 0.9572
-9.2664 5.2637 -2.5046 0.9572
-9.5667 4.6965 -2.5047 0.9572
-9.7477 4.3088 -2.5048 0.9572
-9.8323 4.1123 -2.5048 0.9572
-9.9130 3.9141 -2.5048 0.9572
-9.9896 3.7143 -2.5048 0.9572
-10.0622 3.5131 -2.5048 0.9572
-10.1308 3.3104 -2.5049 0.9572
-10.2556 2.9011 -2.5049 0.9572
-10.3118 2.6946 -2.5049 0.9572
-10.3639 2.4871 -2.5049 0.9572
-10.4118 2.2785 -2.5049 0.9572
-10.4949 1.8588 -2.5049 0.9572
-10.5611 1.4360 -2.5049 0.9572
-10.5878 1.2237 -2.5049 0.9572
-10.6103 1.0109 -2.5049 0.9572
-10.6423 0.5842 -2.5049 0.9572
-10.6519 0.3704 -2.5049 0.9572
-10.6571 0.1565 -2.5049 0.9572
-10.6472 -0.4852 -2.5049 0.9572
-10.6352 -0.6989 -2.5049 0.9572
-10.5985 -1.1252 -2.5049 0.9572
-10.4321 -2.1816 -2.5048 0.9572
-10.3861 -2.3905 -2.5048 0.9572
-10.3360 -2.5985 -2.5048 0.9572
-10.2816 -2.8055 -2.5048 0.9572
-10.0939 -3.4192 -2.5047 0.9572
-10.0231 -3.6211 -2.5047 0.9572
-9.9483 -3.8215 -2.5046 0.9572
-9.7866 -4.2176 -2.5046 0.9572
-9.4163 -4.9888 -2.5045 0.9572
-9.3141 -5.1768 -2.5044 0.9572
-9.2082 -5.3627 -2.5044 0.9572
-9.0985 -5.5464 -2.5044 0.9572
-8.8683 -5.9069 -2.5043 0.9572
-8.6238 -6.2579 -2.5042 0.9572
-8.4963 -6.4297 -2.5042 0.9572
-8.3653 -6.5989 -2.5041 0.9572
-8.2310 -6.7654 -2.5041 0.9572
-8.0934 -6.9291 -2.5040 0.9572
-7.9525 -7.0900 -2.5040 0.9572
-7.6613 -7.4033 -2.5039 0.9572
9.5980 -1.0146 -2.4989 0.9609
9.6416 -0.4350 -2.4989 0.9609
9.6513 -0.0476 -2.4989 0.9609
9.6504 0.1461 -2.4989 0.9609
9.6455 0.3398 -2.4989 0.9609
9.6368 0.5334 -2.4990 0.9609
9.6077 0.9198 -2.4990 0.9609
9.5350 1.4964 -2.4990 0.9609
9.5031 1.6876 -2.4990 0.9609
9.4674 1.8780 -2.4990 0.9609
9.3845 2.2566 -2.4991 0.9609
9.3374 2.4445 -2.4991 0.9609
9.1735 3.0022 -2.4991 0.9609
9.1115 3.1858 -2.4992 0.9609
8.9764 3.5490 -2.4992 0.9609
8.4855 4.6022 -2.4994 0.9609
8.2941 4.9393 -2.4995 0.9609
8.1934 5.1048 -2.4995 0.9609
7.8716 5.5890 -2.4996 0.9609
7.6412 5.9006 -2.4997 0.9609
5.9353 5.6181 -2.1160 0.9668
5.2853 5.6437 -2.0020 0.9686
5.0576 5.6227 -1.9581 0.9692
4.8948 5.6663 -1.9387 0.9695
4.6647 5.6244 -1.8919 0.9703
4.4528 5.5938 -1.8512 0.9709
4.3513 5.6973 -1.8562 0.9708
3.9627 5.6446 -1.7857 0.9719
3.8270 5.6909 -1.7757 0.9721
3.5713 6.0703 -1.8235 0.9713
3.5097 6.5541 -1.9250 0.9697
3.5503 6.9624 -2.0235 0.9682
3.7927 8.2392 -2.3485 0.9632
3.6266 8.3139 -2.3485 0.9632
3.4591 8.3852 -2.3486 0.9632
3.2901 8.4532 -2.3486 0.9632
2.9483 8.5788 -2.3487 0.9632
2.6017 8.6906 -2.3488 0.9632
2.4267 8.7413 -2.3489 0.9632
2.0740 8.8320 -2.3490 0.9632
1.7179 8.9086 -2.3491 0.9632
1.5387 8.9415 -2.3491 0.9632
0.8100 6.1825 -1.6144 0.9746
0.6798 6.1443 -1.6006 0.9748
0.1831 6.1248 -1.5865 0.9750
0.0601 6.1211 -1.5849 0.9750
-0.0628 6.1150 -1.5834 0.9750
-0.5633 6.2030 -1.6127 0.9746
-0.7673 5.8365 -1.5242 0.9760
-1.0054 5.8269 -1.5310 0.9759
-1.1255 5.8224 -1.5354 0.9758
-1.3672 5.8102 -1.5454 0.9756
-1.4899 5.8063 -1.5521 0.9755
-1.7397 5.8018 -1.5683 0.9753
-1.9925 5.7891 -1.5852 0.9750
-2.6431 5.7351 -1.6350 0.9742
-2.7809 5.7286 -1.6488 0.9740
-2.9215 5.7229 -1.6637 0.9738
-3.3700 5.7224 -1.7195 0.9729
-5.5575 7.5805 -2.4337 0.9619
-6.1633 7.4245 -2.4984 0.9609
-6.4668 7.1827 -2.5024 0.9609
-6.6136 7.0556 -2.5039 0.9608
-6.7540 6.9215 -2.5039 0.9608
-7.0266 6.6451 -2.5040 0.9608
-7.4142 6.2103 -2.5041 0.9608
-7.5374 6.0603 -2.5042 0.9608
-8.2116 5.1110 -2.5043 0.9608
-8.3127 4.9452 -2.5044 0.9608
-8.5047 4.6076 -2.5044 0.9608
-8.6829 4.2626 -2.5045 0.9608
-8.9239 3.7323 -2.5045 0.9608
-9.1326 3.1885 -2.5046 0.9608
-9.1948 3.0045 -2.5046 0.9608
-9.3081 2.6330 -2.5046 0.9608
-9.4498 2.0680 -2.5046 0.9608
-9.4895 1.8779 -2.5046 0.9608
-9.5253 1.6870 -2.5046 0.9608
-9.5572 1.4955 -2.5046 0.9608
-9.6464 0.7240 -2.5047 0.9608
-9.6590 0.5302 -2.5047 0.9608
-9.6677 0.3362 -2.5047 0.9608
-9.6734 -0.0521 -2.5046 0.9608
-9.6379 -0.8279 -2.5046 0.9608
-9.5403 -1.5984 -2.5046 0.9608
-9.5062 -1.7896 -2.5046 0.9608
-9.3811 -2.3585 -2.5045 0.9608
-9.3318 -2.5463 -2.5045 0.9608
-9.2219 -2.9188 -2.5044 0.9608
-9.0971 -3.2865 -2.5044 0.9608
-9.0292 -3.4685 -2.5044 0.9608
-8.8825 -3.8280 -2.5043 0.9608
-8.8038 -4.0055 -2.5043 0.9608
-8.7215 -4.1814 -2.5043 0.9608
-8.5464 -4.5280 -2.5042 0.9608
-8.3576 -4.8673 -2.5041 0.9608
-8.0491 -5.3613 -2.5040 0.9608
-7.8272 -5.6799 -2.5040 0.9608
-7.5927 -5.9894 -2.5039 0.9608
-7.4708 -6.1405 -2.5039 0.9608
-7.2180 -6.4352 -2.5038 0.9608
-6.6781 -6.9930 -2.5036 0.9608
8.7792 -0.9280 -2.4992 0.9640
8.7960 -0.7516 -2.4992 0.9640
8.8191 -0.3979 -2.4992 0.9640
8.8254 -0.2208 -2.4992 0.9640
8.8271 0.1337 -2.4992 0.9640
8.8147 0.4879 -2.4992 0.9640
8.8031 0.6647 -2.4992 0.9640
8.7694 1.0176 -2.4992 0.9640
8.7216 1.3688 -2.4992 0.9640
8.6924 1.5436 -2.4993 0.9640
8.6235 1.8913 -2.4993 0.9640
8.4443 2.5770 -2.4994 0.9640
8.3341 2.9139 -2.4994 0.9640
8.2106 3.2462 -2.4994 0.9640
8.1439 3.4104 -2.4995 0.9640
8.0006 3.7346 -2.4995 0.9640
7.9241 3.8945 -2.4995 0.9640
7.8444 4.0529 -2.4996 0.9640
7.6755 4.3646 -2.4996 0.9640
7.4943 4.6693 -2.4997 0.9640
7.3992 4.8188 -2.4997 0.9640
7.3010 4.9665 -2.4997 0.9640
6.8795 5.5364 -2.4999 0.9640
6.7671 5.6735 -2.4999 0.9640
6.6519 5.8083 -2.5000 0.9640
6.4136 6.0708 -2.5000 0.9640
6.2905 6.1984 -2.5001 0.9640
6.1649 6.3236 -2.5001 0.9640
5.0596 5.6249 -2.1418 0.9690
4.8941 5.6655 -2.1194 0.9694
4.1305 5.6394 -1.9789 0.9714
3.9689 5.6534 -1.9555 0.9717
3.8304 5.6959 -1.9432 0.9719
3.6376 5.9084 -1.9642 0.9716
4.3156 7.6844 -2.4950 0.9640
3.5895 7.7978 -2.4301 0.9649
3.2168 7.7978 -2.3880 0.9655
3.0350 7.7975 -2.3687 0.9658
2.8571 7.8007 -2.3518 0.9661
2.6966 7.8464 -2.3488 0.9661
2.5386 7.8991 -2.3488 0.9661
2.2195 7.9950 -2.3489 0.9661
1.7344 8.1146 -2.3491 0.9661
1.5712 8.1479 -2.3491 0.9661
0.9985 5.8024 -1.6668 0.9758
0.6397 5.7818 -1.6468 0.9761
0.2889 5.7781 -1.6378 0.9762
-0.0593 5.7734 -1.6345 0.9763
-0.1752 5.7716 -1.6346 0.9763
-0.2911 5.7694 -1.6353 0.9763
-0.4072 5.7667 -1.6366 0.9763
-0.7572 5.7592 -1.6444 0.9761
-0.9926 5.7521 -1.6525 0.9760
-1.1112 5.7485 -1.6575 0.9760
-1.2305 5.7444 -1.6631 0.9759
-1.3507 5.7403 -1.6694 0.9758
-1.4719 5.7361 -1.6765 0.9757
-1.5906 5.7193 -1.6805 0.9756
-1.7173 5.7269 -1.6926 0.9755
-1.8441 5.7292 -1.7039 0.9753
-1.9705 5.7252 -1.7141 0.9751
-2.2237 5.7055 -1.7335 0.9749
-2.4825 5.6840 -1.7559 0.9745
-2.6183 5.6812 -1.7709 0.9743
-2.7598 5.6851 -1.7890 0.9741
-3.0489 5.6875 -1.8269 0.9735
-3.1977 5.6879 -1.8472 0.9732
-3.3540 5.6951 -1.8711 0.9729
-4.9316 7.3264 -2.5002 0.9640
-5.2285 7.1318 -2.5034 0.9639
-5.3709 7.0258 -2.5035 0.9639
-5.5110 6.9166 -2.5036 0.9639
-5.6488 6.8047 -2.5036 0.9639
-5.7843 6.6900 -2.5037 0.9639
-6.0484 6.4526 -2.5037 0.9639
-6.1768 6.3300 -2.5038 0.9639
-6.5469 5.9470 -2.5039 0.9639
-6.7805 5.6795 -2.5039 0.9639
-6.8932 5.5423 -2.5040 0.9639
-7.0032 5.4029 -2.5040 0.9639
-7.2146 5.1175 -2.5040 0.9639
-7.4143 4.8239 -2.5041 0.9639
-7.6021 4.5225 -2.5041 0.9639
-7.6915 4.3690 -2.5042 0.9639
-7.7777 4.2138 -2.5042 0.9639
-7.9407 3.8982 -2.5042 0.9639
-8.0909 3.5764 -2.5043 0.9639
-8.1611 3.4133 -2.5043 0.9639
-8.2280 3.2488 -2.5043 0.9639
-8.3519 2.9159 -2.5043 0.9639
-8.4088 2.7477 -2.5043 0.9639
-8.5124 2.4080 -2.5044 0.9639
-8.5591 2.2366 -2.5044 0.9639
-8.6023 2.0643 -2.5044 0.9639
-8.6420 1.8912 -2.5044 0.9639
-8.7110 1.5428 -2.5044 0.9639
-8.7402 1.3676 -2.5044 0.9639
-8.7659 1.1919 -2.5044 0.9639
-8.7881 1.0157 -2.5044 0.9639
-8.8218 0.6621 -2.5044 0.9639
-8.8464 -0.0477 -2.5044 0.9639
-8.8437 -0.2253 -2.5044 0.9639
-8.8275 -0.5801 -2.5044 0.9639
-8.8140 -0.7572 -2.5044 0.9639
-8.7765 -1.1103 -2.5044 0.9639
-8.7524 -1.2863 -2.5043 0.9639
-8.7247 -1.4617 -2.5043 0.9639
-8.6589 -1.8108 -2.5043 0.9639
-8.6208 -1.9842 -2.5043 0.9639
-8.5341 -2.3286 -2.5043 0.9639
-8.4856 -2.4995 -2.5042 0.9639
-8.3782 -2.8380 -2.5042 0.9639
-8.3195 -3.0056 -2.5042 0.9639
-8.1920 -3.3371 -2.5041 0.9639
-8.1233 -3.5008 -2.5041 0.9639
-7.7312 -4.2970 -2.5040 0.9639
-7.5523 -4.6038 -2.5039 0.9639
-7.4582 -4.7544 -2.5039 0.9639
-7.2612 -5.0498 -2.5038 0.9639
-7.1583 -5.1945 -2.5038 0.9639
-6.4816 -6.0165 -2.5036 0.9639
-6.2347 -6.2716 -2.5035 0.9639
8.0810 -0.8542 -2.4994 0.9666
8.0965 -0.6918 -2.4994 0.9666
8.1087 -0.5292 -2.4994 0.9666
8.1177 -0.3663 -2.4994 0.9666
8.1251 0.1230 -2.4994 0.9666
8.1030 0.6119 -2.4994 0.9666
8.0516 1.0985 -2.4994 0.9666
8.0279 1.2599 -2.4994 0.9666
8.0011 1.4208 -2.4995 0.9666
7.9710 1.5812 -2.4995 0.9666
7.8186 2.2155 -2.4995 0.9666
7.7235 2.5276 -2.4996 0.9666
7.6159 2.8357 -2.4996 0.9666
7.5575 2.9880 -2.4996 0.9666
7.4316 3.2890 -2.4997 0.9666
7.3642 3.4376 -2.4997 0.9666
7.2204 3.7305 -2.4997 0.9666
7.1441 3.8747 -2.4998 0.9666
7.0650 4.0174 -2.4998 0.9666
6.9830 4.1585 -2.4998 0.9666
6.7203 4.5714 -2.4999 0.9666
6.5315 4.8376 -2.5000 0.9666
6.3322 5.0960 -2.5000 0.9666
6.2287 5.2222 -2.5001 0.9666
5.9034 5.5879 -2.5002 0.9666
5.7901 5.7053 -2.5002 0.9666
5.6745 5.8205 -2.5002 0.9666
5.5566 5.9333 -2.5003 0.9666
4.8558 5.6212 -2.2847 0.9694
4.8037 5.7920 -2.3145 0.9690
4.3289 5.6680 -2.1937 0.9706
4.8038 6.5586 -2.5005 0.9665
4.5368 6.7464 -2.5006 0.9665
4.4005 6.8362 -2.5006 0.9665
4.2625 6.9233 -2.5007 0.9665
3.8382 7.1677 -2.5008 0.9665
3.6936 7.2434 -2.5009 0.9665
3.5475 7.3162 -2.5009 0.9665
3.2485 7.4471 -2.4990 0.9666
2.9446 7.5654 -2.4970 0.9666
2.7911 7.6201 -2.4960 0.9666
2.6366 7.6719 -2.4952 0.9666
2.4812 7.7207 -2.4943 0.9666
2.1541 7.7591 -2.4768 0.9669
1.8215 7.7570 -2.4508 0.9672
1.1813 6.1260 -1.9189 0.9742
0.9932 5.7716 -1.8013 0.9758
0.8713 5.7514 -1.7892 0.9760
0.6353 5.7417 -1.7768 0.9761
0.5183 5.7356 -1.7713 0.9762
0.0563 5.7342 -1.7638 0.9763
-0.0588 5.7319 -1.7631 0.9763
-0.2890 5.7277 -1.7640 0.9763
-0.4045 5.7286 -1.7664 0.9763
-0.6367 5.7310 -1.7736 0.9762
-0.9897 5.7358 -1.7903 0.9759
-1.1092 5.7379 -1.7975 0.9758
-1.2296 5.7401 -1.8056 0.9757
-1.4740 5.7445 -1.8241 0.9755
-2.0898 5.6976 -1.8666 0.9749
-2.2138 5.6802 -1.8751 0.9748
-2.6367 5.7211 -1.9376 0.9740
-2.7580 5.6814 -1.9425 0.9739
-3.0528 5.6949 -1.9874 0.9733
-4.2699 6.9284 -2.5032 0.9665
-4.4082 6.8414 -2.5032 0.9665
-4.5447 6.7516 -2.5033 0.9665
-4.6794 6.6591 -2.5033 0.9665
-4.9431 6.4661 -2.5034 0.9665
-5.0720 6.3656 -2.5034 0.9665
-5.3235 6.1571 -2.5035 0.9665
-5.4462 6.0491 -2.5035 0.9665
-5.8006 5.7105 -2.5036 0.9665
-5.9141 5.5930 -2.5037 0.9665
-6.1340 5.3512 -2.5037 0.9665
-6.4452 4.9724 -2.5038 0.9665
-6.5438 4.8421 -2.5038 0.9665
-6.8236 4.4396 -2.5039 0.9665
-6.9114 4.3017 -2.5039 0.9665
-7.1580 3.8780 -2.5040 0.9665
-7.2344 3.7336 -2.5040 0.9665
-7.3080 3.5876 -2.5040 0.9665
-7.5724 2.9899 -2.5041 0.9665
-7.7388 2.5287 -2.5041 0.9665
-7.7880 2.3729 -2.5041 0.9665
-7.8771 2.0584 -2.5042 0.9665
-7.9534 1.7405 -2.5042 0.9665
-7.9867 1.5805 -2.5042 0.9665
-8.0169 1.4199 -2.5042 0.9665
-8.0438 1.2587 -2.5042 0.9665
-8.0674 1.0969 -2.5042 0.9665
-8.1368 0.2830 -2.5042 0.9665
-8.1415 -0.0439 -2.5042 0.9665
-8.1241 -0.5338 -2.5042 0.9665
-8.0960 -0.8595 -2.5042 0.9665
-8.0771 -1.0219 -2.5042 0.9665
-8.0295 -1.3452 -2.5041 0.9665
-8.0009 -1.5062 -2.5041 0.9665
-7.9690 -1.6665 -2.5041 0.9665
-7.9339 -1.8261 -2.5041 0.9665
-7.8541 -2.1431 -2.5041 0.9665
-7.8094 -2.3003 -2.5040 0.9665
-7.7616 -2.4566 -2.5040 0.9665
-7.7107 -2.6119 -2.5040 0.9665
-7.6566 -2.7661 -2.5040 0.9665
-7.5995 -2.9192 -2.5040 0.9665
-7.5393 -3.0712 -2.5039 0.9665
-7.4098 -3.3713 -2.5039 0.9665
-7.2684 -3.6659 -2.5039 0.9665
-7.1152 -3.9546 -2.5038 0.9665
-7.0343 -4.0966 -2.5038 0.9665
-6.9506 -4.2370 -2.5037 0.9665
-6.7747 -4.5125 -2.5037 0.9665
-6.3906 -5.0411 -2.5036 0.9665
-5.9653 -5.5372 -2.5034 0.9665
-5.8529 -5.6558 -2.5034 0.9665
-5.7381 -5.7720 -2.5034 0.9665
-5.6210 -5.8860 -2.5033 0.9665
7.4779 -0.7905 -2.4996 0.9688
7.4923 -0.6402 -2.4996 0.9688
7.5037 -0.4897 -2.4996 0.9688
7.5195 -0.0371 -2.4996 0.9688
7.4855 0.7166 -2.4996 0.9688
7.4696 0.8667 -2.4996 0.9688
7.4289 1.1659 -2.4996 0.9688
7.4040 1.3148 -2.4996 0.9688
7.3115 1.7581 -2.4997 0.9688
7.2748 1.9045 -2.4997 0.9688
6.9935 2.7650 -2.4998 0.9688
6.9367 2.9049 -2.4998 0.9688
6.8770 3.0436 -2.4998 0.9688
6.8146 3.1810 -2.4998 0.9688
6.6815 3.4521 -2.4999 0.9688
6.6109 3.5855 -2.4999 0.9688
6.5377 3.7176 -2.4999 0.9688
6.4618 3.8480 -2.5000 0.9688
6.2187 4.2302 -2.5000 0.9688
5.7638 4.8324 -2.5002 0.9688
5.6657 4.9472 -2.5002 0.9688
5.5653 5.0600 -2.5003 0.9688
5.4627 5.1707 -2.5003 0.9688
5.3579 5.2794 -2.5003 0.9688
5.1418 5.4904 -2.5004 0.9688
5.0306 5.5926 -2.5004 0.9688
4.8465 5.6104 -2.4644 0.9692
4.4748 5.6214 -2.3883 0.9702
4.4452 6.0690 -2.5006 0.9688
3.8149 6.4844 -2.5008 0.9688
3.5516 6.6325 -2.5009 0.9688
3.1461 6.8346 -2.5010 0.9688
3.0084 6.8965 -2.5011 0.9688
2.7292 7.0120 -2.5011 0.9688
2.4456 7.1161 -2.5012 0.9688
2.0130 7.2508 -2.5014 0.9688
1.7200 7.3246 -2.5010 0.9688
1.1198 5.8073 -1.9659 0.9754
0.9970 5.7934 -1.9541 0.9755
0.7523 5.7420 -1.9250 0.9759
0.6466 5.8438 -1.9544 0.9755
0.1713 5.7304 -1.9057 0.9761
0.0562 5.7328 -1.9057 0.9761
-0.1739 5.7284 -1.9050 0.9761
-0.2890 5.7275 -1.9063 0.9761
-0.4044 5.7272 -1.9085 0.9761
-0.6365 5.7289 -1.9160 0.9760
-0.9896 5.7352 -1.9346 0.9758
-1.2298 5.7412 -1.9517 0.9756
-1.3518 5.7448 -1.9618 0.9754
-1.4750 5.7485 -1.9727 0.9753
-1.5998 5.7523 -1.9847 0.9751
-1.8543 5.7610 -2.0117 0.9748
-1.9771 5.7444 -2.0194 0.9747
-2.0965 5.7159 -2.0238 0.9747
-2.2301 5.7221 -2.0414 0.9744
-2.6434 5.7357 -2.0993 0.9737
-2.8858 5.9448 -2.1966 0.9725
-2.9416 5.7622 -2.1506 0.9731
-3.9508 6.4106 -2.5031 0.9688
-4.0788 6.3301 -2.5031 0.9688
-4.2051 6.2470 -2.5032 0.9688
-4.3297 6.1615 -2.5032 0.9688
-4.4526 6.0734 -2.5032 0.9688
-5.0391 5.5970 -2.5034 0.9688
-5.1505 5.4948 -2.5034 0.9688
-5.3671 5.2837 -2.5035 0.9688
-5.4721 5.1750 -2.5035 0.9688
-5.6756 4.9512 -2.5036 0.9688
-5.7739 4.8364 -2.5036 0.9688
-6.2298 4.2336 -2.5037 0.9687
-6.3948 3.9802 -2.5038 0.9687
-6.4735 3.8511 -2.5038 0.9687
-6.5495 3.7203 -2.5038 0.9687
-6.6937 3.4545 -2.5038 0.9687
-6.8270 3.1831 -2.5039 0.9687
-7.0064 2.7664 -2.5039 0.9687
-7.0605 2.6252 -2.5039 0.9687
-7.1603 2.3397 -2.5040 0.9687
-7.2058 2.1955 -2.5040 0.9687
-7.2485 2.0504 -2.5040 0.9687
-7.2882 1.9045 -2.5040 0.9687
-7.3897 1.4624 -2.5040 0.9687
-7.4425 1.1646 -2.5040 0.9687
-7.4643 1.0149 -2.5040 0.9687
-7.4832 0.8649 -2.5040 0.9687
-7.4991 0.7145 -2.5040 0.9687
-7.5119 0.5638 -2.5040 0.9687
-7.5217 0.4129 -2.5040 0.9687
-7.5285 0.2618 -2.5040 0.9687
-7.5322 0.1106 -2.5040 0.9687
-7.5053 -0.6447 -2.5040 0.9687
-7.4528 -1.0953 -2.5040 0.9687
-7.4028 -1.3936 -2.5039 0.9687
-7.3733 -1.5419 -2.5039 0.9687
-7.3054 -1.8366 -2.5039 0.9687
-7.2670 -1.9829 -2.5039 0.9687
-7.2257 -2.1283 -2.5039 0.9687
-7.1814 -2.2729 -2.5039 0.9687
-7.1343 -2.4166 -2.5038 0.9687
-7.0843 -2.5593 -2.5038 0.9687
-7.0314 -2.7010 -2.5038 0.9687
-6.7251 -3.3919 -2.5037 0.9687
-6.6556 -3.5262 -2.5037 0.9687
-6.5834 -3.6591 -2.5037 0.9688
-6.5085 -3.7905 -2.5036 0.9688
-6.3510 -4.0486 -2.5036 0.9688
-6.2684 -4.1752 -2.5035 0.9688
-6.1832 -4.3002 -2.5035 0.9688
-6.0956 -4.4234 -2.5035 0.9688
-6.0055 -4.5448 -2.5035 0.9688
-5.9130 -4.6644 -2.5034 0.9688
-5.7209 -4.8978 -2.5034 0.9688
-5.6213 -5.0116 -2.5033 0.9688
-5.3092 -5.3407 -2.5032 0.9688
-5.2009 -5.4461 -2.5032 0.9688
6.9647 -0.5951 -2.4997 0.9707
6.9753 -0.4552 -2.4997 0.9707
6.9858 0.2461 -2.4997 0.9707
6.9795 0.3863 -2.4997 0.9707
6.9703 0.5263 -2.4997 0.9707
6.9584 0.6662 -2.4997 0.9707
6.9057 1.0838 -2.4998 0.9707
6.7625 1.7704 -2.4998 0.9707
6.5989 2.3072 -2.4999 0.9707
6.4482 2.7003 -2.4999 0.9707
6.3347 2.9570 -2.5000 0.9707
6.2741 3.0836 -2.5000 0.9707
6.2110 3.2090 -2.5000 0.9707
6.1454 3.3330 -2.5000 0.9707
6.0773 3.4558 -2.5001 0.9707
5.9338 3.6970 -2.5001 0.9707
5.8584 3.8154 -2.5001 0.9707
5.7807 3.9323 -2.5002 0.9707
5.5337 4.2732 -2.5003 0.9707
4.8810 5.0066 -2.5005 0.9707
4.7796 5.1037 -2.5005 0.9707
4.4639 5.3823 -2.5006 0.9707
4.3550 5.4709 -2.5006 0.9707
4.2444 5.5573 -2.5007 0.9707
3.9024 5.8030 -2.5008 0.9707
3.7851 5.8802 -2.5008 0.9707
3.4245 6.0977 -2.5009 0.9707
3.3014 6.1653 -2.5010 0.9707
3.0514 6.2930 -2.5010 0.9707
2.9245 6.3531 -2.5011 0.9707
2.6672 6.4656 -2.5011 0.9707
2.4056 6.5677 -2.5012 0.9707
2.2733 6.6147 -2.5013 0.9707
2.1401 6.6592 -2.5013 0.9707
2.0060 6.7009 -2.5014 0.9707
1.5991 6.8098 -2.5015 0.9707
1.3245 6.8687 -2.5016 0.9707
0.8780 5.7956 -2.0962 0.9754
0.7577 5.7838 -2.0860 0.9755
0.6351 5.7401 -2.0652 0.9758
0.4068 5.7982 -2.0786 0.9756
0.2899 5.7974 -2.0758 0.9756
0.0566 5.7733 -2.0647 0.9758
-0.0592 5.7694 -2.0633 0.9758
-0.1749 5.7619 -2.0614 0.9758
-0.2906 5.7592 -2.0621 0.9758
-0.4068 5.7607 -2.0652 0.9758
-0.5233 5.7618 -2.0690 0.9757
-0.6407 5.7667 -2.0749 0.9757
-0.7589 5.7724 -2.0820 0.9756
-1.7362 5.7902 -2.1617 0.9746
-1.8626 5.7866 -2.1739 0.9745
-1.9865 5.7718 -2.1829 0.9744
-2.3865 5.7778 -2.2355 0.9738
-2.6428 5.7345 -2.2580 0.9735
-3.0564 6.2962 -2.5028 0.9707
-3.1823 6.2337 -2.5029 0.9707
-3.3068 6.1686 -2.5029 0.9707
-3.5519 6.0311 -2.5030 0.9707
-3.7912 5.8838 -2.5030 0.9707
-4.2512 5.5610 -2.5032 0.9707
-4.3620 5.4746 -2.5032 0.9707
-4.6838 5.2023 -2.5033 0.9707
-5.0862 4.8100 -2.5034 0.9707
-5.1818 4.7070 -2.5034 0.9707
-5.2753 4.6021 -2.5035 0.9707
-5.7904 3.9350 -2.5036 0.9707
-5.8683 3.8180 -2.5036 0.9707
-5.9438 3.6995 -2.5036 0.9707
-6.0169 3.5795 -2.5037 0.9707
-6.1558 3.3351 -2.5037 0.9707
-6.2848 3.0853 -2.5037 0.9707
-6.3455 2.9586 -2.5037 0.9707
-6.4037 2.8306 -2.5037 0.9707
-6.5122 2.5713 -2.5038 0.9707
-6.5626 2.4401 -2.5038 0.9707
-6.6102 2.3078 -2.5038 0.9707
-6.7742 1.7702 -2.5038 0.9707
-6.8084 1.6338 -2.5038 0.9707
-6.8398 1.4968 -2.5038 0.9707
-6.8944 1.2211 -2.5039 0.9707
-6.9175 1.0824 -2.5039 0.9707
-6.9702 0.6641 -2.5039 0.9707
-6.9821 0.5240 -2.5039 0.9707
-6.9912 0.3838 -2.5039 0.9707
-6.9975 0.2433 -2.5039 0.9707
-7.0010 0.1028 -2.5039 0.9707
-7.0016 -0.0377 -2.5039 0.9707
-6.9944 -0.3188 -2.5039 0.9707
-6.9866 -0.4591 -2.5038 0.9707
-6.9625 -0.7392 -2.5038 0.9707
-6.9462 -0.8788 -2.5038 0.9707
-6.9272 -1.0181 -2.5038 0.9707
-6.9053 -1.1569 -2.5038 0.9707
-6.8532 -1.4332 -2.5038 0.9707
-6.8231 -1.5704 -2.5038 0.9707
-6.7901 -1.7071 -2.5038 0.9707
-6.7160 -1.9782 -2.5037 0.9707
-6.6749 -2.1127 -2.5037 0.9707
-6.5847 -2.3788 -2.5037 0.9707
-6.5355 -2.5105 -2.5037 0.9707
-6.4838 -2.6412 -2.5036 0.9707
-6.4294 -2.7708 -2.5036 0.9707
-6.2508 -3.1527 -2.5036 0.9707
-6.1862 -3.2775 -2.5035 0.9707
-6.0496 -3.5231 -2.5035 0.9707
-5.9031 -3.7631 -2.5034 0.9707
-5.6658 -4.1114 -2.5034 0.9707
-5.5820 -4.2243 -2.5033 0.9707
-5.4960 -4.3355 -2.5033 0.9707
-5.4078 -4.4449 -2.5033 0.9707
-5.2249 -4.6582 -2.5032 0.9707
-4.8342 -5.0621 -2.5031 0.9707
-4.7315 -5.1581 -2.5031 0.9707
6.4996 -0.5554 -2.4999 0.9724
6.5095 -0.4248 -2.4999 0.9724
6.5213 -0.1632 -2.4999 0.9724
6.5233 -0.0322 -2.4999 0.9724
6.4937 0.6217 -2.4999 0.9724
6.4446 1.0114 -2.4999 0.9724
6.3988 1.2693 -2.4999 0.9724
6.3721 1.3975 -2.4999 0.9724
6.2765 1.7785 -2.5000 0.9724
6.2396 1.9042 -2.5000 0.9724
6.2001 2.0291 -2.5000 0.9724
6.1582 2.1531 -2.5000 0.9724
5.9658 2.6403 -2.5001 0.9724
5.9116 2.7595 -2.5001 0.9724
5.7962 2.9946 -2.5001 0.9724
5.7349 3.1104 -2.5002 0.9724
5.5375 3.4501 -2.5002 0.9724
5.3946 3.6696 -2.5003 0.9724
5.2431 3.8833 -2.5003 0.9724
5.0831 4.0907 -2.5004 0.9724
5.0000 4.1920 -2.5004 0.9724
4.8278 4.3894 -2.5005 0.9724
4.7388 4.4855 -2.5005 0.9724
4.5550 4.6722 -2.5006 0.9724
4.4603 4.7628 -2.5006 0.9724
4.3639 4.8514 -2.5006 0.9724
4.1657 5.0228 -2.5007 0.9724
3.8560 5.2646 -2.5008 0.9724
3.7496 5.3410 -2.5008 0.9724
3.5323 5.4874 -2.5009 0.9724
3.3092 5.6249 -2.5009 0.9724
3.0809 5.7534 -2.5010 0.9724
2.8475 5.8726 -2.5011 0.9724
2.7291 5.9286 -2.5011 0.9724
2.4890 6.0336 -2.5012 0.9724
2.3674 6.0824 -2.5012 0.9724
2.2449 6.1288 -2.5013 0.9724
1.9971 6.2142 -2.5013 0.9724
1.8720 6.2531 -2.5014 0.9724
1.6195 6.3234 -2.5015 0.9724
1.4923 6.3547 -2.5015 0.9724
1.3644 6.3835 -2.5015 0.9724
1.2360 6.4097 -2.5016 0.9724
0.8855 5.8454 -2.2656 0.9750
0.7656 5.8437 -2.2585 0.9751
0.4026 5.7387 -2.2046 0.9757
0.2883 5.7657 -2.2123 0.9756
0.1715 5.7370 -2.1995 0.9757
0.0585 5.9647 -2.2859 0.9748
-0.4099 5.8056 -2.2304 0.9754
-0.8798 5.7901 -2.2444 0.9752
-1.3559 5.7623 -2.2685 0.9750
-1.4790 5.7641 -2.2805 0.9748
-1.6036 5.7662 -2.2936 0.9747
-1.7350 5.7861 -2.3149 0.9745
-2.0008 6.2162 -2.5025 0.9724
-2.1253 6.1749 -2.5026 0.9724
-2.2313 5.7250 -2.3547 0.9740
-2.3631 5.7212 -2.3721 0.9738
-2.6365 5.7207 -2.4139 0.9734
-2.8521 5.8752 -2.5028 0.9724
-2.9695 5.8169 -2.5028 0.9724
-3.0857 5.7562 -2.5028 0.9724
-3.2007 5.6932 -2.5029 0.9724
-4.0703 5.1085 -2.5031 0.9724
-4.1721 5.0258 -2.5031 0.9724
-4.2722 4.9411 -2.5032 0.9724
-4.3706 4.8544 -2.5032 0.9724
-4.4672 4.7658 -2.5032 0.9724
-4.6550 4.5827 -2.5033 0.9724
-4.8353 4.3922 -2.5033 0.9724
-5.0078 4.1947 -2.5034 0.9724
-5.2513 3.8858 -2.5034 0.9724
-5.4032 3.6719 -2.5035 0.9724
-5.4758 3.5627 -2.5035 0.9724
-5.7441 3.1121 -2.5036 0.9724
-5.8055 2.9961 -2.5036 0.9724
-5.9211 2.7607 -2.5036 0.9724
-5.9754 2.6413 -2.5036 0.9724
-6.1236 2.2769 -2.5037 0.9724
-6.2101 2.0292 -2.5037 0.9724
-6.3211 1.6518 -2.5037 0.9724
-6.4091 1.2683 -2.5037 0.9724
-6.4549 1.0100 -2.5037 0.9724
-6.4902 0.7501 -2.5037 0.9724
-6.5295 0.2271 -2.5037 0.9724
-6.5327 0.0959 -2.5037 0.9724
-6.5333 -0.0352 -2.5037 0.9724
-6.5266 -0.2974 -2.5037 0.9724
-6.5193 -0.4284 -2.5037 0.9724
-6.5094 -0.5592 -2.5037 0.9724
-6.4968 -0.6897 -2.5037 0.9724
-6.4435 -1.0795 -2.5037 0.9724
-6.4205 -1.2087 -2.5037 0.9724
-6.3360 -1.5929 -2.5036 0.9724
-6.3027 -1.7198 -2.5036 0.9724
-6.2285 -1.9714 -2.5036 0.9724
-5.9463 -2.7054 -2.5035 0.9724
-5.8907 -2.8242 -2.5035 0.9724
-5.8328 -2.9419 -2.5034 0.9724
-5.7725 -3.0583 -2.5034 0.9724
-5.7099 -3.1736 -2.5034 0.9724
-5.5778 -3.4002 -2.5034 0.9724
-5.5084 -3.5114 -2.5033 0.9724
-5.3629 -3.7296 -2.5033 0.9724
-5.2869 -3.8365 -2.5033 0.9724
-5.0462 -4.1476 -2.5032 0.9724
-4.9619 -4.2481 -2.5032 0.9724
-4.6049 -4.6322 -2.5030 0.9724
-4.4152 -4.8132 -2.5030 0.9724
6.0745 -0.6421 -2.5000 0.9739
6.0953 -0.3978 -2.5000 0.9739
6.1021 -0.2753 -2.5000 0.9739
6.0910 0.4599 -2.5000 0.9739
6.0677 0.7041 -2.5000 0.9739
5.9917 1.1886 -2.5000 0.9739
5.9392 1.4281 -2.5001 0.9739
5.9094 1.5471 -2.5001 0.9739
5.6347 2.3596 -2.5002 0.9739
5.5862 2.4723 -2.5002 0.9739
5.5355 2.5840 -2.5002 0.9739
5.3700 2.9125 -2.5003 0.9739
5.2489 3.1258 -2.5003 0.9739
5.1193 3.3340 -2.5004 0.9739
5.0514 3.4361 -2.5004 0.9739
4.9814 3.5369 -2.5004 0.9739
4.9094 3.6362 -2.5004 0.9739
4.8355 3.7341 -2.5004 0.9739
4.7596 3.8304 -2.5005 0.9739
4.6818 3.9252 -2.5005 0.9739
4.6021 4.0185 -2.5005 0.9739
4.4372 4.2001 -2.5006 0.9739
4.0862 4.5427 -2.5007 0.9739
3.9006 4.7031 -2.5007 0.9739
3.8055 4.7805 -2.5008 0.9739
3.6106 4.9296 -2.5008 0.9739
3.2037 5.2036 -2.5010 0.9739
3.0986 5.2669 -2.5010 0.9739
2.5554 5.5513 -2.5012 0.9739
2.4435 5.6015 -2.5012 0.9739
2.3306 5.6495 -2.5012 0.9739
2.2167 5.6953 -2.5013 0.9739
1.9864 5.7798 -2.5013 0.9739
1.8700 5.8186 -2.5014 0.9739
1.7528 5.8550 -2.5014 0.9739
1.6349 5.8892 -2.5014 0.9739
1.5164 5.9209 -2.5015 0.9739
1.2776 5.9771 -2.5015 0.9739
1.1573 6.0017 -2.5016 0.9739
1.0366 6.0238 -2.5016 0.9739
0.9155 6.0435 -2.5017 0.9739
0.7940 6.0607 -2.5017 0.9739
0.6356 5.7448 -2.3656 0.9753
0.4042 5.7611 -2.3637 0.9753
0.2872 5.7431 -2.3535 0.9755
-0.0627 6.1128 -2.5019 0.9739
-0.3081 6.1055 -2.5020 0.9739
-0.9184 6.0444 -2.5022 0.9739
-1.2806 5.9784 -2.5023 0.9739
-1.4004 5.9515 -2.5023 0.9739
-1.8734 5.8203 -2.5025 0.9739
-1.9899 5.7817 -2.5025 0.9739
-2.1056 5.7406 -2.5025 0.9739
-2.3344 5.6516 -2.5026 0.9739
-2.5594 5.5535 -2.5027 0.9739
-2.6704 5.5011 -2.5027 0.9739
-2.7804 5.4464 -2.5027 0.9739
-2.8892 5.3896 -2.5028 0.9739
-2.9968 5.3305 -2.5028 0.9739
-3.3124 5.1407 -2.5029 0.9739
-3.4149 5.0732 -2.5029 0.9739
-3.7142 4.8586 -2.5030 0.9739
-3.9064 4.7057 -2.5031 0.9739
-4.0001 4.6264 -2.5031 0.9739
-4.0922 4.5452 -2.5031 0.9739
-4.2714 4.3774 -2.5032 0.9739
-4.3585 4.2908 -2.5032 0.9739
-4.6888 3.9275 -2.5033 0.9739
-4.8427 3.7362 -2.5033 0.9739
-4.9168 3.6382 -2.5033 0.9739
-5.1270 3.3357 -2.5034 0.9739
-5.1930 3.2322 -2.5034 0.9739
-5.2568 3.1273 -2.5034 0.9739
-5.4909 2.6956 -2.5035 0.9739
-5.5439 2.5848 -2.5035 0.9739
-5.5947 2.4730 -2.5035 0.9739
-5.6895 2.2465 -2.5035 0.9739
-5.7752 2.0163 -2.5035 0.9739
-5.8145 1.9000 -2.5036 0.9739
-5.8515 1.7829 -2.5036 0.9739
-5.8861 1.6650 -2.5036 0.9739
-6.0436 0.9457 -2.5036 0.9739
-6.1000 0.4578 -2.5036 0.9739
-6.1135 0.2126 -2.5036 0.9739
-6.1165 0.0898 -2.5036 0.9739
-6.1152 -0.1558 -2.5036 0.9739
-6.1108 -0.2785 -2.5036 0.9739
-6.0947 -0.5235 -2.5036 0.9739
-6.0829 -0.6458 -2.5036 0.9739
-6.0520 -0.8894 -2.5036 0.9739
-6.0114 -1.1317 -2.5035 0.9739
-5.9611 -1.3721 -2.5035 0.9739
-5.8317 -1.8458 -2.5035 0.9739
-5.7529 -2.0783 -2.5034 0.9739
-5.7099 -2.1934 -2.5034 0.9739
-5.6647 -2.3076 -2.5034 0.9739
-5.4048 -2.8635 -2.5033 0.9739
-5.3462 -2.9714 -2.5033 0.9739
-5.2225 -3.1836 -2.5033 0.9739
-5.1575 -3.2877 -2.5032 0.9739
-5.0213 -3.4921 -2.5032 0.9739
-4.8018 -3.7878 -2.5031 0.9739
-4.6458 -3.9775 -2.5031 0.9739
-4.4823 -4.1606 -2.5030 0.9739
-4.2236 -4.4228 -2.5029 0.9739
5.7048 -0.6030 -2.5001 0.9753
5.7157 -0.4884 -2.5001 0.9753
5.7307 -0.2586 -2.5001 0.9753
5.7359 0.0869 -2.5001 0.9753
5.7278 0.3170 -2.5001 0.9753
5.7105 0.5467 -2.5001 0.9753
5.5778 1.3412 -2.5002 0.9753
5.5195 1.5640 -2.5002 0.9753
5.4523 1.7843 -2.5002 0.9753
5.4154 1.8934 -2.5002 0.9753
5.3351 2.1093 -2.5003 0.9753
5.2462 2.3218 -2.5003 0.9753
5.0432 2.7352 -2.5004 0.9753
4.9873 2.8359 -2.5004 0.9753
4.7439 3.2270 -2.5005 0.9753
4.5412 3.5068 -2.5005 0.9753
4.4699 3.5973 -2.5006 0.9753
4.3968 3.6863 -2.5006 0.9753
4.3220 3.7739 -2.5006 0.9753
4.2454 3.8599 -2.5006 0.9753
3.8374 4.2661 -2.5008 0.9753
3.6632 4.4168 -2.5008 0.9753
3.3908 4.6295 -2.5009 0.9753
3.0086 4.8868 -2.5010 0.9753
2.9100 4.9462 -2.5010 0.9753
2.8101 5.0037 -2.5011 0.9753
2.6071 5.1126 -2.5011 0.9753
2.5039 5.1640 -2.5012 0.9753
2.1887 5.3056 -2.5013 0.9753
2.0817 5.3485 -2.5013 0.9753
1.9740 5.3893 -2.5013 0.9753
1.7561 5.4643 -2.5014 0.9753
1.6461 5.4985 -2.5014 0.9753
1.1998 5.6132 -2.5016 0.9753
0.9735 5.6570 -2.5016 0.9753
0.8597 5.6754 -2.5017 0.9753
0.7457 5.6916 -2.5017 0.9753
0.6313 5.7055 -2.5017 0.9753
0.2867 5.7334 -2.5018 0.9753
0.1716 5.7381 -2.5019 0.9753
-0.2893 5.7337 -2.5020 0.9753
-0.5193 5.7176 -2.5021 0.9753
-0.6339 5.7061 -2.5021 0.9753
-0.7484 5.6923 -2.5021 0.9753
-1.0897 5.6371 -2.5022 0.9753
-1.3151 5.5890 -2.5023 0.9753
-1.5384 5.5319 -2.5024 0.9753
-1.6492 5.4999 -2.5024 0.9753
-1.7593 5.4658 -2.5024 0.9753
-2.1922 5.3073 -2.5026 0.9753
-2.4035 5.2152 -2.5026 0.9753
-2.5078 5.1659 -2.5026 0.9753
-2.6110 5.1146 -2.5027 0.9753
-2.7132 5.0612 -2.5027 0.9753
-3.0130 4.8889 -2.5028 0.9753
-3.3019 4.6988 -2.5029 0.9753
-3.3956 4.6316 -2.5029 0.9753
-3.4879 4.5626 -2.5029 0.9753
-3.5789 4.4917 -2.5030 0.9753
-3.6683 4.4190 -2.5030 0.9753
-4.2514 3.8619 -2.5031 0.9753
-4.4031 3.6881 -2.5032 0.9752
-4.5476 3.5085 -2.5032 0.9752
-4.6172 3.4165 -2.5032 0.9752
-4.7507 3.2284 -2.5033 0.9752
-4.8765 3.0352 -2.5033 0.9752
-4.9365 2.9367 -2.5033 0.9752
-5.0504 2.7362 -2.5033 0.9752
-5.1563 2.5313 -2.5034 0.9752
-5.2061 2.4273 -2.5034 0.9752
-5.2994 2.2164 -2.5034 0.9752
-5.3841 2.0019 -2.5034 0.9752
-5.4232 1.8934 -2.5034 0.9752
-5.5857 1.3404 -2.5035 0.9752
-5.6351 1.1151 -2.5035 0.9752
-5.6563 1.0018 -2.5035 0.9752
-5.6753 0.8881 -2.5035 0.9752
-5.7064 0.6595 -2.5035 0.9752
-5.7357 0.3149 -2.5035 0.9752
-5.7409 0.1996 -2.5035 0.9752
-5.7443 -0.0309 -2.5035 0.9752
-5.7425 -0.1462 -2.5035 0.9752
-5.7384 -0.2615 -2.5035 0.9752
-5.7320 -0.3767 -2.5035 0.9752
-5.6832 -0.8352 -2.5035 0.9752
-5.6653 -0.9492 -2.5034 0.9752
-5.6451 -1.0627 -2.5034 0.9752
-5.6226 -1.1758 -2.5034 0.9752
-5.5978 -1.2884 -2.5034 0.9752
-5.5416 -1.5121 -2.5034 0.9752
-5.5101 -1.6230 -2.5034 0.9752
-5.4763 -1.7333 -2.5034 0.9752
-5.4404 -1.8429 -2.5034 0.9752
-5.4023 -1.9517 -2.5033 0.9752
-5.3195 -2.1670 -2.5033 0.9752
-5.1794 -2.4831 -2.5033 0.9752
-4.9043 -2.9896 -2.5032 0.9752
-4.7153 -3.2793 -2.5031 0.9753
-4.5798 -3.4658 -2.5031 0.9753
-4.3627 -3.7351 -2.5030 0.9753
-4.2868 -3.8219 -2.5030 0.9753
-4.2092 -3.9072 -2.5029 0.9753
-4.1299 -3.9908 -2.5029 0.9753
-4.0489 -4.0729 -2.5029 0.9753
-3.9663 -4.1533 -2.5029 0.9753
-3.8821 -4.2320 -2.5028 0.9753
5.3714 -0.5678 -2.5002 0.9765
5.3817 -0.4599 -2.5002 0.9765
5.3899 -0.3517 -2.5002 0.9765
5.3958 -0.2435 -2.5002 0.9765
5.3996 -0.1351 -2.5002 0.9765
5.4007 0.0818 -2.5002 0.9765
5.3980 0.1902 -2.5002 0.9765
5.3931 0.2985 -2.5002 0.9765
5.3654 0.6226 -2.5002 0.9765
5.3518 0.7302 -2.5002 0.9765
5.3361 0.8374 -2.5002 0.9765
5.2761 1.1571 -2.5003 0.9765
5.1969 1.4726 -2.5003 0.9765
5.1663 1.5767 -2.5003 0.9765
5.1337 1.6801 -2.5003 0.9765
4.8479 2.3827 -2.5004 0.9765
4.7484 2.5754 -2.5004 0.9765
4.5849 2.8566 -2.5005 0.9765
