ply
format ascii 1.0
element vertex 1540
property float32 x
property float32 y
property float32 z
property float32 I
end_header
-17.2266 -17.3230 3.1813 0.9062
-16.5543 -17.3305 3.1209 0.9079
-15.9068 -17.3378 3.0640 0.9095
-14.6791 -17.3517 2.9596 0.9124
-13.5304 -17.3647 2.8666 0.9150
-12.4499 -17.3768 2.7837 0.9174
-11.8707 -17.2927 2.7314 0.9189
-11.3785 -17.3120 2.6977 0.9198
-9.5335 -17.4095 2.5847 0.9231
-9.0858 -17.4145 2.5578 0.9238
-6.9714 -17.4381 2.4455 0.9270
-6.5783 -18.5916 2.5681 0.9235
-6.5110 -19.6495 2.6956 0.9199
-6.6091 -21.3764 2.9137 0.9137
26.4829 -18.7535 3.4846 0.8776
29.3914 -19.0860 3.7632 0.8685
30.6299 -19.0255 3.8720 0.8650
33.6304 -19.0591 4.1509 0.8560
52.4043 -24.3599 6.2055 0.7926
51.9239 -22.8781 6.0929 0.7959
52.3302 -21.8110 6.0879 0.7961
52.9232 -20.8190 6.1069 0.7955
54.5863 -18.9756 6.2056 0.7926
81.9181 12.2297 8.8940 0.7166
80.2325 13.6331 8.7390 0.7208
79.2253 15.1074 8.6606 0.7229
77.3167 16.3617 8.4863 0.7277
76.5996 17.8268 8.4452 0.7288
68.3435 21.8256 7.7040 0.7493
68.3508 23.3531 7.7562 0.7478
60.0284 24.6451 6.9679 0.7702
57.5551 24.9939 6.7380 0.7769
57.5707 26.3895 6.8006 0.7751
58.4821 28.2442 6.9739 0.7701
15.9482 8.1018 1.9209 0.9306
24.7209 13.8364 3.0421 0.8923
24.6007 14.4265 3.0624 0.8916
22.7747 15.2728 2.9446 0.8956
21.9972 16.7595 2.9696 0.8947
22.3666 17.7631 3.0670 0.8915
22.3048 18.4576 3.1089 0.8901
34.1335 35.9985 5.3270 0.8191
28.2366 36.5152 4.9566 0.8305
26.8879 36.2552 4.8469 0.8339
24.5826 34.5793 4.5559 0.8431
23.5475 34.5753 4.4920 0.8451
23.0270 35.3175 4.5273 0.8440
19.7137 34.6365 4.2796 0.8519
18.8470 34.7202 4.2422 0.8531
17.9343 34.6850 4.1930 0.8546
16.5911 37.4676 4.4001 0.8480
15.7016 37.4776 4.3633 0.8492
13.8479 35.0127 4.0431 0.8594
11.4548 37.5387 4.2145 0.8539
10.6369 37.5478 4.1906 0.8547
9.8279 37.5569 4.1687 0.8554
7.6417 34.8741 3.8337 0.8662
5.4749 34.9546 3.7992 0.8673
4.8141 35.3758 3.8337 0.8662
4.2658 36.8862 3.9873 0.8612
3.5862 37.6267 4.0587 0.8589
1.2317 35.5019 3.8145 0.8668
-0.1941 34.9660 3.7548 0.8688
-1.6042 35.0157 3.7640 0.8685
-5.2195 60.5351 6.5245 0.7831
-8.0757 75.8101 8.1867 0.7359
-9.4675 56.3459 6.1353 0.7946
-6.2823 33.2782 3.6366 0.8726
-6.9931 33.3489 3.6589 0.8719
-8.8229 32.2499 3.5903 0.8741
-8.7888 29.7601 3.3321 0.8826
-6.8254 18.8442 2.1522 0.9225
-11.7755 30.5758 3.5184 0.8765
-13.5134 31.2756 3.6585 0.8719
-26.6273 52.6552 6.3361 0.7887
-27.9365 52.5899 6.3945 0.7870
-26.0467 44.6043 5.5465 0.8124
-27.2728 44.6180 5.6153 0.8103
-26.0760 37.3891 4.8949 0.8324
-25.9986 35.7246 4.7445 0.8372
-26.0570 34.3316 4.6282 0.8408
-26.1303 33.0270 4.5223 0.8442
-26.1638 31.7361 4.4167 0.8475
-26.2818 30.6037 4.3318 0.8502
-26.1914 29.2854 4.2189 0.8538
-28.3708 29.2634 4.3767 0.8488
-30.7262 29.2421 4.5548 0.8431
-31.9733 29.2260 4.6516 0.8401
-33.2895 29.2221 4.7566 0.8368
-34.8064 29.3354 4.8880 0.8327
-38.9600 31.5180 5.3812 0.8174
-40.5019 31.4388 5.5057 0.8136
-43.0387 29.4277 5.5986 0.8108
-45.1723 29.5710 5.7976 0.8048
-65.0396 35.4605 7.9547 0.7423
-21.0394 -17.2803 2.9236 0.8963
-20.2080 -17.2896 2.8558 0.8985
-18.5579 -17.2178 2.7184 0.9032
-17.8748 -17.2659 2.6686 0.9049
-16.5550 -17.3312 2.5737 0.9081
-15.2829 -17.3455 2.4824 0.9112
-14.6795 -17.3522 2.4406 0.9126
-12.9822 -17.3708 2.3287 0.9165
-12.4499 -17.3768 2.2954 0.9176
-11.9324 -17.3826 2.2640 0.9187
-10.9377 -17.3937 2.2064 0.9207
-10.4587 -17.3991 2.1799 0.9216
-9.5335 -17.4094 2.1314 0.9233
-8.6472 -17.4194 2.0883 0.9247
-7.7947 -17.4289 2.0502 0.9261
-7.3796 -17.4336 2.0329 0.9267
-6.9714 -17.4381 2.0166 0.9272
-6.5694 -17.4426 2.0015 0.9278
-6.6096 -21.3781 2.4028 0.9139
26.4829 -18.7535 2.7470 0.8779
31.6906 -18.8118 3.1197 0.8625
35.4408 -19.1537 3.4103 0.8507
83.2209 -42.8362 7.9234 0.6868
87.6029 -42.8853 8.2568 0.6760
51.7019 -21.5492 4.7417 0.7986
51.8917 -20.4132 4.7205 0.7994
53.1249 -19.6739 4.7956 0.7966
54.9245 -17.8633 4.8892 0.7931
82.8697 10.6726 7.0731 0.7150
80.1837 13.6248 6.8851 0.7214
79.6939 16.8647 6.8957 0.7211
78.7610 18.3298 6.8455 0.7228
68.3403 21.8246 6.0730 0.7498
67.5376 24.6030 6.0848 0.7494
57.5541 24.9935 5.3117 0.7773
57.5697 26.3890 5.3610 0.7755
58.4810 28.2437 5.4977 0.7705
47.7087 25.4563 4.5776 0.8049
25.3292 14.8537 2.4857 0.8888
23.9520 15.3731 2.4093 0.8920
39.2415 26.3155 3.9997 0.8272
22.6824 15.8814 2.3440 0.8948
23.0234 18.2848 2.4889 0.8887
24.1457 20.8132 2.6986 0.8799
23.7933 21.3585 2.7066 0.8795
39.2742 36.7083 4.5508 0.8059
35.9600 34.9919 4.2475 0.8176
35.9602 36.4287 4.3332 0.8143
34.1327 35.9976 4.1994 0.8194
33.7881 37.1011 4.2480 0.8176
30.4355 34.8009 3.9137 0.8306
29.3243 34.9236 3.8604 0.8327
29.0076 35.9923 3.9132 0.8306
26.9353 36.3190 3.8277 0.8340
23.0208 35.3080 3.5680 0.8443
22.2965 37.4037 3.6862 0.8396
18.8064 34.6454 3.3371 0.8536
17.1645 36.7479 3.4334 0.8497
16.5911 37.4676 3.4688 0.8483
13.8370 34.9852 3.1848 0.8598
9.8279 37.5569 3.2863 0.8557
8.4975 35.3624 3.0787 0.8642
6.9147 34.8997 3.0118 0.8669
6.2059 35.0012 3.0092 0.8670
5.4713 34.9316 2.9931 0.8677
4.8130 35.3678 3.0216 0.8665
4.2652 36.8804 3.1428 0.8615
2.0647 37.6438 3.1914 0.8596
0.5092 34.9636 2.9601 0.8690
-0.1938 34.9054 2.9549 0.8693
-0.8971 34.9460 2.9592 0.8691
-1.6049 35.0315 2.9686 0.8687
-5.6365 65.3704 5.5543 0.7684
-7.4788 58.9271 5.0284 0.7878
-9.7474 58.0116 4.9797 0.7897
-6.7372 32.1285 2.7789 0.8765
-11.4115 33.6018 3.0040 0.8672
-27.8967 68.3064 6.2460 0.7436
-14.2900 33.0730 3.0499 0.8653
-26.5922 52.5858 4.9883 0.7893
-25.8264 48.6176 4.6603 0.8017
-25.9831 46.6242 4.5184 0.8071
-26.0466 44.6041 4.3725 0.8127
-26.0639 40.7740 4.0966 0.8234
-26.0833 39.0505 3.9753 0.8282
-26.1015 37.4256 3.8626 0.8326
-26.1611 35.9479 3.7636 0.8365
-26.1497 33.0516 3.5677 0.8444
-26.1645 31.7369 3.4819 0.8478
-26.1920 29.2861 3.3260 0.8541
-29.5579 29.2855 3.5223 0.8462
-30.7769 29.2903 3.5966 0.8432
-32.0592 29.3046 3.6768 0.8400
-33.5279 29.4313 3.7766 0.8360
-39.5565 29.4494 4.1747 0.8204
-43.1023 29.4712 4.4201 0.8109
-44.9382 29.4177 4.5468 0.8060
-46.8165 29.3194 4.6762 0.8011
-49.2773 29.4975 4.8617 0.7941
-61.7907 35.3196 6.0250 0.7515
-59.6089 29.4539 5.6285 0.7657
-62.4517 29.3108 5.8400 0.7581
-63.5552 28.2831 5.8888 0.7563
-68.8201 28.9821 6.3213 0.7410
-21.0403 -17.2810 2.3049 0.8965
-20.2088 -17.2903 2.2514 0.8987
-13.0860 -11.6601 1.4837 0.9321
-17.9266 -17.3159 2.1099 0.9048
-16.5550 -17.3312 2.0289 0.9083
-15.9075 -17.3385 1.9919 0.9099
-12.9822 -17.3708 1.8358 0.9166
-12.4499 -17.3768 1.8096 0.9178
-11.9324 -17.3826 1.7848 0.9188
-9.9909 -17.4043 1.6988 0.9226
-9.5335 -17.4094 1.6803 0.9234
-7.3796 -17.4335 1.6026 0.9268
-6.9714 -17.4381 1.5898 0.9274
-6.5694 -17.4426 1.5778 0.9279
-6.5790 -18.5935 1.6696 0.9239
-6.6100 -21.3793 1.8943 0.9141
26.4762 -18.7488 2.0118 0.8781
27.6581 -18.7620 2.0725 0.8746
30.2523 -18.7910 2.2084 0.8670
33.0688 -18.7408 2.3570 0.8587
35.4408 -19.1537 2.4981 0.8509
54.4469 -23.9898 3.6895 0.7878
54.6368 -22.7724 3.6705 0.7888
55.5738 -19.3188 3.6484 0.7899
56.0132 -18.2174 3.6525 0.7897
57.3133 -17.3736 3.7137 0.7866
78.7346 15.0138 4.9703 0.7253
67.5364 24.6026 4.4572 0.7497
57.5531 24.9931 3.8909 0.7777
58.4226 28.2155 4.0232 0.7710
47.6911 25.4470 3.3520 0.8052
26.4012 18.4852 1.9985 0.8788
45.9065 34.9756 3.5788 0.7935
25.1536 19.9765 1.9918 0.8792
39.3780 33.9433 3.2238 0.8119
39.3376 36.7676 3.3390 0.8059
35.9602 36.4287 3.1742 0.8145
33.7949 37.1087 3.1124 0.8178
29.2457 34.8300 2.8202 0.8334
29.0076 35.9924 2.8665 0.8309
26.8823 36.2476 2.7984 0.8346
24.6105 34.6185 2.6339 0.8435
23.6091 34.6658 2.6008 0.8453
23.0146 35.2985 2.6130 0.8446
22.8124 36.5759 2.6731 0.8413
19.7268 34.6596 2.4730 0.8523
17.4288 35.4367 2.4488 0.8536
17.1639 36.7465 2.5150 0.8500
16.5911 37.4676 2.5410 0.8486
15.7017 37.4776 2.5197 0.8497
13.0630 35.0750 2.3210 0.8607
11.4548 37.5387 2.4338 0.8545
10.6369 37.5479 2.4200 0.8552
9.8279 37.5569 2.4073 0.8559
7.6479 34.9027 2.2157 0.8666
6.1903 34.9133 2.1987 0.8675
0.5094 34.9757 2.1691 0.8692
-0.1942 34.9823 2.1693 0.8692
-0.8974 34.9555 2.1683 0.8692
-6.6099 76.6602 4.7714 0.7346
-6.6169 62.1159 3.8736 0.7785
-11.3052 76.6933 4.8072 0.7329
-12.1444 64.3306 4.0596 0.7692
-13.1831 62.8680 3.9833 0.7730
-14.5033 62.8432 3.9994 0.7722
-8.9573 32.7414 2.1049 0.8728
-10.7715 31.7172 2.0771 0.8744
-12.7697 31.2671 2.0944 0.8734
-13.8888 32.1445 2.1714 0.8691
-25.8853 56.7467 3.8677 0.7788
-26.0544 54.2026 3.7293 0.7858
-25.9464 51.3087 3.5653 0.7942
-25.9735 48.8945 3.4332 0.8010
-25.5976 41.8775 3.0435 0.8214
-26.0646 40.7751 3.0009 0.8237
-25.9412 38.8379 2.8962 0.8293
-25.9986 37.2780 2.8183 0.8335
-26.1349 34.4342 2.6806 0.8409
-26.1504 33.0524 2.6135 0.8446
-28.3709 29.2634 2.5274 0.8493
-29.5489 29.2766 2.5794 0.8464
-30.7770 29.2903 2.6346 0.8434
-33.3390 29.2655 2.7509 0.8371
-34.1824 28.8095 2.7721 0.8360
-35.7799 28.9453 2.8538 0.8316
-39.5573 29.4499 3.0581 0.8207
-45.1729 29.5714 3.3480 0.8054
-47.1309 29.5162 3.4484 0.8002
-59.6089 29.4539 4.1230 0.7661
-62.4528 29.3113 4.2780 0.7584
-62.4698 27.8001 4.2400 0.7603
-64.7216 25.7360 4.3191 0.7564
-70.6003 26.4419 4.6749 0.7392
-77.1994 27.1558 5.0747 0.7204
-21.0403 -17.2810 1.6884 0.8966
-20.2088 -17.2903 1.6492 0.8989
-13.0854 -11.6596 1.0868 0.9322
-17.9266 -17.3159 1.5455 0.9049
-16.5550 -17.3312 1.4862 0.9084
-14.0959 -17.3587 1.3866 0.9143
-13.2798 -17.0432 1.3398 0.9171
-12.4499 -17.3768 1.3256 0.9179
-11.4286 -17.3882 1.2903 0.9200
-10.9377 -17.3937 1.2741 0.9210
-10.2748 -17.0931 1.2367 0.9232
-9.8024 -17.0759 1.2209 0.9241
-9.3484 -17.0714 1.2069 0.9250
-8.9101 -17.0777 1.1945 0.9257
-8.4810 -17.0845 1.1828 0.9264
-8.0607 -17.0927 1.1719 0.9271
-7.3796 -17.4335 1.1739 0.9269
-6.9714 -17.4381 1.1646 0.9275
-6.5939 -19.8995 1.3000 0.9194
-6.5978 -21.3399 1.3851 0.9144
27.6581 -18.7620 1.3178 0.8748
28.8114 -18.7094 1.3546 0.8715
29.9789 -18.6212 1.3916 0.8683
83.2207 -42.8361 3.6907 0.6875
87.6026 -42.8852 3.8460 0.6768
57.1467 -23.8186 2.4413 0.7805
79.7393 15.2054 3.2009 0.7226
81.2653 17.1973 3.2753 0.7171
82.8818 19.2888 3.3555 0.7113
59.9886 24.6288 2.5571 0.7714
57.5520 24.9926 2.4741 0.7779
58.4790 28.2427 2.5607 0.7711
15.9434 8.0994 0.7051 0.9309
47.4816 26.5756 2.1456 0.8043
39.7601 24.4041 1.8395 0.8296
39.2793 25.2105 1.8404 0.8296
39.3051 27.5201 1.8920 0.8252
45.8181 34.9083 2.2713 0.7941
40.9485 32.5204 2.0619 0.8111
39.3618 32.5726 2.0146 0.8150
35.9401 34.9726 1.9774 0.8181
34.1311 35.9959 1.9560 0.8199
33.7941 37.1078 1.9790 0.8180
30.2104 35.9789 1.8525 0.8286
28.2411 36.5210 1.8204 0.8313
21.2951 37.4150 1.6975 0.8417
19.1058 35.1970 1.5790 0.8519
18.2493 35.2943 1.5667 0.8529
17.4237 35.4265 1.5567 0.8538
17.1632 36.7450 1.5992 0.8501
15.7017 37.4776 1.6022 0.8499
13.2818 35.6626 1.5007 0.8587
11.4548 37.5387 1.5476 0.8546
10.6369 37.5479 1.5388 0.8554
8.4923 35.3409 1.4332 0.8646
7.7889 35.5462 1.4348 0.8644
6.2207 35.0842 1.4050 0.8671
4.2639 36.8691 1.4635 0.8619
3.5862 37.6268 1.4904 0.8596
2.8245 37.6353 1.4882 0.8598
2.0647 37.6438 1.4866 0.8599
1.2307 35.4743 1.3996 0.8675
0.5172 35.5088 1.4003 0.8675
-1.6114 35.1737 1.3884 0.8685
-11.5480 78.3398 3.1224 0.7283
-13.1741 78.4059 3.1350 0.7274
-25.6173 80.7293 3.3397 0.7124
-6.4913 19.1140 0.7960 0.9224
-25.5893 66.4444 2.8076 0.7520
-25.8517 59.8318 2.5700 0.7703
-25.9473 51.3105 2.2672 0.7944
-25.9744 48.8961 2.1832 0.8012
-25.8315 44.2358 2.0199 0.8146
-26.0654 40.7764 1.9083 0.8239
-26.1030 37.4277 1.7993 0.8330
-26.1625 35.9498 1.7532 0.8370
-20.8681 26.3759 1.3262 0.8740
-20.9527 25.4151 1.2988 0.8765
-26.1933 29.2875 1.5493 0.8545
-28.3709 29.2634 1.6071 0.8495
-29.5592 29.2868 1.6408 0.8466
-34.3139 28.9203 1.7695 0.8356
-36.4587 29.4944 1.8491 0.8288
-37.4962 29.1057 1.8717 0.8269
-39.5580 29.4505 1.9446 0.8208
-41.2672 29.4517 1.9991 0.8163
-43.1023 29.4712 2.0589 0.8114
-47.1309 29.5163 2.1928 0.8004
-56.6251 29.4110 2.5160 0.7746
-59.6089 29.4539 2.6217 0.7663
-62.4539 29.3119 2.7204 0.7587
-62.4709 27.8006 2.6962 0.7605
-33.5892 14.1454 1.4371 0.8642
-62.5200 23.4155 2.6325 0.7655
-71.5813 23.5727 2.9716 0.7396
-24.2242 -16.8283 1.1630 0.8886
-21.4675 -16.9204 1.0778 0.8964
-20.6189 -16.9349 1.0521 0.8987
-19.8096 -16.9487 1.0280 0.9009
-18.2958 -16.9745 0.9841 0.9049
-17.5858 -16.9867 0.9641 0.9068
-16.2477 -17.0095 0.9275 0.9101
-14.4160 -17.0408 0.8801 0.9145
-12.2359 -17.0780 0.8284 0.9193
-11.7056 -17.0522 0.8156 0.9205
-11.2359 -17.0951 0.8066 0.9214
-10.7550 -17.1033 0.7967 0.9223
-10.2857 -17.1113 0.7872 0.9232
-9.8272 -17.1191 0.7783 0.9240
-9.3787 -17.1268 0.7700 0.9248
-8.5094 -17.1416 0.7546 0.9263
-7.6726 -17.1559 0.7410 0.9275
-6.5394 -18.4816 0.7730 0.9245
-6.5942 -19.9006 0.8267 0.9195
-6.5976 -21.3393 0.8807 0.9145
25.5111 -18.8470 0.5358 0.8808
26.4762 -18.7487 0.5480 0.8783
29.1255 -18.9134 0.5866 0.8703
30.2523 -18.7910 0.6016 0.8672
34.8651 -18.8426 0.6694 0.8534
82.7548 17.5125 1.4288 0.7129
48.5096 16.5740 0.8659 0.8146
66.7195 24.3050 1.1995 0.7527
20.0856 9.2069 0.3732 0.9154
47.4392 25.3126 0.9083 0.8065
47.4807 26.5751 0.9191 0.8044
41.8003 24.5128 0.8185 0.8238
39.2785 25.2100 0.7884 0.8297
39.3610 32.5719 0.8630 0.8151
34.8351 32.5591 0.8054 0.8263
33.4809 32.5795 0.7891 0.8295
30.9258 32.6155 0.7592 0.8354
29.7196 32.6337 0.7456 0.8381
28.5051 32.5936 0.7314 0.8409
26.3398 32.6820 0.7090 0.8454
25.2848 32.6980 0.6982 0.8476
24.2239 32.6630 0.6869 0.8499
23.2650 32.7259 0.6783 0.8516
22.2979 32.7404 0.6691 0.8534
21.3560 32.7546 0.6605 0.8552
20.4016 32.7106 0.6512 0.8571
19.5399 32.7794 0.6446 0.8584
18.6643 32.7926 0.6374 0.8599
17.8077 32.8056 0.6305 0.8613
16.2031 32.9445 0.6202 0.8634
14.6070 32.9869 0.6094 0.8656
11.5505 33.0303 0.5911 0.8694
11.5909 35.4168 0.6295 0.8615
9.3614 33.0451 0.5802 0.8716
8.6043 32.8807 0.5741 0.8729
7.9452 33.0639 0.5744 0.8728
6.5589 33.1040 0.5701 0.8737
4.4826 32.9403 0.5616 0.8755
3.1603 33.1577 0.5626 0.8752
2.8245 37.6353 0.6375 0.8599
1.8198 33.1791 0.5613 0.8755
0.4787 32.8692 0.5553 0.8768
-0.1952 35.1579 0.5939 0.8688
-1.6114 35.1737 0.5948 0.8686
-25.6186 80.7335 1.4308 0.7126
-6.8265 18.8472 0.3386 0.9229
-25.3085 65.7150 1.1895 0.7545
-25.8527 59.8341 1.1010 0.7705
-25.8872 56.7509 1.0537 0.7792
-25.9482 51.3122 0.9713 0.7945
-25.7905 42.1931 0.8353 0.8205
-26.0661 40.7775 0.8175 0.8240
-26.0854 39.0539 0.7933 0.8287
-26.1037 37.4287 0.7708 0.8331
-26.1199 35.8913 0.7498 0.8373
-26.1362 34.4360 0.7303 0.8412
-26.1805 30.4857 0.6788 0.8515
-26.1939 29.2882 0.6637 0.8545
-27.2389 29.2507 0.6752 0.8522
-30.7770 29.2903 0.7177 0.8437
-32.0593 29.3047 0.7337 0.8405
-33.4007 29.3197 0.7507 0.8371
-36.2302 29.3096 0.7872 0.8299
-39.5588 29.4511 0.8331 0.8209
-47.2879 29.6146 0.9425 0.7999
-49.5146 29.6395 0.9748 0.7938
-53.8715 29.3715 1.0364 0.7823
-62.4550 29.3123 1.1654 0.7588
-62.4719 27.8011 1.1550 0.7607
-62.4886 26.3157 1.1453 0.7624
-62.5049 24.8546 1.1362 0.7641
-62.5210 23.4159 1.1277 0.7656
-62.5369 21.9980 1.1198 0.7670
-68.2889 20.9757 1.2067 0.7514
-69.9672 15.4664 1.2104 0.7508
-24.2875 -16.8723 0.4995 0.8884
-21.4675 -16.9204 0.4617 0.8964
-19.8095 -16.9487 0.4404 0.9010
-16.9038 -16.9983 0.4049 0.9086
-14.4160 -17.0408 0.3770 0.9146
-13.8456 -17.0505 0.3710 0.9159
-13.2803 -17.0437 0.3650 0.9172
-12.7567 -17.0691 0.3600 0.9183
-12.2359 -17.0780 0.3549 0.9194
-11.7058 -17.0525 0.3494 0.9206
-11.2360 -17.0951 0.3456 0.9214
-10.2857 -17.1113 0.3372 0.9232
-9.8272 -17.1191 0.3334 0.9241
-9.3788 -17.1268 0.3298 0.9249
-8.9397 -17.1343 0.3265 0.9256
-8.0872 -17.1489 0.3203 0.9270
-7.6726 -17.1559 0.3175 0.9276
-7.3796 -17.4335 0.3198 0.9271
-6.5394 -18.4816 0.3312 0.9246
-6.5945 -19.9016 0.3542 0.9195
25.5110 -18.8470 -0.1786 0.8808
26.4762 -18.7487 -0.1827 0.8783
27.8604 -18.8992 -0.1895 0.8740
29.1255 -18.9134 -0.1955 0.8703
55.6634 -30.0829 -0.3565 0.7764
55.5543 -16.8404 -0.3268 0.7928
65.4244 23.8332 -0.3920 0.7569
61.6551 23.8754 -0.3722 0.7676
22.5142 9.2434 -0.1370 0.9072
20.3022 9.3062 -0.1257 0.9145
49.7129 24.0091 -0.3108 0.8019
46.9409 25.0467 -0.2996 0.8083
41.4224 24.2912 -0.2704 0.8252
39.6091 24.3114 -0.2617 0.8304
39.2084 27.4524 -0.2695 0.8258
31.9474 24.3404 -0.2261 0.8516
38.6365 30.6843 -0.2778 0.8209
38.6511 31.9844 -0.2825 0.8182
36.1908 32.4874 -0.2738 0.8232
34.9816 32.6961 -0.2696 0.8257
33.6217 32.7166 -0.2641 0.8289
32.2027 32.6223 -0.2581 0.8325
31.0559 32.7527 -0.2541 0.8348
25.3745 32.8140 -0.2335 0.8471
24.2232 32.6621 -0.2289 0.8499
21.4317 32.8709 -0.2209 0.8547
19.6582 32.9778 -0.2162 0.8576
19.8748 34.9197 -0.2262 0.8515
14.6120 32.9981 -0.2032 0.8656
9.3614 33.0451 -0.1934 0.8716
8.6043 32.8807 -0.1914 0.8729
7.9452 33.0639 -0.1915 0.8728
6.2209 35.0858 -0.2006 0.8672
5.1853 33.1055 -0.1887 0.8746
4.4827 32.9403 -0.1872 0.8755
3.8307 33.1233 -0.1877 0.8751
1.1401 32.8618 -0.1851 0.8768
0.4787 32.8692 -0.1851 0.8768
-0.9028 35.1658 -0.1981 0.8687
-1.6114 35.1737 -0.1982 0.8686
-12.3959 65.6633 -0.3762 0.7654
-6.4263 18.9227 -0.1125 0.9232
-25.8160 63.2116 -0.3844 0.7610
-25.8537 59.8364 -0.3670 0.7705
-25.8882 56.7531 -0.3512 0.7792
-4.0009 8.3234 -0.0520 0.9637
-25.9491 51.3140 -0.3237 0.7945
-26.0012 46.6567 -0.3007 0.8076
-25.8316 44.2358 -0.2884 0.8147
-25.7913 42.1943 -0.2784 0.8205
-26.0669 40.7787 -0.2725 0.8240
-26.1639 35.9517 -0.2503 0.8371
-26.1524 33.0549 -0.2373 0.8448
-27.2803 29.2952 -0.2254 0.8520
-13.3085 13.7272 -0.1076 0.9264
-30.7770 29.2904 -0.2392 0.8437
-33.5307 29.4338 -0.2512 0.8365
-34.3139 28.9203 -0.2526 0.8357
-36.4587 29.4944 -0.2640 0.8290
-37.4962 29.1058 -0.2672 0.8271
-39.5596 29.4517 -0.2776 0.8210
-43.1024 29.4712 -0.2940 0.8115
-45.1146 29.5332 -0.3036 0.8060
-47.2879 29.6146 -0.3141 0.8000
-53.8715 29.3715 -0.3455 0.7824
-62.5060 24.8550 -0.3787 0.7641
-62.5536 20.5998 -0.3708 0.7684
-62.5691 19.2188 -0.3685 0.7696
-64.4000 18.3720 -0.3770 0.7650
-69.9179 18.4338 -0.4071 0.7488
-75.0090 18.1708 -0.4345 0.7344
-51.9351 8.2326 -0.2961 0.8103
-22.9771 -16.6570 -0.1598 0.8927
-22.0444 -16.6674 -0.1556 0.8953
-21.1590 -16.6773 -0.1517 0.8978
-20.3167 -16.6867 -0.1480 0.9002
-19.5138 -16.6957 -0.1446 0.9024
-13.0816 -11.6562 -0.0986 0.9323
-18.0133 -16.7125 -0.1383 0.9064
-15.9857 -16.7352 -0.1303 0.9116
-15.3604 -16.7422 -0.1279 0.9131
-13.5454 -16.6808 -0.1210 0.9176
-12.5360 -16.7738 -0.1179 0.9196
-10.5618 -16.7959 -0.1117 0.9237
-9.6475 -16.8062 -0.1091 0.9254
-8.7735 -16.8159 -0.1068 0.9269
-8.3500 -16.8207 -0.1057 0.9276
-7.9346 -16.8253 -0.1047 0.9283
-6.4911 -18.3451 -0.1096 0.9251
-6.5055 -19.6329 -0.1164 0.9206
27.9083 -18.9317 -0.9496 0.8738
30.5259 -18.9610 -1.0119 0.8661
33.5163 -18.9945 -1.0848 0.8571
54.3643 -29.3808 -1.7400 0.7809
54.3697 -26.6163 -1.7045 0.7849
56.9370 -25.0869 -1.7520 0.7796
57.0616 -23.7831 -1.7407 0.7808
55.6302 -21.8839 -1.6833 0.7872
80.7324 -28.0646 -2.4067 0.7103
81.2926 -26.4391 -2.4070 0.7103
81.8192 -24.8021 -2.4074 0.7103
82.7710 -21.4967 -2.4080 0.7102
83.1956 -19.8297 -2.4082 0.7102
83.5860 -18.1541 -2.4085 0.7102
84.5481 -13.0832 -2.4090 0.7101
90.5303 -10.3008 -2.5656 0.6945
90.8768 -6.6518 -2.5657 0.6945
90.9942 -4.8227 -2.5658 0.6945
91.0728 -2.9916 -2.5658 0.6945
91.1141 -1.1592 -2.5658 0.6945
91.1174 0.6737 -2.5657 0.6945
91.0835 2.5062 -2.5657 0.6945
91.0111 4.3375 -2.5656 0.6945
90.9011 6.1669 -2.5655 0.6945
85.0503 9.2185 -2.4089 0.7101
83.8748 12.5218 -2.3879 0.7122
76.4186 12.9850 -2.1826 0.7333
58.6427 16.1595 -1.7128 0.7839
57.8921 17.2128 -1.7006 0.7853
23.6565 8.0826 -0.7039 0.9048
23.6474 8.6144 -0.7087 0.9042
23.6027 9.1399 -0.7128 0.9037
20.3018 9.3060 -0.6288 0.9145
15.9365 8.0959 -0.5033 0.9310
31.6274 16.8757 -1.0094 0.8664
77.1727 43.1941 -2.4902 0.7019
75.6255 46.4177 -2.4986 0.7011
31.8215 20.4239 -1.0647 0.8596
73.9353 49.5813 -2.5066 0.7003
73.0370 51.1380 -2.5106 0.6999
24.7626 18.0910 -0.8635 0.8845
31.7029 24.1541 -1.1223 0.8526
65.7903 61.4920 -2.5357 0.6974
64.6230 62.8833 -2.5390 0.6971
63.4235 64.2499 -2.5421 0.6968
62.1601 65.5565 -2.5438 0.6966
59.4269 67.9505 -2.5418 0.6968
58.0247 69.1041 -2.5408 0.6969
56.6001 70.2288 -2.5398 0.6970
53.6853 72.3883 -2.5377 0.6972
52.1963 73.4222 -2.5366 0.6973
50.6872 74.4253 -2.5355 0.6974
46.0460 77.2452 -2.5322 0.6978
44.4628 78.1202 -2.5310 0.6979
36.3105 82.0001 -2.5252 0.6985
32.9520 83.3150 -2.5228 0.6987
24.3610 85.9932 -2.5167 0.6993
20.8621 86.8177 -2.5142 0.6996
15.5650 87.7863 -2.5104 0.6999
12.0097 88.2524 -2.5079 0.7002
8.4421 88.5749 -2.5054 0.7004
6.6555 88.6821 -2.5041 0.7006
4.8679 88.7532 -2.5029 0.7007
1.2932 88.7877 -2.5003 0.7009
-2.2765 88.6782 -2.4978 0.7012
-4.0576 88.5703 -2.4966 0.7013
-7.9959 75.0612 -2.1255 0.7393
-7.4344 39.3814 -1.1285 0.8518
-7.6706 33.2370 -0.9605 0.8724
-12.2734 48.6900 -1.4139 0.8180
-12.4004 45.3267 -1.3232 0.8286
-10.6890 33.6849 -0.9951 0.8681
-25.8170 63.2142 -1.9227 0.7609
-25.8547 59.8387 -1.8355 0.7704
-25.8892 56.7552 -1.7565 0.7791
-3.9954 8.3120 -0.2597 0.9638
-25.8735 48.7063 -1.5530 0.8020
-25.8316 44.2358 -1.4424 0.8147
-26.1051 37.4308 -1.2850 0.8331
-26.2597 36.0833 -1.2566 0.8365
-27.3711 29.3928 -1.1309 0.8515
-29.5612 29.2887 -1.1718 0.8466
-32.0593 29.3047 -1.2230 0.8405
-33.5314 29.4344 -1.2563 0.8365
-36.4587 29.4944 -1.3205 0.8289
-37.4963 29.1058 -1.3366 0.8270
-39.4325 29.3570 -1.3843 0.8214
-42.8372 29.2899 -1.4612 0.8125
-46.9096 29.3777 -1.5585 0.8013
-49.1839 29.4416 -1.6141 0.7950
-74.6114 42.6480 -2.4199 0.7090
-53.8715 29.3715 -1.7277 0.7823
-56.6251 29.4111 -1.7967 0.7747
-59.6091 29.4540 -1.8722 0.7664
-62.4572 29.3134 -1.9427 0.7587
-62.4907 26.3166 -1.9093 0.7624
-62.5390 21.9988 -1.8667 0.7670
-62.5701 19.2191 -1.8431 0.7696
-62.5854 17.8544 -1.8326 0.7707
-65.3138 15.8221 -1.8923 0.7642
-70.3854 15.5589 -2.0297 0.7494
-51.9359 8.2328 -1.4807 0.8102
-83.8492 8.1476 -2.3721 0.7138
-83.8705 6.4498 -2.3686 0.7142
-60.2716 0.9889 -1.6973 0.7857
-83.6075 -1.9922 -2.3549 0.7156
-83.4873 -3.6707 -2.3531 0.7158
-83.3002 -5.3430 -2.3504 0.7160
-54.2464 -4.5766 -1.5329 0.8043
-55.2516 -5.7828 -1.5643 0.8007
-81.8012 -13.5897 -2.3349 0.7176
-81.0035 -16.8302 -2.3296 0.7182
-80.5520 -18.4340 -2.3268 0.7184
-80.0418 -20.0197 -2.3232 0.7188
-78.9448 -23.1560 -2.3166 0.7195
-77.1087 -27.7682 -2.3077 0.7204
-76.4298 -29.2734 -2.3046 0.7207
-74.2956 -33.7252 -2.2975 0.7214
-73.6187 -35.2205 -2.2980 0.7214
-72.9123 -36.7027 -2.2985 0.7213
-72.1767 -38.1709 -2.2990 0.7213
-71.4121 -39.6248 -2.2996 0.7212
-70.6188 -41.0637 -2.3002 0.7212
-69.7974 -42.4872 -2.3008 0.7211
-23.9617 -16.6459 -0.8215 0.8898
-22.0444 -16.6674 -0.7782 0.8953
-20.3167 -16.6867 -0.7403 0.9001
-19.5138 -16.6957 -0.7231 0.9023
-18.0133 -16.7125 -0.6919 0.9064
-17.3101 -16.7204 -0.6777 0.9082
-16.6349 -16.7279 -0.6643 0.9099
-13.0022 -16.6868 -0.5957 0.9188
-12.0220 -16.7796 -0.5812 0.9207
-9.2059 -16.8111 -0.5397 0.9262
-8.3500 -16.8207 -0.5288 0.9276
-7.9346 -16.8253 -0.5238 0.9283
-6.9714 -17.4381 -0.5288 0.9276
-6.5806 -18.5981 -0.5555 0.9241
-6.6119 -21.3853 -0.6303 0.9143
25.5444 -18.8716 -1.6106 0.8806
28.9139 -18.7760 -1.7484 0.8710
30.2522 -18.7909 -1.8061 0.8671
41.7091 -21.4688 -2.3790 0.8287
42.1374 -20.6280 -2.3793 0.8287
48.6443 -11.5944 -2.5361 0.8185
48.8704 -10.6142 -2.5362 0.8185
49.0763 -9.6296 -2.5363 0.8185
49.5733 -6.6531 -2.5366 0.8185
49.8030 -4.6541 -2.5367 0.8185
49.9510 -2.6474 -2.5368 0.8185
50.0011 1.3758 -2.5367 0.8185
49.9622 2.3812 -2.5367 0.8185
49.9030 3.3855 -2.5366 0.8185
49.7229 5.3894 -2.5364 0.8185
49.3456 7.3669 -2.5303 0.8189
46.2968 7.8667 -2.3816 0.8285
46.1264 8.7958 -2.3814 0.8286
45.9373 9.7212 -2.3813 0.8286
45.2570 12.4710 -2.3807 0.8286
44.9932 13.3776 -2.3805 0.8286
44.9336 14.3498 -2.3922 0.8279
23.6565 8.0826 -1.2678 0.9047
23.6470 8.6143 -1.2763 0.9041
22.5135 9.2431 -1.2342 0.9071
21.3708 9.2805 -1.1816 0.9109
27.1538 13.1140 -1.5293 0.8862
15.9342 8.0947 -0.9064 0.9309
24.9023 13.2873 -1.4314 0.8931
23.2194 12.9960 -1.3495 0.8989
21.3090 13.0791 -1.2680 0.9047
20.3982 13.0921 -1.2292 0.9075
19.4564 13.0476 -1.1880 0.9104
18.7295 13.1138 -1.1595 0.9125
28.6531 23.7109 -1.8861 0.8616
15.2045 13.1061 -1.0180 0.9227
14.8199 13.3034 -1.0100 0.9233
24.5206 23.8604 -1.7351 0.8719
23.5766 23.8838 -1.7020 0.8742
22.7240 23.9656 -1.6749 0.8761
21.7508 23.8836 -1.6383 0.8786
20.9341 23.9367 -1.6127 0.8804
20.0199 23.8426 -1.5789 0.8828
18.4560 23.8671 -1.5301 0.8862
17.0345 23.9617 -1.4910 0.8889
15.6761 24.0433 -1.4556 0.8914
23.8867 41.9684 -2.4490 0.8241
13.1402 24.2071 -1.3969 0.8956
11.9083 24.2123 -1.3684 0.8976
11.5162 24.6554 -1.3801 0.8967
9.5690 24.1941 -1.3195 0.9010
8.7328 24.9727 -1.3417 0.8995
7.9246 24.2141 -1.2921 0.9030
7.0185 24.7752 -1.3059 0.9020
6.4853 24.7831 -1.2992 0.9025
4.9149 24.8063 -1.2825 0.9037
4.3996 24.8139 -1.2780 0.9040
2.8720 24.8341 -1.2678 0.9047
2.3676 24.8415 -1.2655 0.9049
1.8649 24.8489 -1.2637 0.9050
0.8626 24.8637 -1.2617 0.9052
-0.1378 24.8203 -1.2588 0.9054
-0.6388 24.8836 -1.2624 0.9051
-1.1403 24.8909 -1.2636 0.9050
-4.1801 24.8776 -1.2793 0.9039
-4.7084 24.9413 -1.2872 0.9033
-7.2300 24.4820 -1.2946 0.9028
-7.9109 24.9301 -1.3264 0.9005
-6.3670 18.7481 -1.0041 0.9238
-6.7319 18.5861 -1.0025 0.9239
-12.2586 31.8301 -1.7298 0.8723
-12.3287 30.1875 -1.6537 0.8776
-12.4038 28.7076 -1.5860 0.8823
-12.5262 27.4605 -1.5307 0.8861
-12.6394 24.9944 -1.4204 0.8939
-12.6881 23.8850 -1.3716 0.8973
-12.6719 22.7385 -1.3201 0.9010
-13.3243 22.8175 -1.3400 0.8996
-13.2166 21.6222 -1.2852 0.9035
-13.2344 20.7037 -1.2462 0.9063
-13.2578 19.0097 -1.1754 0.9114
-13.2138 18.1569 -1.1389 0.9140
-13.2771 17.4933 -1.1137 0.9158
-13.3050 14.2877 -0.9901 0.9248
-13.4054 13.8272 -0.9767 0.9258
-30.7770 29.2904 -2.1547 0.8435
-32.0593 29.3047 -2.2027 0.8403
-34.3139 28.9204 -2.2758 0.8355
-38.7903 27.6839 -2.4168 0.8262
-39.8716 26.1010 -2.4168 0.8262
-40.3889 25.2941 -2.4168 0.8262
-40.8899 24.4767 -2.4168 0.8262
-42.7268 21.1121 -2.4169 0.8262
-43.4758 18.3089 -2.3924 0.8278
-43.8240 15.4157 -2.3560 0.8302
-44.3769 12.6598 -2.3403 0.8312
-44.5355 11.7418 -2.3358 0.8315
-44.6856 10.8250 -2.3317 0.8318
-44.9585 8.9938 -2.3252 0.8322
-45.0634 8.0757 -2.3218 0.8325
-45.1556 7.1579 -2.3186 0.8327
-45.2588 6.2439 -2.3170 0.8328
-33.2888 3.9120 -1.6998 0.8744
-33.2258 3.2286 -1.6930 0.8749
-35.5937 2.0180 -1.8080 0.8669
-38.3617 1.4016 -1.9468 0.8575
-48.5513 -3.1141 -2.4673 0.8230
-47.8356 -8.9391 -2.4679 0.8229
-46.7134 -13.7019 -2.4688 0.8229
-46.4326 -14.6400 -2.4691 0.8228
-45.1242 -18.3321 -2.4701 0.8228
-44.7515 -19.2382 -2.4704 0.8228
-44.3607 -20.1368 -2.4707 0.8227
-40.0603 -20.1656 -2.2745 0.8356
-40.0247 -22.2087 -2.3214 0.8325
-39.5756 -23.0125 -2.3217 0.8325
-38.1333 -25.3691 -2.3228 0.8324
-23.9617 -16.6459 -1.4796 0.8897
-22.0444 -16.6674 -1.4015 0.8952
-21.1590 -16.6773 -1.3663 0.8977
-13.0790 -11.6539 -0.8884 0.9322
-16.6349 -16.7279 -1.1964 0.9098
-15.3604 -16.7422 -1.1523 0.9130
-14.1746 -16.7555 -1.1130 0.9159
-13.5453 -16.6808 -1.0897 0.9175
-12.0220 -16.7796 -1.0468 0.9207
-10.0993 -16.8011 -0.9941 0.9245
-8.7735 -16.8159 -0.9619 0.9268
-7.4904 -16.7485 -0.9305 0.9292
-7.2541 -17.1370 -0.9437 0.9282
-6.9714 -17.4381 -0.9524 0.9275
-6.5694 -17.4426 -0.9452 0.9281
-6.5809 -18.5990 -1.0005 0.9240
-6.7773 -21.9205 -1.1637 0.9122
25.3611 -18.7362 -2.3120 0.8812
26.3579 -18.6649 -2.3681 0.8785
26.7308 -18.1329 -2.3684 0.8785
27.0929 -17.5934 -2.3686 0.8785
27.7840 -16.4928 -2.3691 0.8785
28.1126 -15.9321 -2.3693 0.8784
28.4299 -15.3647 -2.3695 0.8784
28.7357 -14.7911 -2.3697 0.8784
29.0297 -14.2113 -2.3699 0.8784
29.8407 -12.4375 -2.3704 0.8784
30.6984 -11.3686 -2.4003 0.8770
33.1516 -9.3255 -2.5251 0.8710
33.3339 -8.6573 -2.5252 0.8710
33.5027 -7.9854 -2.5253 0.8710
33.6578 -7.3102 -2.5254 0.8710
33.9266 -5.9509 -2.5256 0.8710
34.2260 -3.8943 -2.5257 0.8710
34.2979 -3.2052 -2.5258 0.8710
34.3558 -2.5147 -2.5258 0.8710
34.4294 -1.1309 -2.5258 0.8710
34.4451 -0.4382 -2.5258 0.8710
34.4468 0.2547 -2.5258 0.8710
34.4343 0.9475 -2.5258 0.8710
34.4078 1.6398 -2.5257 0.8710
34.3672 2.3315 -2.5257 0.8710
34.3127 3.0222 -2.5256 0.8710
34.1615 4.3996 -2.5255 0.8710
34.0649 5.0856 -2.5254 0.8710
33.9545 5.7695 -2.5253 0.8710
33.8302 6.4511 -2.5252 0.8710
30.9922 9.2147 -2.3707 0.8784
30.7986 9.8356 -2.3706 0.8784
23.6565 8.0826 -1.8330 0.9046
23.6048 8.5989 -1.8420 0.9042
30.1430 11.6726 -2.3701 0.8784
20.3403 8.8330 -1.6260 0.9149
23.2194 12.9960 -1.9510 0.8988
16.0354 13.2696 -1.5261 0.9199
15.2045 13.1061 -1.4718 0.9226
14.7645 13.2536 -1.4548 0.9235
14.2225 13.2933 -1.4274 0.9249
13.8429 13.4703 -1.4162 0.9255
11.5565 13.2140 -1.2871 0.9320
10.6333 13.1937 -1.2425 0.9343
9.8167 13.2367 -1.2083 0.9360
9.4141 13.2424 -1.1913 0.9369
8.2695 13.2588 -1.1457 0.9393
7.9067 13.2639 -1.1322 0.9399
7.1742 13.2164 -1.1026 0.9415
6.8362 13.2212 -1.0913 0.9421
6.5049 13.2260 -1.0807 0.9426
6.3528 13.6009 -1.1007 0.9416
10.0565 24.0035 -1.9082 0.9009
9.4797 23.9684 -1.8899 0.9018
6.8107 24.0416 -1.8322 0.9046
6.2804 24.0001 -1.8190 0.9053
2.9239 13.3435 -1.0016 0.9467
2.6544 13.3970 -1.0014 0.9467
2.3839 13.4451 -1.0012 0.9467
3.7508 23.9472 -1.7773 0.9074
2.7955 24.1728 -1.7842 0.9070
1.8060 24.0646 -1.7694 0.9077
1.3279 24.2107 -1.7779 0.9073
-0.6189 24.1071 -1.7682 0.9078
-1.1701 13.5702 -0.9987 0.9468
-1.4347 13.4685 -0.9931 0.9471
-1.7142 13.5071 -0.9983 0.9469
-5.0754 24.2038 -1.8133 0.9056
-5.5918 24.2294 -1.8232 0.9051
-6.5861 24.0737 -1.8300 0.9047
-7.1288 24.1392 -1.8455 0.9040
-6.3460 18.6864 -1.4470 0.9239
-6.6955 18.4856 -1.4416 0.9242
-5.1552 13.3859 -1.0518 0.9441
-5.7876 13.3950 -1.0699 0.9432
-6.1799 13.5479 -1.0918 0.9420
-3.9865 8.2934 -0.6746 0.9638
-6.8093 13.4654 -1.1064 0.9413
-7.5096 13.4754 -1.1311 0.9400
-7.8720 13.4806 -1.1446 0.9393
-8.2432 13.4859 -1.1589 0.9386
-9.0150 13.4969 -1.1901 0.9370
-9.3762 13.4440 -1.2018 0.9364
-9.7882 13.4499 -1.2197 0.9355
-10.2556 13.5125 -1.2438 0.9342
-10.6957 13.5187 -1.2639 0.9332
-11.6209 13.5319 -1.3078 0.9310
-12.2313 13.6763 -1.3453 0.9291
-13.7185 13.5921 -1.4160 0.9255
-20.8829 19.0886 -2.0745 0.8927
-26.0297 20.2051 -2.4161 0.8762
-27.1172 18.5413 -2.4086 0.8766
-27.9224 16.7144 -2.3861 0.8776
-28.3247 15.4430 -2.3654 0.8786
-28.4215 14.7621 -2.3483 0.8795
-28.6099 14.1367 -2.3399 0.8799
-28.8264 13.5292 -2.3348 0.8801
-29.0423 12.9243 -2.3308 0.8803
-23.9413 7.8842 -1.8482 0.9038
-30.8464 7.4725 -2.3271 0.8805
-30.9893 6.8503 -2.3271 0.8805
-31.1198 6.2254 -2.3270 0.8805
-32.7020 5.1838 -2.4277 0.8756
-33.5612 3.9440 -2.4777 0.8733
-33.6333 3.2681 -2.4777 0.8733
-33.6918 2.5909 -2.4777 0.8733
-33.7369 1.9128 -2.4776 0.8733
-33.7685 1.2338 -2.4776 0.8733
-33.7594 -1.4843 -2.4777 0.8733
-33.6104 -3.5177 -2.4779 0.8732
-33.4438 -4.8670 -2.4780 0.8732
-33.0933 -6.8758 -2.4783 0.8732
-32.9498 -7.5404 -2.4784 0.8732
-32.7932 -8.2021 -2.4785 0.8732
-32.2445 -10.1666 -2.4790 0.8732
-31.8138 -11.4567 -2.4793 0.8732
-31.5792 -12.0952 -2.4795 0.8732
-31.3320 -12.7288 -2.4797 0.8732
-28.6559 -13.7095 -2.3292 0.8804
-28.3768 -14.2844 -2.3294 0.8804
-26.8127 -17.0699 -2.3306 0.8803
-23.9617 -16.6459 -2.1393 0.8896
-22.9771 -16.6569 -2.0808 0.8924
-22.0444 -16.6674 -2.0263 0.8951
-21.1590 -16.6773 -1.9754 0.8976
-19.5138 -16.6957 -1.8830 0.9021
-13.0778 -11.6528 -1.2843 0.9322
-16.6349 -16.7279 -1.7298 0.9097
-15.9857 -16.7352 -1.6969 0.9114
-14.0003 -15.8899 -1.5528 0.9186
-14.1746 -16.7555 -1.6092 0.9157
-13.0022 -16.6868 -1.5511 0.9187
-12.0220 -16.7795 -1.5135 0.9205
-10.0992 -16.8011 -1.4373 0.9244
-9.2059 -16.8111 -1.4053 0.9260
-8.7735 -16.8159 -1.3907 0.9267
-8.3500 -16.8206 -1.3769 0.9274
-7.4904 -16.7485 -1.3453 0.9291
-6.5694 -17.4426 -1.3666 0.9280
-6.5812 -18.5999 -1.4466 0.9239
-6.5959 -19.9058 -1.5376 0.9193
-6.7777 -21.9217 -1.6824 0.9121
19.8001 -14.6279 -2.3634 0.9058
20.0919 -14.2278 -2.3636 0.9058
20.3757 -13.8220 -2.3638 0.9058
20.6512 -13.4104 -2.3640 0.9058
20.9183 -12.9933 -2.3641 0.9058
21.1770 -12.5708 -2.3643 0.9058
21.4270 -12.1432 -2.3645 0.9058
23.1262 -11.3212 -2.4720 0.9017
24.2169 -10.0935 -2.5188 0.8999
24.4163 -9.6049 -2.5189 0.8999
24.9545 -8.1160 -2.5193 0.8999
25.2626 -7.1064 -2.5195 0.8999
25.5297 -6.0850 -2.5196 0.8999
25.6476 -5.5704 -2.5197 0.8999
25.7551 -5.0536 -2.5198 0.8999
25.8521 -4.5346 -2.5198 0.8999
26.0145 -3.4913 -2.5199 0.8999
26.0798 -2.9674 -2.5199 0.8999
26.1786 -1.9161 -2.5200 0.8999
26.2184 1.2496 -2.5199 0.8999
26.1461 2.3029 -2.5199 0.8999
26.0940 2.8283 -2.5198 0.8999
26.0313 3.3525 -2.5198 0.8999
25.9579 3.8753 -2.5197 0.8999
25.4333 6.4609 -2.5193 0.8999
25.2971 6.9709 -2.5192 0.8999
25.0937 7.4610 -2.5134 0.9001
23.8070 7.6028 -2.3993 0.9045
23.1483 8.4326 -2.3652 0.9057
22.9727 8.8960 -2.3651 0.9057
22.5127 9.2427 -2.3364 0.9068
20.3007 9.3055 -2.1440 0.9142
22.1778 10.7109 -2.3645 0.9058
15.8231 8.0383 -1.7039 0.9312
21.7259 11.5925 -2.3641 0.9058
18.8938 13.2288 -2.2143 0.9115
17.5645 13.3822 -2.1199 0.9151
16.7652 13.3146 -2.0554 0.9176
15.2045 13.1061 -1.9272 0.9225
14.7642 13.2534 -1.9048 0.9234
14.2225 13.2933 -1.8690 0.9248
13.5260 13.7023 -1.8485 0.9255
11.0528 13.1632 -1.6501 0.9333
10.6331 13.1934 -1.6268 0.9342
10.0378 13.5348 -1.6178 0.9345
9.7653 13.7365 -1.6181 0.9345
9.2963 13.6500 -1.5855 0.9358
8.6632 13.8900 -1.5716 0.9363
8.0216 13.4567 -1.5040 0.9390
7.6184 13.3854 -1.4786 0.9400
7.1742 13.2164 -1.4437 0.9414
6.2602 13.4027 -1.4202 0.9423
5.3140 13.4359 -1.3871 0.9436
5.2071 13.9814 -1.4324 0.9418
4.4010 13.4475 -1.3584 0.9447
3.8119 13.4558 -1.3427 0.9454
3.2029 13.3289 -1.3161 0.9464
2.9089 13.2752 -1.3047 0.9469
2.6310 13.2791 -1.2996 0.9471
2.3651 13.3387 -1.3006 0.9470
1.8163 13.3466 -1.2931 0.9473
1.5440 13.3504 -1.2903 0.9474
1.2728 13.3543 -1.2879 0.9475
1.0025 13.3582 -1.2861 0.9476
0.4637 13.3659 -1.2840 0.9477
0.1948 13.3697 -1.2837 0.9477
-0.3434 13.3774 -1.2847 0.9476
-0.6130 13.3812 -1.2860 0.9476
-1.4205 13.3348 -1.2874 0.9475
-1.6929 13.3387 -1.2908 0.9474
-1.9750 13.3986 -1.3002 0.9470
-2.2519 13.4025 -1.3047 0.9469
-2.8121 13.4105 -1.3155 0.9464
-3.1273 13.5506 -1.3351 0.9456
-3.8364 14.0229 -1.3957 0.9433
-4.0054 13.5631 -1.3577 0.9448
-4.3052 13.5674 -1.3665 0.9444
-4.6028 13.5534 -1.3742 0.9441
-5.1552 13.3860 -1.3771 0.9440
-5.4687 13.3904 -1.3886 0.9435
-3.9860 8.2924 -0.8833 0.9637
-7.0667 13.9742 -1.5034 0.9390
-7.4164 13.9612 -1.5177 0.9384
-7.6188 13.6713 -1.5026 0.9390
-8.6997 13.6097 -1.5507 0.9372
-9.7882 13.4500 -1.5970 0.9353
-10.8497 13.7134 -1.6788 0.9321
-11.3012 13.7081 -1.7056 0.9311
-12.8270 13.7745 -1.8070 0.9272
-18.3328 16.7576 -2.3845 0.9050
-18.6492 16.3707 -2.3824 0.9051
-19.2406 15.5653 -2.3760 0.9053
-19.6501 14.6293 -2.3519 0.9062
-20.0737 13.7254 -2.3346 0.9069
-20.3442 13.3178 -2.3344 0.9069
-20.6064 12.9050 -2.3342 0.9069
-20.8603 12.4870 -2.3341 0.9069
-21.1057 12.0640 -2.3339 0.9069
-21.5710 11.2040 -2.3336 0.9069
-22.0015 10.3261 -2.3333 0.9070
-22.3965 9.4318 -2.3331 0.9070
-22.5805 8.9790 -2.3329 0.9070
-22.7554 8.5226 -2.3328 0.9070
-23.0778 7.5998 -2.3326 0.9070
-23.5315 7.2280 -2.3633 0.9058
-24.6738 7.0390 -2.4633 0.9020
-25.2590 5.5836 -2.4835 0.9013
-25.4619 4.5630 -2.4834 0.9013
-25.6895 3.0189 -2.4833 0.9013
-25.7447 2.5016 -2.4833 0.9013
-25.7896 1.9833 -2.4832 0.9013
-25.8242 1.4641 -2.4832 0.9013
-25.8621 0.4243 -2.4832 0.9013
-25.8135 -1.6557 -2.4833 0.9013
-25.7753 -2.1746 -2.4833 0.9013
-25.7269 -2.6926 -2.4834 0.9013
-25.6680 -3.2096 -2.4834 0.9013
-25.4298 -4.7521 -2.4837 0.9013
-25.3299 -5.2628 -2.4837 0.9013
-25.0997 -6.2778 -2.4839 0.9013
-24.8290 -7.2828 -2.4841 0.9012
-24.3483 -8.7682 -2.4845 0.9012
-24.1683 -9.2567 -2.4846 0.9012
-23.7794 -10.2225 -2.4849 0.9012
-21.0213 -12.2235 -2.3345 0.9069
-20.5160 -13.0612 -2.3349 0.9069
-20.2508 -13.4723 -2.3351 0.9069
-19.9774 -13.8781 -2.3353 0.9069
-19.4066 -14.6730 -2.3357 0.9069
-18.8044 -15.4446 -2.3362 0.9068
-18.4917 -15.8212 -2.3364 0.9068
-13.0003 -11.5838 -1.6717 0.9324
-17.8441 -16.5555 -2.3369 0.9068
-17.3101 -16.7204 -2.3105 0.9078
-15.3604 -16.7422 -2.1813 0.9127
-14.1747 -16.7555 -2.1070 0.9156
-13.0021 -16.6868 -2.0309 0.9185
-12.0220 -16.7796 -1.9817 0.9204
-11.5223 -16.7851 -1.9546 0.9214
-10.5617 -16.7959 -1.9048 0.9234
-10.0993 -16.8011 -1.8820 0.9243
-9.6475 -16.8061 -1.8604 0.9251
-9.2058 -16.8111 -1.8401 0.9259
-8.7735 -16.8159 -1.8209 0.9266
-6.9714 -17.4381 -1.8030 0.9273
-6.5694 -17.4425 -1.7894 0.9278
-6.5816 -18.6008 -1.8943 0.9238
17.0211 -12.5748 -2.5138 0.9183
17.5154 -11.8816 -2.5141 0.9183
17.7519 -11.5276 -2.5143 0.9183
17.9813 -11.1689 -2.5144 0.9183
18.2034 -10.8056 -2.5146 0.9183
18.4181 -10.4379 -2.5147 0.9183
18.6253 -10.0659 -2.5149 0.9183
18.8250 -9.6898 -2.5150 0.9183
19.2014 -8.9257 -2.5152 0.9182
19.3779 -8.5381 -2.5154 0.9182
19.8600 -7.3548 -2.5157 0.9182
20.1411 -6.5506 -2.5158 0.9182
20.2695 -6.1444 -2.5159 0.9182
20.3896 -5.7356 -2.5160 0.9182
20.5014 -5.3245 -2.5161 0.9182
20.6048 -4.9112 -2.5161 0.9182
20.7866 -4.0787 -2.5162 0.9182
20.8648 -3.6598 -2.5163 0.9182
21.0484 -2.3949 -2.5164 0.9182
21.1549 -1.1212 -2.5164 0.9182
21.1732 -0.6955 -2.5164 0.9182
21.1829 -0.2695 -2.5164 0.9182
21.1602 1.0085 -2.5164 0.9182
21.1354 1.4339 -2.5164 0.9182
20.8827 3.5484 -2.5161 0.9182
20.8066 3.9676 -2.5161 0.9182
20.7220 4.3852 -2.5160 0.9182
20.6290 4.8009 -2.5159 0.9182
20.5276 5.2147 -2.5158 0.9182
20.4179 5.6263 -2.5158 0.9182
20.1735 6.4425 -2.5156 0.9182
20.0390 6.8466 -2.5155 0.9182
19.6306 7.6018 -2.5006 0.9187
18.5785 7.6275 -2.3856 0.9223
18.2371 7.9197 -2.3618 0.9230
18.0732 8.2845 -2.3616 0.9230
15.8056 8.0294 -2.1059 0.9311
17.5377 9.3578 -2.3612 0.9231
17.1450 10.0543 -2.3609 0.9231
16.5041 11.0677 -2.3605 0.9231
16.2770 11.3966 -2.3603 0.9231
16.0433 11.7208 -2.3601 0.9231
15.8032 12.0403 -2.3600 0.9231
13.8284 13.4561 -2.2920 0.9252
13.1588 13.3303 -2.2250 0.9273
12.6466 13.3376 -2.1833 0.9286
12.1687 13.3619 -2.1468 0.9298
11.6578 13.3299 -2.1035 0.9312
11.0528 13.1632 -2.0417 0.9331
10.6328 13.1930 -2.0128 0.9340
9.3015 13.6577 -1.9628 0.9356
8.8023 13.5005 -1.9144 0.9371
7.9861 13.3971 -1.8527 0.9391
7.6184 13.3854 -1.8295 0.9398
7.1742 13.2164 -1.7863 0.9412
6.8362 13.2212 -1.7680 0.9418
5.9369 13.4073 -1.7417 0.9426
5.6424 13.4676 -1.7345 0.9429
5.4442 13.7650 -1.7583 0.9421
4.4978 13.7433 -1.7177 0.9434
4.2047 13.7792 -1.7113 0.9436
3.9229 13.8476 -1.7096 0.9437
3.2310 13.4459 -1.6426 0.9458
2.6310 13.2791 -1.6080 0.9469
2.3751 13.3953 -1.6160 0.9467
1.8322 13.4637 -1.6140 0.9467
1.5664 13.5445 -1.6196 0.9466
1.0396 13.8527 -1.6501 0.9456
0.7580 13.8203 -1.6441 0.9458
0.1976 13.5641 -1.6114 0.9468
-0.0767 13.8196 -1.6416 0.9459
-0.8910 13.5026 -1.6074 0.9470
-1.4205 13.3348 -1.5929 0.9474
-1.6929 13.3387 -1.5972 0.9473
-2.2717 13.5201 -1.6285 0.9463
-2.5677 13.6014 -1.6442 0.9458
-2.8906 13.7847 -1.6730 0.9448
-3.1895 13.8202 -1.6848 0.9445
-3.4316 13.6137 -1.6677 0.9450
-3.7798 13.8160 -1.7015 0.9439
-4.0701 13.7820 -1.7070 0.9438
-4.3215 13.6186 -1.6972 0.9441
-4.6028 13.5534 -1.7003 0.9440
-4.9106 13.5578 -1.7129 0.9436
-5.4687 13.3904 -1.7181 0.9434
-5.7876 13.3950 -1.7333 0.9429
-6.1918 13.5740 -1.7722 0.9417
-3.9855 8.2914 -1.0928 0.9636
-6.9812 13.8053 -1.8376 0.9396
-7.2275 13.6057 -1.8300 0.9398
-7.5851 13.6108 -1.8509 0.9392
-7.9511 13.6160 -1.8730 0.9385
-8.3531 13.6657 -1.9025 0.9375
-9.0941 13.6154 -1.9449 0.9362
-9.7882 13.4500 -1.9760 0.9352
-10.3457 13.6311 -2.0327 0.9334
-11.2954 13.7012 -2.1093 0.9310
-12.2345 13.6799 -2.1800 0.9287
-12.8273 13.7748 -2.2358 0.9270
-13.2556 13.6726 -2.2621 0.9262
-13.7185 13.5921 -2.2940 0.9252
-14.2620 13.5731 -2.3387 0.9238
-14.7940 12.9865 -2.3383 0.9238
-16.0175 11.4314 -2.3375 0.9238
-16.2431 11.1062 -2.3374 0.9238
-16.4622 10.7766 -2.3372 0.9238
-16.6746 10.4427 -2.3371 0.9238
-17.0792 9.7625 -2.3368 0.9238
-19.5880 7.3363 -2.4846 0.9192
-19.7536 6.9485 -2.4874 0.9191
-20.6771 3.2777 -2.4868 0.9191
-20.7917 2.4434 -2.4868 0.9191
-20.8365 2.0247 -2.4867 0.9191
-20.8728 1.6051 -2.4867 0.9191
-20.9204 0.7644 -2.4867 0.9191
-20.9315 0.3434 -2.4867 0.9191
-20.9286 -0.4987 -2.4867 0.9191
-20.9145 -0.9195 -2.4867 0.9191
-20.8218 -2.1793 -2.4868 0.9191
-20.5810 -3.8460 -2.4871 0.9191
-20.4108 -4.6709 -2.4872 0.9191
-20.2077 -5.4884 -2.4874 0.9191
-20.0940 -5.8939 -2.4874 0.9191
-19.9721 -6.2971 -2.4875 0.9191
-19.4048 -7.8834 -2.4880 0.9191
-19.0739 -8.6583 -2.4882 0.9191
-18.8970 -9.0406 -2.4884 0.9191
-18.5202 -9.7945 -2.4886 0.9191
-17.8843 -10.8866 -2.4871 0.9191
-17.5909 -11.1990 -2.4771 0.9194
-16.1643 -11.2292 -2.3379 0.9238
-15.9363 -11.5528 -2.3381 0.9238
-15.7019 -11.8719 -2.3383 0.9238
-15.2140 -12.4957 -2.3386 0.9238
-14.9608 -12.8002 -2.3388 0.9238
-12.9837 -11.5689 -2.0657 0.9323
-14.4363 -13.3938 -2.3392 0.9237
-14.1652 -13.6826 -2.3394 0.9237
-13.0243 -14.7821 -2.3402 0.9237
-12.7255 -15.0425 -2.3405 0.9237
-12.4215 -15.2967 -2.3407 0.9237
-11.7985 -15.7870 -2.3411 0.9237
-11.4797 -16.0227 -2.3414 0.9237
-11.1563 -16.2520 -2.3416 0.9237
-10.4957 -16.6909 -2.3421 0.9237
-9.6475 -16.8061 -2.3019 0.9249
-9.2058 -16.8111 -2.2767 0.9257
-8.7735 -16.8159 -2.2530 0.9264
-8.3500 -16.8207 -2.2307 0.9271
-7.2550 -17.1392 -2.2108 0.9278
-6.5600 -17.4177 -2.2109 0.9278
-5.7744 -17.4265 -2.1807 0.9287
14.2584 -10.5338 -2.5118 0.9309
14.4682 -10.2454 -2.5119 0.9309
14.6721 -9.9529 -2.5121 0.9309
14.8701 -9.6563 -2.5122 0.9309
15.2480 -9.0513 -2.5124 0.9309
16.2310 -7.1515 -2.5131 0.9309
16.5067 -6.4934 -2.5133 0.9308
16.6345 -6.1603 -2.5134 0.9308
16.7556 -5.8246 -2.5134 0.9308
16.9772 -5.1463 -2.5136 0.9308
17.3374 -3.7655 -2.5138 0.9308
17.4100 -3.4161 -2.5138 0.9308
17.5850 -2.3600 -2.5139 0.9308
17.6957 -1.2952 -2.5140 0.9308
17.7425 0.1312 -2.5140 0.9308
17.7227 0.8446 -2.5140 0.9308
17.7019 1.2009 -2.5139 0.9308
17.6740 1.5567 -2.5139 0.9308
17.5966 2.2662 -2.5138 0.9308
17.4269 3.3231 -2.5137 0.9308
17.3561 3.6729 -2.5136 0.9308
17.2783 4.0211 -2.5136 0.9308
17.1935 4.3677 -2.5135 0.9308
16.6653 6.0710 -2.5131 0.9309
16.4064 6.7358 -2.5129 0.9309
16.2669 7.0641 -2.5128 0.9309
15.7807 7.6213 -2.4831 0.9316
14.6905 7.8385 -2.3593 0.9349
14.5292 8.1320 -2.3591 0.9349
14.3619 8.4222 -2.3590 0.9350
14.1888 8.7089 -2.3589 0.9350
13.8255 9.2714 -2.3586 0.9350
13.6354 9.5471 -2.3585 0.9350
13.4398 9.8188 -2.3583 0.9350
12.8207 10.6094 -2.3579 0.9350
12.3819 11.1149 -2.3576 0.9350
11.6866 11.8389 -2.3571 0.9350
11.1993 12.2974 -2.3567 0.9350
10.6940 12.7359 -2.3563 0.9350
10.1715 13.1536 -2.3560 0.9350
9.9041 13.3545 -2.3558 0.9350
8.8089 13.5107 -2.2853 0.9369
7.9889 13.4019 -2.2107 0.9389
7.6184 13.3854 -2.1822 0.9397
7.1742 13.2164 -2.1307 0.9411
6.8362 13.2213 -2.1089 0.9416
5.6435 13.4703 -2.0693 0.9427
5.3808 13.6048 -2.0729 0.9426
5.1185 13.7436 -2.0780 0.9425
4.4061 13.4630 -2.0071 0.9444
3.2310 13.4459 -1.9594 0.9457
2.3748 13.3939 -1.9274 0.9465
1.8322 13.4637 -1.9252 0.9466
1.0126 13.4924 -1.9171 0.9468
0.7403 13.4963 -1.9151 0.9469
0.4796 13.8234 -1.9598 0.9457
0.1967 13.5040 -1.9136 0.9469
-0.3468 13.5118 -1.9151 0.9469
-0.6184 13.4987 -1.9146 0.9469
-0.8910 13.5026 -1.9173 0.9468
-1.1494 13.3309 -1.8959 0.9474
-1.6928 13.3387 -1.9051 0.9471
-2.2717 13.5201 -1.9425 0.9461
-2.8946 13.8037 -1.9984 0.9446
-4.0731 13.7921 -2.0376 0.9436
-4.6028 13.5534 -2.0281 0.9438
-5.1552 13.3860 -2.0324 0.9437
-5.4687 13.3904 -2.0494 0.9432
-6.1918 13.5740 -2.1139 0.9415
-7.2301 13.6106 -2.1837 0.9396
-7.9539 13.6209 -2.2349 0.9383
-10.5116 12.7503 -2.3414 0.9354
-10.7651 12.5354 -2.3412 0.9354
-11.0143 12.3154 -2.3410 0.9354
-11.2589 12.0905 -2.3409 0.9354
-11.9652 11.3872 -2.3404 0.9354
-12.1910 11.1435 -2.3402 0.9355
-12.4118 10.8953 -2.3401 0.9355
-12.8384 10.3860 -2.3398 0.9355
-13.0439 10.1251 -2.3396 0.9355
-13.2442 9.8602 -2.3395 0.9355
-13.4391 9.5912 -2.3394 0.9355
-13.8125 9.0420 -2.3391 0.9355
-13.9908 8.7619 -2.3390 0.9355
-14.1635 8.4783 -2.3389 0.9355
-14.4997 7.9054 -2.3400 0.9355
-15.6872 7.7513 -2.4792 0.9318
-15.8921 7.4587 -2.4874 0.9315
-16.3287 6.4930 -2.4898 0.9315
-16.6890 5.4959 -2.4896 0.9315
-16.7958 5.1590 -2.4895 0.9315
-16.8957 4.8200 -2.4894 0.9315
-16.9888 4.4791 -2.4894 0.9315
-17.0751 4.1364 -2.4893 0.9315
-17.1545 3.7921 -2.4893 0.9315
-17.2270 3.4462 -2.4892 0.9315
-17.2926 3.0990 -2.4892 0.9315
-17.4028 2.4009 -2.4891 0.9315
-17.4474 2.0504 -2.4891 0.9315
-17.5155 1.3470 -2.4891 0.9315
-17.5555 0.6414 -2.4891 0.9315
-17.5623 -0.4185 -2.4891 0.9315
-17.5505 -0.7716 -2.4891 0.9315
-17.4726 -1.8287 -2.4892 0.9315
-17.4325 -2.1798 -2.4892 0.9315
-17.3854 -2.5300 -2.4893 0.9315
-17.2703 -3.2273 -2.4894 0.9315
-17.2023 -3.5741 -2.4894 0.9315
-16.9567 -4.6054 -2.4896 0.9315
-16.8612 -4.9457 -2.4897 0.9315
-16.7588 -5.2840 -2.4898 0.9315
-16.6497 -5.6202 -2.4899 0.9315
-16.4114 -6.2858 -2.4900 0.9315
-16.2823 -6.6149 -2.4901 0.9315
-16.1467 -6.9413 -2.4903 0.9315
-16.0045 -7.2649 -2.4904 0.9315
-14.6397 -9.7394 -2.4914 0.9314
-14.0282 -10.6065 -2.4918 0.9314
-13.0501 -11.1654 -2.4335 0.9330
-12.1109 -11.2364 -2.3408 0.9354
-11.4137 -11.9489 -2.3413 0.9354
-11.1719 -12.1770 -2.3415 0.9354
-10.9256 -12.4002 -2.3417 0.9354
-10.6748 -12.6184 -2.3418 0.9354
-10.4197 -12.8316 -2.3420 0.9354
-10.1603 -13.0396 -2.3422 0.9354
-8.8034 -13.9997 -2.3432 0.9354
-8.5208 -14.1752 -2.3434 0.9354
-7.9452 -14.5089 -2.3438 0.9354
-7.6524 -14.6671 -2.3440 0.9353
-7.0576 -14.9657 -2.3445 0.9353
-6.7558 -15.1061 -2.3447 0.9353
-6.4512 -15.2403 -2.3449 0.9353
-5.8342 -15.4904 -2.3453 0.9353
-5.2074 -15.7154 -2.3458 0.9353
-4.8907 -15.8186 -2.3460 0.9353
12.2563 -9.0547 -2.5103 0.9401
12.4366 -8.8068 -2.5105 0.9401
12.7819 -8.3002 -2.5107 0.9401
12.9468 -8.0418 -2.5108 0.9401
13.1065 -7.7801 -2.5109 0.9401
13.2609 -7.5152 -2.5110 0.9401
13.6915 -6.7026 -2.5113 0.9401
13.8240 -6.4261 -2.5114 0.9401
13.9510 -6.1469 -2.5115 0.9401
14.4015 -5.0063 -2.5118 0.9401
14.5919 -4.4233 -2.5119 0.9401
14.7586 -3.8330 -2.5120 0.9401
14.8330 -3.5354 -2.5120 0.9401
14.9014 -3.2365 -2.5121 0.9401
15.0700 -2.3320 -2.5122 0.9401
15.1519 -1.7240 -2.5122 0.9401
15.1836 -1.4189 -2.5122 0.9401
15.2091 -1.1132 -2.5122 0.9401
15.2285 -0.8071 -2.5122 0.9401
15.2416 -0.5007 -2.5122 0.9401
15.2486 -0.1940 -2.5122 0.9401
15.2145 1.0322 -2.5122 0.9401
15.0816 2.2516 -2.5121 0.9401
15.0330 2.5544 -2.5120 0.9401
14.9783 2.8562 -2.5120 0.9401
14.7779 3.7541 -2.5118 0.9401
14.6990 4.0504 -2.5118 0.9401
14.4268 4.9291 -2.5115 0.9401
14.2159 5.5050 -2.5114 0.9401
14.1018 5.7896 -2.5113 0.9401
13.9820 6.0719 -2.5112 0.9401
13.8566 6.3516 -2.5111 0.9401
13.7255 6.6288 -2.5110 0.9401
13.4466 7.1748 -2.5108 0.9401
13.2763 7.4308 -2.5064 0.9402
13.0155 7.6326 -2.4856 0.9407
11.8843 7.9696 -2.3573 0.9436
10.4492 9.7665 -2.3562 0.9437
10.0467 10.1776 -2.3559 0.9437
9.8393 10.3769 -2.3558 0.9437
9.6280 10.5720 -2.3556 0.9437
9.4127 10.7628 -2.3555 0.9437
9.1937 10.9492 -2.3553 0.9437
8.9710 11.1312 -2.3552 0.9437
8.7447 11.3086 -2.3550 0.9437
8.0451 11.8128 -2.3545 0.9437
7.8053 11.9714 -2.3543 0.9437
7.5624 12.1251 -2.3541 0.9437
7.3164 12.2738 -2.3540 0.9437
7.0675 12.4175 -2.3538 0.9437
6.8158 12.5562 -2.3536 0.9437
6.5614 12.6897 -2.3534 0.9437
6.3043 12.8182 -2.3532 0.9437
5.5185 13.1719 -2.3527 0.9437
4.9835 13.3810 -2.3523 0.9438
4.4021 13.4510 -2.3316 0.9442
4.1664 13.6538 -2.3517 0.9438
3.8129 13.4594 -2.3045 0.9449
3.5175 13.4418 -2.2889 0.9452
3.2310 13.4459 -2.2781 0.9455
2.1082 13.4598 -2.2444 0.9463
1.5601 13.4894 -2.2370 0.9464
1.3174 13.8221 -2.2874 0.9453
1.0130 13.4972 -2.2298 0.9466
0.1968 13.5089 -2.2257 0.9467
-0.6184 13.4987 -2.2261 0.9467
-0.8910 13.5026 -2.2292 0.9466
-1.4205 13.3348 -2.2092 0.9471
-1.9924 13.5162 -2.2507 0.9461
-2.2717 13.5202 -2.2585 0.9459
-2.9255 13.9518 -2.3484 0.9438
-3.1281 13.5542 -2.2916 0.9452
-3.4176 13.5583 -2.3034 0.9449
-4.5785 13.4817 -2.3455 0.9439
-3.9845 8.2893 -1.5151 0.9634
-6.9261 12.4283 -2.3439 0.9440
-7.1742 12.2857 -2.3437 0.9440
-7.6614 11.9854 -2.3434 0.9440
-7.9004 11.8281 -2.3432 0.9440
-5.7781 8.2849 -1.6640 0.9599
-5.9914 8.2328 -1.6774 0.9596
-8.5976 11.3278 -2.3428 0.9440
-9.0450 10.9714 -2.3424 0.9440
-9.2633 10.7865 -2.3423 0.9440
-9.4777 10.5974 -2.3421 0.9440
-10.0978 10.0047 -2.3417 0.9440
-11.0482 8.9378 -2.3411 0.9440
-11.2252 8.7133 -2.3410 0.9440
-11.3976 8.4854 -2.3408 0.9440
-11.5654 8.2540 -2.3407 0.9440
-11.8869 7.7815 -2.3405 0.9440
-12.3829 7.7549 -2.4070 0.9425
-12.9353 7.7431 -2.4836 0.9407
-13.1151 7.4966 -2.4886 0.9406
-13.6920 6.4261 -2.4917 0.9405
-13.9384 5.8699 -2.4915 0.9405
-14.4554 4.4401 -2.4912 0.9405
