ply
format ascii 1.0
element vertex 1584
property float32 x
property float32 y
property float32 z
property float32 I
end_header
-11.8254 -0.4648 -2.5016 0.9528
-11.8137 -0.7024 -2.5016 0.9528
-11.7191 -1.6492 -2.5016 0.9528
-11.5984 -2.3527 -2.5016 0.9528
-11.5487 -2.5854 -2.5016 0.9528
-11.4944 -2.8171 -2.5016 0.9528
-11.3037 -3.5048 -2.5016 0.9528
-11.1536 -3.9564 -2.5016 0.9528
-11.0719 -4.1799 -2.5016 0.9528
-10.9856 -4.4016 -2.5016 0.9528
-10.8949 -4.6216 -2.5016 0.9528
-10.5964 -5.2699 -2.5016 0.9528
-10.4884 -5.4819 -2.5016 0.9528
-10.1388 -6.1042 -2.5016 0.9528
-10.0140 -6.3068 -2.5016 0.9528
-9.8852 -6.5069 -2.5016 0.9528
-9.7524 -6.7043 -2.5016 0.9528
-9.4750 -7.0909 -2.5016 0.9528
-9.3305 -7.2800 -2.5016 0.9528
-9.1823 -7.4661 -2.5016 0.9528
-8.8747 -7.8292 -2.5016 0.9528
-8.7155 -8.0061 -2.5016 0.9528
-8.2170 -8.5169 -2.5016 0.9528
-8.0441 -8.6804 -2.5016 0.9528
-7.8680 -8.8404 -2.5016 0.9528
-7.1323 -9.4439 -2.5016 0.9528
-6.7469 -9.7230 -2.5016 0.9528
-6.5501 -9.8566 -2.5016 0.9528
-6.1485 -10.1120 -2.5016 0.9528
-5.7370 -10.3510 -2.5016 0.9528
-4.6674 -10.8702 -2.5006 0.9528
-4.4453 -10.9555 -2.4992 0.9528
-4.2218 -11.0366 -2.4978 0.9528
-3.7709 -11.1861 -2.4952 0.9529
-3.5436 -11.2544 -2.4941 0.9529
-3.0554 -11.2663 -2.4675 0.9534
-2.8140 -11.2686 -2.4551 0.9536
-1.8694 -11.2758 -2.4160 0.9543
-0.4928 -11.2812 -2.3869 0.9549
0.1880 -11.2816 -2.3850 0.9549
0.4150 -11.2813 -2.3863 0.9549
0.6423 -11.2809 -2.3884 0.9549
0.8701 -11.2804 -2.3915 0.9548
1.0985 -11.2796 -2.3956 0.9547
1.3279 -11.2787 -2.4006 0.9546
1.7898 -11.2763 -2.4134 0.9544
2.0227 -11.2749 -2.4213 0.9542
2.4936 -11.2714 -2.4401 0.9539
2.7319 -11.2693 -2.4511 0.9537
3.6933 -11.2105 -2.4950 0.9529
3.9199 -11.1395 -2.4962 0.9529
4.1453 -11.0644 -2.4975 0.9528
4.3695 -10.9852 -2.4990 0.9528
4.8125 -10.8119 -2.5016 0.9528
5.0289 -10.7129 -2.5016 0.9528
5.6656 -10.3903 -2.5016 0.9528
6.0787 -10.1541 -2.5016 0.9528
6.2816 -10.0299 -2.5016 0.9528
6.6798 -9.7692 -2.5016 0.9528
6.8748 -9.6330 -2.5016 0.9528
7.0671 -9.4928 -2.5016 0.9528
7.4430 -9.2010 -2.5016 0.9528
7.8069 -8.8943 -2.5016 0.9528
8.1581 -8.5733 -2.5016 0.9528
8.3289 -8.4076 -2.5016 0.9528
8.9774 -7.7113 -2.5016 0.9528
9.2801 -7.3441 -2.5016 0.9528
9.5679 -6.9651 -2.5016 0.9528
9.7060 -6.7713 -2.5016 0.9528
9.8401 -6.5748 -2.5016 0.9528
9.2967 -5.1833 -2.5016 0.9572
9.3991 -4.9953 -2.5016 0.9572
9.5923 -4.6134 -2.5016 0.9572
9.6831 -4.4196 -2.5016 0.9572
9.7700 -4.2241 -2.5016 0.9572
9.9319 -3.8279 -2.5016 0.9572
10.0068 -3.6275 -2.5016 0.9572
10.0777 -3.4255 -2.5016 0.9572
10.2659 -2.8118 -2.5016 0.9572
10.3204 -2.6048 -2.5016 0.9572
10.3707 -2.3968 -2.5016 0.9572
10.4167 -2.1878 -2.5016 0.9572
10.4963 -1.7673 -2.5016 0.9572
10.5588 -1.3439 -2.5016 0.9572
10.6327 -0.4912 -2.5016 0.9572
10.6404 -0.2774 -2.5016 0.9572
10.6429 0.1506 -2.5016 0.9572
10.5965 1.0051 -2.5016 0.9572
10.5475 1.4303 -2.5016 0.9572
10.4421 2.0635 -2.5016 0.9572
10.2987 2.6893 -2.5016 0.9572
10.1823 3.1011 -2.5016 0.9572
10.1179 3.3052 -2.5016 0.9572
9.9768 3.7093 -2.5016 0.9572
9.7350 4.3040 -2.5016 0.9572
9.6466 4.4988 -2.5016 0.9572
9.5542 4.6919 -2.5016 0.9572
9.4579 4.8830 -2.5016 0.9572
9.3578 5.0721 -2.5016 0.9572
9.2539 5.2592 -2.5016 0.9572
9.0350 5.6270 -2.5016 0.9572
8.8015 5.9857 -2.5016 0.9572
8.6794 6.1614 -2.5016 0.9572
8.5538 6.3347 -2.5016 0.9572
8.4247 6.5054 -2.5016 0.9572
8.1563 6.8388 -2.5016 0.9572
8.0172 7.0014 -2.5016 0.9572
7.8681 7.1551 -2.4995 0.9572
7.7154 7.3049 -2.4971 0.9573
7.5600 7.4517 -2.4948 0.9573
7.3272 7.5187 -2.4674 0.9578
7.0571 7.5389 -2.4270 0.9585
6.3786 7.6958 -2.3492 0.9598
6.0640 7.9460 -2.3492 0.9598
5.9031 8.0663 -2.3492 0.9598
5.7397 8.1834 -2.3492 0.9598
5.2360 8.5145 -2.3492 0.9598
5.0637 8.6180 -2.3492 0.9598
4.8894 8.7181 -2.3492 0.9598
4.7132 8.8146 -2.3492 0.9598
3.9522 8.1648 -2.1319 0.9634
2.7766 8.6661 -2.1387 0.9633
2.4123 8.7212 -2.1266 0.9635
1.6826 8.7759 -2.1001 0.9639
0.6102 8.8562 -2.0864 0.9642
0.4543 9.3252 -2.1942 0.9624
-0.1163 9.9949 -2.3492 0.9598
-0.7186 9.9697 -2.3492 0.9598
-1.3183 9.9083 -2.3492 0.9598
-1.7156 9.8473 -2.3492 0.9598
-1.9132 9.8108 -2.3492 0.9598
-2.5011 9.6776 -2.3492 0.9598
-2.6952 9.6254 -2.3492 0.9598
-2.8882 9.5692 -2.3492 0.9598
-3.2705 9.4454 -2.3492 0.9598
-4.0188 9.1521 -2.3492 0.9598
-4.2020 9.0695 -2.3492 0.9598
-4.5632 8.8932 -2.3492 0.9598
-5.0910 8.6019 -2.3492 0.9598
-5.2629 8.4979 -2.3492 0.9598
-5.6003 8.2794 -2.3492 0.9598
-5.9286 8.0476 -2.3492 0.9598
-6.2473 7.8027 -2.3492 0.9598
-6.4029 7.6756 -2.3492 0.9598
-7.1997 7.6426 -2.4677 0.9578
-8.0393 6.9760 -2.5016 0.9572
-8.1780 6.8130 -2.5016 0.9572
-8.6988 6.1339 -2.5016 0.9572
-8.9384 5.7793 -2.5016 0.9572
-9.1635 5.4153 -2.5016 0.9572
-9.3738 5.0425 -2.5016 0.9572
-9.6607 4.4683 -2.5016 0.9572
-9.9885 3.6777 -2.5016 0.9572
-10.1283 3.2731 -2.5016 0.9572
-10.1920 3.0689 -2.5016 0.9572
-10.3585 2.4489 -2.5016 0.9572
-10.4486 2.0305 -2.5016 0.9572
-10.4873 1.8200 -2.5016 0.9572
-10.6389 0.3309 -2.5016 0.9572
-10.6434 0.1169 -2.5016 0.9572
-10.6436 -0.0971 -2.5016 0.9572
-10.6184 -0.7385 -2.5016 0.9572
-10.6014 -0.9519 -2.5016 0.9572
-10.5801 -1.1648 -2.5016 0.9572
-10.4523 -2.0110 -2.5016 0.9572
-10.4098 -2.2208 -2.5016 0.9572
-10.3630 -2.4296 -2.5016 0.9572
-10.2570 -2.8443 -2.5016 0.9572
-10.1977 -3.0499 -2.5016 0.9572
-10.1343 -3.2543 -2.5016 0.9572
-10.0669 -3.4574 -2.5016 0.9572
-9.9953 -3.6591 -2.5016 0.9572
-9.9197 -3.8593 -2.5016 0.9572
-9.7566 -4.2550 -2.5016 0.9572
-9.6690 -4.4503 -2.5016 0.9572
-9.4823 -4.8354 -2.5016 0.9572
-8.9492 -5.7626 -2.5016 0.9572
-8.8315 -5.9414 -2.5016 0.9572
-8.5855 -6.2916 -2.5016 0.9572
-8.0523 -6.9610 -2.5016 0.9572
-7.9107 -7.1215 -2.5016 0.9572
-6.8335 -8.1608 -2.5016 0.9572
-6.1558 -8.6834 -2.5016 0.9572
-5.0660 -9.3611 -2.5016 0.9572
-4.8768 -9.4611 -2.5016 0.9572
-4.6856 -9.5572 -2.5016 0.9572
-4.2976 -9.7379 -2.5016 0.9572
-4.1010 -9.8223 -2.5016 0.9572
-3.9027 -9.9027 -2.5016 0.9572
-3.7028 -9.9792 -2.5016 0.9572
-3.5014 -10.0517 -2.5016 0.9572
-3.2986 -10.1200 -2.5016 0.9572
-2.6826 -10.3004 -2.5016 0.9572
-2.2663 -10.4000 -2.5016 0.9572
-2.0568 -10.4434 -2.5016 0.9572
-1.8464 -10.4827 -2.5016 0.9572
-1.4235 -10.5484 -2.5016 0.9572
-1.2111 -10.5749 -2.5016 0.9572
-0.1437 -10.6431 -2.5016 0.9572
0.0703 -10.6438 -2.5016 0.9572
0.7119 -10.6202 -2.5016 0.9572
0.9252 -10.6037 -2.5016 0.9572
1.1382 -10.5830 -2.5016 0.9572
1.3508 -10.5580 -2.5016 0.9572
1.7741 -10.4951 -2.5016 0.9572
1.9848 -10.4573 -2.5016 0.9572
2.1946 -10.4153 -2.5016 0.9572
2.4035 -10.3691 -2.5016 0.9572
2.6115 -10.3187 -2.5016 0.9572
3.0243 -10.2054 -2.5016 0.9572
3.4321 -10.0755 -2.5016 0.9572
3.8344 -9.9294 -2.5016 0.9572
4.2304 -9.7672 -2.5016 0.9572
4.6197 -9.5892 -2.5016 0.9572
5.0014 -9.3958 -2.5016 0.9572
5.5587 -9.0772 -2.5016 0.9572
5.7401 -8.9636 -2.5016 0.9572
6.0958 -8.7256 -2.5016 0.9572
6.4417 -8.4735 -2.5016 0.9572
6.7771 -8.2077 -2.5016 0.9572
6.9408 -8.0698 -2.5016 0.9572
7.2596 -7.7842 -2.5016 0.9572
7.5666 -7.4861 -2.5016 0.9572
8.4126 -6.5211 -2.5016 0.9572
8.5420 -6.3506 -2.5016 0.9572
8.6679 -6.1776 -2.5016 0.9572
8.7904 -6.0021 -2.5016 0.9572
8.9092 -5.8241 -2.5016 0.9572
9.0245 -5.6438 -2.5016 0.9572
9.2441 -5.2765 -2.5016 0.9572
9.4488 -4.9006 -2.5016 0.9572
9.5454 -4.7096 -2.5016 0.9572
9.7270 -4.3221 -2.5016 0.9572
9.8120 -4.1256 -2.5016 0.9572
9.8929 -3.9275 -2.5016 0.9572
10.1117 -3.3240 -2.5016 0.9572
10.1765 -3.1201 -2.5016 0.9572
10.2371 -2.9148 -2.5016 0.9572
10.4382 -2.0830 -2.5016 0.9572
10.4780 -1.8727 -2.5016 0.9572
10.5448 -1.4500 -2.5016 0.9572
10.5718 -1.2377 -2.5016 0.9572
10.6130 -0.8117 -2.5016 0.9572
10.6272 -0.5981 -2.5016 0.9572
10.6439 0.0436 -2.5016 0.9572
10.6336 0.4715 -2.5016 0.9572
10.5613 1.3242 -2.5016 0.9572
10.4996 1.7477 -2.5016 0.9572
10.4208 2.1684 -2.5016 0.9572
10.3751 2.3775 -2.5016 0.9572
10.3252 2.5856 -2.5016 0.9572
10.2711 2.7927 -2.5016 0.9572
9.9390 3.8094 -2.5016 0.9572
9.8604 4.0084 -2.5016 0.9572
9.6008 4.5955 -2.5016 0.9572
9.5065 4.7877 -2.5016 0.9572
8.7409 6.0739 -2.5016 0.9572
8.6170 6.2484 -2.5016 0.9572
8.4897 6.4204 -2.5016 0.9572
8.3589 6.5897 -2.5016 0.9572
7.6380 7.3787 -2.4959 0.9573
7.1911 7.5289 -2.4469 0.9581
6.6675 7.5677 -2.3704 0.9594
6.4556 7.6313 -2.3492 0.9598
6.1436 7.8846 -2.3492 0.9598
5.9839 8.0066 -2.3492 0.9598
5.8217 8.1252 -2.3492 0.9598
5.6572 8.2406 -2.3492 0.9598
4.9768 8.6685 -2.3492 0.9598
3.9704 7.9964 -2.0983 0.9640
4.2643 9.0403 -2.3492 0.9598
3.8975 9.2044 -2.3492 0.9598
3.7116 9.2809 -2.3492 0.9598
3.5242 9.3537 -2.3492 0.9598
3.1454 9.4878 -2.3492 0.9598
2.3200 8.7281 -2.1225 0.9636
2.1364 8.7418 -2.1150 0.9637
1.7728 8.7691 -2.1026 0.9639
1.5925 8.7826 -2.0978 0.9640
1.4129 8.7961 -2.0938 0.9641
0.8772 8.8362 -2.0869 0.9642
0.3860 9.9881 -2.3492 0.9598
-0.0158 9.9956 -2.3492 0.9598
-0.4176 9.9868 -2.3492 0.9598
-0.8188 9.9620 -2.3492 0.9598
-1.4178 9.8945 -2.3492 0.9598
-1.6165 9.8640 -2.3492 0.9598
-2.0117 9.7910 -2.3492 0.9598
-2.2082 9.7486 -2.3492 0.9598
-2.4037 9.7023 -2.3492 0.9598
-2.5983 9.6520 -2.3492 0.9598
-2.7918 9.5978 -2.3492 0.9598
-2.9842 9.5397 -2.3492 0.9598
-3.1754 9.4778 -2.3492 0.9598
-3.3653 9.4120 -2.3492 0.9598
-3.5538 9.3425 -2.3492 0.9598
-3.7409 9.2691 -2.3492 0.9598
-3.9266 9.1920 -2.3492 0.9598
-4.2929 9.0268 -2.3492 0.9598
-4.4735 8.9386 -2.3492 0.9598
-4.8293 8.7516 -2.3492 0.9598
-5.1772 8.5503 -2.3492 0.9598
-5.3480 8.4445 -2.3492 0.9598
-5.5167 8.3353 -2.3492 0.9598
-5.8474 8.1068 -2.3492 0.9598
-6.0092 7.9876 -2.3492 0.9598
-6.1685 7.8651 -2.3492 0.9598
-7.0598 7.6466 -2.4459 0.9581
-7.3421 7.6385 -2.4901 0.9574
-7.5126 7.5077 -2.4962 0.9573
-7.6696 7.3624 -2.4986 0.9573
-7.8239 7.2140 -2.5012 0.9572
-7.9688 7.0565 -2.5016 0.9572
-8.1090 6.8948 -2.5016 0.9572
-8.5099 6.3935 -2.5016 0.9572
-8.6367 6.2211 -2.5016 0.9572
-8.7601 6.0462 -2.5016 0.9572
-9.3227 5.1365 -2.5016 0.9572
-9.4240 4.9480 -2.5016 0.9572
-9.5216 4.7575 -2.5016 0.9572
-9.7052 4.3709 -2.5016 0.9572
-9.8731 3.9772 -2.5016 0.9572
-9.9510 3.7779 -2.5016 0.9572
-10.0250 3.5771 -2.5016 0.9572
-10.0948 3.3748 -2.5016 0.9572
-10.2224 2.9662 -2.5016 0.9572
-10.3333 2.5529 -2.5016 0.9572
-10.5050 1.7145 -2.5016 0.9572
-10.5655 1.2908 -2.5016 0.9572
-10.5893 1.0781 -2.5016 0.9572
-10.6241 0.6515 -2.5016 0.9572
-10.6350 0.4378 -2.5016 0.9572
-10.6417 0.2239 -2.5016 0.9572
-10.6440 0.0099 -2.5016 0.9572
-10.6421 -0.2041 -2.5016 0.9572
-10.6358 -0.4180 -2.5016 0.9572
-10.6253 -0.6317 -2.5016 0.9572
-10.6104 -0.8453 -2.5016 0.9572
-10.5402 -1.4833 -2.5016 0.9572
-10.5082 -1.6949 -2.5016 0.9572
-10.4720 -1.9059 -2.5016 0.9572
-10.4316 -2.1160 -2.5016 0.9572
-10.3381 -2.5337 -2.5016 0.9572
-10.2851 -2.7410 -2.5016 0.9572
-9.5305 -4.7398 -2.5016 0.9572
-9.4332 -4.9304 -2.5016 0.9572
-9.3322 -5.1191 -2.5016 0.9572
-9.0066 -5.6724 -2.5016 0.9572
-8.8908 -5.8523 -2.5016 0.9572
-8.7713 -6.0299 -2.5016 0.9572
-8.6483 -6.2050 -2.5016 0.9572
-8.3919 -6.5477 -2.5016 0.9572
-7.9819 -7.0416 -2.5016 0.9572
-7.8387 -7.2007 -2.5016 0.9572
-7.6924 -7.3568 -2.5016 0.9572
-7.3904 -7.6601 -2.5016 0.9572
-6.9152 -8.0917 -2.5016 0.9572
-6.5843 -8.3632 -2.5016 0.9572
-6.0682 -8.7449 -2.5016 0.9572
-5.1599 -9.3097 -2.5016 0.9572
-4.9717 -9.4116 -2.5016 0.9572
-4.7815 -9.5096 -2.5016 0.9572
-4.5893 -9.6038 -2.5016 0.9572
-4.3953 -9.6942 -2.5016 0.9572
-4.0020 -9.8630 -2.5016 0.9572
-3.4002 -10.0863 -2.5016 0.9572
-2.9919 -10.2149 -2.5016 0.9572
-2.7860 -10.2730 -2.5016 0.9572
-2.5789 -10.3269 -2.5016 0.9572
-2.3707 -10.3767 -2.5016 0.9572
-1.3173 -10.5622 -2.5016 0.9572
-0.8917 -10.6066 -2.5016 0.9572
-0.6782 -10.6224 -2.5016 0.9572
-0.2507 -10.6411 -2.5016 0.9572
-0.0367 -10.6439 -2.5016 0.9572
1.0318 -10.5939 -2.5016 0.9572
1.2445 -10.5710 -2.5016 0.9572
1.6685 -10.5124 -2.5016 0.9572
1.8795 -10.4767 -2.5016 0.9572
2.0898 -10.4369 -2.5016 0.9572
2.2992 -10.3927 -2.5016 0.9572
2.5077 -10.3444 -2.5016 0.9572
2.7151 -10.2919 -2.5016 0.9572
2.9215 -10.2352 -2.5016 0.9572
3.5332 -10.0405 -2.5016 0.9572
3.9340 -9.8904 -2.5016 0.9572
4.3284 -9.7242 -2.5016 0.9572
4.5230 -9.6352 -2.5016 0.9572
4.7158 -9.5423 -2.5016 0.9572
4.9067 -9.4456 -2.5016 0.9572
5.2825 -9.2407 -2.5016 0.9572
5.6497 -9.0209 -2.5016 0.9572
5.8299 -8.9054 -2.5016 0.9572
6.6943 -8.2754 -2.5016 0.9572
7.0215 -7.9996 -2.5016 0.9572
7.1809 -7.8568 -2.5016 0.9572
7.3375 -7.7109 -2.5016 0.9572
7.6415 -7.4096 -2.5016 0.9572
7.7889 -7.2545 -2.5016 0.9572
7.9332 -7.0964 -2.5016 0.9572
8.2121 -6.7718 -2.5016 0.9572
8.4777 -6.4362 -2.5016 0.9572
8.6054 -6.2644 -2.5016 0.9572
8.8503 -5.9134 -2.5016 0.9572
8.9673 -5.7343 -2.5016 0.9572
9.0808 -5.5528 -2.5016 0.9572
9.1906 -5.3691 -2.5016 0.9572
9.2967 -5.1833 -2.5016 0.9572
9.3991 -4.9953 -2.5016 0.9572
9.4976 -4.8053 -2.5016 0.9572
9.5923 -4.6134 -2.5016 0.9572
9.6831 -4.4196 -2.5016 0.9572
9.7700 -4.2241 -2.5016 0.9572
9.8529 -4.0268 -2.5016 0.9572
10.1446 -3.2222 -2.5016 0.9572
10.2073 -3.0176 -2.5016 0.9572
10.2659 -2.8118 -2.5016 0.9572
10.3204 -2.6048 -2.5016 0.9572
10.3707 -2.3968 -2.5016 0.9572
10.4167 -2.1878 -2.5016 0.9572
10.5297 -1.5559 -2.5016 0.9572
10.5588 -1.3439 -2.5016 0.9572
10.6043 -0.9183 -2.5016 0.9572
10.6207 -0.7049 -2.5016 0.9572
10.6438 -0.0634 -2.5016 0.9572
10.6429 0.1506 -2.5016 0.9572
10.6378 0.3645 -2.5016 0.9572
10.6283 0.5783 -2.5016 0.9572
10.5964 1.0051 -2.5016 0.9572
10.5741 1.2180 -2.5016 0.9572
10.5166 1.6421 -2.5016 0.9572
10.4815 1.8532 -2.5016 0.9572
10.4421 2.0635 -2.5016 0.9572
10.3985 2.2730 -2.5016 0.9572
10.3507 2.4817 -2.5016 0.9572
10.2987 2.6892 -2.5016 0.9572
10.1179 3.3052 -2.5016 0.9572
9.7351 4.3040 -2.5016 0.9572
9.5541 4.6918 -2.5016 0.9572
9.3578 5.0721 -2.5016 0.9572
9.2539 5.2592 -2.5016 0.9572
8.9201 5.8075 -2.5016 0.9572
8.8015 5.9857 -2.5016 0.9572
8.2922 6.6734 -2.5016 0.9572
8.0172 7.0014 -2.5016 0.9572
7.3273 7.5187 -2.4674 0.9578
5.9031 8.0663 -2.3492 0.9598
5.4061 8.4075 -2.3492 0.9598
5.2360 8.5145 -2.3492 0.9598
4.8894 8.7181 -2.3492 0.9598
4.0703 7.9948 -2.1085 0.9638
4.1732 9.0827 -2.3492 0.9598
3.6181 9.3178 -2.3492 0.9598
3.4300 9.3886 -2.3492 0.9598
2.7766 8.6661 -2.1387 0.9633
1.8633 8.7623 -2.1054 0.9639
1.6826 8.7759 -2.1001 0.9639
1.3233 8.8028 -2.0921 0.9641
1.1446 8.8162 -2.0894 0.9641
0.7882 8.8429 -2.0865 0.9642
0.6102 8.8563 -2.0864 0.9642
0.4544 9.3252 -2.1942 0.9624
-0.3172 9.9905 -2.3492 0.9598
-1.1188 9.9328 -2.3492 0.9598
-1.7156 9.8473 -2.3492 0.9598
-1.9132 9.8108 -2.3492 0.9598
-2.5011 9.6776 -2.3492 0.9598
-2.6952 9.6254 -2.3492 0.9598
-2.8882 9.5692 -2.3492 0.9598
-3.2705 9.4454 -2.3492 0.9598
-3.4598 9.3777 -2.3492 0.9598
-3.6476 9.3063 -2.3492 0.9598
-4.0188 9.1521 -2.3492 0.9598
-4.9170 8.7026 -2.3492 0.9598
-5.0910 8.6019 -2.3492 0.9598
-5.2629 8.4979 -2.3492 0.9598
-5.4327 8.3903 -2.3492 0.9598
-5.6003 8.2794 -2.3492 0.9598
-5.9286 8.0476 -2.3492 0.9598
-6.0892 7.9268 -2.3492 0.9598
-6.9222 7.6506 -2.4248 0.9585
-7.4331 7.5792 -2.4950 0.9573
-7.5914 7.4355 -2.4974 0.9573
-7.8974 7.1362 -2.5016 0.9572
-8.9384 5.7793 -2.5016 0.9572
-9.1635 5.4153 -2.5016 0.9572
-9.3738 5.0425 -2.5016 0.9572
-9.5690 4.6616 -2.5016 0.9572
-9.6608 4.4683 -2.5016 0.9572
-9.8326 4.0763 -2.5016 0.9572
-10.0604 3.4761 -2.5016 0.9572
-10.1283 3.2732 -2.5016 0.9572
-10.3072 2.6567 -2.5016 0.9572
-10.3585 2.4489 -2.5016 0.9572
-10.4056 2.2402 -2.5016 0.9572
-10.4873 1.8200 -2.5016 0.9572
-10.5217 1.6088 -2.5016 0.9572
-10.5520 1.3970 -2.5016 0.9572
-10.5779 1.1845 -2.5016 0.9572
-10.5996 0.9716 -2.5016 0.9572
-10.6170 0.7583 -2.5016 0.9572
-10.6389 0.3309 -2.5016 0.9572
-10.6434 0.1169 -2.5016 0.9572
-10.6184 -0.7385 -2.5016 0.9572
-10.5801 -1.1648 -2.5016 0.9572
-10.3121 -2.6375 -2.5016 0.9572
-9.9197 -3.8593 -2.5016 0.9572
-9.6691 -4.4502 -2.5016 0.9572
-9.1736 -5.3982 -2.5016 0.9572
-8.9492 -5.7626 -2.5016 0.9572
-8.8315 -5.9414 -2.5016 0.9572
-8.7103 -6.1177 -2.5016 0.9572
-8.5855 -6.2916 -2.5016 0.9572
-8.3257 -6.6317 -2.5016 0.9572
-8.0523 -6.9610 -2.5016 0.9572
-7.9107 -7.1215 -2.5016 0.9572
-7.7659 -7.2791 -2.5016 0.9572
-7.4670 -7.5854 -2.5016 0.9572
-6.4999 -8.4289 -2.5016 0.9572
-6.3291 -8.5579 -2.5016 0.9572
-5.9800 -8.8054 -2.5016 0.9572
-5.8017 -8.9238 -2.5016 0.9572
-5.4383 -9.1499 -2.5016 0.9572
-5.2532 -9.2574 -2.5016 0.9572
-4.8768 -9.4611 -2.5016 0.9572
-4.6856 -9.5572 -2.5016 0.9572
-4.4925 -9.6495 -2.5016 0.9572
-4.2976 -9.7379 -2.5016 0.9572
-3.7028 -9.9792 -2.5016 0.9572
-3.5014 -10.0517 -2.5016 0.9572
-3.2986 -10.1200 -2.5016 0.9572
-3.0945 -10.1843 -2.5016 0.9572
-2.4749 -10.3523 -2.5016 0.9572
-2.0568 -10.4434 -2.5016 0.9572
-1.6353 -10.5177 -2.5016 0.9572
-0.9982 -10.5971 -2.5016 0.9572
-0.7850 -10.6150 -2.5016 0.9572
0.7118 -10.6202 -2.5016 0.9572
1.1382 -10.5830 -2.5016 0.9572
1.3507 -10.5580 -2.5016 0.9572
1.5627 -10.5287 -2.5016 0.9572
1.7741 -10.4951 -2.5016 0.9572
2.4035 -10.3691 -2.5016 0.9572
2.6115 -10.3187 -2.5016 0.9572
3.0242 -10.2054 -2.5016 0.9572
4.0332 -9.8503 -2.5016 0.9572
4.2304 -9.7672 -2.5016 0.9572
4.4259 -9.6802 -2.5016 0.9572
4.6197 -9.5893 -2.5016 0.9572
5.5587 -9.0772 -2.5016 0.9572
6.2700 -8.6013 -2.5016 0.9572
6.4417 -8.4735 -2.5016 0.9572
6.6107 -8.3423 -2.5016 0.9572
7.4146 -7.6367 -2.5016 0.9572
7.7156 -7.3325 -2.5016 0.9572
7.8615 -7.1758 -2.5016 0.9572
8.0042 -7.0163 -2.5016 0.9572
8.1436 -6.8540 -2.5016 0.9572
8.2798 -6.6889 -2.5016 0.9572
8.5420 -6.3506 -2.5016 0.9572
8.6679 -6.1776 -2.5016 0.9572
8.9092 -5.8241 -2.5016 0.9572
9.1362 -5.4613 -2.5016 0.9572
9.3484 -5.0896 -2.5016 0.9572
9.4488 -4.9006 -2.5016 0.9572
9.5454 -4.7096 -2.5016 0.9572
9.7270 -4.3221 -2.5016 0.9572
9.8119 -4.1257 -2.5016 0.9572
9.8929 -3.9275 -2.5016 0.9572
9.9699 -3.7279 -2.5016 0.9572
10.0428 -3.5267 -2.5016 0.9572
10.1117 -3.3241 -2.5016 0.9572
10.1765 -3.1201 -2.5016 0.9572
10.2371 -2.9148 -2.5016 0.9572
10.2937 -2.7084 -2.5016 0.9572
10.3460 -2.5009 -2.5016 0.9572
10.3942 -2.2925 -2.5016 0.9572
10.5448 -1.4500 -2.5016 0.9572
10.5718 -1.2377 -2.5016 0.9572
10.5946 -1.0249 -2.5016 0.9572
10.6272 -0.5981 -2.5016 0.9572
10.6427 -0.1704 -2.5016 0.9572
10.6409 0.2576 -2.5016 0.9572
10.6219 0.6851 -2.5016 0.9572
10.5326 1.5363 -2.5016 0.9572
10.4996 1.7477 -2.5016 0.9572
10.4208 2.1684 -2.5016 0.9572
10.3252 2.5856 -2.5016 0.9572
10.2711 2.7927 -2.5016 0.9572
10.1506 3.2033 -2.5016 0.9572
10.0136 3.6088 -2.5016 0.9572
9.9390 3.8094 -2.5016 0.9572
9.8604 4.0084 -2.5016 0.9572
9.7778 4.2059 -2.5016 0.9572
9.6008 4.5955 -2.5016 0.9572
9.3064 5.1660 -2.5016 0.9572
9.0912 5.5359 -2.5016 0.9572
8.9780 5.7175 -2.5016 0.9572
8.8612 5.8969 -2.5016 0.9572
8.3589 6.5898 -2.5016 0.9572
8.0872 6.9204 -2.5016 0.9572
7.7921 7.2304 -2.4983 0.9573
6.6675 7.5677 -2.3704 0.9594
6.1436 7.8846 -2.3492 0.9598
5.8217 8.1252 -2.3492 0.9598
5.3213 8.4614 -2.3492 0.9598
5.1501 8.5667 -2.3492 0.9598
4.9768 8.6685 -2.3492 0.9598
4.8016 8.7668 -2.3492 0.9598
4.1712 7.9933 -2.1190 0.9636
3.8975 9.2044 -2.3492 0.9598
3.1454 9.4878 -2.3492 0.9598
2.5049 8.7142 -2.1310 0.9634
2.3200 8.7281 -2.1225 0.9636
1.9541 8.7555 -2.1084 0.9638
1.7728 8.7691 -2.1026 0.9639
1.4129 8.7961 -2.0938 0.9641
-0.0158 9.9956 -2.3492 0.9598
-0.2168 9.9932 -2.3492 0.9598
-1.0189 9.9435 -2.3492 0.9598
-1.2186 9.9210 -2.3492 0.9598
-1.4178 9.8945 -2.3492 0.9598
-2.0117 9.7910 -2.3492 0.9598
-2.4037 9.7023 -2.3492 0.9598
-2.5983 9.6520 -2.3492 0.9598
-2.7918 9.5978 -2.3492 0.9598
-2.9842 9.5397 -2.3492 0.9598
-3.1754 9.4778 -2.3492 0.9598
-3.3653 9.4120 -2.3492 0.9598
-3.5538 9.3425 -2.3492 0.9598
-5.0042 8.6527 -2.3492 0.9598
-5.1772 8.5504 -2.3492 0.9598
-5.5167 8.3353 -2.3492 0.9598
-5.6832 8.2227 -2.3492 0.9598
-5.8474 8.1068 -2.3492 0.9598
-6.0091 7.9876 -2.3492 0.9598
-6.7869 7.6544 -2.4043 0.9588
-7.3421 7.6385 -2.4901 0.9574
-7.6696 7.3624 -2.4986 0.9573
-7.9688 7.0565 -2.5016 0.9572
-8.2460 6.7304 -2.5016 0.9572
-8.6367 6.2211 -2.5016 0.9572
-8.9961 5.6891 -2.5016 0.9572
-9.1086 5.5071 -2.5016 0.9572
-9.2175 5.3229 -2.5016 0.9572
-9.3227 5.1365 -2.5016 0.9572
-9.4240 4.9480 -2.5016 0.9572
-9.6153 4.5651 -2.5016 0.9572
-9.7052 4.3709 -2.5016 0.9572
-9.8731 3.9772 -2.5016 0.9572
-9.9510 3.7779 -2.5016 0.9572
-10.0250 3.5771 -2.5016 0.9572
-10.1607 3.1712 -2.5016 0.9572
-10.2799 2.7602 -2.5016 0.9572
-10.3826 2.3446 -2.5016 0.9572
-10.4276 2.1354 -2.5016 0.9572
-10.4684 1.9254 -2.5016 0.9572
-10.5050 1.7145 -2.5016 0.9572
-10.6088 0.8650 -2.5016 0.9572
-10.6241 0.6515 -2.5016 0.9572
-10.6350 0.4378 -2.5016 0.9572
-10.6417 0.2239 -2.5016 0.9572
-10.6358 -0.4180 -2.5016 0.9572
-10.6253 -0.6317 -2.5016 0.9572
-10.6104 -0.8453 -2.5016 0.9572
-10.5913 -1.0584 -2.5016 0.9572
-10.5679 -1.2711 -2.5016 0.9572
-10.5402 -1.4833 -2.5016 0.9572
-10.5082 -1.6949 -2.5016 0.9572
-10.4720 -1.9058 -2.5016 0.9572
-10.4316 -2.1160 -2.5016 0.9572
-10.3869 -2.3253 -2.5016 0.9572
-10.3381 -2.5337 -2.5016 0.9572
-10.1665 -3.1523 -2.5016 0.9572
-9.9580 -3.7594 -2.5016 0.9572
-9.7989 -4.1567 -2.5016 0.9572
-9.5305 -4.7398 -2.5016 0.9572
-9.2274 -5.3057 -2.5016 0.9572
-9.1189 -5.4901 -2.5016 0.9572
-9.0066 -5.6724 -2.5016 0.9572
-8.5218 -6.3776 -2.5016 0.9572
-8.3919 -6.5477 -2.5016 0.9572
-7.9819 -7.0416 -2.5016 0.9572
-7.8387 -7.2007 -2.5016 0.9572
-7.5429 -7.5100 -2.5016 0.9572
-7.3904 -7.6601 -2.5016 0.9572
-7.0765 -7.9510 -2.5016 0.9572
-6.7511 -8.2291 -2.5016 0.9572
-6.5843 -8.3632 -2.5016 0.9572
-6.4148 -8.4938 -2.5016 0.9572
-6.2428 -8.6211 -2.5016 0.9572
-6.0682 -8.7449 -2.5016 0.9572
-5.7117 -8.9817 -2.5016 0.9572
-5.5300 -9.0948 -2.5016 0.9572
-5.3460 -9.2041 -2.5016 0.9572
-5.1599 -9.3097 -2.5016 0.9572
-4.5893 -9.6038 -2.5016 0.9572
-4.1995 -9.7806 -2.5016 0.9572
-4.0020 -9.8630 -2.5016 0.9572
-3.8029 -9.9415 -2.5016 0.9572
-3.6023 -10.0159 -2.5016 0.9572
-3.4002 -10.0863 -2.5016 0.9572
-2.7860 -10.2730 -2.5016 0.9572
-2.5789 -10.3269 -2.5016 0.9572
-2.1616 -10.4222 -2.5016 0.9572
-1.3173 -10.5622 -2.5016 0.9572
-1.1047 -10.5865 -2.5016 0.9572
-0.8917 -10.6066 -2.5016 0.9572
-0.6782 -10.6224 -2.5016 0.9572
-0.0367 -10.6439 -2.5016 0.9572
1.0318 -10.5939 -2.5016 0.9572
1.6685 -10.5124 -2.5016 0.9572
2.0898 -10.4369 -2.5016 0.9572
2.2992 -10.3927 -2.5016 0.9572
2.5077 -10.3444 -2.5016 0.9572
2.9215 -10.2352 -2.5016 0.9572
3.1267 -10.1744 -2.5016 0.9572
3.3306 -10.1095 -2.5016 0.9572
3.7343 -9.9675 -2.5016 0.9572
3.9340 -9.8904 -2.5016 0.9572
4.3284 -9.7242 -2.5016 0.9572
4.5230 -9.6352 -2.5016 0.9572
5.2825 -9.2407 -2.5016 0.9572
5.4672 -9.1326 -2.5016 0.9572
5.6497 -9.0209 -2.5016 0.9572
5.8299 -8.9055 -2.5016 0.9572
6.0078 -8.7864 -2.5016 0.9572
6.6943 -8.2754 -2.5016 0.9572
6.8593 -8.1391 -2.5016 0.9572
7.1809 -7.8568 -2.5016 0.9572
7.4910 -7.5618 -2.5016 0.9572
7.9332 -7.0964 -2.5016 0.9572
8.0743 -6.9355 -2.5016 0.9572
8.2121 -6.7718 -2.5016 0.9572
8.7296 -6.0902 -2.5016 0.9572
8.9673 -5.7343 -2.5016 0.9572
8.4388 -4.7049 -2.5016 0.9609
8.5316 -4.5343 -2.5016 0.9609
8.7070 -4.1876 -2.5016 0.9609
8.7895 -4.0118 -2.5016 0.9609
8.8683 -3.8342 -2.5016 0.9609
8.9436 -3.6552 -2.5016 0.9609
9.0153 -3.4746 -2.5016 0.9609
9.0833 -3.2927 -2.5016 0.9609
9.1477 -3.1094 -2.5016 0.9609
9.3185 -2.5523 -2.5016 0.9609
9.4136 -2.1756 -2.5016 0.9609
9.5276 -1.6042 -2.5016 0.9609
9.5844 -1.2199 -2.5016 0.9609
9.6070 -1.0269 -2.5016 0.9609
9.6615 -0.0576 -2.5016 0.9609
9.6474 0.5250 -2.5016 0.9609
9.6185 0.9124 -2.5016 0.9609
9.5741 1.2983 -2.5016 0.9609
9.4784 1.8731 -2.5016 0.9609
9.3954 2.2526 -2.5016 0.9609
9.3483 2.4411 -2.5016 0.9609
9.1841 3.0002 -2.5016 0.9609
9.1219 3.1842 -2.5016 0.9609
9.0561 3.3670 -2.5016 0.9609
8.9865 3.5483 -2.5016 0.9609
8.9134 3.7283 -2.5016 0.9609
8.8366 3.9068 -2.5016 0.9609
8.7563 4.0836 -2.5016 0.9609
8.5850 4.4323 -2.5016 0.9609
8.4942 4.6041 -2.5016 0.9609
8.3999 4.7739 -2.5016 0.9609
8.3022 4.9418 -2.5016 0.9609
8.2012 5.1077 -2.5016 0.9609
7.9893 5.4333 -2.5016 0.9609
7.8784 5.5928 -2.5016 0.9609
7.5269 6.0575 -2.5016 0.9609
7.2773 6.3553 -2.5016 0.9609
7.1481 6.5003 -2.5016 0.9609
6.6027 7.0536 -2.5016 0.9609
6.4562 7.1811 -2.5003 0.9609
6.3056 7.3038 -2.4983 0.9609
6.1528 7.4234 -2.4964 0.9609
5.5622 7.6005 -2.4386 0.9618
5.1219 7.6241 -2.3781 0.9628
4.9121 7.6393 -2.3516 0.9632
4.7528 7.7287 -2.3492 0.9632
4.5964 7.8227 -2.3492 0.9632
3.6216 8.3190 -2.3492 0.9632
3.2842 8.4579 -2.3492 0.9632
3.1135 8.5222 -2.3492 0.9632
2.7563 8.6028 -2.3390 0.9634
2.5709 8.6167 -2.3282 0.9635
2.2049 8.6441 -2.3098 0.9638
2.0238 8.6577 -2.3021 0.9639
1.8440 8.6712 -2.2953 0.9640
1.3096 8.7113 -2.2808 0.9643
0.7800 8.7510 -2.2748 0.9643
0.0769 9.0728 -2.3492 0.9632
-0.1056 9.0725 -2.3492 0.9632
-0.2879 9.0685 -2.3492 0.9632
-0.4702 9.0609 -2.3492 0.9632
-0.6523 9.0496 -2.3492 0.9632
-0.8341 9.0347 -2.3492 0.9632
-1.1967 8.9938 -2.3492 0.9632
-1.3772 8.9680 -2.3492 0.9632
-1.9153 8.8687 -2.3492 0.9632
-2.2703 8.7845 -2.3492 0.9632
-2.4465 8.7371 -2.3492 0.9632
-2.6216 8.6861 -2.3492 0.9632
-2.7957 8.6316 -2.3492 0.9632
-2.9687 8.5737 -2.3492 0.9632
-3.3110 8.4474 -2.3492 0.9632
-3.8142 8.2325 -2.3492 0.9632
-3.9789 8.1541 -2.3492 0.9632
-4.1420 8.0725 -2.3492 0.9632
-4.3035 7.9876 -2.3492 0.9632
-4.4632 7.8994 -2.3492 0.9632
-4.7772 7.7136 -2.3492 0.9632
-5.8672 7.6378 -2.4937 0.9610
-6.0249 7.5249 -2.4959 0.9610
-6.3327 7.2883 -2.4999 0.9609
-6.4823 7.1644 -2.5016 0.9609
-6.9024 6.7606 -2.5016 0.9609
-7.0369 6.6204 -2.5016 0.9609
-7.1686 6.4776 -2.5016 0.9609
-7.2974 6.3322 -2.5016 0.9609
-7.4232 6.1842 -2.5016 0.9609
-7.6658 5.8808 -2.5016 0.9609
-7.7825 5.7255 -2.5016 0.9609
-7.8961 5.5679 -2.5016 0.9609
-8.0064 5.4080 -2.5016 0.9609
-8.3179 4.9155 -2.5016 0.9609
-8.4150 4.7473 -2.5016 0.9609
-8.5990 4.4051 -2.5016 0.9609
-8.8490 3.8788 -2.5016 0.9609
-8.9252 3.7001 -2.5016 0.9609
-9.0667 3.3383 -2.5016 0.9609
-9.1936 2.9711 -2.5016 0.9609
-9.3056 2.5991 -2.5016 0.9609
-9.3559 2.4115 -2.5016 0.9609
-9.4025 2.2229 -2.5016 0.9609
-9.4843 1.8431 -2.5016 0.9609
-9.5194 1.6520 -2.5016 0.9609
-9.5507 1.4603 -2.5016 0.9609
-9.6214 0.8820 -2.5016 0.9609
-9.6372 0.6883 -2.5016 0.9609
-9.6571 0.3003 -2.5016 0.9609
-9.6500 -0.4765 -2.5016 0.9609
-9.6230 -0.8640 -2.5016 0.9609
-9.5534 -1.4425 -2.5016 0.9609
-9.4877 -1.8254 -2.5016 0.9609
-9.3604 -2.3941 -2.5016 0.9609
-9.2566 -2.7684 -2.5016 0.9609
-9.1991 -2.9540 -2.5016 0.9609
-9.1378 -3.1383 -2.5016 0.9609
-9.0729 -3.3214 -2.5016 0.9609
-9.0043 -3.5031 -2.5016 0.9609
-8.8562 -3.8623 -2.5016 0.9609
-8.7767 -4.0396 -2.5016 0.9609
-8.6937 -4.2152 -2.5016 0.9609
-8.6072 -4.3891 -2.5016 0.9609
-8.4238 -4.7316 -2.5016 0.9609
-8.3270 -4.9000 -2.5016 0.9609
-8.2268 -5.0664 -2.5016 0.9609
-8.0165 -5.3931 -2.5016 0.9609
-7.7932 -5.7110 -2.5016 0.9609
-7.4347 -6.1704 -2.5016 0.9609
-7.0492 -6.6073 -2.5016 0.9609
-6.9150 -6.7477 -2.5016 0.9609
-6.7779 -6.8854 -2.5016 0.9609
-6.6381 -7.0203 -2.5016 0.9609
-6.3505 -7.2814 -2.5016 0.9609
-6.2028 -7.4077 -2.5016 0.9609
-6.0527 -7.5309 -2.5016 0.9609
-5.9000 -7.6510 -2.5016 0.9609
-5.5877 -7.8820 -2.5016 0.9609
-5.4281 -7.9928 -2.5016 0.9609
-5.2663 -8.1003 -2.5016 0.9609
-4.9364 -8.3055 -2.5016 0.9609
-4.5985 -8.4972 -2.5016 0.9609
-4.2532 -8.6752 -2.5016 0.9609
-3.7225 -8.9158 -2.5016 0.9609
-3.3611 -9.0583 -2.5016 0.9609
-2.9942 -9.1860 -2.5016 0.9609
-2.8089 -9.2444 -2.5016 0.9609
-2.4350 -9.3498 -2.5016 0.9609
-2.2465 -9.3969 -2.5016 0.9609
-1.8669 -9.4796 -2.5016 0.9609
-1.6760 -9.5152 -2.5016 0.9609
-1.0993 -9.5990 -2.5016 0.9609
-0.9061 -9.6191 -2.5016 0.9609
-0.5187 -9.6478 -2.5016 0.9609
-0.1304 -9.6608 -2.5016 0.9609
0.0639 -9.6615 -2.5016 0.9609
0.2581 -9.6583 -2.5016 0.9609
0.4522 -9.6511 -2.5016 0.9609
0.8398 -9.6252 -2.5016 0.9609
1.0332 -9.6063 -2.5016 0.9609
1.2261 -9.5836 -2.5016 0.9609
1.9921 -9.4541 -2.5016 0.9609
2.7452 -9.2635 -2.5016 0.9609
2.9308 -9.2065 -2.5016 0.9609
3.4805 -9.0130 -2.5016 0.9609
3.6610 -8.9412 -2.5016 0.9609
4.0175 -8.7868 -2.5016 0.9609
4.1933 -8.7043 -2.5016 0.9609
4.5399 -8.5287 -2.5016 0.9609
5.0457 -8.2395 -2.5016 0.9609
5.2104 -8.1364 -2.5016 0.9609
5.5332 -7.9204 -2.5016 0.9609
5.8472 -7.6915 -2.5016 0.9609
6.0006 -7.5724 -2.5016 0.9609
6.1517 -7.4502 -2.5016 0.9609
6.5896 -7.0658 -2.5016 0.9609
6.7303 -6.9319 -2.5016 0.9609
6.8683 -6.7952 -2.5016 0.9609
7.0036 -6.6558 -2.5016 0.9609
7.1360 -6.5136 -2.5016 0.9609
7.2655 -6.3688 -2.5016 0.9609
7.3920 -6.2214 -2.5016 0.9609
7.5156 -6.0716 -2.5016 0.9609
8.0871 -5.2867 -2.5016 0.9609
8.4856 -4.6198 -2.5016 0.9609
8.7487 -4.0999 -2.5016 0.9609
8.8293 -3.9232 -2.5016 0.9609
8.9799 -3.5651 -2.5016 0.9609
9.0498 -3.3838 -2.5016 0.9609
9.2373 -2.8321 -2.5016 0.9609
9.2924 -2.6458 -2.5016 0.9609
9.3912 -2.2701 -2.5016 0.9609
9.4350 -2.0808 -2.5016 0.9609
9.5110 -1.6999 -2.5016 0.9609
9.5432 -1.5083 -2.5016 0.9609
9.5717 -1.3162 -2.5016 0.9609
9.5962 -1.1235 -2.5016 0.9609
9.6168 -0.9303 -2.5016 0.9609
9.6605 -0.1547 -2.5016 0.9609
9.6616 0.0396 -2.5016 0.9609
9.6417 0.6219 -2.5016 0.9609
9.5306 1.5864 -2.5016 0.9609
9.4591 1.9683 -2.5016 0.9609
9.3723 2.3470 -2.5016 0.9609
9.3232 2.5349 -2.5016 0.9609
9.2138 2.9077 -2.5016 0.9609
9.0894 3.2757 -2.5016 0.9609
8.9504 3.6385 -2.5016 0.9609
8.8754 3.8177 -2.5016 0.9609
8.7969 3.9954 -2.5016 0.9609
8.7148 4.1714 -2.5016 0.9609
8.6292 4.3458 -2.5016 0.9609
8.4475 4.6892 -2.5016 0.9609
8.3515 4.8581 -2.5016 0.9609
7.9342 5.5133 -2.5016 0.9609
7.5874 5.9816 -2.5016 0.9609
7.4656 6.1329 -2.5016 0.9609
7.3408 6.2818 -2.5016 0.9609
7.0824 6.5718 -2.5016 0.9609
6.8124 6.8512 -2.5016 0.9609
6.5307 7.1187 -2.5013 0.9609
6.3812 7.2428 -2.4993 0.9609
6.2295 7.3640 -2.4974 0.9609
5.9074 7.5815 -2.4885 0.9611
5.6758 7.5943 -2.4548 0.9616
5.4501 7.6066 -2.4228 0.9621
5.0151 7.6298 -2.3640 0.9630
4.8302 7.6805 -2.3492 0.9632
4.6748 7.7761 -2.3492 0.9632
4.5175 7.8685 -2.3492 0.9632
3.9660 7.9875 -2.3090 0.9638
3.7050 8.2821 -2.3492 0.9632
3.5378 8.3550 -2.3492 0.9632
2.8497 8.5958 -2.3447 0.9633
2.6634 8.6098 -2.3334 0.9634
2.4789 8.6236 -2.3232 0.9636
2.2959 8.6373 -2.3140 0.9637
2.1142 8.6509 -2.3058 0.9639
1.9338 8.6645 -2.2986 0.9640
1.5759 8.6913 -2.2870 0.9642
1.3982 8.7046 -2.2827 0.9642
1.2211 8.7179 -2.2793 0.9643
1.0444 8.7311 -2.2768 0.9643
0.6919 8.7576 -2.2746 0.9644
-0.0144 9.0731 -2.3492 0.9632
-0.1968 9.0710 -2.3492 0.9632
-0.3791 9.0652 -2.3492 0.9632
-0.5613 9.0557 -2.3492 0.9632
-1.1062 9.0054 -2.3492 0.9632
-1.2870 8.9814 -2.3492 0.9632
-2.5342 8.7120 -2.3492 0.9632
-3.0547 8.5434 -2.3492 0.9632
-3.5642 8.3437 -2.3492 0.9632
-3.7312 8.2704 -2.3492 0.9632
-4.2230 8.0304 -2.3492 0.9632
-5.0693 7.6592 -2.3781 0.9628
-5.2898 7.6535 -2.4089 0.9623
-5.9466 7.5822 -2.4949 0.9610
-6.1026 7.4669 -2.4969 0.9609
-6.4083 7.2273 -2.5009 0.9609
-6.5540 7.0989 -2.5016 0.9609
-6.8341 6.8296 -2.5016 0.9609
-7.3607 6.2585 -2.5016 0.9609
-7.4850 6.1093 -2.5016 0.9609
-7.7246 5.8034 -2.5016 0.9609
-7.8397 5.6469 -2.5016 0.9609
-7.9516 5.4882 -2.5016 0.9609
-8.0604 5.3272 -2.5016 0.9609
-8.1658 5.1641 -2.5016 0.9609
-8.2680 4.9989 -2.5016 0.9609
-8.3669 4.8316 -2.5016 0.9609
-8.4623 4.6624 -2.5016 0.9609
-8.6429 4.3185 -2.5016 0.9609
-8.8095 3.9675 -2.5016 0.9609
-8.8875 3.7896 -2.5016 0.9609
-9.0998 3.2470 -2.5016 0.9609
-9.1632 3.0634 -2.5016 0.9609
-9.2230 2.8785 -2.5016 0.9609
-9.2790 2.6925 -2.5016 0.9609
-9.3312 2.5054 -2.5016 0.9609
-9.4244 2.1283 -2.5016 0.9609
-9.4653 1.9383 -2.5016 0.9609
-9.5023 1.7477 -2.5016 0.9609
-9.5649 1.3642 -2.5016 0.9609
-9.5904 1.1717 -2.5016 0.9609
-9.6298 0.7852 -2.5016 0.9609
-9.6436 0.5914 -2.5016 0.9609
-9.6535 0.3974 -2.5016 0.9609
-9.6599 -0.1853 -2.5016 0.9609
-9.6543 -0.3794 -2.5016 0.9609
-9.6447 -0.5734 -2.5016 0.9609
-9.5926 -1.1538 -2.5016 0.9609
-9.5674 -1.3464 -2.5016 0.9609
-9.5384 -1.5385 -2.5016 0.9609
-9.5056 -1.7300 -2.5016 0.9609
-9.4689 -1.9207 -2.5016 0.9609
-9.2839 -2.6752 -2.5016 0.9609
-9.2283 -2.8613 -2.5016 0.9609
-9.1689 -3.0463 -2.5016 0.9609
-9.1058 -3.2300 -2.5016 0.9609
-8.9686 -3.5935 -2.5016 0.9609
-8.8945 -3.7730 -2.5016 0.9609
-8.8169 -3.9511 -2.5016 0.9609
-8.6509 -4.3024 -2.5016 0.9609
-8.5627 -4.4754 -2.5016 0.9609
-8.2773 -4.9835 -2.5016 0.9609
-8.0703 -5.3122 -2.5016 0.9609
-7.9618 -5.4734 -2.5016 0.9609
-7.8502 -5.6324 -2.5016 0.9609
-7.6174 -5.9434 -2.5016 0.9609
-7.3723 -6.2448 -2.5016 0.9609
-6.8468 -6.8169 -2.5016 0.9609
-5.9767 -7.5914 -2.5016 0.9609
-5.8228 -7.7100 -2.5016 0.9609
-5.6666 -7.8255 -2.5016 0.9609
-5.3475 -8.0469 -2.5016 0.9609
-4.6837 -8.4505 -2.5016 0.9609
-4.1658 -8.7175 -2.5016 0.9609
-3.8119 -8.8779 -2.5016 0.9609
-3.4520 -9.0240 -2.5016 0.9609
-3.0864 -9.1555 -2.5016 0.9609
-2.9017 -9.2157 -2.5016 0.9609
-2.7158 -9.2722 -2.5016 0.9609
-2.5289 -9.3249 -2.5016 0.9609
-2.1519 -9.4190 -2.5016 0.9609
-1.9621 -9.4604 -2.5016 0.9609
-1.7716 -9.4979 -2.5016 0.9609
-1.3883 -9.5614 -2.5016 0.9609
-0.8094 -9.6278 -2.5016 0.9609
-0.6156 -9.6421 -2.5016 0.9609
-0.2275 -9.6590 -2.5016 0.9609
-0.0333 -9.6617 -2.5016 0.9609
0.3552 -9.6552 -2.5016 0.9609
0.7430 -9.6331 -2.5016 0.9609
0.9365 -9.6162 -2.5016 0.9609
1.3224 -9.5708 -2.5016 0.9609
1.5145 -9.5423 -2.5016 0.9609
1.8969 -9.4737 -2.5016 0.9609
2.2762 -9.3897 -2.5016 0.9609
2.6519 -9.2907 -2.5016 0.9609
2.8381 -9.2355 -2.5016 0.9609
3.2071 -9.1139 -2.5016 0.9609
3.3897 -9.0476 -2.5016 0.9609
3.9289 -8.8268 -2.5016 0.9609
4.1056 -8.7460 -2.5016 0.9609
4.2806 -8.6617 -2.5016 0.9609
4.4539 -8.5739 -2.5016 0.9609
5.4533 -7.9756 -2.5016 0.9609
5.7696 -7.7499 -2.5016 0.9609
6.2263 -7.3880 -2.5016 0.9609
6.3735 -7.2613 -2.5016 0.9609
6.7997 -6.8639 -2.5016 0.9609
6.9363 -6.7258 -2.5016 0.9609
7.2011 -6.4415 -2.5016 0.9609
7.9239 -5.5281 -2.5016 0.9609
8.0335 -5.3677 -2.5016 0.9609
8.2428 -5.0404 -2.5016 0.9609
8.3424 -4.8736 -2.5016 0.9609
8.6211 -4.3619 -2.5016 0.9609
9.1477 -3.1094 -2.5016 0.9609
9.2084 -2.9249 -2.5016 0.9609
9.2653 -2.7391 -2.5016 0.9609
9.4554 -1.9859 -2.5016 0.9609
9.4934 -1.7954 -2.5016 0.9609
9.5276 -1.6042 -2.5016 0.9609
9.5844 -1.2199 -2.5016 0.9609
9.6070 -1.0269 -2.5016 0.9609
9.6257 -0.8336 -2.5016 0.9609
9.6405 -0.6399 -2.5016 0.9609
9.6514 -0.4459 -2.5016 0.9609
9.6615 -0.0576 -2.5016 0.9609
9.6349 0.7188 -2.5016 0.9609
9.6185 0.9124 -2.5016 0.9609
9.5983 1.1056 -2.5016 0.9609
9.5460 1.4905 -2.5016 0.9609
9.5142 1.6822 -2.5016 0.9609
9.3483 2.4411 -2.5016 0.9609
9.2973 2.6285 -2.5016 0.9609
9.2426 2.8149 -2.5016 0.9609
9.1841 3.0002 -2.5016 0.9609
9.0561 3.3670 -2.5016 0.9609
8.8366 3.9068 -2.5016 0.9609
8.7563 4.0836 -2.5016 0.9609
8.6724 4.2588 -2.5016 0.9609
8.5851 4.4323 -2.5016 0.9609
8.2012 5.1077 -2.5016 0.9609
7.9893 5.4333 -2.5016 0.9609
7.8784 5.5928 -2.5016 0.9609
7.6472 5.9050 -2.5016 0.9609
7.5269 6.0575 -2.5016 0.9609
7.4036 6.2076 -2.5016 0.9609
7.2773 6.3553 -2.5016 0.9609
7.0159 6.6427 -2.5016 0.9609
6.8810 6.7824 -2.5016 0.9609
6.7432 6.9194 -2.5016 0.9609
6.3056 7.3038 -2.4983 0.9609
6.1528 7.4234 -2.4964 0.9609
5.9979 7.5400 -2.4946 0.9610
5.5622 7.6005 -2.4386 0.9618
5.1219 7.6241 -2.3781 0.9628
4.0657 7.9859 -2.3202 0.9636
3.9430 8.1458 -2.3432 0.9633
3.7881 8.2445 -2.3492 0.9632
3.1135 8.5222 -2.3492 0.9632
2.7563 8.6028 -2.3390 0.9634
2.5709 8.6167 -2.3282 0.9635
2.2049 8.6441 -2.3098 0.9638
2.0239 8.6577 -2.3021 0.9639
1.8440 8.6712 -2.2953 0.9640
1.6651 8.6846 -2.2896 0.9641
1.3096 8.7113 -2.2808 0.9643
0.9562 8.7378 -2.2759 0.9643
0.6038 8.7642 -2.2746 0.9644
0.2592 9.0694 -2.3492 0.9632
-0.1056 9.0725 -2.3492 0.9632
-0.4702 9.0609 -2.3492 0.9632
-0.6523 9.0496 -2.3492 0.9632
-1.0156 9.0161 -2.3492 0.9632
-1.3772 8.9680 -2.3492 0.9632
-1.7366 8.9054 -2.3492 0.9632
-1.9153 8.8686 -2.3492 0.9632
-2.2703 8.7845 -2.3492 0.9632
-2.4465 8.7371 -2.3492 0.9632
-2.7957 8.6316 -2.3492 0.9632
-2.9687 8.5737 -2.3492 0.9632
-3.1404 8.5123 -2.3492 0.9632
-3.3110 8.4474 -2.3492 0.9632
-3.4801 8.3792 -2.3492 0.9632
-3.6479 8.3075 -2.3492 0.9632
-3.8142 8.2325 -2.3492 0.9632
-3.9789 8.1541 -2.3492 0.9632
-4.4632 7.8994 -2.3492 0.9632
-4.6211 7.8081 -2.3492 0.9632
-4.9610 7.6619 -2.3634 0.9630
-5.6315 7.6443 -2.4584 0.9615
-6.3327 7.2883 -2.4999 0.9609
-7.0369 6.6205 -2.5016 0.9609
-7.2974 6.3322 -2.5016 0.9609
-7.5461 6.0337 -2.5016 0.9609
-7.7825 5.7255 -2.5016 0.9609
-7.8961 5.5679 -2.5016 0.9609
-8.1135 5.2459 -2.5016 0.9609
-8.3179 4.9155 -2.5016 0.9609
-8.4150 4.7473 -2.5016 0.9609
-8.5087 4.5771 -2.5016 0.9609
-8.5990 4.4051 -2.5016 0.9609
-8.8489 3.8788 -2.5016 0.9609
-9.1320 3.1553 -2.5016 0.9609
-9.1935 2.9711 -2.5016 0.9609
-9.3559 2.4115 -2.5016 0.9609
-9.4453 2.0334 -2.5016 0.9609
-9.4843 1.8431 -2.5016 0.9609
-9.5194 1.6520 -2.5016 0.9609
-9.5781 1.2680 -2.5016 0.9609
-9.6017 1.0752 -2.5016 0.9609
-9.6611 0.1061 -2.5016 0.9609
-9.6613 -0.0882 -2.5016 0.9609
-9.6037 -1.0573 -2.5016 0.9609
-9.5534 -1.4425 -2.5016 0.9609
-9.5225 -1.6343 -2.5016 0.9609
-9.4877 -1.8254 -2.5016 0.9609
-9.4067 -2.2054 -2.5016 0.9609
-9.3104 -2.5818 -2.5016 0.9609
-9.1378 -3.1383 -2.5016 0.9609
-9.0043 -3.5031 -2.5016 0.9609
-8.9320 -3.6834 -2.5016 0.9609
-8.7767 -4.0396 -2.5016 0.9609
-8.6072 -4.3891 -2.5016 0.9609
-8.5172 -4.5613 -2.5016 0.9609
-8.4238 -4.7316 -2.5016 0.9609
-8.3270 -4.9000 -2.5016 0.9609
-8.1233 -5.2308 -2.5016 0.9609
-7.9064 -5.5531 -2.5016 0.9609
-7.7932 -5.7110 -2.5016 0.9609
-7.6768 -5.8665 -2.5016 0.9609
-7.4347 -6.1704 -2.5016 0.9609
-6.9150 -6.7477 -2.5016 0.9609
-6.7779 -6.8854 -2.5016 0.9609
-6.6381 -7.0203 -2.5016 0.9609
-6.3505 -7.2815 -2.5016 0.9609
-6.2029 -7.4076 -2.5016 0.9609
-6.0527 -7.5309 -2.5016 0.9609
-5.9000 -7.6510 -2.5016 0.9609
-5.7450 -7.7681 -2.5016 0.9609
-5.5877 -7.8820 -2.5016 0.9609
-5.1024 -8.2045 -2.5016 0.9609
-4.9364 -8.3055 -2.5016 0.9609
-4.7684 -8.4030 -2.5016 0.9609
-4.4267 -8.5879 -2.5016 0.9609
-4.2532 -8.6752 -2.5016 0.9609
-4.0779 -8.7589 -2.5016 0.9609
-3.9009 -8.8392 -2.5016 0.9609
-3.5425 -8.9888 -2.5016 0.9609
-2.9942 -9.1861 -2.5016 0.9609
-2.0571 -9.4402 -2.5016 0.9609
-1.6760 -9.5153 -2.5016 0.9609
-1.4843 -9.5470 -2.5016 0.9609
-0.9061 -9.6191 -2.5016 0.9609
-0.3246 -9.6562 -2.5016 0.9609
0.4522 -9.6511 -2.5016 0.9609
0.6461 -9.6401 -2.5016 0.9609
0.8398 -9.6252 -2.5016 0.9609
1.2261 -9.5836 -2.5016 0.9609
1.4185 -9.5570 -2.5016 0.9609
1.8016 -9.4923 -2.5016 0.9609
1.9921 -9.4541 -2.5016 0.9609
2.1817 -9.4122 -2.5016 0.9609
2.3705 -9.3664 -2.5016 0.9609
2.5583 -9.3168 -2.5016 0.9609
2.7451 -9.2635 -2.5016 0.9609
2.9308 -9.2065 -2.5016 0.9609
3.1153 -9.1457 -2.5016 0.9609
3.2986 -9.0812 -2.5016 0.9609
4.1933 -8.7043 -2.5016 0.9609
4.5399 -8.5287 -2.5016 0.9609
5.0457 -8.2395 -2.5016 0.9609
5.3729 -8.0300 -2.5016 0.9609
5.5332 -7.9203 -2.5016 0.9609
5.6914 -7.8075 -2.5016 0.9609
6.1517 -7.4502 -2.5016 0.9609
6.3002 -7.3250 -2.5016 0.9609
6.5896 -7.0658 -2.5016 0.9609
6.8683 -6.7952 -2.5016 0.9609
7.1359 -6.5136 -2.5016 0.9609
7.2655 -6.3688 -2.5016 0.9609
7.5156 -6.0716 -2.5016 0.9609
7.7536 -5.7645 -2.5016 0.9609
7.8679 -5.6075 -2.5016 0.9609
8.0871 -5.2867 -2.5016 0.9609
8.3910 -4.7895 -2.5016 0.9609
8.4856 -4.6198 -2.5016 0.9609
8.9799 -3.5651 -2.5016 0.9609
9.1160 -3.2012 -2.5016 0.9609
9.1785 -3.0173 -2.5016 0.9609
9.2373 -2.8321 -2.5016 0.9609
9.2924 -2.6458 -2.5016 0.9609
9.3437 -2.4585 -2.5016 0.9609
9.3912 -2.2701 -2.5016 0.9609
9.4749 -1.8908 -2.5016 0.9609
9.5110 -1.6999 -2.5016 0.9609
9.5432 -1.5083 -2.5016 0.9609
9.5717 -1.3162 -2.5016 0.9609
9.5962 -1.1235 -2.5016 0.9609
9.6336 -0.7368 -2.5016 0.9609
9.6464 -0.5429 -2.5016 0.9609
9.6554 -0.3489 -2.5016 0.9609
9.6605 -0.1547 -2.5016 0.9609
9.6589 0.2338 -2.5016 0.9609
9.6272 0.8156 -2.5016 0.9609
9.6089 1.0090 -2.5016 0.9609
9.5866 1.2020 -2.5016 0.9609
9.5306 1.5864 -2.5016 0.9609
9.4591 1.9683 -2.5016 0.9609
9.3723 2.3470 -2.5016 0.9609
9.2704 2.7218 -2.5016 0.9609
9.1535 3.0924 -2.5016 0.9609
8.9504 3.6385 -2.5016 0.9609
8.8754 3.8177 -2.5016 0.9609
8.7969 3.9954 -2.5016 0.9609
8.7148 4.1714 -2.5016 0.9609
8.6292 4.3458 -2.5016 0.9609
8.5400 4.5184 -2.5016 0.9609
8.4475 4.6892 -2.5016 0.9609
8.3515 4.8581 -2.5016 0.9609
8.0435 5.3527 -2.5016 0.9609
7.8218 5.6717 -2.5016 0.9609
7.4656 6.1329 -2.5016 0.9609
7.3408 6.2818 -2.5016 0.9609
7.2131 6.4281 -2.5016 0.9609
7.0824 6.5718 -2.5016 0.9609
6.9488 6.7129 -2.5016 0.9609
6.6733 6.9868 -2.5016 0.9609
5.9074 7.5815 -2.4885 0.9611
5.0151 7.6298 -2.3640 0.9630
4.5175 7.8685 -2.3492 0.9632
4.3584 7.9578 -2.3492 0.9632
4.1665 7.9843 -2.3318 0.9635
3.9660 7.9875 -2.3090 0.9638
3.8708 8.2060 -2.3492 0.9632
3.7050 8.2821 -2.3492 0.9632
3.5378 8.3550 -2.3492 0.9632
3.3691 8.4244 -2.3492 0.9632
3.0277 8.5530 -2.3492 0.9632
2.6634 8.6098 -2.3334 0.9634
2.4789 8.6236 -2.3232 0.9636
2.2959 8.6373 -2.3140 0.9637
1.9338 8.6645 -2.2986 0.9640
1.7544 8.6779 -2.2923 0.9641
1.5759 8.6913 -2.2870 0.9642
1.3982 8.7046 -2.2827 0.9642
1.2211 8.7179 -2.2793 0.9643
0.3504 9.0663 -2.3492 0.9632
0.1681 9.0715 -2.3492 0.9632
-0.1968 9.0710 -2.3492 0.9632
-0.5613 9.0557 -2.3492 0.9632
-0.9249 9.0258 -2.3492 0.9632
-1.1062 9.0054 -2.3492 0.9632
-1.4673 8.9537 -2.3492 0.9632
-1.6470 8.9224 -2.3492 0.9632
-1.8260 8.8875 -2.3492 0.9632
-2.1819 8.8069 -2.3492 0.9632
-2.3585 8.7612 -2.3492 0.9632
-2.5342 8.7120 -2.3492 0.9632
-2.8823 8.6031 -2.3492 0.9632
-3.0547 8.5434 -2.3492 0.9632
-3.5642 8.3437 -2.3492 0.9632
-4.2230 8.0304 -2.3492 0.9632
-4.3836 7.9439 -2.3492 0.9632
-4.5424 7.8542 -2.3492 0.9632
-4.6994 7.7613 -2.3492 0.9632
-5.0693 7.6592 -2.3781 0.9628
-5.2898 7.6535 -2.4089 0.9623
-5.5161 7.6475 -2.4414 0.9618
-6.1026 7.4669 -2.4969 0.9609
-6.2565 7.3486 -2.4989 0.9609
-6.6954 6.9657 -2.5016 0.9609
-6.8341 6.8296 -2.5016 0.9609
-6.9700 6.6909 -2.5016 0.9609
-7.1031 6.5494 -2.5016 0.9609
-7.6063 5.9575 -2.5016 0.9609
-7.7246 5.8034 -2.5016 0.9609
-8.0604 5.3272 -2.5016 0.9609
-8.1658 5.1641 -2.5016 0.9609
-8.3669 4.8316 -2.5016 0.9609
-8.4623 4.6625 -2.5016 0.9609
-8.7280 4.1438 -2.5016 0.9609
-8.8095 3.9675 -2.5016 0.9609
-8.8875 3.7896 -2.5016 0.9609
-8.9619 3.6102 -2.5016 0.9609
-9.0327 3.4293 -2.5016 0.9609
-9.0998 3.2470 -2.5016 0.9609
-9.1632 3.0634 -2.5016 0.9609
-9.2230 2.8785 -2.5016 0.9609
-9.2790 2.6925 -2.5016 0.9609
-9.3312 2.5054 -2.5016 0.9609
-9.3797 2.3173 -2.5016 0.9609
-9.4244 2.1283 -2.5016 0.9609
-9.5649 1.3642 -2.5016 0.9609
-9.6436 0.5914 -2.5016 0.9609
-9.6535 0.3974 -2.5016 0.9609
-9.6596 0.2032 -2.5016 0.9609
-9.6599 -0.1853 -2.5016 0.9609
-9.6543 -0.3794 -2.5016 0.9609
-9.6138 -0.9607 -2.5016 0.9609
-9.5926 -1.1538 -2.5016 0.9609
-9.5674 -1.3464 -2.5016 0.9609
-9.5384 -1.5385 -2.5016 0.9609
-9.3840 -2.2998 -2.5016 0.9609
-9.3359 -2.4880 -2.5016 0.9609
-9.1689 -3.0463 -2.5016 0.9609
-8.8945 -3.7730 -2.5016 0.9609
-8.5627 -4.4754 -2.5016 0.9609
-8.4710 -4.6467 -2.5016 0.9609
-8.3758 -4.8161 -2.5016 0.9609
-8.1754 -5.1489 -2.5016 0.9609
-7.9619 -5.4734 -2.5016 0.9609
-7.8502 -5.6324 -2.5016 0.9609
-7.3723 -6.2448 -2.5016 0.9609
-6.9825 -6.6779 -2.5016 0.9609
-6.8468 -6.8169 -2.5016 0.9609
-6.7084 -6.9532 -2.5016 0.9609
-6.5672 -7.0866 -2.5016 0.9609
-6.4234 -7.2172 -2.5016 0.9609
-6.2770 -7.3449 -2.5016 0.9609
-5.9767 -7.5913 -2.5016 0.9609
-5.8228 -7.7100 -2.5016 0.9609
-5.3475 -8.0469 -2.5016 0.9609
-5.1846 -8.1528 -2.5016 0.9609
-5.0197 -8.2554 -2.5016 0.9609
-4.6837 -8.4505 -2.5016 0.9609
-4.3402 -8.6320 -2.5016 0.9609
-4.1658 -8.7175 -2.5016 0.9609
-1.9621 -9.4604 -2.5016 0.9609
-1.7716 -9.4979 -2.5016 0.9609
-1.5802 -9.5316 -2.5016 0.9609
-1.3883 -9.5614 -2.5016 0.9609
-1.0028 -9.6095 -2.5016 0.9609
-0.8094 -9.6278 -2.5016 0.9609
-0.6156 -9.6421 -2.5016 0.9609
-0.0333 -9.6617 -2.5016 0.9609
0.1610 -9.6604 -2.5016 0.9609
0.3551 -9.6552 -2.5016 0.9609
0.7430 -9.6331 -2.5016 0.9609
1.1297 -9.5954 -2.5016 0.9609
1.5145 -9.5423 -2.5016 0.9609
1.8969 -9.4737 -2.5016 0.9609
2.0870 -9.4336 -2.5016 0.9609
2.2762 -9.3897 -2.5016 0.9609
2.4646 -9.3421 -2.5016 0.9609
2.8381 -9.2355 -2.5016 0.9609
3.0232 -9.1765 -2.5016 0.9609
3.3897 -9.0476 -2.5016 0.9609
3.5709 -8.9776 -2.5016 0.9609
3.9289 -8.8268 -2.5016 0.9609
4.2806 -8.6617 -2.5016 0.9609
4.7950 -8.3879 -2.5016 0.9609
4.9626 -8.2898 -2.5016 0.9609
5.1283 -8.1884 -2.5016 0.9609
5.6126 -7.8643 -2.5016 0.9609
5.7696 -7.7499 -2.5016 0.9609
6.3735 -7.2613 -2.5016 0.9609
6.5182 -7.1317 -2.5016 0.9609
6.6603 -6.9992 -2.5016 0.9609
6.7997 -6.8639 -2.5016 0.9609
6.9363 -6.7258 -2.5016 0.9609
7.0701 -6.5850 -2.5016 0.9609
7.2011 -6.4415 -2.5016 0.9609
7.4542 -6.1468 -2.5016 0.9609
7.5763 -5.9957 -2.5016 0.9609
7.6953 -5.8422 -2.5016 0.9609
8.0335 -5.3677 -2.5016 0.9609
7.8849 -3.9894 -2.5016 0.9639
8.0389 -3.6692 -2.5016 0.9639
8.1110 -3.5068 -2.5016 0.9639
8.1799 -3.3430 -2.5016 0.9639
8.2454 -3.1779 -2.5016 0.9639
8.3665 -2.8439 -2.5016 0.9639
8.6097 -1.9898 -2.5016 0.9639
8.7417 -1.2917 -2.5016 0.9639
8.7866 -0.9392 -2.5016 0.9639
8.8037 -0.7624 -2.5016 0.9639
8.8336 -0.2303 -2.5016 0.9639
8.8365 -0.0526 -2.5016 0.9639
8.8358 0.1250 -2.5016 0.9639
8.8315 0.3026 -2.5016 0.9639
8.8121 0.6574 -2.5016 0.9639
8.7972 0.8345 -2.5016 0.9639
8.7786 1.0112 -2.5016 0.9639
8.7308 1.3633 -2.5016 0.9639
8.7017 1.5385 -2.5016 0.9639
8.6690 1.7132 -2.5016 0.9639
8.6328 1.8871 -2.5016 0.9639
8.5931 2.0603 -2.5016 0.9639
8.5499 2.2326 -2.5016 0.9639
8.5033 2.4041 -2.5016 0.9639
8.3429 2.9123 -2.5016 0.9639
8.0085 3.7349 -2.5016 0.9639
7.9318 3.8951 -2.5016 0.9639
7.6826 4.3662 -2.5016 0.9639
7.4054 4.8214 -2.5016 0.9639
7.3070 4.9693 -2.5016 0.9639
6.8841 5.5403 -2.5016 0.9639
6.7714 5.6776 -2.5016 0.9639
6.4168 6.0754 -2.5016 0.9639
6.1674 6.3285 -2.5016 0.9639
5.9080 6.5713 -2.5016 0.9639
5.6390 6.8035 -2.5016 0.9639
5.3609 7.0247 -2.5016 0.9639
4.7710 7.4197 -2.4972 0.9640
4.6181 7.5098 -2.4958 0.9640
3.8899 7.6405 -2.4271 0.9650
3.7012 7.6464 -2.4049 0.9653
3.1587 7.6736 -2.3492 0.9661
2.6903 7.8501 -2.3492 0.9661
2.5320 7.9026 -2.3492 0.9661
2.3726 7.9519 -2.3492 0.9661
2.2122 7.9980 -2.3492 0.9661
2.0510 8.0408 -2.3492 0.9661
1.8889 8.0804 -2.3492 0.9661
1.7261 8.1168 -2.3492 0.9661
1.3984 8.1796 -2.3492 0.9661
0.7367 8.2655 -2.3492 0.9661
0.5704 8.2787 -2.3492 0.9661
0.4038 8.2885 -2.3492 0.9661
0.0703 8.2980 -2.3492 0.9661
-0.0966 8.2977 -2.3492 0.9661
-0.2634 8.2941 -2.3492 0.9661
-0.7629 8.2632 -2.3492 0.9661
-1.4243 8.1751 -2.3492 0.9661
-1.9145 8.0744 -2.3492 0.9661
-2.5570 7.8945 -2.3492 0.9661
-2.7152 7.8415 -2.3492 0.9661
-3.1852 7.6691 -2.3509 0.9661
-3.3640 7.6610 -2.3686 0.9658
-3.5476 7.6572 -2.3890 0.9655
-3.7345 7.6532 -2.4107 0.9652
-4.1186 7.6444 -2.4582 0.9645
-4.3164 7.6396 -2.4840 0.9642
-4.4886 7.5842 -2.4949 0.9640
-5.3832 7.0077 -2.5016 0.9639
-5.5230 6.8981 -2.5016 0.9639
-5.6605 6.7856 -2.5016 0.9639
-5.7958 6.6704 -2.5016 0.9639
-5.9288 6.5526 -2.5016 0.9639
-6.0593 6.4320 -2.5016 0.9639
-6.3130 6.1833 -2.5016 0.9639
-6.5564 5.9245 -2.5016 0.9639
-6.6742 5.7915 -2.5016 0.9639
-6.9017 5.5184 -2.5016 0.9639
-7.0112 5.3786 -2.5016 0.9639
-7.2218 5.0924 -2.5016 0.9639
-7.3227 4.9462 -2.5016 0.9639
-7.4206 4.7979 -2.5016 0.9639
-7.6075 4.4957 -2.5016 0.9639
-7.9441 3.8700 -2.5016 0.9639
-8.0203 3.7095 -2.5016 0.9639
-8.1630 3.3841 -2.5016 0.9639
-8.2294 3.2193 -2.5016 0.9639
-8.2924 3.0532 -2.5016 0.9639
-8.3521 2.8859 -2.5016 0.9639
-8.4085 2.7174 -2.5016 0.9639
-8.5109 2.3771 -2.5016 0.9639
-8.6387 1.8598 -2.5016 0.9639
-8.7602 1.1597 -2.5016 0.9639
-8.8142 0.6295 -2.5016 0.9639
-8.8259 -0.4358 -2.5016 0.9639
-8.8154 -0.6131 -2.5016 0.9639
-8.8012 -0.7903 -2.5016 0.9639
-8.7836 -0.9670 -2.5016 0.9639
-8.7376 -1.3194 -2.5016 0.9639
-8.7093 -1.4948 -2.5016 0.9639
-8.6775 -1.6696 -2.5016 0.9639
-8.6033 -2.0171 -2.5016 0.9639
-8.5611 -2.1896 -2.5016 0.9639
-8.3575 -2.8703 -2.5016 0.9639
-8.1693 -3.3689 -2.5016 0.9639
-8.0999 -3.5325 -2.5016 0.9639
-8.0272 -3.6946 -2.5016 0.9639
-7.9513 -3.8552 -2.5016 0.9639
-7.8722 -4.0143 -2.5016 0.9639
-7.7899 -4.1718 -2.5016 0.9639
-7.7044 -4.3275 -2.5016 0.9639
-7.6159 -4.4816 -2.5016 0.9639
-7.5242 -4.6338 -2.5016 0.9639
-7.3319 -4.9325 -2.5016 0.9639
-7.2312 -5.0789 -2.5016 0.9639
-7.1277 -5.2233 -2.5016 0.9639
-7.0212 -5.3655 -2.5016 0.9639
-6.6850 -5.7790 -2.5016 0.9639
-6.5674 -5.9122 -2.5016 0.9639
-6.4473 -6.0431 -2.5016 0.9639
-6.1991 -6.2974 -2.5016 0.9639
-6.0712 -6.4208 -2.5016 0.9639
-5.6731 -6.7751 -2.5016 0.9639
-5.2544 -7.1047 -2.5016 0.9639
-5.1105 -7.2089 -2.5016 0.9639
-4.9645 -7.3102 -2.5016 0.9639
-4.8166 -7.4086 -2.5016 0.9639
-4.6666 -7.5039 -2.5016 0.9639
-4.5148 -7.5962 -2.5016 0.9639
-4.0487 -7.8546 -2.5016 0.9639
-3.7297 -8.0110 -2.5016 0.9639
-3.5679 -8.0844 -2.5016 0.9639
-3.4046 -8.1544 -2.5016 0.9639
-3.0740 -8.2847 -2.5016 0.9639
-2.9069 -8.3448 -2.5016 0.9639
-2.5690 -8.4550 -2.5016 0.9639
-2.3985 -8.5049 -2.5016 0.9639
-2.2270 -8.5514 -2.5016 0.9639
-1.8815 -8.6340 -2.5016 0.9639
