ply
format ascii 1.0
element vertex 1592
property float32 x
property float32 y
property float32 z
property float32 I
end_header
11.0365 -3.6931 -2.4600 0.9535
11.1734 -3.2464 -2.4595 0.9535
11.2927 -2.7948 -2.4591 0.9536
11.3940 -2.3389 -2.4587 0.9536
11.4379 -2.1096 -2.4585 0.9536
11.5423 -1.4171 -2.4581 0.9536
11.5679 -1.1850 -2.4580 0.9536
11.5890 -0.9526 -2.4579 0.9536
11.6256 0.2135 -2.4578 0.9536
11.6191 0.4469 -2.4579 0.9536
11.5923 0.9129 -2.4580 0.9536
11.5472 1.3776 -2.4582 0.9536
11.5178 1.6092 -2.4583 0.9536
11.4838 1.8402 -2.4584 0.9536
11.4452 2.0705 -2.4586 0.9536
11.1193 3.4325 -2.4598 0.9535
11.0494 3.6555 -2.4601 0.9535
10.9751 3.8770 -2.4604 0.9535
10.8965 4.0970 -2.4607 0.9535
10.8134 4.3155 -2.4611 0.9535
10.6345 4.7474 -2.4618 0.9535
10.5387 4.9607 -2.4621 0.9535
10.4387 5.1721 -2.4625 0.9535
10.3344 5.3815 -2.4629 0.9535
9.9971 5.9970 -2.4642 0.9535
9.8766 6.1976 -2.4647 0.9534
9.7521 6.3959 -2.4652 0.9534
9.6237 6.5917 -2.4657 0.9534
9.3554 6.9757 -2.4667 0.9534
8.7510 7.6907 -2.4626 0.9535
8.4818 7.7614 -2.4302 0.9541
8.1550 7.7688 -2.3808 0.9550
7.8409 7.7758 -2.3342 0.9559
7.4819 8.0406 -2.3216 0.9561
7.1570 8.3390 -2.3229 0.9561
6.9901 8.4833 -2.3235 0.9561
6.8203 8.6244 -2.3242 0.9560
6.6478 8.7621 -2.3249 0.9560
6.4724 8.8964 -2.3255 0.9560
6.2944 9.0272 -2.3262 0.9560
5.5569 9.5147 -2.3291 0.9560
5.1738 9.7363 -2.3306 0.9559
4.9789 9.8414 -2.3313 0.9559
4.1790 10.2227 -2.3345 0.9559
3.9743 10.3080 -2.3352 0.9558
3.7679 10.3893 -2.3360 0.9558
3.1390 10.6083 -2.3385 0.9558
2.9264 10.6729 -2.3393 0.9558
1.8455 10.9320 -2.3435 0.9557
1.4062 11.0053 -2.3452 0.9557
1.1854 11.0353 -2.3461 0.9556
0.5196 11.0988 -2.3486 0.9556
-0.1495 11.1223 -2.3512 0.9555
-0.8196 11.1053 -2.3538 0.9555
-1.0427 11.0907 -2.3547 0.9555
-1.9318 10.9874 -2.3581 0.9554
-2.1528 10.9503 -2.3590 0.9554
-2.3730 10.9089 -2.3598 0.9554
-2.5924 10.8629 -2.3607 0.9554
-2.8110 10.8126 -2.3615 0.9554
-3.2450 10.6986 -2.3632 0.9553
-4.0985 10.4184 -2.3665 0.9553
-4.3083 10.3376 -2.3673 0.9552
-4.7229 10.1632 -2.3689 0.9552
-5.1305 9.9720 -2.3705 0.9552
-5.3314 9.8702 -2.3713 0.9552
-5.5302 9.7644 -2.3720 0.9552
-5.9215 9.5406 -2.3736 0.9551
-6.1137 9.4228 -2.3743 0.9551
-6.3036 9.3010 -2.3750 0.9551
-6.8582 8.9128 -2.3772 0.9551
-7.0377 8.7759 -2.3779 0.9551
-7.3885 8.4911 -2.3792 0.9550
-7.8927 8.0376 -2.3812 0.9550
-8.0545 7.8796 -2.3818 0.9550
-8.2132 7.7183 -2.3824 0.9550
-8.8380 7.6612 -2.4724 0.9533
-10.3589 6.1185 -2.5431 0.9520
-10.8239 5.2715 -2.5449 0.9520
-10.9292 5.0540 -2.5453 0.9520
-11.2185 4.3889 -2.5464 0.9519
-11.3058 4.1634 -2.5467 0.9519
-11.4666 3.7071 -2.5473 0.9519
-11.5400 3.4766 -2.5476 0.9519
-11.6725 3.0111 -2.5481 0.9519
-11.7316 2.7765 -2.5483 0.9519
-11.7860 2.5406 -2.5485 0.9519
-11.8801 2.0658 -2.5489 0.9519
-11.9199 1.8270 -2.5490 0.9519
-12.0300 0.8651 -2.5495 0.9519
-12.0607 0.1394 -2.5496 0.9519
-12.0611 -0.1027 -2.5496 0.9519
-12.0130 -1.0698 -2.5494 0.9519
-11.9886 -1.3106 -2.5493 0.9519
-11.9594 -1.5510 -2.5491 0.9519
-11.8861 -2.0296 -2.5488 0.9519
-11.6813 -2.9755 -2.5480 0.9519
-11.6181 -3.2091 -2.5478 0.9519
-11.4000 -3.9012 -2.5469 0.9519
-11.3180 -4.1288 -2.5466 0.9519
-11.2313 -4.3545 -2.5463 0.9519
-11.0443 -4.8005 -2.5455 0.9520
-10.7301 -5.4539 -2.5443 0.9520
-10.4988 -5.8781 -2.5434 0.9520
-10.2505 -6.2924 -2.5424 0.9520
-10.1201 -6.4956 -2.5419 0.9520
-9.8471 -6.8937 -2.5409 0.9520
-9.7046 -7.0884 -2.5403 0.9521
-9.4080 -7.4688 -2.5391 0.9521
-9.0962 -7.8367 -2.5379 0.9521
-8.6015 -8.3637 -2.5360 0.9521
-8.4297 -8.5324 -2.5353 0.9521
-8.2545 -8.6975 -2.5347 0.9522
-7.8944 -9.0169 -2.5333 0.9522
-7.7096 -9.1709 -2.5325 0.9522
-7.5218 -9.3212 -2.5318 0.9522
-7.3310 -9.4675 -2.5311 0.9522
-7.1373 -9.6099 -2.5303 0.9522
-6.7417 -9.8826 -2.5288 0.9523
-6.5400 -10.0129 -2.5280 0.9523
-6.3357 -10.1389 -2.5272 0.9523
-6.1289 -10.2608 -2.5264 0.9523
-5.9198 -10.3784 -2.5256 0.9523
-4.9415 -9.5245 -2.5218 0.9569
-4.3553 -9.7958 -2.5195 0.9569
-3.5511 -10.1010 -2.5164 0.9570
-3.3466 -10.1671 -2.5156 0.9570
-3.1408 -10.2290 -2.5148 0.9570
-2.9339 -10.2867 -2.5140 0.9570
-2.7260 -10.3402 -2.5132 0.9570
-1.6734 -10.5442 -2.5091 0.9571
-1.2479 -10.5958 -2.5075 0.9571
-1.0347 -10.6153 -2.5067 0.9571
-0.8211 -10.6304 -2.5058 0.9571
-0.3935 -10.6478 -2.5042 0.9572
-0.1796 -10.6500 -2.5033 0.9572
0.0342 -10.6479 -2.5025 0.9572
0.2479 -10.6416 -2.5017 0.9572
0.4613 -10.6309 -2.5009 0.9572
0.6744 -10.6160 -2.5000 0.9572
0.8871 -10.5968 -2.4992 0.9572
1.0993 -10.5734 -2.4984 0.9573
1.3108 -10.5458 -2.4976 0.9573
1.5218 -10.5139 -2.4968 0.9573
1.9413 -10.4376 -2.4951 0.9573
2.1498 -10.3931 -2.4943 0.9573
2.3572 -10.3445 -2.4935 0.9573
3.1753 -10.1093 -2.4904 0.9574
3.3766 -10.0404 -2.4896 0.9574
3.7746 -9.8906 -2.4880 0.9574
4.1660 -9.7252 -2.4865 0.9575
4.5503 -9.5445 -2.4850 0.9575
4.9268 -9.3486 -2.4836 0.9575
5.2951 -9.1381 -2.4822 0.9575
5.4759 -9.0274 -2.4815 0.9575
5.6545 -8.9132 -2.4808 0.9576
6.0044 -8.6743 -2.4794 0.9576
6.6739 -8.1562 -2.4768 0.9576
6.8346 -8.0186 -2.4762 0.9576
6.9924 -7.8779 -2.4756 0.9576
7.4486 -7.4374 -2.4739 0.9577
7.7377 -7.1292 -2.4727 0.9577
8.0142 -6.8100 -2.4717 0.9577
8.1476 -6.6463 -2.4712 0.9577
8.2777 -6.4801 -2.4707 0.9577
8.4044 -6.3114 -2.4702 0.9577
9.0922 -5.2501 -2.4675 0.9578
9.2927 -4.8795 -2.4668 0.9578
9.6488 -4.1161 -2.4654 0.9578
9.7283 -3.9211 -2.4651 0.9578
9.8039 -3.7246 -2.4648 0.9578
9.9433 -3.3273 -2.4643 0.9578
10.0071 -3.1267 -2.4640 0.9578
10.2660 -2.1074 -2.4631 0.9579
10.3056 -1.9007 -2.4629 0.9579
10.3411 -1.6934 -2.4628 0.9579
10.3725 -1.4854 -2.4627 0.9579
10.3998 -1.2768 -2.4625 0.9579
10.4230 -1.0678 -2.4625 0.9579
10.4569 -0.6485 -2.4623 0.9579
10.4677 -0.4384 -2.4623 0.9579
10.4743 -0.2282 -2.4623 0.9579
10.4692 0.4026 -2.4623 0.9579
10.4591 0.6127 -2.4624 0.9579
10.4450 0.8226 -2.4624 0.9579
10.4042 1.2412 -2.4626 0.9579
10.1323 2.6875 -2.4637 0.9578
9.9550 3.2934 -2.4644 0.9578
9.7420 3.8879 -2.4652 0.9578
9.6632 4.0832 -2.4655 0.9578
9.4941 4.4690 -2.4662 0.9578
9.4038 4.6593 -2.4665 0.9578
9.3097 4.8479 -2.4669 0.9578
9.1105 5.2193 -2.4677 0.9578
9.0054 5.4021 -2.4681 0.9578
8.4264 6.2830 -2.4703 0.9577
8.1708 6.6189 -2.4713 0.9577
7.7625 7.1032 -2.4729 0.9577
7.6201 7.2592 -2.4735 0.9577
7.4691 7.4071 -2.4722 0.9577
7.1553 7.6897 -2.4686 0.9578
6.6574 7.7568 -2.4024 0.9589
6.3962 7.7626 -2.3639 0.9595
5.9856 7.8893 -2.3274 0.9601
5.6671 8.1275 -2.3287 0.9601
5.5043 8.2419 -2.3293 0.9601
5.1719 8.4608 -2.3306 0.9601
5.0024 8.5654 -2.3312 0.9601
4.6572 8.7643 -2.3326 0.9600
4.3042 8.9494 -2.3339 0.9600
4.1249 9.0367 -2.3346 0.9600
3.9439 9.1205 -2.3353 0.9600
3.5768 9.2771 -2.3368 0.9600
3.2035 9.4190 -2.3382 0.9599
3.0147 9.4844 -2.3389 0.9599
2.6333 9.6038 -2.3404 0.9599
2.4407 9.6578 -2.3412 0.9599
2.2471 9.7080 -2.3419 0.9599
1.8568 9.7967 -2.3434 0.9599
1.6603 9.8352 -2.3442 0.9598
1.4630 9.8698 -2.3450 0.9598
1.0664 9.9270 -2.3465 0.9598
0.2670 9.9937 -2.3496 0.9598
0.0664 10.0004 -2.3504 0.9597
-0.1345 10.0030 -2.3512 0.9597
-0.7370 9.9867 -2.3535 0.9597
-0.9377 9.9732 -2.3543 0.9597
-1.1380 9.9556 -2.3550 0.9597
-1.3381 9.9340 -2.3558 0.9596
-1.9355 9.8452 -2.3581 0.9596
-2.1334 9.8075 -2.3589 0.9596
-2.3306 9.7659 -2.3597 0.9596
-2.5270 9.7202 -2.3604 0.9596
-2.7225 9.6706 -2.3612 0.9596
-2.9170 9.6171 -2.3619 0.9595
-3.1105 9.5596 -2.3627 0.9595
-3.3028 9.4983 -2.3634 0.9595
-3.6837 9.3639 -2.3649 0.9595
-3.8721 9.2909 -2.3656 0.9595
-4.4283 9.0492 -2.3678 0.9594
-5.1459 8.6750 -2.3705 0.9594
-5.3205 8.5724 -2.3712 0.9594
-5.8317 8.2434 -2.3732 0.9594
-6.1612 8.0070 -2.3745 0.9593
-6.3223 7.8838 -2.3751 0.9593
-7.5208 7.6589 -2.5228 0.9569
-7.8463 7.3735 -2.5306 0.9567
-8.0026 7.2235 -2.5337 0.9567
-8.5646 6.5646 -2.5361 0.9566
-8.6964 6.3926 -2.5366 0.9566
-8.8247 6.2180 -2.5371 0.9566
-8.9494 6.0407 -2.5376 0.9566
-9.1880 5.6787 -2.5385 0.9566
-9.3017 5.4941 -2.5390 0.9566
-9.4117 5.3071 -2.5394 0.9566
-9.5179 5.1179 -2.5398 0.9566
-9.7186 4.7332 -2.5406 0.9566
-9.9035 4.3405 -2.5413 0.9565
-10.0723 3.9405 -2.5419 0.9565
-10.2247 3.5338 -2.5425 0.9565
-10.2947 3.3282 -2.5428 0.9565
-10.4219 2.9129 -2.5433 0.9565
-10.5322 2.4926 -2.5437 0.9565
-10.5809 2.2808 -2.5439 0.9565
-10.6252 2.0681 -2.5440 0.9565
-10.7009 1.6401 -2.5443 0.9565
-10.7995 0.7766 -2.5447 0.9565
-10.8271 0.1252 -2.5448 0.9565
-10.8274 -0.0922 -2.5448 0.9565
-10.8147 -0.5267 -2.5447 0.9565
-10.7056 -1.6075 -2.5443 0.9565
-10.6706 -1.8220 -2.5441 0.9565
-10.4304 -2.8810 -2.5432 0.9565
-10.3695 -3.0895 -2.5429 0.9565
-10.3044 -3.2967 -2.5427 0.9565
-10.1615 -3.7069 -2.5421 0.9565
-10.0838 -3.9096 -2.5418 0.9565
-9.8263 -4.5077 -2.5408 0.9566
-9.6346 -4.8971 -2.5401 0.9566
-9.5329 -5.0887 -2.5397 0.9566
-9.4273 -5.2782 -2.5393 0.9566
-9.3179 -5.4654 -2.5388 0.9566
-9.0878 -5.8330 -2.5379 0.9566
-8.8430 -6.1907 -2.5370 0.9566
-8.7152 -6.3657 -2.5365 0.9566
-8.5839 -6.5381 -2.5360 0.9566
-8.0249 -7.1994 -2.5338 0.9567
-7.7259 -7.5123 -2.5326 0.9567
-7.5718 -7.6640 -2.5320 0.9567
-7.4146 -7.8126 -2.5314 0.9567
-7.2545 -7.9579 -2.5308 0.9567
-7.0915 -8.0999 -2.5302 0.9567
-6.9257 -8.2385 -2.5295 0.9567
-6.7572 -8.3737 -2.5289 0.9568
-6.5860 -8.5054 -2.5282 0.9568
-6.4122 -8.6336 -2.5275 0.9568
-6.0572 -8.8792 -2.5261 0.9568
-5.8761 -8.9965 -2.5254 0.9568
-5.3194 -9.3259 -2.5233 0.9568
-5.1296 -9.4280 -2.5225 0.9569
-4.4823 -8.6394 -2.5200 0.9606
-3.2218 -9.1643 -2.5152 0.9607
-3.0363 -9.2245 -2.5144 0.9607
-2.4735 -9.3823 -2.5123 0.9607
-2.2839 -9.4273 -2.5115 0.9607
-2.0936 -9.4685 -2.5108 0.9607
-1.5186 -9.5689 -2.5086 0.9608
-1.3258 -9.5946 -2.5078 0.9608
-1.1326 -9.6163 -2.5071 0.9608
-0.9390 -9.6343 -2.5063 0.9608
-0.7452 -9.6483 -2.5056 0.9608
-0.3571 -9.6646 -2.5041 0.9608
-0.1630 -9.6669 -2.5033 0.9608
0.6122 -9.6373 -2.5003 0.9609
0.9980 -9.5992 -2.4988 0.9609
1.1901 -9.5744 -2.4981 0.9609
1.5725 -9.5133 -2.4966 0.9609
1.9520 -9.4369 -2.4951 0.9610
2.1404 -9.3931 -2.4944 0.9610
2.3278 -9.3455 -2.4937 0.9610
2.5142 -9.2942 -2.4929 0.9610
2.8836 -9.1806 -2.4915 0.9610
3.0665 -9.1182 -2.4908 0.9610
3.4281 -8.9827 -2.4894 0.9611
3.6067 -8.9097 -2.4887 0.9611
3.7838 -8.8330 -2.4880 0.9611
4.1330 -8.6693 -2.4867 0.9611
4.3051 -8.5823 -2.4860 0.9611
4.4753 -8.4919 -2.4854 0.9611
4.6437 -8.3982 -2.4847 0.9611
5.2970 -7.9905 -2.4822 0.9612
5.6107 -7.7676 -2.4810 0.9612
5.7641 -7.6516 -2.4804 0.9612
6.2099 -7.2858 -2.4787 0.9612
6.3535 -7.1580 -2.4781 0.9612
6.6328 -6.8942 -2.4770 0.9612
6.7685 -6.7583 -2.4765 0.9612
6.9013 -6.6197 -2.4760 0.9613
7.0314 -6.4785 -2.4755 0.9613
7.2829 -6.1886 -2.4745 0.9613
7.4043 -6.0400 -2.4741 0.9613
7.5227 -5.8891 -2.4736 0.9613
7.6380 -5.7359 -2.4732 0.9613
7.7502 -5.5804 -2.4727 0.9613
7.9653 -5.2631 -2.4719 0.9613
8.1676 -4.9375 -2.4711 0.9613
8.3567 -4.6044 -2.4704 0.9613
8.4463 -4.4351 -2.4701 0.9613
8.7704 -3.7414 -2.4688 0.9614
8.8428 -3.5642 -2.4685 0.9614
9.0385 -3.0245 -2.4678 0.9614
9.0966 -2.8422 -2.4676 0.9614
9.1511 -2.6588 -2.4674 0.9614
9.2019 -2.4744 -2.4672 0.9614
9.2925 -2.1028 -2.4668 0.9614
9.3323 -1.9157 -2.4667 0.9614
9.4006 -1.5394 -2.4664 0.9614
9.4292 -1.3503 -2.4663 0.9614
9.4752 -0.9707 -2.4661 0.9614
9.4925 -0.7802 -2.4661 0.9614
9.5159 -0.3986 -2.4660 0.9614
9.5219 -0.2075 -2.4660 0.9614
9.5241 -0.0163 -2.4660 0.9614
9.5081 0.5570 -2.4660 0.9614
9.4785 0.9383 -2.4662 0.9614
9.4339 1.3181 -2.4663 0.9614
9.4060 1.5072 -2.4664 0.9614
9.3743 1.6958 -2.4666 0.9614
9.3389 1.8838 -2.4667 0.9614
9.2105 2.4430 -2.4672 0.9614
8.9880 3.1750 -2.4681 0.9614
8.9234 3.3552 -2.4684 0.9614
8.8552 3.5340 -2.4686 0.9614
8.7835 3.7115 -2.4689 0.9614
8.7083 3.8875 -2.4692 0.9614
8.3728 4.5760 -2.4705 0.9613
8.1848 4.9098 -2.4712 0.9613
8.0859 5.0739 -2.4716 0.9613
7.7697 5.5542 -2.4729 0.9613
7.6580 5.7100 -2.4733 0.9613
6.9244 6.5964 -2.4762 0.9613
6.6568 6.8720 -2.4772 0.9612
5.4526 7.1868 -2.3357 0.9634
5.1622 7.4034 -2.3369 0.9634
5.0138 7.5074 -2.3374 0.9634
4.5442 7.7808 -2.3330 0.9635
4.2304 7.9611 -2.3342 0.9634
3.9095 8.1288 -2.3355 0.9634
3.7466 8.2079 -2.3361 0.9634
2.9093 8.5539 -2.3393 0.9634
2.7378 8.6130 -2.3400 0.9633
2.3912 8.7209 -2.3413 0.9633
2.0404 8.8150 -2.3427 0.9633
1.6859 8.8950 -2.3441 0.9633
1.5075 8.9297 -2.3448 0.9633
1.3283 8.9608 -2.3455 0.9633
1.1485 8.9884 -2.3462 0.9633
0.7872 9.0326 -2.3476 0.9632
0.4243 9.0624 -2.3490 0.9632
-0.1220 9.0796 -2.3511 0.9632
-0.3044 9.0781 -2.3518 0.9632
-1.0328 9.0352 -2.3546 0.9631
-1.2144 9.0154 -2.3553 0.9631
-1.5762 8.9647 -2.3567 0.9631
-2.2929 8.8197 -2.3595 0.9630
-2.6466 8.7256 -2.3609 0.9630
-2.9964 8.6173 -2.3622 0.9630
-3.1697 8.5579 -2.3629 0.9630
-3.3418 8.4949 -2.3635 0.9630
-4.0169 8.2085 -2.3662 0.9629
-4.3455 8.0450 -2.3674 0.9629
-4.5073 7.9582 -2.3681 0.9629
-4.6673 7.8682 -2.3687 0.9629
-4.9961 7.7002 -2.3766 0.9628
-5.2137 7.6928 -2.4061 0.9623
-5.4372 7.6858 -2.4376 0.9618
-6.4025 7.3580 -2.5254 0.9605
-6.7022 7.1051 -2.5289 0.9604
-6.8449 6.9706 -2.5295 0.9604
-7.2566 6.5501 -2.5311 0.9604
-7.7647 5.9515 -2.5330 0.9604
-8.2227 5.3132 -2.5348 0.9604
-8.3291 5.1479 -2.5352 0.9603
-8.4321 4.9804 -2.5356 0.9603
-8.6277 4.6393 -2.5363 0.9603
-8.8949 4.1133 -2.5374 0.9603
-9.0550 3.7538 -2.5380 0.9603
-9.1296 3.5717 -2.5383 0.9603
-9.2675 3.2030 -2.5388 0.9603
-9.3308 3.0166 -2.5390 0.9603
-9.3904 2.8290 -2.5393 0.9603
-9.4460 2.6401 -2.5395 0.9603
-9.4979 2.4501 -2.5397 0.9603
-9.5899 2.0672 -2.5400 0.9603
-9.7268 1.2916 -2.5405 0.9603
-9.7511 1.0961 -2.5406 0.9603
-9.8001 0.5072 -2.5408 0.9603
-9.8084 0.3104 -2.5408 0.9603
-9.8127 0.1134 -2.5409 0.9603
-9.8093 -0.2805 -2.5408 0.9603
-9.7740 -0.8704 -2.5407 0.9603
-9.7305 -1.2619 -2.5405 0.9603
-9.6712 -1.6513 -2.5403 0.9603
-9.6355 -1.8450 -2.5401 0.9603
-9.5959 -2.0380 -2.5400 0.9603
-9.5051 -2.4212 -2.5396 0.9603
-9.3397 -2.9881 -2.5390 0.9603
-9.2769 -3.1747 -2.5387 0.9603
-9.0661 -3.7261 -2.5379 0.9603
-8.9884 -3.9069 -2.5376 0.9603
-8.6414 -4.6128 -2.5362 0.9603
-8.2384 -5.2878 -2.5347 0.9604
-8.1292 -5.4512 -2.5342 0.9604
-7.9011 -5.7711 -2.5333 0.9604
-7.7822 -5.9275 -2.5329 0.9604
-7.6603 -6.0813 -2.5324 0.9604
-7.5352 -6.2327 -2.5319 0.9604
-7.1421 -6.6709 -2.5304 0.9604
-7.0052 -6.8115 -2.5299 0.9604
-6.8656 -6.9493 -2.5293 0.9604
-6.7233 -7.0841 -2.5288 0.9604
-6.1277 -7.5936 -2.5264 0.9605
-5.9726 -7.7133 -2.5258 0.9605
-5.4935 -8.0528 -2.5240 0.9605
-5.3294 -8.1594 -2.5233 0.9605
-5.1632 -8.2627 -2.5227 0.9605
-4.9950 -8.3625 -2.5220 0.9606
-4.6529 -8.5517 -2.5207 0.9606
-4.0971 -7.8970 -2.5186 0.9637
-3.9368 -7.9757 -2.5179 0.9637
-3.7750 -8.0511 -2.5173 0.9637
-3.6117 -8.1232 -2.5167 0.9637
-3.4470 -8.1920 -2.5160 0.9637
-1.7397 -8.6919 -2.5094 0.9638
-1.3886 -8.7500 -2.5081 0.9638
-0.3266 -8.8389 -2.5039 0.9639
0.2058 -8.8353 -2.5019 0.9639
0.3830 -8.8270 -2.5012 0.9639
0.5600 -8.8151 -2.5005 0.9639
1.2639 -8.7322 -2.4978 0.9640
1.4385 -8.7027 -2.4971 0.9640
1.9582 -8.5934 -2.4951 0.9640
2.1297 -8.5501 -2.4944 0.9640
2.4699 -8.4533 -2.4931 0.9641
2.6384 -8.3998 -2.4925 0.9641
2.8058 -8.3430 -2.4918 0.9641
3.4624 -8.0828 -2.4893 0.9641
3.6231 -8.0097 -2.4887 0.9641
4.0956 -7.7714 -2.4868 0.9641
4.4021 -7.5971 -2.4857 0.9642
4.5527 -7.5054 -2.4851 0.9642
4.7013 -7.4108 -2.4845 0.9642
4.9928 -7.2129 -2.4834 0.9642
5.2759 -7.0036 -2.4823 0.9642
5.9450 -6.4329 -2.4797 0.9642
6.1960 -6.1867 -2.4787 0.9643
6.5535 -5.7993 -2.4774 0.9643
6.6674 -5.6656 -2.4769 0.9643
6.9928 -5.2514 -2.4757 0.9643
7.1957 -4.9649 -2.4749 0.9643
7.2928 -4.8187 -2.4745 0.9643
7.3870 -4.6706 -2.4742 0.9643
7.4782 -4.5208 -2.4738 0.9643
7.5664 -4.3692 -2.4735 0.9643
7.7337 -4.0609 -2.4728 0.9643
7.8126 -3.9042 -2.4725 0.9643
7.9613 -3.5867 -2.4719 0.9644
8.0308 -3.4259 -2.4717 0.9644
8.0971 -3.2636 -2.4714 0.9644
8.1602 -3.1001 -2.4712 0.9644
8.2766 -2.7696 -2.4707 0.9644
8.3298 -2.6027 -2.4705 0.9644
8.4263 -2.2659 -2.4702 0.9644
8.4695 -2.0961 -2.4700 0.9644
8.5459 -1.7543 -2.4697 0.9644
8.5789 -1.5823 -2.4696 0.9644
8.6576 -1.0629 -2.4693 0.9644
8.6928 -0.7145 -2.4692 0.9644
8.7142 -0.3650 -2.4691 0.9644
8.7197 -0.1900 -2.4691 0.9644
8.6800 0.8592 -2.4692 0.9644
8.6134 1.3802 -2.4695 0.9644
8.5844 1.5529 -2.4696 0.9644
8.5520 1.7250 -2.4698 0.9644
8.5161 1.8965 -2.4699 0.9644
8.4768 2.0672 -2.4701 0.9644
8.4342 2.2371 -2.4702 0.9644
8.2862 2.7413 -2.4708 0.9644
8.2303 2.9074 -2.4710 0.9644
8.1085 3.2360 -2.4715 0.9644
7.5816 4.3434 -2.4736 0.9643
7.4939 4.4954 -2.4739 0.9643
7.3096 4.7940 -2.4746 0.9643
6.7979 5.5067 -2.4766 0.9643
6.6871 5.6431 -2.4771 0.9643
6.5737 5.7772 -2.4775 0.9643
6.4576 5.9091 -2.4779 0.9643
6.3388 6.0386 -2.4784 0.9643
6.2175 6.1658 -2.4789 0.9643
6.0937 6.2906 -2.4794 0.9642
5.8386 6.5328 -2.4804 0.9642
5.7074 6.6500 -2.4809 0.9642
5.5740 6.7647 -2.4814 0.9642
5.4240 6.8587 -2.4754 0.9643
5.2658 6.9406 -2.4663 0.9644
5.1179 7.0346 -2.4627 0.9645
4.9594 7.1125 -2.4547 0.9646
4.6605 7.2911 -2.4497 0.9647
4.4988 7.3597 -2.4419 0.9648
4.3368 7.4257 -2.4344 0.9649
4.1746 7.4892 -2.4273 0.9650
4.0120 7.5501 -2.4204 0.9651
3.6689 7.6284 -2.3963 0.9654
3.4953 7.6574 -2.3829 0.9656
3.3231 7.6848 -2.3702 0.9658
2.9823 7.7352 -2.3469 0.9661
2.8178 7.7695 -2.3397 0.9662
2.6619 7.8266 -2.3403 0.9662
2.5049 7.8805 -2.3409 0.9662
2.0277 8.0233 -2.3427 0.9662
1.8667 8.0645 -2.3434 0.9662
1.7049 8.1025 -2.3440 0.9662
1.5423 8.1373 -2.3446 0.9662
1.3790 8.1688 -2.3453 0.9661
1.0506 8.2221 -2.3465 0.9661
0.5542 8.2772 -2.3485 0.9661
0.0551 8.3023 -2.3504 0.9661
-0.9445 8.2624 -2.3543 0.9660
-1.2761 8.2223 -2.3555 0.9660
-1.4413 8.1973 -2.3562 0.9660
-2.0964 8.0639 -2.3587 0.9660
-2.2585 8.0223 -2.3593 0.9659
-2.4197 7.9775 -2.3600 0.9659
-2.5800 7.9294 -2.3606 0.9659
-2.7394 7.8781 -2.3612 0.9659
-2.8977 7.8235 -2.3618 0.9659
-3.0550 7.7658 -2.3624 0.9659
-3.2152 7.7147 -2.3660 0.9659
-3.3749 7.6611 -2.3699 0.9658
-3.5801 7.7038 -2.4049 0.9653
-3.7670 7.6979 -2.4261 0.9650
-3.9573 7.6916 -2.4487 0.9647
-4.1516 7.6861 -2.4730 0.9643
-4.5299 7.6366 -2.5136 0.9638
-4.6861 7.5502 -2.5156 0.9637
-4.8408 7.4609 -2.5177 0.9637
-5.1452 7.2730 -2.5221 0.9636
-5.8564 6.7304 -2.5257 0.9636
-5.9916 6.6128 -2.5262 0.9636
-6.2547 6.3696 -2.5272 0.9636
-6.6305 5.9850 -2.5286 0.9635
-6.8679 5.7161 -2.5296 0.9635
-7.4123 5.0032 -2.5316 0.9635
-7.5124 4.8542 -2.5320 0.9635
-7.7942 4.3951 -2.5331 0.9635
-7.8819 4.2383 -2.5335 0.9635
-7.9665 4.0797 -2.5338 0.9635
-8.1258 3.7576 -2.5344 0.9635
-8.5235 2.7556 -2.5359 0.9634
-8.6286 2.4116 -2.5363 0.9634
-8.7196 2.0636 -2.5367 0.9634
-8.7598 1.8883 -2.5368 0.9634
-8.8295 1.5353 -2.5371 0.9634
-8.8589 1.3578 -2.5372 0.9634
-8.8847 1.1797 -2.5373 0.9634
-8.9069 1.0012 -2.5374 0.9634
-8.9255 0.8222 -2.5374 0.9634
-8.9516 0.4633 -2.5375 0.9634
-8.9631 0.1036 -2.5376 0.9634
-8.9600 -0.2562 -2.5375 0.9634
-8.9529 -0.4361 -2.5375 0.9634
-8.9098 -0.9741 -2.5373 0.9634
-8.8882 -1.1527 -2.5372 0.9634
-8.8629 -1.3308 -2.5371 0.9634
-8.7257 -2.0370 -2.5366 0.9634
-8.5316 -2.7296 -2.5358 0.9634
-8.2820 -3.4038 -2.5349 0.9635
-8.2111 -3.5690 -2.5346 0.9635
-8.0593 -3.8948 -2.5340 0.9635
-7.8072 -4.3711 -2.5330 0.9635
-7.7168 -4.5263 -2.5326 0.9635
-7.6233 -4.6797 -2.5323 0.9635
-7.3245 -5.1277 -2.5311 0.9635
-7.2189 -5.2728 -2.5307 0.9635
-6.8849 -5.6948 -2.5294 0.9635
-6.7680 -5.8308 -2.5290 0.9635
-6.4011 -6.2241 -2.5275 0.9636
-6.2736 -6.3501 -2.5270 0.9636
-6.1437 -6.4734 -2.5265 0.9636
-6.0113 -6.5941 -2.5260 0.9636
-5.8765 -6.7121 -2.5255 0.9636
-5.7393 -6.8272 -2.5249 0.9636
-5.4583 -7.0491 -2.5239 0.9636
-5.1687 -7.2592 -2.5227 0.9636
-5.0208 -7.3598 -2.5222 0.9636
-4.8709 -7.4574 -2.5216 0.9636
-4.7191 -7.5519 -2.5210 0.9637
-4.5655 -7.6433 -2.5204 0.9637
-3.7691 -7.2647 -2.5173 0.9663
-3.6217 -7.3372 -2.5167 0.9663
-3.4729 -7.4068 -2.5162 0.9663
-3.3227 -7.4733 -2.5156 0.9664
-3.0187 -7.5971 -2.5144 0.9664
-2.7100 -7.7084 -2.5132 0.9664
-2.5541 -7.7594 -2.5126 0.9664
-2.2395 -7.8519 -2.5114 0.9664
-1.6008 -7.9983 -2.5089 0.9664
-1.4396 -8.0268 -2.5083 0.9664
-0.9532 -8.0928 -2.5064 0.9665
-0.7903 -8.1083 -2.5058 0.9665
-0.3006 -8.1350 -2.5039 0.9665
-0.1372 -8.1373 -2.5032 0.9665
0.3525 -8.1247 -2.5013 0.9665
0.5154 -8.1139 -2.5007 0.9665
0.8403 -8.0826 -2.4994 0.9666
1.1635 -8.0384 -2.4982 0.9666
1.6440 -7.9478 -2.4963 0.9666
1.8027 -7.9113 -2.4957 0.9666
2.1178 -7.8287 -2.4945 0.9666
2.4292 -7.7337 -2.4933 0.9666
2.7363 -7.6263 -2.4921 0.9667
2.8882 -7.5681 -2.4915 0.9667
3.0388 -7.5068 -2.4909 0.9667
3.1882 -7.4426 -2.4904 0.9667
3.3361 -7.3754 -2.4898 0.9667
3.4827 -7.3053 -2.4892 0.9667
3.6279 -7.2322 -2.4887 0.9667
3.7715 -7.1564 -2.4881 0.9667
3.9135 -7.0777 -2.4876 0.9667
4.0539 -6.9961 -2.4870 0.9667
4.3296 -6.8249 -2.4860 0.9667
4.5982 -6.6428 -2.4849 0.9668
4.8591 -6.4503 -2.4839 0.9668
5.2355 -6.1425 -2.4825 0.9668
5.3567 -6.0350 -2.4820 0.9668
5.5926 -5.8130 -2.4811 0.9668
5.7071 -5.6985 -2.4806 0.9668
5.9292 -5.4630 -2.4798 0.9668
6.1417 -5.2189 -2.4790 0.9668
6.3443 -4.9666 -2.4782 0.9668
6.4417 -4.8375 -2.4778 0.9668
6.6288 -4.5737 -2.4771 0.9669
6.7183 -4.4391 -2.4767 0.9669
6.8892 -4.1648 -2.4761 0.9669
7.1977 -3.5970 -2.4749 0.9669
7.2676 -3.4514 -2.4746 0.9669
7.4600 -3.0068 -2.4739 0.9669
7.5182 -2.8562 -2.4737 0.9669
7.6746 -2.3979 -2.4731 0.9669
7.7206 -2.2432 -2.4729 0.9669
7.9317 -1.2988 -2.4721 0.9669
7.9769 -0.9793 -2.4719 0.9669
7.9947 -0.8190 -2.4719 0.9669
8.0094 -0.6583 -2.4718 0.9669
8.0291 -0.3363 -2.4717 0.9669
8.0348 0.1476 -2.4717 0.9669
8.0302 0.3088 -2.4718 0.9669
7.9975 0.7917 -2.4719 0.9669
7.9598 1.1121 -2.4720 0.9669
7.9094 1.4308 -2.4722 0.9669
7.8794 1.5894 -2.4724 0.9669
7.8102 1.9046 -2.4726 0.9669
7.7708 2.0611 -2.4728 0.9669
7.6829 2.3717 -2.4731 0.9669
7.5827 2.6786 -2.4735 0.9669
7.5281 2.8305 -2.4737 0.9669
7.4704 2.9814 -2.4740 0.9669
7.4098 3.1310 -2.4742 0.9669
7.3462 3.2795 -2.4745 0.9669
7.2796 3.4266 -2.4747 0.9669
7.2102 3.5725 -2.4750 0.9669
7.1378 3.7169 -2.4753 0.9669
6.7337 4.4163 -2.4769 0.9669
6.6447 4.5512 -2.4772 0.9669
6.5529 4.6843 -2.4776 0.9669
6.3615 4.9451 -2.4783 0.9668
6.2619 5.0726 -2.4787 0.9668
6.1598 5.1981 -2.4791 0.9668
6.0552 5.3216 -2.4795 0.9668
5.9482 5.4430 -2.4799 0.9668
5.4963 5.9068 -2.4817 0.9668
5.2568 6.1249 -2.4826 0.9668
4.6211 6.6275 -2.4851 0.9668
4.0608 6.9531 -2.4766 0.9669
3.9159 7.0251 -2.4738 0.9669
3.6230 7.1613 -2.4685 0.9670
3.4713 7.2175 -2.4634 0.9670
3.3180 7.2689 -2.4576 0.9671
2.8565 7.4087 -2.4423 0.9673
2.7021 7.4507 -2.4377 0.9674
2.3927 7.5276 -2.4295 0.9675
2.2377 7.5626 -2.4258 0.9675
1.9225 7.6074 -2.4134 0.9677
1.7644 7.6227 -2.4066 0.9678
1.4498 7.6496 -2.3947 0.9679
1.2933 7.6611 -2.3897 0.9680
0.8259 7.6882 -2.3783 0.9682
0.6706 7.6948 -2.3757 0.9682
-0.1036 7.7096 -2.3715 0.9682
-0.4134 7.7071 -2.3739 0.9682
-0.5686 7.7040 -2.3760 0.9682
-0.7239 7.6998 -2.3787 0.9682
-0.8795 7.6943 -2.3820 0.9681
-1.0355 7.6876 -2.3859 0.9681
-1.1919 7.6797 -2.3904 0.9680
-1.5059 7.6601 -2.4012 0.9679
-1.6638 7.6484 -2.4075 0.9678
-2.3018 7.5887 -2.4391 0.9674
-2.4053 7.3924 -2.3911 0.9680
-2.8181 7.1637 -2.3678 0.9683
-3.1148 7.0707 -2.3765 0.9682
-3.2817 7.0619 -2.3952 0.9679
-3.4512 7.0525 -2.4150 0.9677
-3.8907 7.2031 -2.5181 0.9663
-4.3201 6.9604 -2.5197 0.9663
-4.4599 6.8738 -2.5202 0.9663
-4.5979 6.7843 -2.5208 0.9663
-5.2599 6.2958 -2.5233 0.9663
-5.3863 6.1901 -2.5238 0.9662
-5.5105 6.0819 -2.5243 0.9662
-5.8698 5.7423 -2.5257 0.9662
-5.9850 5.6243 -2.5261 0.9662
-6.0977 5.5040 -2.5266 0.9662
-6.2080 5.3814 -2.5270 0.9662
-6.3158 5.2566 -2.5274 0.9662
-6.6239 4.8692 -2.5286 0.9662
-6.7213 4.7359 -2.5290 0.9662
-6.9079 4.4636 -2.5297 0.9662
-6.9971 4.3246 -2.5300 0.9662
-7.3251 3.7513 -2.5313 0.9661
-7.4714 3.4550 -2.5318 0.9661
-7.7274 2.8456 -2.5328 0.9661
-7.7837 2.6902 -2.5330 0.9661
-7.8866 2.3759 -2.5334 0.9661
-8.0169 1.8973 -2.5339 0.9661
-8.0874 1.5741 -2.5342 0.9661
-8.1178 1.4115 -2.5343 0.9661
-8.1448 1.2484 -2.5344 0.9661
-8.2196 0.5911 -2.5347 0.9661
-8.2299 0.4259 -2.5347 0.9661
-8.2369 0.2607 -2.5348 0.9661
-8.2405 0.0953 -2.5348 0.9661
-8.2407 -0.0702 -2.5348 0.9661
-8.2311 -0.4009 -2.5347 0.9661
-8.1915 -0.8955 -2.5346 0.9661
-8.1717 -1.0598 -2.5345 0.9661
-8.1219 -1.3868 -2.5343 0.9661
-8.0225 -1.8729 -2.5339 0.9661
-7.8936 -2.3519 -2.5334 0.9661
-7.7916 -2.6664 -2.5330 0.9661
-7.6769 -2.9765 -2.5325 0.9661
-7.5498 -3.2816 -2.5320 0.9661
-7.4104 -3.5812 -2.5315 0.9661
-7.3362 -3.7288 -2.5312 0.9661
-7.2590 -3.8749 -2.5309 0.9662
-7.0958 -4.1621 -2.5303 0.9662
-7.0099 -4.3031 -2.5299 0.9662
-6.5386 -4.9803 -2.5281 0.9662
-6.1141 -5.4851 -2.5264 0.9662
-5.8869 -5.7241 -2.5255 0.9662
-5.7698 -5.8401 -2.5251 0.9662
-5.4048 -6.1733 -2.5237 0.9662
-5.2787 -6.2793 -2.5232 0.9663
-4.7542 -6.6771 -2.5211 0.9663
-4.6182 -6.7698 -2.5206 0.9663
-4.0568 -7.1123 -2.5184 0.9663
-3.3498 -6.7864 -2.5157 0.9686
-2.9334 -6.9713 -2.5141 0.9686
-2.7922 -7.0272 -2.5135 0.9686
-2.6500 -7.0803 -2.5130 0.9686
-2.5068 -7.1305 -2.5124 0.9686
-0.7312 -7.5021 -2.5055 0.9687
-0.2781 -7.5272 -2.5038 0.9687
-0.1270 -7.5295 -2.5032 0.9688
0.0242 -7.5288 -2.5026 0.9688
0.6275 -7.4956 -2.5003 0.9688
1.2255 -7.4142 -2.4980 0.9688
1.3738 -7.3864 -2.4974 0.9688
2.1047 -7.2034 -2.4946 0.9689
2.3911 -7.1100 -2.4935 0.9689
2.5328 -7.0590 -2.4929 0.9689
2.6734 -7.0052 -2.4924 0.9689
2.8129 -6.9486 -2.4918 0.9689
2.9511 -6.8892 -2.4913 0.9689
3.0882 -6.8272 -2.4908 0.9689
3.3583 -6.6949 -2.4897 0.9689
3.4913 -6.6248 -2.4892 0.9689
3.6229 -6.5520 -2.4887 0.9689
3.8814 -6.3987 -2.4877 0.9689
4.0083 -6.3183 -2.4872 0.9690
4.1335 -6.2354 -2.4867 0.9690
4.2570 -6.1499 -2.4862 0.9690
4.6169 -5.8793 -2.4849 0.9690
4.7331 -5.7844 -2.4844 0.9690
4.8474 -5.6872 -2.4840 0.9690
5.0700 -5.4861 -2.4831 0.9690
5.2844 -5.2764 -2.4823 0.9690
5.3884 -5.1685 -2.4819 0.9690
5.4902 -5.0585 -2.4815 0.9690
5.5897 -4.9465 -2.4811 0.9690
5.8747 -4.5990 -2.4800 0.9690
5.9650 -4.4796 -2.4797 0.9690
6.2214 -4.1108 -2.4787 0.9691
6.3798 -3.8568 -2.4781 0.9691
6.5280 -3.5967 -2.4775 0.9691
6.6656 -3.3311 -2.4770 0.9691
6.7927 -3.0603 -2.4765 0.9691
6.9088 -2.7846 -2.4760 0.9691
7.0138 -2.5047 -2.4756 0.9691
7.1902 -1.9335 -2.4750 0.9691
7.2612 -1.6431 -2.4747 0.9691
7.2924 -1.4970 -2.4746 0.9691
7.3460 -1.2029 -2.4744 0.9691
7.3879 -0.9070 -2.4742 0.9691
7.4044 -0.7585 -2.4742 0.9691
7.4363 -0.3115 -2.4740 0.9691
7.4428 -0.0127 -2.4740 0.9691
7.4416 0.1367 -2.4740 0.9691
7.4374 0.2860 -2.4741 0.9691
7.4302 0.4353 -2.4741 0.9691
7.4070 0.7332 -2.4742 0.9691
7.3910 0.8818 -2.4742 0.9691
7.3502 1.1778 -2.4744 0.9691
7.2669 1.6183 -2.4747 0.9691
7.2333 1.7639 -2.4749 0.9691
7.1154 2.1965 -2.4753 0.9691
7.0704 2.3391 -2.4755 0.9691
7.0225 2.4807 -2.4757 0.9691
6.8622 2.8996 -2.4763 0.9691
6.8033 3.0371 -2.4766 0.9691
6.5404 3.5745 -2.4776 0.9691
6.4681 3.7055 -2.4779 0.9691
6.3932 3.8351 -2.4782 0.9691
6.3157 3.9631 -2.4785 0.9691
6.2356 4.0896 -2.4788 0.9691
6.1531 4.2145 -2.4791 0.9691
6.0681 4.3377 -2.4794 0.9690
5.7038 4.8133 -2.4808 0.9690
5.6069 4.9276 -2.4812 0.9690
5.5077 5.0399 -2.4816 0.9690
5.4063 5.1503 -2.4820 0.9690
5.1969 5.3649 -2.4828 0.9690
5.0890 5.4691 -2.4832 0.9690
4.9791 5.5711 -2.4837 0.9690
4.7531 5.7685 -2.4845 0.9690
4.6372 5.8638 -2.4850 0.9690
4.0301 6.3049 -2.4874 0.9690
3.9035 6.3858 -2.4879 0.9689
3.2460 6.7492 -2.4894 0.9689
2.9674 6.8622 -2.4852 0.9690
2.8268 6.9150 -2.4832 0.9690
2.6854 6.9652 -2.4814 0.9690
2.4005 7.0580 -2.4781 0.9691
1.9681 7.1779 -2.4741 0.9691
1.8214 7.2072 -2.4710 0.9692
1.3801 7.2818 -2.4636 0.9692
1.0851 7.3205 -2.4600 0.9693
0.9374 7.3367 -2.4586 0.9693
0.6417 7.3624 -2.4566 0.9693
0.3455 7.3794 -2.4556 0.9693
0.1973 7.3846 -2.4556 0.9693
-0.0993 7.3886 -2.4562 0.9693
-0.3961 7.3839 -2.4580 0.9693
-0.5445 7.3782 -2.4592 0.9693
-0.8414 7.3604 -2.4626 0.9693
-1.1382 7.3338 -2.4670 0.9692
-1.7312 7.2542 -2.4791 0.9691
-1.8793 7.2288 -2.4828 0.9690
-2.0273 7.2011 -2.4867 0.9690
-2.3200 7.1304 -2.4925 0.9689
-2.4589 7.0715 -2.4886 0.9689
-2.6042 7.0310 -2.4923 0.9689
-2.7478 6.9850 -2.4951 0.9689
-2.8960 6.9488 -2.5024 0.9688
-3.0440 6.9100 -2.5099 0.9687
-3.1890 6.8623 -2.5153 0.9686
-3.3268 6.7983 -2.5159 0.9686
-3.4633 6.7316 -2.5164 0.9686
-3.5985 6.6621 -2.5169 0.9686
-3.7323 6.5898 -2.5174 0.9686
-3.8646 6.5149 -2.5179 0.9686
-4.2522 6.2742 -2.5194 0.9686
-4.3782 6.1888 -2.5199 0.9686
-4.5024 6.1008 -2.5204 0.9685
-4.6248 6.0103 -2.5209 0.9685
-4.8641 5.8220 -2.5218 0.9685
-4.9809 5.7242 -2.5222 0.9685
-5.0957 5.6240 -2.5227 0.9685
-5.2085 5.5216 -2.5231 0.9685
-5.4277 5.3098 -2.5240 0.9685
-5.6383 5.0893 -2.5248 0.9685
-5.7402 4.9759 -2.5252 0.9685
-5.8398 4.8604 -2.5256 0.9685
-5.9371 4.7429 -2.5259 0.9685
-6.5490 3.8682 -2.5283 0.9684
-6.7005 3.6030 -2.5289 0.9684
-6.7722 3.4681 -2.5291 0.9684
-6.9074 3.1942 -2.5297 0.9684
-6.9708 3.0552 -2.5299 0.9684
-7.0891 2.7734 -2.5304 0.9684
-7.1439 2.6307 -2.5306 0.9684
-7.1958 2.4870 -2.5308 0.9684
-7.2909 2.1965 -2.5311 0.9684
-7.3340 2.0498 -2.5313 0.9684
-7.4112 1.7540 -2.5316 0.9684
-7.5044 1.3049 -2.5319 0.9684
-7.5701 0.8509 -2.5322 0.9684
-7.5858 0.6988 -2.5322 0.9684
-7.6080 0.3938 -2.5323 0.9684
-7.6178 0.0881 -2.5324 0.9684
-7.6180 -0.0649 -2.5324 0.9684
-7.6151 -0.2178 -2.5323 0.9684
-7.5878 -0.6757 -2.5322 0.9684
-7.5542 -0.9797 -2.5321 0.9684
-7.5328 -1.1311 -2.5320 0.9684
-7.5082 -1.2820 -2.5319 0.9684
-7.4807 -1.4324 -2.5318 0.9684
-7.4501 -1.5822 -2.5317 0.9684
-7.4164 -1.7314 -2.5315 0.9684
-7.3797 -1.8798 -2.5314 0.9684
-7.2518 -2.3201 -2.5309 0.9684
-7.2032 -2.4650 -2.5307 0.9684
-7.0400 -2.8934 -2.5301 0.9684
-6.9798 -3.0338 -2.5298 0.9684
-6.9169 -3.1730 -2.5296 0.9684
-6.6372 -3.7160 -2.5285 0.9684
-6.5604 -3.8481 -2.5282 0.9684
-6.4811 -3.9785 -2.5279 0.9685
-6.3991 -4.1073 -2.5276 0.9685
-6.3145 -4.2343 -2.5272 0.9685
-6.1378 -4.4832 -2.5265 0.9685
-6.0457 -4.6048 -2.5262 0.9685
-5.9512 -4.7246 -2.5258 0.9685
-5.7550 -4.9581 -2.5250 0.9685
-5.6534 -5.0719 -2.5246 0.9685
-5.4435 -5.2930 -2.5238 0.9685
-5.2249 -5.5054 -2.5230 0.9685
-5.1125 -5.6082 -2.5225 0.9685
-4.7631 -5.9025 -2.5212 0.9685
-4.6428 -5.9959 -2.5207 0.9685
-4.5206 -6.0867 -2.5202 0.9685
-4.3967 -6.1750 -2.5198 0.9686
-4.1437 -6.3441 -2.5188 0.9686
-3.6185 -6.6506 -2.5167 0.9686
-2.8558 -6.4232 -2.5138 0.9706
-2.5947 -6.5300 -2.5128 0.9706
-2.4626 -6.5794 -2.5123 0.9706
-2.3295 -6.6262 -2.5117 0.9706
-2.0608 -6.7116 -2.5107 0.9706
-1.9253 -6.7502 -2.5102 0.9706
-1.7890 -6.7860 -2.5097 0.9706
-1.5145 -6.8495 -2.5086 0.9706
-1.3764 -6.8770 -2.5081 0.9706
-1.0988 -6.9238 -2.5070 0.9707
-0.9594 -6.9429 -2.5064 0.9707
-0.8196 -6.9593 -2.5059 0.9707
-0.2585 -6.9965 -2.5037 0.9707
-0.1180 -6.9988 -2.5032 0.9707
0.0225 -6.9982 -2.5026 0.9707
0.4434 -6.9796 -2.5010 0.9707
0.5833 -6.9678 -2.5005 0.9707
0.7229 -6.9532 -2.4999 0.9707
1.0010 -6.9156 -2.4988 0.9708
1.1393 -6.8926 -2.4983 0.9708
1.5512 -6.8072 -2.4967 0.9708
1.6871 -6.7733 -2.4962 0.9708
1.9568 -6.6973 -2.4951 0.9708
2.0904 -6.6553 -2.4946 0.9708
2.3549 -6.5633 -2.4936 0.9708
2.4857 -6.5134 -2.4931 0.9708
2.6154 -6.4609 -2.4926 0.9708
2.8715 -6.3482 -2.4916 0.9708
2.9978 -6.2881 -2.4911 0.9708
3.3689 -6.0927 -2.4897 0.9709
3.4899 -6.0227 -2.4892 0.9709
3.6094 -5.9503 -2.4888 0.9709
3.8439 -5.7986 -2.4879 0.9709
3.9588 -5.7192 -2.4874 0.9709
4.0721 -5.6376 -2.4870 0.9709
4.1838 -5.5538 -2.4865 0.9709
4.2937 -5.4677 -2.4861 0.9709
4.4018 -5.3795 -2.4857 0.9709
4.5082 -5.2892 -2.4853 0.9709
4.6127 -5.1968 -2.4849 0.9709
4.7153 -5.1023 -2.4845 0.9709
4.8161 -5.0059 -2.4841 0.9709
5.1063 -4.7048 -2.4830 0.9709
5.2896 -4.4948 -2.4823 0.9709
5.7869 -3.8237 -2.4804 0.9710
6.0045 -3.4672 -2.4795 0.9710
6.0723 -3.3457 -2.4793 0.9710
6.1376 -3.2228 -2.4790 0.9710
6.2608 -2.9732 -2.4785 0.9710
6.3186 -2.8467 -2.4783 0.9710
6.3739 -2.7190 -2.4781 0.9710
6.4267 -2.5904 -2.4779 0.9710
6.4769 -2.4606 -2.4777 0.9710
6.5246 -2.3300 -2.4775 0.9710
6.5696 -2.1983 -2.4774 0.9710
6.6119 -2.0659 -2.4772 0.9710
6.6887 -1.7986 -2.4769 0.9710
6.7549 -1.5285 -2.4767 0.9710
6.8102 -1.2561 -2.4765 0.9710
6.8338 -1.1190 -2.4764 0.9710
6.9008 -0.5672 -2.4761 0.9710
6.9107 -0.4286 -2.4761 0.9710
6.9179 -0.2898 -2.4761 0.9710
6.9239 -0.0118 -2.4760 0.9710
6.9227 0.1272 -2.4760 0.9710
6.9188 0.2661 -2.4761 0.9710
6.9122 0.4049 -2.4761 0.9710
6.9028 0.5436 -2.4761 0.9710
6.8757 0.8203 -2.4762 0.9710
6.8145 1.2328 -2.4765 0.9710
6.7289 1.6409 -2.4768 0.9710
6.6584 1.9099 -2.4771 0.9710
6.5772 2.1759 -2.4774 0.9710
6.5326 2.3077 -2.4776 0.9710
6.4357 2.5684 -2.4780 0.9710
6.3285 2.8252 -2.4784 0.9710
6.2711 2.9519 -2.4786 0.9710
6.0165 3.4468 -2.4796 0.9710
5.9468 3.5673 -2.4799 0.9710
5.8001 3.8040 -2.4805 0.9710
5.4791 4.2591 -2.4817 0.9709
5.3051 4.4768 -2.4824 0.9709
5.1226 4.6875 -2.4831 0.9709
5.0282 4.7901 -2.4835 0.9709
4.9318 4.8908 -2.4838 0.9709
4.6307 5.1812 -2.4850 0.9709
4.4204 5.3647 -2.4858 0.9709
4.3126 5.4533 -2.4862 0.9709
4.2030 5.5397 -2.4867 0.9709
4.0916 5.6239 -2.4871 0.9709
3.9786 5.7060 -2.4875 0.9709
3.7477 5.8632 -2.4884 0.9709
3.6299 5.9383 -2.4889 0.9709
3.2678 6.1495 -2.4903 0.9709
3.0195 6.2781 -2.4913 0.9708
2.3775 6.5557 -2.4938 0.9708
2.2459 6.6034 -2.4943 0.9708
2.1133 6.6485 -2.4948 0.9708
1.9798 6.6910 -2.4953 0.9708
1.7093 6.7635 -2.4947 0.9708
1.5726 6.7940 -2.4938 0.9708
1.2978 6.8476 -2.4923 0.9708
0.8829 6.9096 -2.4910 0.9708
0.6047 6.9387 -2.4907 0.9708
0.4653 6.9495 -2.4907 0.9708
0.1860 6.9637 -2.4912 0.9708
-0.2336 6.9665 -2.4927 0.9708
-0.3735 6.9624 -2.4934 0.9708
-0.5133 6.9559 -2.4942 0.9708
-0.6531 6.9469 -2.4952 0.9708
-0.7928 6.9354 -2.4963 0.9708
-0.9323 6.9214 -2.4975 0.9708
-1.3495 6.8646 -2.5018 0.9707
-1.6262 6.8142 -2.5052 0.9707
-2.1729 6.6781 -2.5114 0.9706
-2.3070 6.6345 -2.5119 0.9706
-2.5725 6.5393 -2.5129 0.9706
-2.7038 6.4876 -2.5134 0.9706
-3.2180 6.2548 -2.5154 0.9706
-3.4678 6.1229 -2.5164 0.9705
-3.5907 6.0532 -2.5169 0.9705
-3.8322 5.9064 -2.5178 0.9705
-3.9507 5.8293 -2.5183 0.9705
-4.0677 5.7499 -2.5187 0.9705
-4.4087 5.4975 -2.5200 0.9705
-4.6273 5.3179 -2.5209 0.9705
-4.9414 5.0321 -2.5221 0.9705
-5.0422 4.9327 -2.5225 0.9705
-5.1410 4.8312 -2.5228 0.9705
-5.2377 4.7278 -2.5232 0.9705
-5.3323 4.6223 -2.5236 0.9705
-5.6890 4.1820 -2.5250 0.9705
-5.7725 4.0674 -2.5253 0.9704
-5.8537 3.9512 -2.5256 0.9704
-6.0091 3.7140 -2.5262 0.9704
-6.0831 3.5930 -2.5265 0.9704
-6.2237 3.3466 -2.5270 0.9704
-6.3543 3.0947 -2.5275 0.9704
-6.4158 2.9668 -2.5278 0.9704
-6.5308 2.7074 -2.5282 0.9704
-6.5844 2.5759 -2.5284 0.9704
-6.8117 1.9038 -2.5293 0.9704
-6.8489 1.7668 -2.5294 0.9704
-6.8834 1.6291 -2.5295 0.9704
-6.9150 1.4906 -2.5297 0.9704
-6.9698 1.2119 -2.5299 0.9704
-7.0308 0.7903 -2.5301 0.9704
-7.0571 0.5075 -2.5302 0.9704
-7.0719 0.2238 -2.5302 0.9704
-7.0750 0.0818 -2.5303 0.9704
-7.0726 -0.2023 -2.5302 0.9704
-7.0670 -0.3442 -2.5302 0.9704
-7.0331 -0.7689 -2.5301 0.9704
-6.9734 -1.1907 -2.5298 0.9704
-6.9478 -1.3304 -2.5297 0.9704
-6.9194 -1.4695 -2.5296 0.9704
-6.8542 -1.7459 -2.5294 0.9704
-6.8173 -1.8830 -2.5292 0.9704
-6.7777 -2.0194 -2.5291 0.9704
-6.6903 -2.2895 -2.5287 0.9704
-6.6425 -2.4232 -2.5285 0.9704
-6.5388 -2.6874 -2.5281 0.9704
-6.4830 -2.8179 -2.5279 0.9704
-6.1650 -3.4517 -2.5267 0.9704
-6.0201 -3.6955 -2.5261 0.9704
-5.9440 -3.8152 -2.5258 0.9704
-5.8655 -3.9332 -2.5255 0.9704
-5.7846 -4.0497 -2.5252 0.9704
-5.6160 -4.2775 -2.5245 0.9705
-5.5282 -4.3888 -2.5242 0.9705
-5.3461 -4.6058 -2.5235 0.9705
-5.0569 -4.9171 -2.5223 0.9705
-4.5351 -5.3947 -2.5203 0.9705
-4.2000 -5.6550 -2.5190 0.9705
-4.0849 -5.7371 -2.5186 0.9705
-3.8499 -5.8943 -2.5176 0.9705
-3.6089 -6.0419 -2.5167 0.9705
-3.1386 -5.7634 -2.5149 0.9723
-3.0217 -5.8242 -2.5144 0.9723
-2.9037 -5.8826 -2.5140 0.9723
-2.5429 -6.0433 -2.5126 0.9723
-2.2974 -6.1382 -2.5116 0.9723
-2.1733 -6.1819 -2.5111 0.9723
-2.0484 -6.2231 -2.5107 0.9723
-1.9227 -6.2617 -2.5102 0.9723
-1.6691 -6.3314 -2.5092 0.9723
-1.5414 -6.3623 -2.5087 0.9723
-1.4131 -6.3907 -2.5082 0.9724
-0.8952 -6.4783 -2.5062 0.9724
-0.6342 -6.5064 -2.5052 0.9724
0.0210 -6.5306 -2.5026 0.9724
0.4138 -6.5135 -2.5011 0.9724
0.6746 -6.4890 -2.5001 0.9724
0.8046 -6.4729 -2.4996 0.9724
0.9342 -6.4541 -2.4991 0.9725
1.8264 -6.2510 -2.4957 0.9725
2.0751 -6.1703 -2.4947 0.9725
2.4413 -6.0308 -2.4933 0.9725
2.5614 -5.9794 -2.4928 0.9725
2.9151 -5.8112 -2.4915 0.9725
3.2578 -5.6223 -2.4901 0.9725
3.3694 -5.5548 -2.4897 0.9726
3.4797 -5.4851 -2.4893 0.9726
3.5885 -5.4132 -2.4889 0.9726
3.9059 -5.1849 -2.4876 0.9726
4.1095 -5.0223 -2.4868 0.9726
4.2089 -4.9380 -2.4865 0.9726
4.4024 -4.7637 -2.4857 0.9726
4.6791 -4.4881 -2.4846 0.9726
4.7676 -4.3927 -2.4843 0.9726
4.9388 -4.1967 -2.4836 0.9726
5.0214 -4.0962 -2.4833 0.9726
5.1805 -3.8903 -2.4827 0.9726
5.2569 -3.7851 -2.4824 0.9726
5.7898 -2.8934 -2.4804 0.9727
5.8462 -2.7763 -2.4802 0.9727
5.9519 -2.5390 -2.4798 0.9727
6.0012 -2.4188 -2.4796 0.9727
6.0481 -2.2977 -2.4794 0.9727
6.0926 -2.1757 -2.4792 0.9727
6.1347 -2.0528 -2.4791 0.9727
6.1743 -1.9291 -2.4789 0.9727
6.2114 -1.8047 -2.4788 0.9727
6.2460 -1.6796 -2.4786 0.9727
6.2782 -1.5538 -2.4785 0.9727
6.3350 -1.3004 -2.4783 0.9727
6.3816 -1.0450 -2.4781 0.9727
6.4324 -0.6590 -2.4779 0.9727
6.4535 -0.4002 -2.4778 0.9727
6.4602 -0.2706 -2.4778 0.9727
6.4643 -0.1408 -2.4778 0.9727
6.4647 0.1187 -2.4778 0.9727
6.4548 0.3781 -2.4779 0.9727
6.4461 0.5076 -2.4779 0.9727
6.3636 1.1512 -2.4782 0.9727
6.3394 1.2788 -2.4783 0.9727
6.3128 1.4058 -2.4784 0.9727
6.2836 1.5323 -2.4785 0.9727
6.1809 1.9081 -2.4789 0.9727
6.1002 2.1549 -2.4793 0.9727
6.0561 2.2771 -2.4794 0.9727
5.9094 2.6381 -2.4800 0.9727
5.7415 2.9898 -2.4807 0.9727
5.6808 3.1047 -2.4809 0.9726
5.6179 3.2184 -2.4812 0.9726
5.5527 3.3309 -2.4814 0.9726
5.4853 3.4421 -2.4817 0.9726
5.4157 3.5519 -2.4819 0.9726
5.1939 3.8728 -2.4828 0.9726
5.1158 3.9767 -2.4831 0.9726
5.0355 4.0791 -2.4834 0.9726
4.9533 4.1799 -2.4837 0.9726
4.8690 4.2791 -2.4841 0.9726
4.7828 4.3766 -2.4844 0.9726
4.6046 4.5663 -2.4851 0.9726
4.5126 4.6585 -2.4855 0.9726
4.4188 4.7488 -2.4858 0.9726
4.1269 5.0085 -2.4870 0.9726
4.0261 5.0911 -2.4874 0.9726
3.9238 5.1717 -2.4877 0.9726
3.7142 5.3268 -2.4886 0.9726
3.1645 5.6771 -2.4907 0.9725
3.0504 5.7404 -2.4911 0.9725
2.5820 5.9710 -2.4930 0.9725
2.3411 6.0721 -2.4939 0.9725
2.0963 6.1635 -2.4948 0.9725
1.9725 6.2055 -2.4953 0.9725
1.7225 6.2822 -2.4963 0.9725
1.4695 6.3487 -2.4973 0.9725
1.3421 6.3782 -2.4978 0.9725
0.9563 6.4513 -2.4993 0.9724
0.8268 6.4705 -2.4998 0.9724
0.6968 6.4871 -2.5003 0.9724
0.5666 6.5011 -2.5008 0.9724
0.4361 6.5125 -2.5013 0.9724
0.1744 6.5274 -2.5023 0.9724
0.0433 6.5309 -2.5028 0.9724
-0.0878 6.5317 -2.5033 0.9724
-0.3501 6.5256 -2.5043 0.9724
-0.6120 6.5089 -2.5053 0.9724
-0.7426 6.4966 -2.5058 0.9724
-0.8731 6.4817 -2.5064 0.9724
-1.1330 6.4441 -2.5074 0.9724
-1.2624 6.4213 -2.5079 0.9724
-1.6476 6.3374 -2.5093 0.9723
-1.7748 6.3043 -2.5098 0.9723
-1.9014 6.2686 -2.5103 0.9723
-2.0272 6.2304 -2.5108 0.9723
-2.6439 6.0016 -2.5132 0.9723
-2.7643 5.9484 -2.5137 0.9723
-3.1190 5.7744 -2.5150 0.9723
-3.2349 5.7117 -2.5155 0.9723
-3.3495 5.6466 -2.5159 0.9723
-3.5747 5.5095 -2.5168 0.9723
-3.6852 5.4375 -2.5172 0.9723
-4.0078 5.2084 -2.5185 0.9722
-4.2149 5.0450 -2.5193 0.9722
-4.4154 4.8732 -2.5200 0.9722
-4.7948 4.5059 -2.5215 0.9722
-5.0594 4.2109 -2.5225 0.9722
-5.2257 4.0054 -2.5232 0.9722
-5.5327 3.5750 -2.5243 0.9722
-5.6040 3.4636 -2.5246 0.9722
-5.6730 3.3508 -2.5249 0.9722
-5.7397 3.2365 -2.5251 0.9722
-5.8040 3.1209 -2.5254 0.9722
-5.8661 3.0041 -2.5256 0.9722
-5.9830 2.7667 -2.5261 0.9722
-6.0902 2.5247 -2.5265 0.9722
-6.1401 2.4021 -2.5267 0.9722
-6.2325 2.1540 -2.5270 0.9721
-6.3520 1.7753 -2.5275 0.9721
-6.4188 1.5191 -2.5277 0.9721
-6.4751 1.2603 -2.5279 0.9721
-6.4993 1.1301 -2.5280 0.9721
-6.5399 0.8684 -2.5282 0.9721
-6.5561 0.7369 -2.5283 0.9721
-6.5807 0.4732 -2.5283 0.9721
-6.5889 0.3410 -2.5284 0.9721
-6.5974 0.0763 -2.5284 0.9721
-6.5951 -0.1886 -2.5284 0.9721
-6.5821 -0.4532 -2.5283 0.9721
-6.5583 -0.7170 -2.5282 0.9721
-6.4524 -1.3703 -2.5278 0.9721
-6.3916 -1.6281 -2.5276 0.9721
-6.3572 -1.7560 -2.5274 0.9721
-6.3204 -1.8831 -2.5273 0.9721
-6.2809 -2.0095 -2.5271 0.9721
-6.1943 -2.2597 -2.5268 0.9722
-6.1473 -2.3834 -2.5266 0.9722
-6.0977 -2.5061 -2.5264 0.9722
-6.0457 -2.6278 -2.5262 0.9722
-5.8750 -2.9861 -2.5255 0.9722
-5.8133 -3.1032 -2.5253 0.9722
-5.7493 -3.2189 -2.5251 0.9722
-5.6829 -3.3333 -2.5248 0.9722
-5.4702 -3.6681 -2.5240 0.9722
-5.3173 -3.8838 -2.5234 0.9722
-5.0720 -4.1953 -2.5224 0.9722
-4.8083 -4.4911 -2.5214 0.9722
-4.6228 -4.6791 -2.5207 0.9722
-4.5273 -4.7703 -2.5203 0.9722
-4.4300 -4.8595 -2.5199 0.9722
-4.3309 -4.9467 -2.5195 0.9722
-4.2300 -5.0318 -2.5191 0.9722
-4.1275 -5.1149 -2.5187 0.9722
-3.9176 -5.2748 -2.5179 0.9722
-3.3665 -5.6360 -2.5158 0.9723
-3.2521 -5.7014 -2.5153 0.9723
-3.1364 -5.7645 -2.5149 0.9723
-2.9379 -5.3948 -2.5141 0.9738
-2.6065 -5.5590 -2.5128 0.9738
-2.4939 -5.6092 -2.5124 0.9738
-2.2660 -5.7028 -2.5115 0.9738
-2.0345 -5.7871 -2.5106 0.9738
-1.7999 -5.8620 -2.5097 0.9738
-1.6816 -5.8958 -2.5093 0.9738
-1.5626 -5.9273 -2.5088 0.9739
-1.2023 -6.0073 -2.5074 0.9739
-1.0813 -6.0291 -2.5069 0.9739
-0.9599 -6.0484 -2.5065 0.9739
-0.8381 -6.0653 -2.5060 0.9739
-0.7161 -6.0798 -2.5055 0.9739
-0.3486 -6.1084 -2.5041 0.9739
-0.2259 -6.1130 -2.5036 0.9739
-0.1031 -6.1151 -2.5031 0.9739
0.1424 -6.1120 -2.5022 0.9739
0.2650 -6.1068 -2.5017 0.9739
0.9957 -6.0239 -2.4989 0.9740
1.2363 -5.9768 -2.4979 0.9740
1.3558 -5.9497 -2.4975 0.9740
1.4746 -5.9202 -2.4970 0.9740
1.5929 -5.8883 -2.4966 0.9740
1.7105 -5.8541 -2.4961 0.9740
1.8273 -5.8175 -2.4957 0.9740
2.0586 -5.7374 -2.4948 0.9740
2.1730 -5.6940 -2.4943 0.9740
2.2864 -5.6482 -2.4939 0.9740
2.3989 -5.6002 -2.4935 0.9740
2.5104 -5.5499 -2.4930 0.9740
2.6209 -5.4975 -2.4926 0.9740
2.8385 -5.3860 -2.4918 0.9740
3.0514 -5.2660 -2.4909 0.9740
3.1560 -5.2029 -2.4905 0.9740
3.5609 -4.9298 -2.4890 0.9741
3.7548 -4.7815 -2.4882 0.9741
3.8495 -4.7045 -2.4879 0.9741
3.9426 -4.6256 -2.4875 0.9741
4.2121 -4.3781 -2.4865 0.9741
4.2985 -4.2920 -2.4861 0.9741
4.4662 -4.1150 -2.4855 0.9741
4.7040 -3.8373 -2.4846 0.9741
4.8531 -3.6445 -2.4840 0.9741
4.9944 -3.4460 -2.4834 0.9741
5.1277 -3.2421 -2.4829 0.9741
5.1912 -3.1382 -2.4827 0.9741
5.3692 -2.8193 -2.4820 0.9741
5.4243 -2.7107 -2.4818 0.9741
5.4771 -2.6011 -2.4816 0.9741
5.5763 -2.3788 -2.4812 0.9741
5.7847 -1.8074 -2.4804 0.9741
5.8195 -1.6909 -2.4803 0.9741
5.8520 -1.5736 -2.4802 0.9741
5.9353 -1.2184 -2.4798 0.9742
5.9584 -1.0989 -2.4798 0.9742
5.9973 -0.8588 -2.4796 0.9742
6.0132 -0.7383 -2.4795 0.9742
6.0267 -0.6174 -2.4795 0.9742
6.0566 -0.1320 -2.4794 0.9742
6.0580 -0.0104 -2.4794 0.9742
6.0536 0.2328 -2.4794 0.9742
6.0477 0.3543 -2.4794 0.9742
6.0288 0.5968 -2.4795 0.9742
6.0158 0.7177 -2.4796 0.9742
5.9395 1.1981 -2.4799 0.9742
5.8574 1.5536 -2.4802 0.9741
5.8254 1.6710 -2.4803 0.9741
5.7910 1.7877 -2.4805 0.9741
5.7542 1.9037 -2.4806 0.9741
5.7152 2.0189 -2.4808 0.9741
5.6739 2.1334 -2.4809 0.9741
5.6303 2.2470 -2.4811 0.9741
5.4861 2.5824 -2.4817 0.9741
5.4336 2.6922 -2.4819 0.9741
5.3790 2.8010 -2.4821 0.9741
5.2631 3.0152 -2.4825 0.9741
5.1389 3.2247 -2.4830 0.9741
4.9370 3.5292 -2.4838 0.9741
4.8657 3.6280 -2.4841 0.9741
4.6402 3.9157 -2.4850 0.9741
4.2272 4.3638 -2.4866 0.9741
4.0497 4.5312 -2.4872 0.9741
3.9585 4.6123 -2.4876 0.9741
3.8657 4.6915 -2.4880 0.9741
3.7713 4.7688 -2.4883 0.9741
2.9639 5.3172 -2.4915 0.9740
2.8570 5.3766 -2.4919 0.9740
2.6398 5.4888 -2.4927 0.9740
2.5295 5.5416 -2.4932 0.9740
2.1926 5.6868 -2.4945 0.9740
1.8473 5.8116 -2.4958 0.9740
1.7306 5.8485 -2.4963 0.9740
1.3762 5.9454 -2.4976 0.9740
1.2568 5.9729 -2.4981 0.9740
1.1368 5.9980 -2.4986 0.9740
0.4083 6.0981 -2.5014 0.9739
0.0406 6.1151 -2.5028 0.9739
-0.2050 6.1141 -2.5038 0.9739
-0.3278 6.1099 -2.5042 0.9739
-0.4504 6.1033 -2.5047 0.9739
-1.0608 6.0331 -2.5071 0.9739
-1.1819 6.0117 -2.5075 0.9739
-1.3025 5.9879 -2.5080 0.9739
-1.4227 5.9616 -2.5085 0.9739
-1.6615 5.9019 -2.5094 0.9738
-1.7800 5.8684 -2.5099 0.9738
-1.8978 5.8326 -2.5103 0.9738
-2.0148 5.7944 -2.5108 0.9738
-2.1311 5.7538 -2.5112 0.9738
-2.3612 5.6656 -2.5121 0.9738
-2.4749 5.6180 -2.5125 0.9738
-2.5876 5.5682 -2.5130 0.9738
-3.0280 5.3463 -2.5147 0.9738
-3.2412 5.2221 -2.5155 0.9738
-3.8488 4.7993 -2.5178 0.9738
-4.0395 4.6423 -2.5186 0.9738
-4.2238 4.4777 -2.5193 0.9737
-4.3134 4.3926 -2.5196 0.9737
-4.4013 4.3057 -2.5200 0.9737
-4.4874 4.2171 -2.5203 0.9737
-4.5718 4.1267 -2.5206 0.9737
-4.7349 3.9408 -2.5213 0.9737
-4.8905 3.7485 -2.5219 0.9737
-4.9653 3.6499 -2.5221 0.9737
-5.0381 3.5499 -2.5224 0.9737
-5.1776 3.3456 -2.5230 0.9737
-5.2443 3.2413 -2.5232 0.9737
-5.3088 3.1356 -2.5235 0.9737
-5.3712 3.0287 -2.5237 0.9737
-5.4314 2.9206 -2.5239 0.9737
-5.5452 2.7007 -2.5244 0.9737
-5.5988 2.5890 -2.5246 0.9737
-5.8717 1.8983 -2.5256 0.9737
-5.9763 1.5417 -2.5260 0.9737
-6.0590 1.1793 -2.5263 0.9737
-6.1019 0.9352 -2.5265 0.9737
-6.1196 0.8126 -2.5266 0.9737
-6.1348 0.6896 -2.5266 0.9737
-6.1577 0.4428 -2.5267 0.9737
-6.1706 0.1953 -2.5267 0.9737
-6.1735 -0.0526 -2.5268 0.9737
-6.1492 -0.5476 -2.5267 0.9737
-6.1368 -0.6709 -2.5266 0.9737
-6.1219 -0.7939 -2.5265 0.9737
-6.1046 -0.9166 -2.5265 0.9737
-6.0848 -1.0390 -2.5264 0.9737
-6.0105 -1.4032 -2.5261 0.9737
-5.9143 -1.7621 -2.5257 0.9737
-5.8381 -1.9979 -2.5254 0.9737
-5.7964 -2.1145 -2.5253 0.9737
-5.7524 -2.2303 -2.5251 0.9737
-5.7061 -2.3451 -2.5249 0.9737
-5.6574 -2.4590 -2.5247 0.9737
-5.6065 -2.5719 -2.5245 0.9737
-5.5533 -2.6837 -2.5243 0.9737
-5.4978 -2.7944 -2.5241 0.9737
-5.4401 -2.9039 -2.5239 0.9737
-5.1876 -3.3297 -2.5229 0.9737
-5.1192 -3.4328 -2.5226 0.9737
-4.5841 -4.1125 -2.5205 0.9737
-4.3266 -4.3793 -2.5195 0.9737
-4.2372 -4.4646 -2.5192 0.9737
-4.0534 -4.6298 -2.5185 0.9738
-3.9591 -4.7095 -2.5181 0.9738
-3.6668 -4.9371 -2.5170 0.9738
-3.3614 -5.1464 -2.5158 0.9738
-3.2569 -5.2120 -2.5154 0.9738
-3.0441 -5.3368 -2.5145 0.9738
-2.7582 -5.0649 -2.5134 0.9751
-2.6555 -5.1184 -2.5130 0.9752
-2.5518 -5.1699 -2.5126 0.9752
-2.4472 -5.2192 -2.5122 0.9752
-2.3415 -5.2664 -2.5118 0.9752
-1.9102 -5.4336 -2.5101 0.9752
-1.6900 -5.5040 -2.5093 0.9752
-1.5789 -5.5359 -2.5089 0.9752
-1.0154 -5.6613 -2.5067 0.9752
-0.6724 -5.7092 -2.5053 0.9752
-0.5576 -5.7205 -2.5049 0.9752
-0.4425 -5.7295 -2.5045 0.9752
-0.3274 -5.7362 -2.5040 0.9752
0.0185 -5.7425 -2.5027 0.9753
0.1337 -5.7399 -2.5022 0.9753
0.2489 -5.7350 -2.5018 0.9753
0.3639 -5.7279 -2.5013 0.9753
0.5933 -5.7066 -2.5004 0.9753
0.7076 -5.6925 -2.5000 0.9753
0.9352 -5.6576 -2.4991 0.9753
1.0484 -5.6367 -2.4987 0.9753
1.1611 -5.6135 -2.4982 0.9753
1.2733 -5.5881 -2.4978 0.9753
1.3850 -5.5604 -2.4974 0.9753
1.4961 -5.5306 -2.4970 0.9753
1.7163 -5.4642 -2.4961 0.9753
2.1477 -5.3054 -2.4944 0.9753
2.2534 -5.2603 -2.4940 0.9753
2.5646 -5.1127 -2.4928 0.9754
2.6663 -5.0594 -2.4924 0.9754
2.7669 -5.0041 -2.4920 0.9754
2.9647 -4.8875 -2.4913 0.9754
3.0617 -4.8262 -2.4909 0.9754
3.1575 -4.7631 -2.4905 0.9754
3.2520 -4.6981 -2.4902 0.9754
3.7038 -4.3455 -2.4884 0.9754
3.7898 -4.2697 -2.4881 0.9754
3.8742 -4.1922 -2.4878 0.9754
4.0384 -4.0323 -2.4871 0.9754
4.1180 -3.9499 -2.4868 0.9754
4.2722 -3.7805 -2.4862 0.9754
4.3467 -3.6936 -2.4859 0.9754
4.4195 -3.6052 -2.4857 0.9754
4.4906 -3.5153 -2.4854 0.9754
4.5597 -3.4242 -2.4851 0.9754
4.6925 -3.2377 -2.4846 0.9754
4.7560 -3.1425 -2.4844 0.9754
5.0965 -2.5469 -2.4831 0.9754
5.1939 -2.3400 -2.4827 0.9754
5.2829 -2.1293 -2.4823 0.9755
5.3242 -2.0227 -2.4822 0.9755
5.3634 -1.9153 -2.4820 0.9755
5.4005 -1.8071 -2.4819 0.9755
5.4681 -1.5888 -2.4816 0.9755
5.4986 -1.4786 -2.4815 0.9755
5.5270 -1.3679 -2.4814 0.9755
5.5770 -1.1448 -2.4812 0.9755
5.6181 -0.9200 -2.4811 0.9755
5.6353 -0.8070 -2.4810 0.9755
5.6733 -0.4663 -2.4809 0.9755
5.6910 -0.1240 -2.4808 0.9755
5.6923 -0.0097 -2.4808 0.9755
5.6914 0.1045 -2.4808 0.9755
5.6827 0.3329 -2.4808 0.9755
5.6649 0.5608 -2.4809 0.9755
5.6213 0.9008 -2.4811 0.9755
5.5809 1.1258 -2.4813 0.9755
5.5317 1.3490 -2.4815 0.9755
5.4067 1.7887 -2.4819 0.9755
5.2471 2.2172 -2.4826 0.9755
5.1547 2.4264 -2.4829 0.9754
5.0539 2.6317 -2.4833 0.9754
4.9451 2.8330 -2.4838 0.9754
4.8876 2.9319 -2.4840 0.9754
4.8282 3.0297 -2.4842 0.9754
4.7669 3.1263 -2.4844 0.9754
4.7037 3.2217 -2.4847 0.9754
4.5715 3.4087 -2.4852 0.9754
4.5026 3.5001 -2.4855 0.9754
4.4320 3.5902 -2.4858 0.9754
4.2853 3.7661 -2.4863 0.9754
3.9713 4.0997 -2.4875 0.9754
3.8887 4.1791 -2.4879 0.9754
3.7188 4.3330 -2.4885 0.9754
3.6316 4.4074 -2.4889 0.9754
3.5429 4.4800 -2.4892 0.9754
3.4527 4.5509 -2.4896 0.9754
3.0783 4.8160 -2.4910 0.9754
2.8834 4.9371 -2.4918 0.9754
2.6838 5.0505 -2.4925 0.9754
