ply
format ascii 1.0
element vertex 1589
property float32 x
property float32 y
property float32 z
property float32 I
end_header
-10.6376 0.3831 -2.5017 0.9572
-10.6431 0.1693 -2.5017 0.9572
-10.6444 -0.0446 -2.5017 0.9572
-10.6413 -0.2584 -2.5017 0.9572
-10.6223 -0.6857 -2.5017 0.9572
-10.6064 -0.8990 -2.5017 0.9572
-10.5330 -1.5363 -2.5017 0.9572
-10.5000 -1.7476 -2.5017 0.9572
-10.4628 -1.9582 -2.5017 0.9572
-10.4213 -2.1680 -2.5017 0.9572
-10.3757 -2.3770 -2.5017 0.9572
-10.2718 -2.7918 -2.5017 0.9572
-10.2137 -2.9976 -2.5017 0.9572
-9.9400 -3.8079 -2.5017 0.9572
-9.6926 -4.3998 -2.5017 0.9572
-9.2025 -5.3497 -2.5017 0.9572
-8.9801 -5.7151 -2.5017 0.9572
-8.2276 -6.7535 -2.5017 0.9572
-8.0903 -6.9175 -2.5017 0.9572
-7.9497 -7.0786 -2.5017 0.9572
-7.6589 -7.3923 -2.5017 0.9572
-7.5088 -7.5447 -2.5017 0.9572
-6.8789 -8.1231 -2.5017 0.9572
-6.7143 -8.2597 -2.5017 0.9572
-6.5470 -8.3929 -2.5017 0.9572
-6.2045 -8.6492 -2.5017 0.9572
-6.0295 -8.7721 -2.5017 0.9572
-5.3058 -9.2278 -2.5017 0.9572
-4.7403 -9.5307 -2.5017 0.9572
-4.3536 -9.7134 -2.5017 0.9572
-4.1576 -9.7989 -2.5017 0.9572
-3.9599 -9.8805 -2.5017 0.9572
-3.7606 -9.9580 -2.5017 0.9572
-3.3575 -10.1011 -2.5017 0.9572
-3.1539 -10.1665 -2.5017 0.9572
-2.9490 -10.2278 -2.5017 0.9572
-2.7429 -10.2850 -2.5017 0.9572
-2.5357 -10.3380 -2.5017 0.9572
-2.3275 -10.3869 -2.5017 0.9572
-1.4861 -10.5402 -2.5017 0.9572
-1.2740 -10.5679 -2.5017 0.9572
-1.0615 -10.5914 -2.5017 0.9572
0.0061 -10.6444 -2.5017 0.9572
0.2200 -10.6422 -2.5017 0.9572
1.2862 -10.5664 -2.5017 0.9572
1.4982 -10.5385 -2.5017 0.9572
1.7096 -10.5062 -2.5017 0.9572
2.1303 -10.4291 -2.5017 0.9572
2.3394 -10.3842 -2.5017 0.9572
2.5476 -10.3351 -2.5017 0.9572
3.3691 -10.0972 -2.5017 0.9572
3.5712 -10.0275 -2.5017 0.9572
3.9712 -9.8759 -2.5017 0.9572
4.3647 -9.7084 -2.5017 0.9572
4.7512 -9.5252 -2.5017 0.9572
4.9416 -9.4278 -2.5017 0.9572
5.3164 -9.2217 -2.5017 0.9572
8.8487 3.8802 -2.5017 0.9609
8.7689 4.0572 -2.5017 0.9609
8.5989 4.4062 -2.5017 0.9609
8.5086 4.5781 -2.5017 0.9609
8.4149 4.7481 -2.5017 0.9609
8.3178 4.9162 -2.5017 0.9609
8.1136 5.2464 -2.5017 0.9609
8.0066 5.4083 -2.5017 0.9609
7.8963 5.5681 -2.5017 0.9609
7.6662 5.8808 -2.5017 0.9609
7.5465 6.0336 -2.5017 0.9609
7.4238 6.1840 -2.5017 0.9609
7.2980 6.3319 -2.5017 0.9609
7.1693 6.4773 -2.5017 0.9609
6.9033 6.7601 -2.5017 0.9609
6.7661 6.8974 -2.5017 0.9609
6.6262 7.0320 -2.5017 0.9609
6.4836 7.1636 -2.5017 0.9609
6.3378 7.2919 -2.5015 0.9609
6.0300 7.5284 -2.4974 0.9609
5.6957 7.7280 -2.4857 0.9611
5.4634 7.7334 -2.4516 0.9616
5.2372 7.7386 -2.4194 0.9621
4.8014 7.7479 -2.3600 0.9630
4.6236 7.8070 -2.3493 0.9632
4.3062 7.9865 -2.3493 0.9632
3.6511 8.3064 -2.3493 0.9632
3.3145 8.4464 -2.3493 0.9632
2.9725 8.5727 -2.3493 0.9632
2.7997 8.6307 -2.3493 0.9632
2.4507 8.7362 -2.3493 0.9632
2.0977 8.8276 -2.3493 0.9632
0.8396 9.0345 -2.3493 0.9632
0.2938 9.0687 -2.3493 0.9632
0.1115 9.0728 -2.3493 0.9632
-0.0708 9.0732 -2.3493 0.9632
-0.2530 9.0699 -2.3493 0.9632
-0.4352 9.0630 -2.3493 0.9632
-0.6172 9.0524 -2.3493 0.9632
-0.7990 9.0382 -2.3493 0.9632
-0.9804 9.0203 -2.3493 0.9632
-1.1614 8.9988 -2.3493 0.9632
-1.3420 8.9737 -2.3493 0.9632
-1.5220 8.9449 -2.3493 0.9632
-1.7014 8.9125 -2.3493 0.9632
-1.8747 8.0496 -2.1400 0.9664
-2.5867 8.6970 -2.3493 0.9632
-2.7609 8.6432 -2.3493 0.9632
-2.9340 8.5860 -2.3493 0.9632
-3.4458 8.3937 -2.3493 0.9632
-4.1086 8.0900 -2.3493 0.9632
-4.2703 8.0058 -2.3493 0.9632
-4.4303 7.9184 -2.3493 0.9632
-4.7448 7.7340 -2.3493 0.9632
-5.3858 7.6966 -2.4322 0.9619
-5.9934 7.5520 -2.4963 0.9609
-6.1487 7.4358 -2.4982 0.9609
-6.4514 7.1928 -2.5017 0.9609
-6.8729 6.7911 -2.5017 0.9609
-7.2696 6.3647 -2.5017 0.9609
-7.3960 6.2173 -2.5017 0.9609
-7.5194 6.0675 -2.5017 0.9609
-7.6398 5.9152 -2.5017 0.9609
-7.9822 5.4443 -2.5017 0.9609
-8.1945 5.1192 -2.5017 0.9609
-8.4880 4.6163 -2.5017 0.9609
-8.5790 4.4448 -2.5017 0.9609
-8.6666 4.2715 -2.5017 0.9609
-8.7507 4.0966 -2.5017 0.9609
-8.8312 3.9199 -2.5017 0.9609
-8.9082 3.7417 -2.5017 0.9609
-8.9816 3.5620 -2.5017 0.9609
-9.2935 2.6432 -2.5017 0.9609
-9.4757 1.8886 -2.5017 0.9609
-9.5117 1.6979 -2.5017 0.9609
-9.5439 1.5064 -2.5017 0.9609
-9.5723 1.3144 -2.5017 0.9609
-9.6341 0.7354 -2.5017 0.9609
-9.6469 0.5417 -2.5017 0.9609
-9.6558 0.3477 -2.5017 0.9609
-9.6620 -0.0405 -2.5017 0.9609
-9.6592 -0.2346 -2.5017 0.9609
-9.6526 -0.4286 -2.5017 0.9609
-9.6420 -0.6224 -2.5017 0.9609
-9.6276 -0.8160 -2.5017 0.9609
-9.5609 -1.3945 -2.5017 0.9609
-9.4972 -1.7775 -2.5017 0.9609
-9.4181 -2.1576 -2.5017 0.9609
-9.3729 -2.3463 -2.5017 0.9609
-9.3239 -2.5342 -2.5017 0.9609
-9.2711 -2.7210 -2.5017 0.9609
-9.2145 -2.9067 -2.5017 0.9609
-9.1543 -3.0912 -2.5017 0.9609
-8.8765 -3.8162 -2.5017 0.9609
-8.7981 -3.9937 -2.5017 0.9609
-8.2539 -5.0228 -2.5017 0.9609
-8.0455 -5.3504 -2.5017 0.9609
-7.9364 -5.5109 -2.5017 0.9609
-7.8241 -5.6693 -2.5017 0.9609
-7.7086 -5.8253 -2.5017 0.9609
-7.4683 -6.1303 -2.5017 0.9609
-6.9521 -6.7101 -2.5017 0.9609
-6.8158 -6.8484 -2.5017 0.9609
-6.6769 -6.9840 -2.5017 0.9609
-6.5352 -7.1167 -2.5017 0.9609
-6.3909 -7.2465 -2.5017 0.9609
-6.2440 -7.3735 -2.5017 0.9609
-6.0947 -7.4974 -2.5017 0.9609
-5.9428 -7.6184 -2.5017 0.9609
-5.3120 -8.0709 -2.5017 0.9609
-4.8162 -8.3762 -2.5017 0.9609
-4.6469 -8.4713 -2.5017 0.9609
-4.4758 -8.5629 -2.5017 0.9609
-3.9518 -8.8170 -2.5017 0.9609
-3.7739 -8.8946 -2.5017 0.9609
-3.5944 -8.9686 -2.5017 0.9609
-3.4135 -9.0390 -2.5017 0.9609
-2.8628 -9.2282 -2.5017 0.9609
-2.6768 -9.2839 -2.5017 0.9609
-1.7322 -9.5055 -2.5017 0.9609
-1.1565 -9.5926 -2.5017 0.9609
-0.7702 -9.6313 -2.5017 0.9609
-0.1886 -9.6602 -2.5017 0.9609
0.0055 -9.6621 -2.5017 0.9609
0.1997 -9.6600 -2.5017 0.9609
0.3937 -9.6541 -2.5017 0.9609
0.5876 -9.6442 -2.5017 0.9609
0.9745 -9.6128 -2.5017 0.9609
1.1675 -9.5913 -2.5017 0.9609
1.7431 -9.5035 -2.5017 0.9609
2.3125 -9.3813 -2.5017 0.9609
2.5005 -9.3329 -2.5017 0.9609
2.8734 -9.2249 -2.5017 0.9609
3.0581 -9.1654 -2.5017 0.9609
3.2417 -9.1021 -2.5017 0.9609
3.4239 -9.0351 -2.5017 0.9609
3.6047 -8.9645 -2.5017 0.9609
3.9619 -8.8124 -2.5017 0.9609
4.4856 -8.5578 -2.5017 0.9609
7.8646 4.0299 -2.5017 0.9639
7.7820 4.1871 -2.5017 0.9639
7.5156 4.6483 -2.5017 0.9639
7.4207 4.7983 -2.5017 0.9639
7.2220 5.0926 -2.5017 0.9639
7.1182 5.2367 -2.5017 0.9639
7.0116 5.3786 -2.5017 0.9639
5.9299 6.5519 -2.5017 0.9639
5.3848 7.0068 -2.5017 0.9639
5.0989 7.2175 -2.5017 0.9639
4.8004 7.4097 -2.4994 0.9640
4.6477 7.5000 -2.4978 0.9640
4.1639 7.7226 -2.4838 0.9642
3.7753 7.7301 -2.4354 0.9649
3.2180 7.7396 -2.3729 0.9658
2.8756 7.7844 -2.3493 0.9661
2.5606 7.8937 -2.3493 0.9661
2.4015 7.9435 -2.3493 0.9661
2.2414 7.9902 -2.3493 0.9661
2.0804 8.0336 -2.3493 0.9661
1.7560 8.1107 -2.3493 0.9661
1.5927 8.1443 -2.3493 0.9661
1.2642 8.2018 -2.3493 0.9661
1.0992 8.2255 -2.3493 0.9661
0.9337 8.2459 -2.3493 0.9661
0.7679 8.2630 -2.3493 0.9661
0.1020 8.2980 -2.3493 0.9661
-0.0647 8.2983 -2.3493 0.9661
-0.5645 8.2794 -2.3493 0.9661
-0.8967 8.2500 -2.3493 0.9661
-1.2274 8.2074 -2.3493 0.9661
-1.3920 8.1810 -2.3493 0.9661
-1.5561 8.1514 -2.3493 0.9661
-1.8747 8.0496 -2.3398 0.9662
-2.0443 8.0429 -2.3493 0.9661
-2.2055 8.0002 -2.3493 0.9661
-2.3658 7.9543 -2.3493 0.9661
-2.6834 7.8528 -2.3493 0.9661
-2.9967 7.7387 -2.3493 0.9661
-3.3494 7.7138 -2.3807 0.9656
-3.5332 7.7094 -2.4008 0.9654
-3.7201 7.7047 -2.4221 0.9651
-3.9104 7.6998 -2.4448 0.9647
-4.4578 7.6048 -2.4955 0.9640
-4.7654 7.4284 -2.4985 0.9640
-4.9167 7.3358 -2.5000 0.9640
-5.3533 7.0310 -2.5017 0.9639
-5.4934 6.9220 -2.5017 0.9639
-5.6314 6.8102 -2.5017 0.9639
-5.7671 6.6957 -2.5017 0.9639
-6.1600 6.3362 -2.5017 0.9639
-6.4095 6.0836 -2.5017 0.9639
-6.5305 5.9536 -2.5017 0.9639
-6.7644 5.6864 -2.5017 0.9639
-6.9874 5.4101 -2.5017 0.9639
-7.3006 4.9793 -2.5017 0.9639
-7.5873 4.5305 -2.5017 0.9639
-7.8464 4.0652 -2.5017 0.9639
-8.2146 3.2578 -2.5017 0.9639
-8.3388 2.9252 -2.5017 0.9639
-8.3959 2.7571 -2.5017 0.9639
-8.4496 2.5878 -2.5017 0.9639
-8.5467 2.2463 -2.5017 0.9639
-8.5901 2.0741 -2.5017 0.9639
-8.6301 1.9011 -2.5017 0.9639
-8.6665 1.7273 -2.5017 0.9639
-8.7289 1.3778 -2.5017 0.9639
-8.7772 1.0260 -2.5017 0.9639
-8.8114 0.6726 -2.5017 0.9639
-8.8231 0.4954 -2.5017 0.9639
-8.8313 0.3180 -2.5017 0.9639
-8.8359 0.1405 -2.5017 0.9639
-8.8369 -0.0370 -2.5017 0.9639
-8.8344 -0.2145 -2.5017 0.9639
-8.7683 -1.0995 -2.5017 0.9639
-8.6139 -1.9733 -2.5017 0.9639
-8.4276 -2.6585 -2.5017 0.9639
-8.3725 -2.8273 -2.5017 0.9639
-8.3140 -2.9949 -2.5017 0.9639
-8.2522 -3.1613 -2.5017 0.9639
-8.1870 -3.3265 -2.5017 0.9639
-7.9717 -3.8136 -2.5017 0.9639
-7.8935 -3.9730 -2.5017 0.9639
-7.7275 -4.2869 -2.5017 0.9639
-7.6398 -4.4413 -2.5017 0.9639
-7.5491 -4.5939 -2.5017 0.9639
-7.3584 -4.8935 -2.5017 0.9639
-7.1559 -5.1851 -2.5017 0.9639
-7.0503 -5.3278 -2.5017 0.9639
-6.9418 -5.4684 -2.5017 0.9639
-6.7165 -5.7429 -2.5017 0.9639
-6.5998 -5.8767 -2.5017 0.9639
-6.3584 -6.1371 -2.5017 0.9639
-6.1067 -6.3875 -2.5017 0.9639
-5.9771 -6.5089 -2.5017 0.9639
-5.7108 -6.7438 -2.5017 0.9639
-5.5742 -6.8572 -2.5017 0.9639
-5.4353 -6.9678 -2.5017 0.9639
-4.8584 -7.3816 -2.5017 0.9639
-4.7091 -7.4778 -2.5017 0.9639
-4.5579 -7.5709 -2.5017 0.9639
-4.2501 -7.7479 -2.5017 0.9639
-4.0936 -7.8317 -2.5017 0.9639
-3.9354 -7.9123 -2.5017 0.9639
-3.6143 -8.0641 -2.5017 0.9639
-3.4516 -8.1350 -2.5017 0.9639
-3.2875 -8.2027 -2.5017 0.9639
-3.1220 -8.2671 -2.5017 0.9639
-2.7874 -8.3859 -2.5017 0.9639
-2.4482 -8.4911 -2.5017 0.9639
-1.9323 -8.6231 -2.5017 0.9639
-1.7586 -8.6602 -2.5017 0.9639
-1.5843 -8.6938 -2.5017 0.9639
-1.0577 -8.7734 -2.5017 0.9639
-0.8812 -8.7929 -2.5017 0.9639
-0.5273 -8.8212 -2.5017 0.9639
0.7145 -8.8080 -2.5017 0.9639
0.8913 -8.7919 -2.5017 0.9639
1.4194 -8.7223 -2.5017 0.9639
1.7686 -8.6582 -2.5017 0.9639
2.1150 -8.5802 -2.5017 0.9639
2.6280 -8.4372 -2.5017 0.9639
2.7970 -8.3827 -2.5017 0.9639
3.1315 -8.2635 -2.5017 0.9639
3.2969 -8.1989 -2.5017 0.9639
3.6236 -8.0599 -2.5017 0.9639
3.7848 -7.9854 -2.5017 0.9639
3.9445 -7.9078 -2.5017 0.9639
4.2590 -7.7429 -2.5017 0.9639
4.4136 -7.6558 -2.5017 0.9639
7.3816 3.4153 -2.5017 0.9665
7.2385 3.7091 -2.5017 0.9665
7.1625 3.8538 -2.5017 0.9665
7.0836 3.9969 -2.5017 0.9665
7.0019 4.1384 -2.5017 0.9665
6.9173 4.2783 -2.5017 0.9665
6.8300 4.4164 -2.5017 0.9665
6.2493 5.2057 -2.5017 0.9665
6.1435 5.3302 -2.5017 0.9665
5.9244 5.5727 -2.5017 0.9665
5.8112 5.6906 -2.5017 0.9665
5.6957 5.8062 -2.5017 0.9665
5.2112 6.2447 -2.5017 0.9665
4.9561 6.4490 -2.5017 0.9665
4.8255 6.5473 -2.5017 0.9665
3.5685 7.3065 -2.5010 0.9665
3.2691 7.4373 -2.4988 0.9666
2.8118 7.6117 -2.4958 0.9666
2.6574 7.6639 -2.4949 0.9666
2.5020 7.7131 -2.4941 0.9666
1.6721 7.7232 -2.4305 0.9675
1.5106 7.7244 -2.4209 0.9676
1.3502 7.7254 -2.4122 0.9677
1.1909 7.7262 -2.4045 0.9678
0.4059 7.7278 -2.3802 0.9681
0.0950 7.7273 -2.3769 0.9682
-0.8392 7.7216 -2.3890 0.9680
-1.3130 7.7164 -2.4075 0.9678
-1.4726 7.7143 -2.4156 0.9677
-1.7955 7.7095 -2.4347 0.9674
-1.9589 7.7069 -2.4458 0.9673
-2.1238 7.7040 -2.4580 0.9671
-2.2904 7.7009 -2.4712 0.9669
-2.4588 7.6977 -2.4855 0.9667
-2.9306 7.5681 -2.4962 0.9666
-3.0833 7.5105 -2.4972 0.9666
-3.3853 7.3868 -2.4992 0.9666
-3.5346 7.3205 -2.5004 0.9666
-3.9713 7.0980 -2.5017 0.9665
-4.5283 6.7563 -2.5017 0.9665
-4.7961 6.5689 -2.5017 0.9665
-5.0561 6.3710 -2.5017 0.9665
-5.1831 6.2681 -2.5017 0.9665
-5.3080 6.1627 -2.5017 0.9665
-5.4307 6.0548 -2.5017 0.9665
-5.5513 5.9445 -2.5017 0.9665
-5.6696 5.8317 -2.5017 0.9665
-5.7856 5.7167 -2.5017 0.9665
-5.8993 5.5993 -2.5017 0.9665
-6.1195 5.3578 -2.5017 0.9665
-6.4311 4.9794 -2.5017 0.9665
-6.5299 4.8492 -2.5017 0.9665
-6.6260 4.7170 -2.5017 0.9665
-6.7194 4.5829 -2.5017 0.9665
-6.8101 4.4470 -2.5017 0.9665
-6.8981 4.3093 -2.5017 0.9665
-6.9833 4.1698 -2.5017 0.9665
-7.0656 4.0287 -2.5017 0.9665
-7.2955 3.5958 -2.5017 0.9665
-7.3663 3.4485 -2.5017 0.9665
-7.4341 3.2998 -2.5017 0.9665
-7.7769 2.3818 -2.5017 0.9665
-7.8232 2.2251 -2.5017 0.9665
-7.8663 2.0674 -2.5017 0.9665
-7.9063 1.9090 -2.5017 0.9665
-7.9766 1.5898 -2.5017 0.9665
-8.0340 1.2681 -2.5017 0.9665
-8.0958 0.7818 -2.5017 0.9665
-8.1325 0.1294 -2.5017 0.9665
-8.1334 -0.0341 -2.5017 0.9665
-8.1311 -0.1975 -2.5017 0.9665
-8.1044 -0.6869 -2.5017 0.9665
-8.0890 -0.8496 -2.5017 0.9665
-7.8488 -2.1333 -2.5017 0.9665
-7.7567 -2.4469 -2.5017 0.9665
-7.7060 -2.6022 -2.5017 0.9665
-7.5952 -2.9097 -2.5017 0.9665
-7.5353 -3.0617 -2.5017 0.9665
-7.4722 -3.2125 -2.5017 0.9665
-7.2651 -3.6567 -2.5017 0.9665
-7.1124 -3.9456 -2.5017 0.9665
-7.0317 -4.0878 -2.5017 0.9665
-6.7726 -4.5039 -2.5017 0.9665
-6.6808 -4.6391 -2.5017 0.9665
-6.4890 -4.9037 -2.5017 0.9665
-6.3892 -5.0331 -2.5017 0.9665
-6.1818 -5.2857 -2.5017 0.9665
-6.0744 -5.4088 -2.5017 0.9665
-5.8522 -5.6485 -2.5017 0.9665
-5.7375 -5.7649 -2.5017 0.9665
-5.5013 -5.9908 -2.5017 0.9665
-5.3798 -6.1001 -2.5017 0.9665
-5.1305 -6.3113 -2.5017 0.9665
-4.8728 -6.5123 -2.5017 0.9665
-4.7409 -6.6089 -2.5017 0.9665
-4.4716 -6.7940 -2.5017 0.9665
-4.3342 -6.8825 -2.5017 0.9665
-4.1951 -6.9682 -2.5017 0.9665
-4.0542 -7.0510 -2.5017 0.9665
-3.9117 -7.1310 -2.5017 0.9665
-3.6221 -7.2825 -2.5017 0.9665
-3.4750 -7.3538 -2.5017 0.9665
-3.1768 -7.4874 -2.5017 0.9665
-2.7200 -7.6652 -2.5017 0.9665
-2.4099 -7.7683 -2.5017 0.9665
-2.2533 -7.8151 -2.5017 0.9665
-1.7785 -7.9367 -2.5017 0.9665
-1.4582 -8.0017 -2.5017 0.9665
-1.2971 -8.0294 -2.5017 0.9665
-0.9735 -8.0750 -2.5017 0.9665
-0.8111 -8.0929 -2.5017 0.9665
-0.3221 -8.1271 -2.5017 0.9665
0.0047 -8.1335 -2.5017 0.9665
0.1681 -8.1318 -2.5017 0.9665
0.3314 -8.1268 -2.5017 0.9665
0.9828 -8.0739 -2.5017 0.9665
1.1448 -8.0525 -2.5017 0.9665
1.3063 -8.0279 -2.5017 0.9665
1.6278 -7.9689 -2.5017 0.9665
1.7876 -7.9346 -2.5017 0.9665
1.9466 -7.8971 -2.5017 0.9665
2.4188 -7.7655 -2.5017 0.9665
3.1854 -7.4837 -2.5017 0.9665
3.6305 -7.2783 -2.5017 0.9665
3.9199 -7.1265 -2.5017 0.9665
6.8924 3.0224 -2.5017 0.9688
6.8303 3.1602 -2.5017 0.9688
6.7654 3.2968 -2.5017 0.9688
6.6978 3.4321 -2.5017 0.9688
6.4789 3.8293 -2.5017 0.9688
6.3199 4.0865 -2.5017 0.9688
6.2365 4.2127 -2.5017 0.9688
6.0622 4.4598 -2.5017 0.9688
5.7825 4.8169 -2.5017 0.9688
5.5844 5.0453 -2.5017 0.9688
5.4819 5.1565 -2.5017 0.9688
5.0502 5.5799 -2.5017 0.9688
4.9371 5.6803 -2.5017 0.9688
4.7049 5.8740 -2.5017 0.9688
4.3425 6.1468 -2.5017 0.9688
4.2181 6.2328 -2.5017 0.9688
4.0921 6.3163 -2.5017 0.9688
3.9644 6.3972 -2.5017 0.9688
3.8350 6.4756 -2.5017 0.9688
3.7041 6.5513 -2.5017 0.9688
3.4380 6.6948 -2.5017 0.9688
3.3028 6.7625 -2.5017 0.9688
2.7492 7.0059 -2.5017 0.9688
2.6079 7.0597 -2.5017 0.9688
1.8864 7.2846 -2.5013 0.9688
1.4433 7.3801 -2.4997 0.9688
0.0923 7.5123 -2.4973 0.9688
-0.0586 7.5126 -2.4973 0.9688
-0.5111 7.4962 -2.4976 0.9688
-0.6617 7.4850 -2.4978 0.9688
-0.8120 7.4709 -2.4980 0.9688
-0.9620 7.4539 -2.4983 0.9688
-1.1117 7.4340 -2.4986 0.9688
-1.5583 7.3573 -2.4999 0.9688
-2.0000 7.2550 -2.5016 0.9688
-2.7177 7.0182 -2.5017 0.9688
-2.8582 6.9622 -2.5017 0.9688
-2.9975 6.9033 -2.5017 0.9688
-3.1356 6.8417 -2.5017 0.9688
-3.6747 6.5679 -2.5017 0.9688
-3.8059 6.4927 -2.5017 0.9688
-3.9356 6.4150 -2.5017 0.9688
-4.0637 6.3346 -2.5017 0.9688
-4.1901 6.2517 -2.5017 0.9688
-5.0251 5.6026 -2.5017 0.9688
-5.3535 5.2897 -2.5017 0.9688
-5.4587 5.1811 -2.5017 0.9688
-5.5617 5.0704 -2.5017 0.9688
-5.7609 4.8428 -2.5017 0.9688
-5.8570 4.7261 -2.5017 0.9688
-5.9508 4.6075 -2.5017 0.9688
-6.1311 4.3647 -2.5017 0.9688
-6.3829 3.9874 -2.5017 0.9688
-6.4617 3.8584 -2.5017 0.9688
-6.5379 3.7278 -2.5017 0.9688
-6.6115 3.5957 -2.5017 0.9688
-6.7506 3.3272 -2.5017 0.9688
-6.8161 3.1909 -2.5017 0.9688
-6.9388 2.9145 -2.5017 0.9688
-6.9959 2.7745 -2.5017 0.9688
-7.0503 2.6334 -2.5017 0.9688
-7.1504 2.3480 -2.5017 0.9688
-7.2788 1.9130 -2.5017 0.9688
-7.3158 1.7664 -2.5017 0.9688
-7.3498 1.6191 -2.5017 0.9688
-7.4561 1.0238 -2.5017 0.9688
-7.4912 0.7234 -2.5017 0.9688
-7.5211 0.2709 -2.5017 0.9688
-7.5251 0.1197 -2.5017 0.9688
-7.5259 -0.0315 -2.5017 0.9688
-7.5238 -0.1827 -2.5017 0.9688
-7.5104 -0.4848 -2.5017 0.9688
-7.4848 -0.7862 -2.5017 0.9688
-7.4675 -0.9364 -2.5017 0.9688
-7.4472 -1.0862 -2.5017 0.9688
-7.4239 -1.2356 -2.5017 0.9688
-7.3976 -1.3845 -2.5017 0.9688
-7.3683 -1.5328 -2.5017 0.9688
-7.2625 -1.9739 -2.5017 0.9688
-7.0806 -2.5506 -2.5017 0.9688
-6.8530 -3.1108 -2.5017 0.9688
-6.7891 -3.2479 -2.5017 0.9688
-6.6532 -3.5180 -2.5017 0.9688
-6.4292 -3.9124 -2.5017 0.9688
-6.3493 -4.0408 -2.5017 0.9688
-6.0044 -4.5375 -2.5017 0.9688
-5.9120 -4.6572 -2.5017 0.9688
-5.7201 -4.8909 -2.5017 0.9688
-5.6207 -5.0049 -2.5017 0.9688
-5.4151 -5.2266 -2.5017 0.9688
-5.3090 -5.3344 -2.5017 0.9688
-5.2008 -5.4399 -2.5017 0.9688
-4.9780 -5.6445 -2.5017 0.9688
-4.8636 -5.7434 -2.5017 0.9688
-4.7472 -5.8399 -2.5017 0.9688
-4.6290 -5.9341 -2.5017 0.9688
-4.5088 -6.0259 -2.5017 0.9688
-4.3868 -6.1153 -2.5017 0.9688
-4.1376 -6.2866 -2.5017 0.9688
-4.0105 -6.3684 -2.5017 0.9688
-3.7514 -6.5244 -2.5017 0.9688
-3.6196 -6.5985 -2.5017 0.9688
-3.3516 -6.7385 -2.5017 0.9688
-3.0782 -6.8677 -2.5017 0.9688
-2.9395 -6.9282 -2.5017 0.9688
-2.7998 -6.9859 -2.5017 0.9688
-2.6588 -7.0407 -2.5017 0.9688
-2.5169 -7.0927 -2.5017 0.9688
-2.2299 -7.1881 -2.5017 0.9688
-2.0850 -7.2314 -2.5017 0.9688
-1.9393 -7.2719 -2.5017 0.9688
-1.7928 -7.3094 -2.5017 0.9688
-1.6456 -7.3439 -2.5017 0.9688
-1.2002 -7.4297 -2.5017 0.9688
-1.0507 -7.4523 -2.5017 0.9688
-0.9008 -7.4719 -2.5017 0.9688
-0.5999 -7.5021 -2.5017 0.9688
0.0043 -7.5260 -2.5017 0.9688
0.3067 -7.5197 -2.5017 0.9688
0.6085 -7.5014 -2.5017 0.9688
1.2088 -7.4283 -2.5017 0.9688
1.6540 -7.3420 -2.5017 0.9688
1.8012 -7.3073 -2.5017 0.9688
2.2381 -7.1855 -2.5017 0.9688
2.8078 -6.9826 -2.5017 0.9688
3.2233 -6.8008 -2.5017 0.9688
3.6271 -6.5943 -2.5017 0.9688
3.7589 -6.5201 -2.5017 0.9688
6.3490 2.9375 -2.5017 0.9707
6.2258 3.1902 -2.5017 0.9707
6.1605 3.3146 -2.5017 0.9707
6.0926 3.4377 -2.5017 0.9707
5.9496 3.6797 -2.5017 0.9707
5.8745 3.7985 -2.5017 0.9707
5.7970 3.9158 -2.5017 0.9707
5.6350 4.1455 -2.5017 0.9707
5.4639 4.3685 -2.5017 0.9707
5.3750 4.4774 -2.5017 0.9707
5.1908 4.6897 -2.5017 0.9707
5.0956 4.7931 -2.5017 0.9707
4.4822 5.3711 -2.5017 0.9707
4.0365 5.7136 -2.5017 0.9707
3.6850 5.9464 -2.5017 0.9707
3.5648 6.0192 -2.5017 0.9707
3.3201 6.1576 -2.5017 0.9707
3.1957 6.2230 -2.5017 0.9707
3.0700 6.2860 -2.5017 0.9707
2.9431 6.3464 -2.5017 0.9707
2.8150 6.4042 -2.5017 0.9707
2.2918 6.6096 -2.5017 0.9707
2.1585 6.6543 -2.5017 0.9707
1.3426 6.8655 -2.5017 0.9707
1.2044 6.8911 -2.5017 0.9707
1.0657 6.9139 -2.5017 0.9707
0.9266 6.9340 -2.5017 0.9707
0.6473 6.9656 -2.5017 0.9707
0.5072 6.9772 -2.5017 0.9707
0.2265 6.9919 -2.5017 0.9707
0.0860 6.9951 -2.5017 0.9707
-0.0546 6.9954 -2.5017 0.9707
-0.1951 6.9929 -2.5017 0.9707
-0.3355 6.9875 -2.5017 0.9707
-0.8954 6.9380 -2.5017 0.9707
-1.0347 6.9187 -2.5017 0.9707
-1.4496 6.8438 -2.5017 0.9707
-1.7233 6.7800 -2.5017 0.9707
-1.9943 6.7053 -2.5017 0.9707
-2.2621 6.6198 -2.5017 0.9707
-2.3946 6.5730 -2.5017 0.9707
-2.6567 6.4715 -2.5017 0.9707
-2.7862 6.4168 -2.5017 0.9707
-2.9146 6.3596 -2.5017 0.9707
-3.1677 6.2373 -2.5017 0.9707
-3.2924 6.1724 -2.5017 0.9707
-3.5377 6.0352 -2.5017 0.9707
-3.6582 5.9629 -2.5017 0.9707
-3.8948 5.8111 -2.5017 0.9707
-4.0108 5.7317 -2.5017 0.9707
-4.3488 5.4797 -2.5017 0.9707
-4.8764 5.0159 -2.5017 0.9707
-4.9762 4.9169 -2.5017 0.9707
-5.0740 4.8159 -2.5017 0.9707
-5.1697 4.7130 -2.5017 0.9707
-5.2634 4.6082 -2.5017 0.9707
-5.4442 4.3930 -2.5017 0.9707
-5.5314 4.2828 -2.5017 0.9707
-5.6990 4.0571 -2.5017 0.9707
-5.8574 3.8249 -2.5017 0.9707
-6.1455 3.3423 -2.5017 0.9707
-6.2115 3.2182 -2.5017 0.9707
-6.2749 3.0927 -2.5017 0.9707
-6.3357 2.9660 -2.5017 0.9707
-6.5029 2.5790 -2.5017 0.9707
-6.6013 2.3157 -2.5017 0.9707
-6.6890 2.0486 -2.5017 0.9707
-6.8002 1.6419 -2.5017 0.9707
-6.8318 1.5050 -2.5017 0.9707
-6.8607 1.3674 -2.5017 0.9707
-6.8868 1.2293 -2.5017 0.9707
-6.9101 1.0907 -2.5017 0.9707
-6.9306 0.9517 -2.5017 0.9707
-6.9753 0.5324 -2.5017 0.9707
-6.9956 -0.0293 -2.5017 0.9707
-6.9887 -0.3103 -2.5017 0.9707
-6.9811 -0.4507 -2.5017 0.9707
-6.9706 -0.5908 -2.5017 0.9707
-6.9574 -0.7308 -2.5017 0.9707
-6.9413 -0.8704 -2.5017 0.9707
-6.9224 -1.0097 -2.5017 0.9707
-6.9007 -1.1485 -2.5017 0.9707
-6.8762 -1.2869 -2.5017 0.9707
-6.8490 -1.4248 -2.5017 0.9707
-6.8190 -1.5621 -2.5017 0.9707
-6.7862 -1.6988 -2.5017 0.9707
-6.7125 -1.9701 -2.5017 0.9707
-6.6279 -2.2382 -2.5017 0.9707
-6.5816 -2.3709 -2.5017 0.9707
-6.3701 -2.8916 -2.5017 0.9707
-6.2488 -3.1452 -2.5017 0.9707
-6.1843 -3.2701 -2.5017 0.9707
-6.1174 -3.3937 -2.5017 0.9707
-6.0479 -3.5159 -2.5017 0.9707
-5.9018 -3.7560 -2.5017 0.9707
-5.8252 -3.8738 -2.5017 0.9707
-5.7462 -3.9901 -2.5017 0.9707
-5.2246 -4.6521 -2.5017 0.9707
-5.1301 -4.7562 -2.5017 0.9707
-4.7317 -5.1527 -2.5017 0.9707
-4.6272 -5.2467 -2.5017 0.9707
-4.5209 -5.3386 -2.5017 0.9707
-4.4127 -5.4283 -2.5017 0.9707
-4.1911 -5.6012 -2.5017 0.9707
-4.0777 -5.6843 -2.5017 0.9707
-3.3645 -6.1334 -2.5017 0.9707
-3.2406 -6.1998 -2.5017 0.9707
-2.9889 -6.3250 -2.5017 0.9707
-2.4715 -6.5445 -2.5017 0.9707
-2.3395 -6.5928 -2.5017 0.9707
-1.8027 -6.7594 -2.5017 0.9707
-1.6665 -6.7942 -2.5017 0.9707
-1.3922 -6.8557 -2.5017 0.9707
-1.1157 -6.9061 -2.5017 0.9707
-0.9767 -6.9271 -2.5017 0.9707
-0.2770 -6.9901 -2.5017 0.9707
-0.1365 -6.9943 -2.5017 0.9707
0.1446 -6.9941 -2.5017 0.9707
0.2851 -6.9898 -2.5017 0.9707
0.7056 -6.9600 -2.5017 0.9707
1.1236 -6.9048 -2.5017 0.9707
1.2621 -6.8808 -2.5017 0.9707
1.5375 -6.8246 -2.5017 0.9707
1.6743 -6.7923 -2.5017 0.9707
1.8104 -6.7573 -2.5017 0.9707
1.9458 -6.7196 -2.5017 0.9707
2.3471 -6.5902 -2.5017 0.9707
2.6099 -6.4905 -2.5017 0.9707
2.7398 -6.4368 -2.5017 0.9707
2.8686 -6.3805 -2.5017 0.9707
3.1225 -6.2601 -2.5017 0.9707
3.4940 -6.0606 -2.5017 0.9707
5.9247 2.7412 -2.5017 0.9724
5.8684 2.8597 -2.5017 0.9724
5.8098 2.9770 -2.5017 0.9724
5.7488 3.0931 -2.5017 0.9724
5.5520 3.4338 -2.5017 0.9724
5.4819 3.5447 -2.5017 0.9724
5.4096 3.6541 -2.5017 0.9724
5.3351 3.7620 -2.5017 0.9724
5.2584 3.8685 -2.5017 0.9724
5.1796 3.9733 -2.5017 0.9724
5.0988 4.0766 -2.5017 0.9724
4.9309 4.2781 -2.5017 0.9724
4.8439 4.3763 -2.5017 0.9724
4.6642 4.5674 -2.5017 0.9724
4.5715 4.6602 -2.5017 0.9724
4.3806 4.8401 -2.5017 0.9724
4.2825 4.9271 -2.5017 0.9724
4.1826 5.0121 -2.5017 0.9724
3.9779 5.1761 -2.5017 0.9724
3.5495 5.4788 -2.5017 0.9724
3.0982 5.7461 -2.5017 0.9724
2.9821 5.8071 -2.5017 0.9724
2.8648 5.8659 -2.5017 0.9724
2.6269 5.9762 -2.5017 0.9724
2.5063 6.0278 -2.5017 0.9724
2.1386 6.1678 -2.5017 0.9724
2.0143 6.2096 -2.5017 0.9724
1.6366 6.3196 -2.5017 0.9724
1.5093 6.3512 -2.5017 0.9724
1.2529 6.4067 -2.5017 0.9724
1.1239 6.4306 -2.5017 0.9724
0.8647 6.4706 -2.5017 0.9724
0.6040 6.5001 -2.5017 0.9724
0.0803 6.5276 -2.5017 0.9724
-0.0509 6.5279 -2.5017 0.9724
-0.1821 6.5255 -2.5017 0.9724
-0.4441 6.5129 -2.5017 0.9724
-0.5748 6.5027 -2.5017 0.9724
-0.9655 6.4563 -2.5017 0.9724
-1.7349 6.2933 -2.5017 0.9724
-1.8610 6.2572 -2.5017 0.9724
-2.4792 6.0390 -2.5017 0.9724
-2.6000 5.9880 -2.5017 0.9724
-2.9560 5.8205 -2.5017 0.9724
-3.0723 5.7599 -2.5017 0.9724
-3.4137 5.5644 -2.5017 0.9724
-3.5248 5.4947 -2.5017 0.9724
-3.7427 5.3486 -2.5017 0.9724
-3.9546 5.1940 -2.5017 0.9724
-4.0581 5.1134 -2.5017 0.9724
-4.1601 5.0309 -2.5017 0.9724
-4.2603 4.9463 -2.5017 0.9724
-4.3588 4.8597 -2.5017 0.9724
-4.5505 4.6807 -2.5017 0.9724
-4.7349 4.4941 -2.5017 0.9724
-4.9116 4.3002 -2.5017 0.9724
-4.9970 4.2007 -2.5017 0.9724
-5.0804 4.0995 -2.5017 0.9724
-5.1617 3.9966 -2.5017 0.9724
-5.2410 3.8921 -2.5017 0.9724
-5.3181 3.7860 -2.5017 0.9724
-5.3931 3.6784 -2.5017 0.9724
-5.4659 3.5693 -2.5017 0.9724
-5.5365 3.4587 -2.5017 0.9724
-5.6049 3.3468 -2.5017 0.9724
-5.6710 3.2335 -2.5017 0.9724
-5.7963 3.0031 -2.5017 0.9724
-5.9667 2.6485 -2.5017 0.9724
-6.1154 2.2842 -2.5017 0.9724
-6.1601 2.1609 -2.5017 0.9724
-6.2023 2.0367 -2.5017 0.9724
-6.2419 1.9117 -2.5017 0.9724
-6.2791 1.7859 -2.5017 0.9724
-6.3752 1.4044 -2.5017 0.9724
-6.4022 1.2760 -2.5017 0.9724
-6.4840 0.7579 -2.5017 0.9724
-6.4979 0.6275 -2.5017 0.9724
-6.5092 0.4968 -2.5017 0.9724
-6.5178 0.3660 -2.5017 0.9724
-6.5273 0.1038 -2.5017 0.9724
-6.5280 -0.0273 -2.5017 0.9724
-6.5262 -0.1585 -2.5017 0.9724
-6.5145 -0.4205 -2.5017 0.9724
-6.5048 -0.5513 -2.5017 0.9724
-6.4924 -0.6819 -2.5017 0.9724
-6.4395 -1.0718 -2.5017 0.9724
-6.4167 -1.2009 -2.5017 0.9724
-6.3633 -1.4577 -2.5017 0.9724
-6.3327 -1.5853 -2.5017 0.9724
-6.2257 -1.9639 -2.5017 0.9724
-6.1418 -2.2124 -2.5017 0.9724
-5.9443 -2.6983 -2.5017 0.9724
-5.8889 -2.8172 -2.5017 0.9724
-5.8311 -2.9350 -2.5017 0.9724
-5.7710 -3.0515 -2.5017 0.9724
-5.7085 -3.1669 -2.5017 0.9724
-5.6437 -3.2809 -2.5017 0.9724
-5.5074 -3.5050 -2.5017 0.9724
-5.3621 -3.7234 -2.5017 0.9724
-5.2862 -3.8304 -2.5017 0.9724
-5.2082 -3.9358 -2.5017 0.9724
-4.9617 -4.2424 -2.5017 0.9724
-4.7872 -4.4383 -2.5017 0.9724
-4.6971 -4.5336 -2.5017 0.9724
-4.2187 -4.9818 -2.5017 0.9724
-4.0152 -5.1473 -2.5017 0.9724
-3.8052 -5.3044 -2.5017 0.9724
-3.6978 -5.3798 -2.5017 0.9724
-3.4787 -5.5240 -2.5017 0.9724
-3.1396 -5.7235 -2.5017 0.9724
-3.0240 -5.7855 -2.5017 0.9724
-2.6700 -5.9571 -2.5017 0.9724
-2.3063 -6.1071 -2.5017 0.9724
-2.1831 -6.1522 -2.5017 0.9724
-2.0591 -6.1949 -2.5017 0.9724
-1.9342 -6.2350 -2.5017 0.9724
-1.8086 -6.2726 -2.5017 0.9724
-1.6822 -6.3076 -2.5017 0.9724
-1.4274 -6.3701 -2.5017 0.9724
-1.2992 -6.3975 -2.5017 0.9724
-1.1704 -6.4223 -2.5017 0.9724
-1.0411 -6.4446 -2.5017 0.9724
-0.9114 -6.4642 -2.5017 0.9724
-0.7814 -6.4812 -2.5017 0.9724
-0.5203 -6.5073 -2.5017 0.9724
0.0037 -6.5281 -2.5017 0.9724
0.1349 -6.5267 -2.5017 0.9724
0.2660 -6.5227 -2.5017 0.9724
0.3970 -6.5160 -2.5017 0.9724
0.5278 -6.5067 -2.5017 0.9724
0.6584 -6.4948 -2.5017 0.9724
0.7888 -6.4803 -2.5017 0.9724
1.1777 -6.4210 -2.5017 0.9724
1.3065 -6.3960 -2.5017 0.9724
1.5624 -6.3384 -2.5017 0.9724
2.1902 -6.1497 -2.5017 0.9724
2.3133 -6.1045 -2.5017 0.9724
2.4355 -6.0568 -2.5017 0.9724
2.5567 -6.0066 -2.5017 0.9724
2.7959 -5.8991 -2.5017 0.9724
3.0306 -5.7820 -2.5017 0.9724
5.5475 2.5667 -2.5017 0.9739
5.4948 2.6776 -2.5017 0.9739
5.4399 2.7875 -2.5017 0.9739
5.3235 3.0038 -2.5017 0.9739
5.2621 3.1101 -2.5017 0.9739
5.1985 3.2152 -2.5017 0.9739
5.0652 3.4214 -2.5017 0.9739
4.9954 3.5225 -2.5017 0.9739
4.9236 3.6222 -2.5017 0.9739
4.7741 3.8170 -2.5017 0.9739
4.6169 4.0058 -2.5017 0.9739
4.4523 4.1880 -2.5017 0.9739
4.1919 4.4486 -2.5017 0.9739
4.0098 4.6134 -2.5017 0.9739
3.8212 4.7708 -2.5017 0.9739
3.7246 4.8466 -2.5017 0.9739
3.6265 4.9204 -2.5017 0.9739
3.5269 4.9923 -2.5017 0.9739
3.4259 5.0621 -2.5017 0.9739
3.0084 5.3209 -2.5017 0.9739
2.9009 5.3802 -2.5017 0.9739
2.7923 5.4374 -2.5017 0.9739
2.5716 5.5452 -2.5017 0.9739
2.4596 5.5957 -2.5017 0.9739
2.3467 5.6440 -2.5017 0.9739
2.1181 5.7337 -2.5017 0.9739
2.0025 5.7751 -2.5017 0.9739
1.8860 5.8142 -2.5017 0.9739
1.7688 5.8509 -2.5017 0.9739
1.6509 5.8853 -2.5017 0.9739
1.4132 5.9469 -2.5017 0.9739
1.2934 5.9740 -2.5017 0.9739
1.1731 5.9988 -2.5017 0.9739
0.6877 6.0737 -2.5017 0.9739
0.5656 6.0862 -2.5017 0.9739
0.4432 6.0964 -2.5017 0.9739
-0.1705 6.1101 -2.5017 0.9739
-0.4158 6.0983 -2.5017 0.9739
-0.5382 6.0887 -2.5017 0.9739
-1.2666 5.9798 -2.5017 0.9739
-1.5058 5.9241 -2.5017 0.9739
-1.8599 5.8226 -2.5017 0.9739
-1.9765 5.7841 -2.5017 0.9739
-2.0923 5.7432 -2.5017 0.9739
-2.2073 5.7000 -2.5017 0.9739
-2.5466 5.5567 -2.5017 0.9739
-2.6577 5.5044 -2.5017 0.9739
-2.7678 5.4499 -2.5017 0.9739
-2.8767 5.3932 -2.5017 0.9739
-3.1964 5.2101 -2.5017 0.9739
-3.5045 5.0081 -2.5017 0.9739
-3.6044 4.9367 -2.5017 0.9739
-3.7028 4.8633 -2.5017 0.9739
-3.8952 4.7106 -2.5017 0.9739
-4.1719 4.4674 -2.5017 0.9739
-4.2608 4.3827 -2.5017 0.9739
-4.4334 4.2080 -2.5017 0.9739
-4.5171 4.1181 -2.5017 0.9739
-4.6789 3.9333 -2.5017 0.9739
-4.7569 3.8385 -2.5017 0.9739
-4.8331 3.7421 -2.5017 0.9739
-5.1179 3.3420 -2.5017 0.9739
-5.3100 3.0277 -2.5017 0.9739
-5.4273 2.8119 -2.5017 0.9739
-5.4827 2.7023 -2.5017 0.9739
-5.6355 2.3671 -2.5017 0.9739
-5.6820 2.2534 -2.5017 0.9739
-5.7261 2.1388 -2.5017 0.9739
-5.7679 2.0233 -2.5017 0.9739
-5.8074 1.9070 -2.5017 0.9739
-5.8445 1.7900 -2.5017 0.9739
-5.8793 1.6722 -2.5017 0.9739
-5.9117 1.5537 -2.5017 0.9739
-5.9694 1.3150 -2.5017 0.9739
-6.1029 0.3427 -2.5017 0.9739
-6.1124 -0.0256 -2.5017 0.9739
-6.1065 -0.2711 -2.5017 0.9739
-6.0906 -0.5162 -2.5017 0.9739
-6.0485 -0.8822 -2.5017 0.9739
-6.0296 -1.0035 -2.5017 0.9739
-6.0082 -1.1245 -2.5017 0.9739
-5.9844 -1.2450 -2.5017 0.9739
-5.8293 -1.8389 -2.5017 0.9739
-5.6629 -2.3009 -2.5017 0.9739
-5.6155 -2.4142 -2.5017 0.9739
-5.5140 -2.6379 -2.5017 0.9739
-5.4036 -2.8572 -2.5017 0.9739
-5.3451 -2.9652 -2.5017 0.9739
-5.2844 -3.0720 -2.5017 0.9739
-5.0898 -3.3848 -2.5017 0.9739
-5.0207 -3.4863 -2.5017 0.9739
-4.8016 -3.7825 -2.5017 0.9739
-4.7246 -3.8782 -2.5017 0.9739
-4.5650 -4.0648 -2.5017 0.9739
-4.4824 -4.1557 -2.5017 0.9739
-4.2240 -4.4182 -2.5017 0.9739
-4.1344 -4.5022 -2.5017 0.9739
-3.9501 -4.6646 -2.5017 0.9739
-3.4624 -5.0373 -2.5017 0.9739
-3.3605 -5.1058 -2.5017 0.9739
-3.1527 -5.2367 -2.5017 0.9739
-2.8315 -5.4171 -2.5017 0.9739
-2.6116 -5.5265 -2.5017 0.9739
-2.5000 -5.5779 -2.5017 0.9739
-2.3874 -5.6270 -2.5017 0.9739
-2.2739 -5.6738 -2.5017 0.9739
-2.0442 -5.7605 -2.5017 0.9739
-1.9280 -5.8005 -2.5017 0.9739
-1.6934 -5.8732 -2.5017 0.9739
-1.5751 -5.9061 -2.5017 0.9739
-1.4561 -5.9365 -2.5017 0.9739
-1.0958 -6.0135 -2.5017 0.9739
-0.4872 -6.0930 -2.5017 0.9739
-0.2421 -6.1077 -2.5017 0.9739
-0.1193 -6.1113 -2.5017 0.9739
0.1263 -6.1112 -2.5017 0.9739
0.4942 -6.0925 -2.5017 0.9739
0.7386 -6.0677 -2.5017 0.9739
0.8603 -6.0516 -2.5017 0.9739
0.9817 -6.0331 -2.5017 0.9739
1.2233 -5.9888 -2.5017 0.9739
1.3434 -5.9630 -2.5017 0.9739
1.4629 -5.9348 -2.5017 0.9739
1.7002 -5.8713 -2.5017 0.9739
1.8178 -5.8359 -2.5017 0.9739
1.9346 -5.7982 -2.5017 0.9739
2.1660 -5.7158 -2.5017 0.9739
2.5064 -5.5750 -2.5017 0.9739
2.6179 -5.5235 -2.5017 0.9739
2.7283 -5.4698 -2.5017 0.9739
2.8377 -5.4138 -2.5017 0.9739
2.9459 -5.3557 -2.5017 0.9739
5.2096 2.4104 -2.5017 0.9753
5.1086 2.6177 -2.5017 0.9753
5.0550 2.7198 -2.5017 0.9753
4.7567 3.2131 -2.5017 0.9753
4.6912 3.3080 -2.5017 0.9753
4.3358 3.7618 -2.5017 0.9753
4.2593 3.8481 -2.5017 0.9753
4.1013 4.0161 -2.5017 0.9753
4.0198 4.0978 -2.5017 0.9753
3.9366 4.1777 -2.5017 0.9753
3.7656 4.3324 -2.5017 0.9753
3.6778 4.4072 -2.5017 0.9753
3.5885 4.4802 -2.5017 0.9753
3.4056 4.6208 -2.5017 0.9753
3.2173 4.7539 -2.5017 0.9753
3.1211 4.8175 -2.5017 0.9753
3.0237 4.8793 -2.5017 0.9753
2.9250 4.9390 -2.5017 0.9753
2.8252 4.9968 -2.5017 0.9753
2.7243 5.0525 -2.5017 0.9753
2.5191 5.1579 -2.5017 0.9753
2.0969 5.3435 -2.5017 0.9753
1.9891 5.3846 -2.5017 0.9753
1.8805 5.4234 -2.5017 0.9753
1.7712 5.4601 -2.5017 0.9753
1.6611 5.4946 -2.5017 0.9753
1.5504 5.5269 -2.5017 0.9753
1.4390 5.5569 -2.5017 0.9753
1.2146 5.6102 -2.5017 0.9753
1.1017 5.6335 -2.5017 0.9753
0.6459 5.7037 -2.5017 0.9753
0.5311 5.7156 -2.5017 0.9753
0.1859 5.7372 -2.5017 0.9753
0.0706 5.7398 -2.5017 0.9753
-0.1601 5.7380 -2.5017 0.9753
-0.2753 5.7336 -2.5017 0.9753
-0.3905 5.7269 -2.5017 0.9753
-0.6202 5.7066 -2.5017 0.9753
-1.0764 5.6384 -2.5017 0.9753
-1.3020 5.5906 -2.5017 0.9753
-1.5255 5.5338 -2.5017 0.9753
-2.1800 5.3102 -2.5017 0.9753
-2.2862 5.2653 -2.5017 0.9753
-2.3915 5.2183 -2.5017 0.9753
-2.4959 5.1692 -2.5017 0.9753
-2.5992 5.1180 -2.5017 0.9753
-3.0017 4.8928 -2.5017 0.9753
-3.1959 4.7683 -2.5017 0.9753
-3.4773 4.5671 -2.5017 0.9753
-3.6580 4.4237 -2.5017 0.9753
-3.9178 4.1953 -2.5017 0.9753
-4.0013 4.1158 -2.5017 0.9753
-4.0832 4.0345 -2.5017 0.9753
-4.2420 3.8672 -2.5017 0.9753
-4.3188 3.7812 -2.5017 0.9753
-4.4672 3.6047 -2.5017 0.9753
-4.6084 3.4223 -2.5017 0.9753
-4.6763 3.3290 -2.5017 0.9753
-4.7422 3.2344 -2.5017 0.9753
-4.8062 3.1385 -2.5017 0.9753
-4.9284 2.9429 -2.5017 0.9753
-5.0968 2.6406 -2.5017 0.9753
-5.2466 2.3288 -2.5017 0.9753
-5.2923 2.2229 -2.5017 0.9753
-5.3359 2.1162 -2.5017 0.9753
-5.3774 2.0085 -2.5017 0.9753
-5.4166 1.9001 -2.5017 0.9753
-5.5212 1.5703 -2.5017 0.9753
-5.6058 1.2349 -2.5017 0.9753
-5.6295 1.1220 -2.5017 0.9753
-5.6869 0.7809 -2.5017 0.9753
-5.7236 0.4369 -2.5017 0.9753
-5.7312 0.3218 -2.5017 0.9753
-5.7365 0.2066 -2.5017 0.9753
-5.7395 0.0913 -2.5017 0.9753
-5.7385 -0.1394 -2.5017 0.9753
-5.7283 -0.3698 -2.5017 0.9753
-5.7088 -0.5996 -2.5017 0.9753
-5.6956 -0.7142 -2.5017 0.9753
-5.6623 -0.9424 -2.5017 0.9753
-5.6423 -1.0560 -2.5017 0.9753
-5.5684 -1.3940 -2.5017 0.9753
-5.5079 -1.6165 -2.5017 0.9753
-5.4743 -1.7269 -2.5017 0.9753
-5.4385 -1.8365 -2.5017 0.9753
-5.2735 -2.2672 -2.5017 0.9753
-5.0745 -2.6832 -2.5017 0.9753
-4.9626 -2.8849 -2.5017 0.9753
-4.7798 -3.1786 -2.5017 0.9753
-4.7150 -3.2740 -2.5017 0.9753
-4.6482 -3.3681 -2.5017 0.9753
-4.5092 -3.5521 -2.5017 0.9753
-4.4369 -3.6420 -2.5017 0.9753
-4.3628 -3.7304 -2.5017 0.9753
-3.9667 -4.1491 -2.5017 0.9753
-3.8826 -4.2280 -2.5017 0.9753
-3.7968 -4.3051 -2.5017 0.9753
-3.7096 -4.3805 -2.5017 0.9753
-3.5306 -4.5260 -2.5017 0.9753
-3.4389 -4.5961 -2.5017 0.9753
-3.3459 -4.6642 -2.5017 0.9753
-3.2515 -4.7305 -2.5017 0.9753
-3.1558 -4.7949 -2.5017 0.9753
-2.9607 -4.9178 -2.5017 0.9753
-2.6590 -5.0872 -2.5017 0.9753
-2.5563 -5.1396 -2.5017 0.9753
-2.3478 -5.2382 -2.5017 0.9753
-2.2420 -5.2843 -2.5017 0.9753
-2.0279 -5.3701 -2.5017 0.9753
-1.5903 -5.5155 -2.5017 0.9753
-1.3674 -5.5750 -2.5017 0.9753
-1.2551 -5.6013 -2.5017 0.9753
-1.0291 -5.6472 -2.5017 0.9753
-0.9154 -5.6668 -2.5017 0.9753
-0.8014 -5.6840 -2.5017 0.9753
-0.6871 -5.6989 -2.5017 0.9753
-0.5724 -5.7116 -2.5017 0.9753
-0.1120 -5.7391 -2.5017 0.9753
0.1186 -5.7390 -2.5017 0.9753
0.2339 -5.7354 -2.5017 0.9753
0.4641 -5.7214 -2.5017 0.9753
0.5790 -5.7109 -2.5017 0.9753
0.6936 -5.6982 -2.5017 0.9753
0.9219 -5.6657 -2.5017 0.9753
1.0356 -5.6460 -2.5017 0.9753
1.2616 -5.5999 -2.5017 0.9753
1.3738 -5.5734 -2.5017 0.9753
1.4855 -5.5447 -2.5017 0.9753
1.5966 -5.5137 -2.5017 0.9753
1.8168 -5.4451 -2.5017 0.9753
2.0341 -5.3677 -2.5017 0.9753
2.1415 -5.3258 -2.5017 0.9753
2.2481 -5.2817 -2.5017 0.9753
2.4585 -5.1871 -2.5017 0.9753
2.5622 -5.1367 -2.5017 0.9753
4.9496 2.1704 -2.5017 0.9765
4.9050 2.2694 -2.5017 0.9765
4.8098 2.4646 -2.5017 0.9765
4.7069 2.6559 -2.5017 0.9765
4.6526 2.7499 -2.5017 0.9765
4.5965 2.8428 -2.5017 0.9765
4.4785 3.0252 -2.5017 0.9765
4.4169 3.1146 -2.5017 0.9765
4.2882 3.2895 -2.5017 0.9765
4.0822 3.5418 -2.5017 0.9765
4.0102 3.6231 -2.5017 0.9765
3.9366 3.7029 -2.5017 0.9765
3.8614 3.7813 -2.5017 0.9765
3.7847 3.8581 -2.5017 0.9765
3.4628 4.1495 -2.5017 0.9765
3.2932 4.2853 -2.5017 0.9765
3.2065 4.3506 -2.5017 0.9765
3.1184 4.4141 -2.5017 0.9765
3.0291 4.4759 -2.5017 0.9765
2.9386 4.5358 -2.5017 0.9765
2.8469 4.5940 -2.5017 0.9765
2.7540 4.6502 -2.5017 0.9765
2.6600 4.7046 -2.5017 0.9765
2.5650 4.7571 -2.5017 0.9765
2.3718 4.8563 -2.5017 0.9765
2.2737 4.9030 -2.5017 0.9765
2.0749 4.9904 -2.5017 0.9765
1.6676 5.1408 -2.5017 0.9765
0.8233 5.3415 -2.5017 0.9765
0.5001 5.3813 -2.5017 0.9765
0.0664 5.4041 -2.5017 0.9765
-0.0422 5.4044 -2.5017 0.9765
-0.1507 5.4024 -2.5017 0.9765
-0.3676 5.3920 -2.5017 0.9765
-0.4759 5.3836 -2.5017 0.9765
-0.5839 5.3729 -2.5017 0.9765
-0.7993 5.3451 -2.5017 0.9765
-1.3314 5.2380 -2.5017 0.9765
-1.4363 5.2102 -2.5017 0.9765
-1.5407 5.1803 -2.5017 0.9765
-1.7476 5.1142 -2.5017 0.9765
-2.0525 4.9996 -2.5017 0.9765
-2.1525 4.9574 -2.5017 0.9765
-2.2517 4.9131 -2.5017 0.9765
-2.4472 4.8187 -2.5017 0.9765
-2.6388 4.7165 -2.5017 0.9765
-2.7331 4.6625 -2.5017 0.9765
-2.9182 4.5490 -2.5017 0.9765
-3.0090 4.4894 -2.5017 0.9765
-3.0986 4.4281 -2.5017 0.9765
-3.2740 4.3000 -2.5017 0.9765
-3.3597 4.2334 -2.5017 0.9765
-3.4441 4.1650 -2.5017 0.9765
-3.6086 4.0233 -2.5017 0.9765
-3.7673 3.8751 -2.5017 0.9765
-3.9939 3.6411 -2.5017 0.9765
-4.0663 3.5601 -2.5017 0.9765
-4.2733 3.3087 -2.5017 0.9765
-4.4028 3.1344 -2.5017 0.9765
-4.5836 2.8634 -2.5017 0.9765
-4.6402 2.7708 -2.5017 0.9765
-4.6950 2.6770 -2.5017 0.9765
-4.7478 2.5821 -2.5017 0.9765
-5.0999 1.7890 -2.5017 0.9765
-5.1348 1.6862 -2.5017 0.9765
-5.1676 1.5827 -2.5017 0.9765
-5.1984 1.4785 -2.5017 0.9765
-5.2270 1.3738 -2.5017 0.9765
-5.2536 1.2685 -2.5017 0.9765
-5.3204 0.9497 -2.5017 0.9765
-5.3543 0.7352 -2.5017 0.9765
-5.3795 0.5195 -2.5017 0.9765
-5.3960 0.3030 -2.5017 0.9765
-5.4010 0.1945 -2.5017 0.9765
-5.4030 -0.1312 -2.5017 0.9765
-5.3992 -0.2397 -2.5017 0.9765
-5.3852 -0.4564 -2.5017 0.9765
-5.3750 -0.5646 -2.5017 0.9765
-5.3312 -0.8873 -2.5017 0.9765
-5.3123 -0.9943 -2.5017 0.9765
-5.2913 -1.1008 -2.5017 0.9765
-5.2681 -1.2068 -2.5017 0.9765
-5.2428 -1.3124 -2.5017 0.9765
-5.2154 -1.4175 -2.5017 0.9765
-5.1858 -1.5220 -2.5017 0.9765
-5.1542 -1.6259 -2.5017 0.9765
-5.1205 -1.7291 -2.5017 0.9765
-4.9651 -2.1346 -2.5017 0.9765
-4.9213 -2.2339 -2.5017 0.9765
-4.8754 -2.3323 -2.5017 0.9765
-4.8275 -2.4298 -2.5017 0.9765
-4.7777 -2.5263 -2.5017 0.9765
-4.6169 -2.8096 -2.5017 0.9765
-4.4393 -3.0826 -2.5017 0.9765
-4.3764 -3.1711 -2.5017 0.9765
-4.3118 -3.2584 -2.5017 0.9765
-4.1077 -3.5122 -2.5017 0.9765
-4.0363 -3.5941 -2.5017 0.9765
-3.9633 -3.6744 -2.5017 0.9765
-3.8887 -3.7533 -2.5017 0.9765
-3.7348 -3.9065 -2.5017 0.9765
-3.4926 -4.1244 -2.5017 0.9765
-3.4091 -4.1937 -2.5017 0.9765
-3.3241 -4.2614 -2.5017 0.9765
-3.2378 -4.3273 -2.5017 0.9765
-3.0614 -4.4539 -2.5017 0.9765
-2.8800 -4.5733 -2.5017 0.9765
-2.7875 -4.6302 -2.5017 0.9765
-2.6939 -4.6853 -2.5017 0.9765
-2.5993 -4.7385 -2.5017 0.9765
-2.4068 -4.8391 -2.5017 0.9765
-2.1109 -4.9753 -2.5017 0.9765
-2.0106 -5.0167 -2.5017 0.9765
-1.9094 -5.0560 -2.5017 0.9765
-1.7047 -5.1287 -2.5017 0.9765
-1.6013 -5.1619 -2.5017 0.9765
-1.4973 -5.1930 -2.5017 0.9765
-1.3927 -5.2221 -2.5017 0.9765
-1.1817 -5.2738 -2.5017 0.9765
-1.0756 -5.2965 -2.5017 0.9765
-0.9689 -5.3170 -2.5017 0.9765
-0.5389 -5.3776 -2.5017 0.9765
-0.3225 -5.3949 -2.5017 0.9765
-0.2140 -5.4003 -2.5017 0.9765
0.0031 -5.4046 -2.5017 0.9765
0.1117 -5.4034 -2.5017 0.9765
0.3287 -5.3946 -2.5017 0.9765
0.4370 -5.3869 -2.5017 0.9765
0.5451 -5.3770 -2.5017 0.9765
0.7607 -5.3508 -2.5017 0.9765
1.0816 -5.2952 -2.5017 0.9765
1.1878 -5.2724 -2.5017 0.9765
1.3987 -5.2204 -2.5017 0.9765
1.8132 -5.0913 -2.5017 0.9765
1.9152 -5.0538 -2.5017 0.9765
2.0163 -5.0143 -2.5017 0.9765
2.1166 -4.9728 -2.5017 0.9765
2.2161 -4.9293 -2.5017 0.9765
2.3147 -4.8838 -2.5017 0.9765
2.5091 -4.7869 -2.5017 0.9765
2.6047 -4.7355 -2.5017 0.9765
4.6286 2.1416 -2.5017 0.9775
4.4417 2.5062 -2.5017 0.9775
4.3375 2.6827 -2.5017 0.9775
4.2262 2.8547 -2.5017 0.9775
4.1680 2.9391 -2.5017 0.9775
4.0465 3.1041 -2.5017 0.9775
3.9186 3.2642 -2.5017 0.9775
3.7843 3.4190 -2.5017 0.9775
3.6439 3.5682 -2.5017 0.9775
3.5714 3.6407 -2.5017 0.9775
3.2676 3.9157 -2.5017 0.9775
3.1883 3.9805 -2.5017 0.9775
2.5988 4.3882 -2.5017 0.9775
2.5101 4.4395 -2.5017 0.9775
2.4204 4.4891 -2.5017 0.9775
2.3298 4.5368 -2.5017 0.9775
2.0522 4.6689 -2.5017 0.9775
1.9580 4.7092 -2.5017 0.9775
1.8630 4.7475 -2.5017 0.9775
1.6708 4.8186 -2.5017 0.9775
1.4759 4.8818 -2.5017 0.9775
1.2785 4.9371 -2.5017 0.9775
1.1791 4.9619 -2.5017 0.9775
1.0792 4.9845 -2.5017 0.9775
0.4719 5.0781 -2.5017 0.9775
0.3698 5.0866 -2.5017 0.9775
0.2675 5.0930 -2.5017 0.9775
0.1651 5.0973 -2.5017 0.9775
0.0627 5.0996 -2.5017 0.9775
-0.1422 5.0980 -2.5017 0.9775
-0.2446 5.0941 -2.5017 0.9775
-0.3469 5.0882 -2.5017 0.9775
-0.4491 5.0802 -2.5017 0.9775
-0.5510 5.0702 -2.5017 0.9775
-0.6528 5.0581 -2.5017 0.9775
-0.7543 5.0439 -2.5017 0.9775
-1.1568 4.9671 -2.5017 0.9775
-1.4539 4.8884 -2.5017 0.9775
-1.7457 4.7919 -2.5017 0.9775
-2.0312 4.6781 -2.5017 0.9775
-2.1248 4.6363 -2.5017 0.9775
-2.2175 4.5927 -2.5017 0.9775
-2.3094 4.5472 -2.5017 0.9775
-2.4902 4.4508 -2.5017 0.9775
-2.5791 4.3998 -2.5017 0.9775
-2.7538 4.2927 -2.5017 0.9775
-2.9240 4.1786 -2.5017 0.9775
-3.0895 4.0577 -2.5017 0.9775
-3.2500 3.9304 -2.5017 0.9775
-3.3283 3.8643 -2.5017 0.9775
-3.6278 3.5846 -2.5017 0.9775
-3.7689 3.4360 -2.5017 0.9775
-3.8372 3.3595 -2.5017 0.9775
-3.9039 3.2818 -2.5017 0.9775
-4.2133 2.8737 -2.5017 0.9775
-4.2702 2.7885 -2.5017 0.9775
-4.3254 2.7021 -2.5017 0.9775
-4.3788 2.6147 -2.5017 0.9775
-4.4304 2.5262 -2.5017 0.9775
-4.4803 2.4366 -2.5017 0.9775
-4.5746 2.2547 -2.5017 0.9775
-4.6614 2.0691 -2.5017 0.9775
-4.7776 1.7845 -2.5017 0.9775
-4.8125 1.6882 -2.5017 0.9775
-4.8765 1.4935 -2.5017 0.9775
-4.9055 1.3952 -2.5017 0.9775
-4.9576 1.1970 -2.5017 0.9775
-5.0377 0.7952 -2.5017 0.9775
-5.0764 0.4902 -2.5017 0.9775
-5.0852 0.3881 -2.5017 0.9775
-5.0967 0.1835 -2.5017 0.9775
-5.1000 -0.0213 -2.5017 0.9775
-5.0985 -0.1238 -2.5017 0.9775
-5.0818 -0.4307 -2.5017 0.9775
-5.0721 -0.5328 -2.5017 0.9775
-5.0130 -0.9382 -2.5017 0.9775
-4.9931 -1.0388 -2.5017 0.9775
-4.9713 -1.1388 -2.5017 0.9775
-4.9474 -1.2385 -2.5017 0.9775
-4.8320 -1.6317 -2.5017 0.9775
-4.7982 -1.7284 -2.5017 0.9775
-4.7625 -1.8245 -2.5017 0.9775
-4.7249 -1.9198 -2.5017 0.9775
-4.6854 -2.0143 -2.5017 0.9775
-4.5555 -2.2929 -2.5017 0.9775
-4.4091 -2.5632 -2.5017 0.9775
-4.3026 -2.7383 -2.5017 0.9775
-4.2467 -2.8241 -2.5017 0.9775
-4.1891 -2.9089 -2.5017 0.9775
-4.1298 -2.9925 -2.5017 0.9775
-4.0689 -3.0748 -2.5017 0.9775
-3.8763 -3.3143 -2.5017 0.9775
-3.8089 -3.3916 -2.5017 0.9775
-3.7400 -3.4674 -2.5017 0.9775
-3.5977 -3.6149 -2.5017 0.9775
-3.5243 -3.6864 -2.5017 0.9775
-3.4495 -3.7565 -2.5017 0.9775
-3.2958 -3.8920 -2.5017 0.9775
-3.1368 -4.0213 -2.5017 0.9775
-3.0554 -4.0835 -2.5017 0.9775
-2.8039 -4.2601 -2.5017 0.9775
-2.7177 -4.3156 -2.5017 0.9775
-2.4528 -4.4715 -2.5017 0.9775
-2.3625 -4.5198 -2.5017 0.9775
-2.1790 -4.6111 -2.5017 0.9775
-2.0859 -4.6540 -2.5017 0.9775
-1.9920 -4.6949 -2.5017 0.9775
-1.8018 -4.7712 -2.5017 0.9775
-1.6087 -4.8397 -2.5017 0.9775
-1.4129 -4.9004 -2.5017 0.9775
-1.2149 -4.9532 -2.5017 0.9775
-0.5086 -5.0746 -2.5017 0.9775
-0.4065 -5.0838 -2.5017 0.9775
-0.3043 -5.0909 -2.5017 0.9775
-0.2020 -5.0960 -2.5017 0.9775
-0.0995 -5.0991 -2.5017 0.9775
0.0029 -5.1000 -2.5017 0.9775
0.1054 -5.0989 -2.5017 0.9775
0.3101 -5.0906 -2.5017 0.9775
0.7178 -5.0493 -2.5017 0.9775
0.8191 -5.0338 -2.5017 0.9775
1.0207 -4.9969 -2.5017 0.9775
1.2206 -4.9518 -2.5017 0.9775
1.3198 -4.9263 -2.5017 0.9775
1.5167 -4.8693 -2.5017 0.9775
1.7111 -4.8044 -2.5017 0.9775
1.9027 -4.7318 -2.5017 0.9775
2.0913 -4.6516 -2.5017 0.9775
2.1843 -4.6086 -2.5017 0.9775
2.2764 -4.5638 -2.5017 0.9775
4.3765 2.0249 -2.5017 0.9785
4.2916 2.1991 -2.5017 0.9785
4.2466 2.2849 -2.5017 0.9785
4.1012 2.5365 -2.5017 0.9785
3.9960 2.6992 -2.5017 0.9785
3.8262 2.9350 -2.5017 0.9785
3.7664 3.0113 -2.5017 0.9785
3.6424 3.1602 -2.5017 0.9785
3.5782 3.2328 -2.5017 0.9785
3.5125 3.3040 -2.5017 0.9785
3.3769 3.4424 -2.5017 0.9785
3.2359 3.5753 -2.5017 0.9785
3.1634 3.6396 -2.5017 0.9785
2.8610 3.8818 -2.5017 0.9785
2.6220 4.0471 -2.5017 0.9785
2.5401 4.0990 -2.5017 0.9785
2.4573 4.1492 -2.5017 0.9785
2.3734 4.1977 -2.5017 0.9785
2.2886 4.2445 -2.5017 0.9785
2.2029 4.2897 -2.5017 0.9785
2.1162 4.3331 -2.5017 0.9785
1.7615 4.4890 -2.5017 0.9785
1.5798 4.5561 -2.5017 0.9785
1.4879 4.5869 -2.5017 0.9785
1.2089 4.6682 -2.5017 0.9785
0.9255 4.7326 -2.5017 0.9785
0.7346 4.7660 -2.5017 0.9785
0.6387 4.7797 -2.5017 0.9785
0.2529 4.8156 -2.5017 0.9785
0.0593 4.8219 -2.5017 0.9785
-0.1345 4.8204 -2.5017 0.9785
-0.2313 4.8167 -2.5017 0.9785
-0.3280 4.8111 -2.5017 0.9785
-0.4246 4.8035 -2.5017 0.9785
-0.6173 4.7826 -2.5017 0.9785
-0.7132 4.7692 -2.5017 0.9785
-0.9042 4.7367 -2.5017 0.9785
-1.0938 4.6966 -2.5017 0.9785
-1.1879 4.6736 -2.5017 0.9785
-1.3747 4.6221 -2.5017 0.9785
-1.4673 4.5936 -2.5017 0.9785
-1.6507 4.5309 -2.5017 0.9785
-1.8313 4.4610 -2.5017 0.9785
-1.9206 4.4233 -2.5017 0.9785
-2.0091 4.3838 -2.5017 0.9785
-2.2695 4.2548 -2.5017 0.9785
-2.4386 4.1602 -2.5017 0.9785
-2.6038 4.0589 -2.5017 0.9785
-2.7647 3.9510 -2.5017 0.9785
-2.9212 3.8367 -2.5017 0.9785
-2.9977 3.7773 -2.5017 0.9785
-3.1470 3.6538 -2.5017 0.9785
-3.2198 3.5898 -2.5017 0.9785
-3.3614 3.4576 -2.5017 0.9785
-3.4302 3.3893 -2.5017 0.9785
-3.4976 3.3197 -2.5017 0.9785
-3.5636 3.2488 -2.5017 0.9785
-3.6912 3.1030 -2.5017 0.9785
-3.8715 2.8750 -2.5017 0.9785
-3.9285 2.7967 -2.5017 0.9785
-3.9838 2.7171 -2.5017 0.9785
-4.0376 2.6366 -2.5017 0.9785
-4.0898 2.5549 -2.5017 0.9785
-4.1403 2.4723 -2.5017 0.9785
-4.2363 2.3039 -2.5017 0.9785
-4.2817 2.2184 -2.5017 0.9785
-4.3254 2.1319 -2.5017 0.9785
-4.4076 1.9564 -2.5017 0.9785
-4.5815 1.5045 -2.5017 0.9785
-4.6108 1.4121 -2.5017 0.9785
-4.6639 1.2258 -2.5017 0.9785
-4.7093 1.0374 -2.5017 0.9785
-4.7292 0.9426 -2.5017 0.9785
-4.7472 0.8474 -2.5017 0.9785
-4.7633 0.7518 -2.5017 0.9785
-4.7999 0.4635 -2.5017 0.9785
-4.8083 0.3670 -2.5017 0.9785
-4.8191 0.1735 -2.5017 0.9785
-4.8050 -0.4073 -2.5017 0.9785
-4.7848 -0.6000 -2.5017 0.9785
-4.7718 -0.6960 -2.5017 0.9785
-4.7400 -0.8871 -2.5017 0.9785
-4.7005 -1.0768 -2.5017 0.9785
-4.6779 -1.1710 -2.5017 0.9785
-4.6271 -1.3580 -2.5017 0.9785
-4.5989 -1.4507 -2.5017 0.9785
-4.5688 -1.5428 -2.5017 0.9785
-4.5369 -1.6343 -2.5017 0.9785
-4.5031 -1.7251 -2.5017 0.9785
-4.4302 -1.9046 -2.5017 0.9785
-4.3074 -2.1680 -2.5017 0.9785
-4.2168 -2.3393 -2.5017 0.9785
-4.1194 -2.5069 -2.5017 0.9785
-4.0683 -2.5891 -2.5017 0.9785
-3.9049 -2.8295 -2.5017 0.9785
-3.8473 -2.9073 -2.5017 0.9785
-3.7881 -2.9840 -2.5017 0.9785
-3.6651 -3.1338 -2.5017 0.9785
-3.4017 -3.4180 -2.5017 0.9785
-3.2617 -3.5519 -2.5017 0.9785
-3.1897 -3.6167 -2.5017 0.9785
-3.1163 -3.6800 -2.5017 0.9785
-2.9660 -3.8023 -2.5017 0.9785
-2.8890 -3.8611 -2.5017 0.9785
-2.5697 -4.0805 -2.5017 0.9785
-2.4872 -4.1313 -2.5017 0.9785
-2.2338 -4.2737 -2.5017 0.9785
-1.9723 -4.4005 -2.5017 0.9785
-1.8835 -4.4392 -2.5017 0.9785
-1.7939 -4.4762 -2.5017 0.9785
-1.7036 -4.5113 -2.5017 0.9785
-1.6127 -4.5446 -2.5017 0.9785
-1.3360 -4.6335 -2.5017 0.9785
-1.1487 -4.6834 -2.5017 0.9785
-1.0544 -4.7056 -2.5017 0.9785
-0.5772 -4.7876 -2.5017 0.9785
-0.3844 -4.8069 -2.5017 0.9785
-0.1910 -4.8185 -2.5017 0.9785
-0.0941 -4.8213 -2.5017 0.9785
0.0028 -4.8222 -2.5017 0.9785
0.1965 -4.8183 -2.5017 0.9785
0.4864 -4.7977 -2.5017 0.9785
0.6787 -4.7743 -2.5017 0.9785
0.7745 -4.7596 -2.5017 0.9785
0.9651 -4.7247 -2.5017 0.9785
1.1541 -4.6821 -2.5017 0.9785
1.6179 -4.5428 -2.5017 0.9785
1.7991 -4.4741 -2.5017 0.9785
1.8886 -4.4370 -2.5017 0.9785
1.9774 -4.3982 -2.5017 0.9785
2.0653 -4.3576 -2.5017 0.9785
2.1525 -4.3152 -2.5017 0.9785
2.2387 -4.2711 -2.5017 0.9785
2.4085 -4.1777 -2.5017 0.9785
4.1831 1.8343 -2.5017 0.9794
4.1454 1.9180 -2.5017 0.9794
4.1060 2.0009 -2.5017 0.9794
4.0223 2.1642 -2.5017 0.9794
3.9780 2.2446 -2.5017 0.9794
3.9321 2.3240 -2.5017 0.9794
3.8846 2.4026 -2.5017 0.9794
3.7850 2.5567 -2.5017 0.9794
3.7329 2.6322 -2.5017 0.9794
3.6241 2.7800 -2.5017 0.9794
3.3892 3.0620 -2.5017 0.9794
3.3270 3.1295 -2.5017 0.9794
3.2635 3.1957 -2.5017 0.9794
3.1986 3.2606 -2.5017 0.9794
3.1324 3.3242 -2.5017 0.9794
3.0650 3.3865 -2.5017 0.9794
2.9964 3.4474 -2.5017 0.9794
2.7833 3.6216 -2.5017 0.9794
2.4060 3.8825 -2.5017 0.9794
2.2481 3.9760 -2.5017 0.9794
2.1677 4.0204 -2.5017 0.9794
2.0045 4.1042 -2.5017 0.9794
1.8380 4.1814 -2.5017 0.9794
1.7536 4.2175 -2.5017 0.9794
1.5828 4.2846 -2.5017 0.9794
1.4964 4.3155 -2.5017 0.9794
1.4094 4.3447 -2.5017 0.9794
1.3218 4.3721 -2.5017 0.9794
1.1451 4.4217 -2.5017 0.9794
1.0560 4.4438 -2.5017 0.9794
0.7864 4.4994 -2.5017 0.9794
0.5139 4.5386 -2.5017 0.9794
0.3312 4.5555 -2.5017 0.9794
0.2396 4.5613 -2.5017 0.9794
0.1479 4.5652 -2.5017 0.9794
-0.0356 4.5674 -2.5017 0.9794
-0.2191 4.5623 -2.5017 0.9794
-0.4022 4.5498 -2.5017 0.9794
-0.4935 4.5408 -2.5017 0.9794
-0.5846 4.5300 -2.5017 0.9794
-0.6755 4.5173 -2.5017 0.9794
-0.9464 4.4685 -2.5017 0.9794
-1.0360 4.4485 -2.5017 0.9794
-1.2139 4.4033 -2.5017 0.9794
-1.3898 4.3510 -2.5017 0.9794
-1.5635 4.2916 -2.5017 0.9794
-2.1497 4.0301 -2.5017 0.9794
-2.2302 3.9861 -2.5017 0.9794
-2.4663 3.8445 -2.5017 0.9794
-2.6187 3.7423 -2.5017 0.9794
-2.6934 3.6890 -2.5017 0.9794
-2.9107 3.5200 -2.5017 0.9794
-2.9808 3.4608 -2.5017 0.9794
-3.0498 3.4002 -2.5017 0.9794
-3.1175 3.3383 -2.5017 0.9794
-3.1839 3.2750 -2.5017 0.9794
-3.2491 3.2104 -2.5017 0.9794
-3.3754 3.0772 -2.5017 0.9794
-3.6670 2.7232 -2.5017 0.9794
-3.9679 2.2624 -2.5017 0.9794
-4.1748 1.8531 -2.5017 0.9794
-4.2112 1.7688 -2.5017 0.9794
-4.2459 1.6838 -2.5017 0.9794
-4.2788 1.5982 -2.5017 0.9794
-4.3396 1.4250 -2.5017 0.9794
