ply
format ascii 1.0
element vertex 1594
property float32 x
property float32 y
property float32 z
property float32 I
end_header
-7.1775 8.4497 -2.3435 0.9557
-7.3456 8.3033 -2.3434 0.9557
-7.8782 7.8909 -2.3570 0.9554
-8.1793 7.8694 -2.3992 0.9547
-9.1271 7.4666 -2.4926 0.9529
-9.2824 7.2871 -2.4945 0.9529
-9.4267 7.0987 -2.4944 0.9529
-9.7038 6.7135 -2.4942 0.9529
-9.9652 6.3176 -2.4941 0.9529
-10.0899 6.1157 -2.4940 0.9529
-10.2106 5.9114 -2.4939 0.9529
-10.3271 5.7048 -2.4939 0.9529
-10.4394 5.4959 -2.4938 0.9529
-10.6514 5.0714 -2.4937 0.9529
-10.8462 4.6389 -2.4936 0.9529
-11.1055 3.9764 -2.4934 0.9529
-11.1831 3.7522 -2.4934 0.9529
-11.3246 3.2995 -2.4933 0.9529
-11.5025 2.6107 -2.4932 0.9529
-11.5526 2.3788 -2.4932 0.9529
-11.6387 1.9124 -2.4932 0.9529
-11.6748 1.6780 -2.4932 0.9529
-11.7061 1.4429 -2.4932 0.9529
-11.7327 1.2073 -2.4932 0.9529
-11.7718 0.7346 -2.4932 0.9529
-11.7842 0.4977 -2.4932 0.9529
-11.7919 0.2607 -2.4932 0.9529
-11.7750 -0.6876 -2.4932 0.9529
-11.6473 -1.8661 -2.4934 0.9529
-11.6076 -2.0999 -2.4934 0.9529
-11.5633 -2.3329 -2.4935 0.9529
-11.4606 -2.7960 -2.4936 0.9529
-11.4023 -3.0260 -2.4936 0.9529
-11.3394 -3.2547 -2.4937 0.9529
-11.2720 -3.4821 -2.4938 0.9529
-11.2000 -3.7082 -2.4938 0.9529
-11.1234 -3.9327 -2.4939 0.9529
-10.8671 -4.5965 -2.4941 0.9529
-10.7728 -4.8143 -2.4942 0.9529
-10.6742 -5.0301 -2.4943 0.9529
-10.5712 -5.2439 -2.4944 0.9529
-10.4640 -5.4555 -2.4945 0.9529
-10.2370 -5.8723 -2.4946 0.9529
-10.1172 -6.0771 -2.4947 0.9529
-9.9934 -6.2796 -2.4948 0.9529
-9.8655 -6.4795 -2.4949 0.9529
-9.7337 -6.6768 -2.4950 0.9529
-9.4582 -7.0634 -2.4953 0.9529
-9.3146 -7.2525 -2.4954 0.9529
-9.1674 -7.4386 -2.4955 0.9529
-9.0164 -7.6218 -2.4956 0.9529
-8.7035 -7.9789 -2.4958 0.9529
-8.3765 -8.3232 -2.4961 0.9529
-8.2079 -8.4904 -2.4962 0.9529
-8.0359 -8.6541 -2.4963 0.9529
-7.8607 -8.8144 -2.4965 0.9529
-7.6823 -8.9712 -2.4966 0.9529
-6.9382 -9.5615 -2.4972 0.9528
-6.1490 -10.0904 -2.4977 0.9528
-5.7391 -10.3308 -2.4981 0.9528
-5.1068 -10.6599 -2.4985 0.9528
-4.8917 -10.7611 -2.4987 0.9528
-4.4557 -10.9505 -2.4990 0.9528
-4.2349 -11.0385 -2.4991 0.9528
-4.0123 -11.1222 -2.4993 0.9528
-3.3352 -11.3460 -2.4998 0.9528
-3.1066 -11.4115 -2.5000 0.9528
-2.8767 -11.4725 -2.5001 0.9528
-2.6456 -11.5287 -2.5003 0.9528
-2.4134 -11.5804 -2.5005 0.9528
-1.7112 -11.7071 -2.5009 0.9528
-1.4756 -11.7400 -2.5011 0.9528
-1.2393 -11.7680 -2.5013 0.9528
-1.0025 -11.7914 -2.5015 0.9528
-0.0519 -11.8370 -2.5021 0.9528
0.8995 -11.8060 -2.5028 0.9527
1.1368 -11.7863 -2.5029 0.9527
1.6099 -11.7326 -2.5033 0.9527
1.8456 -11.6986 -2.5034 0.9527
2.0806 -11.6599 -2.5036 0.9527
2.5480 -11.5683 -2.5039 0.9527
3.2414 -11.3958 -2.5044 0.9527
3.4701 -11.3290 -2.5045 0.9527
3.9233 -11.1817 -2.5049 0.9527
4.8101 -10.8330 -2.5055 0.9527
5.2424 -10.6320 -2.5057 0.9527
5.4554 -10.5251 -2.5059 0.9527
5.6662 -10.4138 -2.5060 0.9527
5.8748 -10.2984 -2.5062 0.9527
6.0810 -10.1788 -2.5063 0.9527
6.4860 -9.9271 -2.5066 0.9527
6.6847 -9.7952 -2.5067 0.9527
6.8806 -9.6593 -2.5068 0.9527
7.2641 -9.3758 -2.5071 0.9527
7.6359 -9.0770 -2.5073 0.9527
7.8173 -8.9221 -2.5074 0.9527
7.9954 -8.7635 -2.5076 0.9527
8.1704 -8.6014 -2.5077 0.9527
8.5103 -8.2666 -2.5079 0.9527
8.8365 -7.9184 -2.5081 0.9526
9.2989 -7.3722 -2.5084 0.9526
9.4456 -7.1840 -2.5085 0.9526
9.5885 -6.9929 -2.5086 0.9526
9.8625 -6.6021 -2.5087 0.9526
10.1206 -6.2007 -2.5089 0.9526
10.2436 -5.9961 -2.5090 0.9526
10.3623 -5.7891 -2.5090 0.9526
10.5873 -5.3681 -2.5092 0.9526
10.7950 -4.9383 -2.5093 0.9526
10.8924 -4.7204 -2.5093 0.9526
10.9853 -4.5005 -2.5094 0.9526
11.0738 -4.2788 -2.5094 0.9526
11.2373 -3.8303 -2.5095 0.9526
11.3122 -3.6036 -2.5096 0.9526
11.3825 -3.3755 -2.5096 0.9526
11.5657 -2.6832 -2.5097 0.9526
11.7770 -1.5088 -2.5098 0.9526
11.8049 -1.2718 -2.5098 0.9526
11.8281 -1.0342 -2.5098 0.9526
11.8465 -0.7961 -2.5098 0.9526
11.8601 -0.5578 -2.5098 0.9526
11.8728 -0.0805 -2.5097 0.9526
11.8663 0.3969 -2.5097 0.9526
11.8558 0.6354 -2.5097 0.9526
11.8204 1.1116 -2.5096 0.9526
11.7956 1.3490 -2.5096 0.9526
11.7659 1.5859 -2.5096 0.9526
11.7314 1.8221 -2.5095 0.9526
11.6483 2.2922 -2.5094 0.9526
11.5996 2.5259 -2.5094 0.9526
11.4882 2.9901 -2.5093 0.9526
11.4255 3.2204 -2.5092 0.9526
11.3582 3.4494 -2.5092 0.9526
11.2097 3.9030 -2.5090 0.9526
11.1287 4.1275 -2.5090 0.9526
10.5490 5.4358 -2.5085 0.9526
10.3211 5.8551 -2.5083 0.9526
9.9482 6.4659 -2.5080 0.9526
9.8158 6.6644 -2.5079 0.9527
9.5320 7.0478 -2.5058 0.9527
9.3767 7.2291 -2.5027 0.9527
8.2460 7.4872 -2.3543 0.9555
8.0934 7.6511 -2.3542 0.9555
7.9375 7.8119 -2.3541 0.9555
10.1360 -3.3471 -2.5087 0.9571
10.2014 -3.1427 -2.5088 0.9571
10.2627 -2.9369 -2.5088 0.9571
10.3198 -2.7300 -2.5088 0.9571
10.4658 -2.1030 -2.5089 0.9571
10.5420 -1.6805 -2.5089 0.9571
10.6243 -1.0419 -2.5089 0.9571
10.6431 -0.8281 -2.5089 0.9571
10.6575 -0.6139 -2.5089 0.9571
10.6677 -0.3995 -2.5089 0.9571
10.6751 0.0297 -2.5089 0.9571
10.6651 0.4588 -2.5089 0.9571
10.6536 0.6732 -2.5088 0.9571
10.5646 1.5269 -2.5087 0.9571
10.5316 1.7390 -2.5087 0.9571
10.4529 2.1609 -2.5086 0.9571
10.4071 2.3706 -2.5086 0.9571
10.3030 2.7870 -2.5085 0.9571
10.2446 2.9935 -2.5084 0.9571
10.1822 3.1988 -2.5084 0.9571
10.1156 3.4028 -2.5083 0.9571
9.8084 4.2041 -2.5080 0.9571
9.7216 4.4004 -2.5080 0.9571
9.5363 4.7874 -2.5078 0.9571
9.4378 4.9780 -2.5077 0.9571
9.2294 5.3530 -2.5076 0.9571
8.8889 5.8991 -2.5073 0.9571
8.6439 6.2512 -2.5071 0.9571
8.2503 6.7601 -2.5068 0.9571
7.9664 7.0815 -2.5051 0.9571
7.4420 7.4657 -2.4775 0.9576
7.1655 7.4833 -2.4350 0.9583
6.8980 7.5002 -2.3949 0.9590
6.4759 7.6359 -2.3531 0.9597
6.3207 7.7642 -2.3530 0.9597
6.1630 7.8893 -2.3529 0.9597
6.0029 8.0112 -2.3527 0.9597
5.6753 8.2452 -2.3525 0.9597
5.5081 8.3572 -2.3524 0.9597
4.8178 8.7709 -2.3519 0.9597
4.6402 8.8655 -2.3517 0.9597
3.5383 9.3563 -2.3509 0.9597
3.3493 9.4250 -2.3508 0.9597
3.1589 9.4899 -2.3507 0.9597
2.7745 9.6081 -2.3504 0.9597
2.5806 9.6614 -2.3503 0.9597
2.3857 9.7108 -2.3501 0.9597
1.9931 9.7976 -2.3498 0.9597
1.7956 9.8351 -2.3497 0.9598
1.5974 9.8687 -2.3496 0.9598
1.1992 9.9237 -2.3493 0.9598
0.9993 9.9452 -2.3491 0.9598
0.7991 9.9627 -2.3490 0.9598
0.1970 9.9910 -2.3486 0.9598
-0.0039 9.9923 -2.3484 0.9598
-0.2048 9.9896 -2.3483 0.9598
-0.6062 9.9721 -2.3480 0.9598
-0.8065 9.9573 -2.3479 0.9598
-1.0065 9.9385 -2.3477 0.9598
-1.4051 9.8888 -2.3475 0.9598
-1.8013 9.8232 -2.3472 0.9598
-1.9984 9.7844 -2.3470 0.9598
-2.6277 9.0733 -2.2201 0.9619
-3.3500 9.4036 -2.3461 0.9598
-3.7249 9.2603 -2.3459 0.9598
-3.9101 9.1831 -2.3457 0.9598
-4.0938 9.1021 -2.3456 0.9598
-4.6344 8.8374 -2.3453 0.9598
-4.8109 8.7420 -2.3451 0.9598
-5.3284 8.4348 -2.3448 0.9598
-5.4966 8.3256 -2.3447 0.9598
-5.8264 8.0971 -2.3445 0.9598
-5.9877 7.9780 -2.3444 0.9598
-6.1990 7.9225 -2.3642 0.9595
-6.4506 7.9111 -2.3990 0.9589
-6.7098 7.8992 -2.4359 0.9583
-7.1776 7.7919 -2.4898 0.9574
-7.4984 7.5105 -2.4943 0.9573
-7.9413 7.0481 -2.4955 0.9573
-8.0811 6.8867 -2.4954 0.9573
-8.2177 6.7226 -2.4953 0.9573
-8.3509 6.5558 -2.4952 0.9573
-8.6072 6.2144 -2.4950 0.9573
-8.9654 5.6837 -2.4948 0.9573
-9.1862 5.3184 -2.4947 0.9573
-9.3921 4.9445 -2.4946 0.9573
-9.5829 4.5627 -2.4945 0.9573
-9.7582 4.1736 -2.4944 0.9573
-9.8400 3.9764 -2.4943 0.9573
-9.9178 3.7777 -2.4943 0.9573
-9.9915 3.5775 -2.4942 0.9573
-10.1270 3.1728 -2.4942 0.9573
-10.1886 2.9685 -2.4941 0.9573
-10.3488 2.3488 -2.4941 0.9573
-10.4347 1.9308 -2.4940 0.9573
-10.5320 1.2982 -2.4940 0.9573
-10.6091 0.2345 -2.4940 0.9573
-10.6042 -0.4055 -2.4940 0.9573
-10.5795 -0.8315 -2.4941 0.9573
-10.5607 -1.0441 -2.4941 0.9573
-10.5377 -1.2562 -2.4941 0.9573
-10.4433 -1.8893 -2.4942 0.9573
-10.3109 -2.5156 -2.4944 0.9573
-10.2585 -2.7224 -2.4944 0.9573
-10.1411 -3.1328 -2.4945 0.9573
-10.0075 -3.5382 -2.4947 0.9573
-9.9346 -3.7388 -2.4947 0.9573
-9.8576 -3.9378 -2.4948 0.9573
-9.6290 -4.3031 -2.4787 0.9576
-9.5687 -4.5091 -2.4861 0.9575
-9.4140 -4.9081 -2.4952 0.9573
-9.3137 -5.0966 -2.4952 0.9573
-9.2097 -5.2830 -2.4953 0.9573
-9.1019 -5.4673 -2.4954 0.9573
-8.7567 -6.0067 -2.4957 0.9573
-8.6345 -6.1818 -2.4958 0.9573
-8.1112 -6.8567 -2.4962 0.9573
-7.9721 -7.0187 -2.4963 0.9573
-7.6841 -7.3342 -2.4965 0.9573
-7.2290 -7.7851 -2.4969 0.9573
-7.0713 -7.9293 -2.4970 0.9573
-6.9108 -8.0703 -2.4971 0.9573
-6.7475 -8.2080 -2.4972 0.9573
-6.5814 -8.3424 -2.4973 0.9573
-6.4127 -8.4735 -2.4975 0.9573
-5.8911 -8.8460 -2.4979 0.9573
-5.7123 -8.9632 -2.4980 0.9573
-5.5313 -9.0767 -2.4981 0.9573
-4.7852 -9.4938 -2.4987 0.9573
-4.5936 -9.5887 -2.4988 0.9573
-4.4001 -9.6796 -2.4989 0.9573
-4.2048 -9.7667 -2.4991 0.9572
-3.2042 -10.1423 -2.4998 0.9572
-2.7942 -10.2642 -2.5001 0.9572
-2.3796 -10.3694 -2.5004 0.9572
-1.9610 -10.4580 -2.5007 0.9572
-1.7504 -10.4959 -2.5008 0.9572
-1.3272 -10.5591 -2.5011 0.9572
-0.9017 -10.6052 -2.5014 0.9572
-0.2607 -10.6421 -2.5019 0.9572
-0.0467 -10.6459 -2.5020 0.9572
0.5953 -10.6312 -2.5025 0.9572
1.4479 -10.5515 -2.5031 0.9572
1.6598 -10.5209 -2.5032 0.9572
1.8711 -10.4860 -2.5034 0.9572
2.2915 -10.4035 -2.5037 0.9572
2.5003 -10.3559 -2.5038 0.9572
2.9150 -10.2482 -2.5041 0.9572
3.1206 -10.1881 -2.5042 0.9572
3.7298 -9.9830 -2.5046 0.9572
3.9299 -9.9066 -2.5048 0.9572
4.1286 -9.8261 -2.5049 0.9572
4.3255 -9.7416 -2.5051 0.9571
4.5208 -9.6532 -2.5052 0.9571
4.9057 -9.4646 -2.5054 0.9571
5.0953 -9.3645 -2.5056 0.9571
5.2828 -9.2606 -2.5057 0.9571
5.4682 -9.1530 -2.5058 0.9571
5.8323 -8.9266 -2.5061 0.9571
6.0109 -8.8079 -2.5062 0.9571
6.1871 -8.6857 -2.5063 0.9571
6.5319 -8.4307 -2.5065 0.9571
6.7004 -8.2980 -2.5066 0.9571
6.8661 -8.1620 -2.5067 0.9571
7.0292 -8.0226 -2.5068 0.9571
7.1893 -7.8800 -2.5069 0.9571
7.3466 -7.7341 -2.5070 0.9571
7.6522 -7.4331 -2.5072 0.9571
7.8004 -7.2780 -2.5073 0.9571
7.9455 -7.1199 -2.5074 0.9571
8.0873 -6.9590 -2.5075 0.9571
8.4930 -6.4595 -2.5078 0.9571
8.6214 -6.2876 -2.5078 0.9571
9.4200 -5.0169 -2.5083 0.9571
9.5192 -4.8265 -2.5084 0.9571
9.7060 -4.4401 -2.5085 0.9571
9.8770 -4.0465 -2.5086 0.9571
9.9566 -3.8471 -2.5086 0.9571
10.0321 -3.6462 -2.5087 0.9571
10.1708 -3.2400 -2.5087 0.9571
10.2341 -3.0349 -2.5088 0.9571
10.3480 -2.6211 -2.5088 0.9571
10.3987 -2.4125 -2.5089 0.9571
10.4452 -2.2029 -2.5089 0.9571
10.5255 -1.7812 -2.5089 0.9571
10.6138 -1.1434 -2.5089 0.9571
10.6347 -0.9298 -2.5089 0.9571
10.6634 -0.5015 -2.5089 0.9571
10.6713 -0.2870 -2.5089 0.9571
10.6749 -0.0724 -2.5089 0.9571
10.6741 0.1423 -2.5089 0.9571
10.6690 0.3569 -2.5089 0.9571
10.6278 0.9994 -2.5088 0.9571
10.5788 1.4258 -2.5087 0.9571
10.5478 1.6383 -2.5087 0.9571
10.5126 1.8500 -2.5087 0.9571
10.4731 2.0609 -2.5086 0.9571
10.4294 2.2710 -2.5086 0.9571
10.3814 2.4803 -2.5085 0.9571
10.3293 2.6884 -2.5085 0.9571
10.2124 3.1014 -2.5084 0.9571
10.0061 3.7112 -2.5082 0.9571
9.8483 4.1102 -2.5081 0.9571
9.4851 4.8876 -2.5078 0.9571
9.3846 5.0772 -2.5077 0.9571
9.1722 5.4500 -2.5075 0.9571
9.0605 5.6331 -2.5074 0.9571
8.8260 5.9924 -2.5072 0.9571
8.7034 6.1684 -2.5071 0.9571
8.5773 6.3419 -2.5070 0.9571
8.3147 6.6811 -2.5068 0.9571
8.1783 6.8466 -2.5067 0.9571
9.1351 -3.2217 -2.5080 0.9608
9.1981 -3.0374 -2.5080 0.9608
9.3130 -2.6652 -2.5081 0.9608
9.3648 -2.4774 -2.5081 0.9608
9.6411 -0.9455 -2.5082 0.9608
9.6713 -0.5571 -2.5082 0.9608
9.6872 0.0269 -2.5082 0.9608
9.6847 0.2217 -2.5082 0.9608
9.6535 0.8052 -2.5081 0.9608
9.6131 1.1926 -2.5081 0.9608
9.4857 1.9610 -2.5079 0.9608
9.3497 2.5291 -2.5078 0.9608
9.2968 2.7166 -2.5078 0.9608
9.2401 2.9029 -2.5077 0.9608
9.1155 3.2719 -2.5076 0.9608
9.0477 3.4544 -2.5075 0.9608
8.8223 3.9933 -2.5074 0.9608
8.7400 4.1698 -2.5073 0.9608
8.6542 4.3445 -2.5072 0.9608
8.4720 4.6887 -2.5071 0.9608
8.3757 4.8579 -2.5070 0.9608
8.2761 5.0252 -2.5069 0.9608
8.0668 5.3535 -2.5067 0.9608
7.9573 5.5144 -2.5067 0.9608
7.4874 6.1350 -2.5063 0.9608
7.3623 6.2841 -2.5062 0.9608
6.9692 6.7157 -2.5059 0.9608
6.8325 6.8542 -2.5058 0.9608
6.2455 7.3642 -2.5001 0.9609
6.0912 7.4822 -2.4981 0.9609
5.8762 7.5221 -2.4714 0.9613
5.6470 7.5363 -2.4383 0.9618
5.4237 7.5500 -2.4070 0.9623
5.2059 7.5632 -2.3773 0.9628
4.6897 7.7791 -2.3518 0.9632
4.2115 8.0464 -2.3515 0.9632
3.8842 8.2084 -2.3513 0.9632
3.5507 8.3571 -2.3510 0.9632
3.3818 8.4264 -2.3509 0.9632
3.0400 8.5546 -2.3506 0.9632
2.8672 8.6136 -2.3505 0.9632
2.5183 8.7209 -2.3503 0.9632
2.3423 8.7693 -2.3501 0.9632
2.1654 8.8142 -2.3500 0.9632
1.9877 8.8555 -2.3499 0.9632
1.6298 8.9273 -2.3496 0.9632
1.2695 8.9846 -2.3494 0.9632
1.0885 9.0078 -2.3492 0.9632
0.9071 9.0274 -2.3491 0.9632
0.7254 9.0433 -2.3490 0.9632
0.3612 9.0642 -2.3487 0.9632
0.1788 9.0691 -2.3486 0.9632
-0.1859 9.0680 -2.3484 0.9632
-0.5503 9.0522 -2.3481 0.9632
-0.7321 9.0388 -2.3480 0.9632
-1.0948 9.0011 -2.3477 0.9632
-1.2755 8.9768 -2.3476 0.9632
-1.4557 8.9488 -2.3475 0.9632
-1.6352 8.9173 -2.3473 0.9632
-1.9922 8.8434 -2.3471 0.9632
-2.5213 8.7059 -2.3467 0.9632
-2.6957 8.6530 -2.3466 0.9632
-2.8690 8.5966 -2.3465 0.9632
-3.2120 8.4735 -2.3463 0.9632
-3.7165 8.2632 -2.3459 0.9633
-3.8817 8.1864 -2.3458 0.9633
-4.2073 8.0230 -2.3456 0.9633
-4.3676 7.9364 -2.3455 0.9633
-4.7717 7.9010 -2.3898 0.9626
-4.9901 7.8993 -2.4192 0.9621
-5.2139 7.8974 -2.4502 0.9617
-5.4435 7.8952 -2.4830 0.9612
-5.6190 7.8089 -2.4909 0.9610
-5.7790 7.6999 -2.4927 0.9610
-6.3888 7.2218 -2.4965 0.9609
-6.5325 7.0916 -2.4964 0.9609
-6.6735 6.9586 -2.4963 0.9609
-6.9474 6.6842 -2.4962 0.9609
-7.3370 6.2526 -2.4959 0.9610
-7.6999 5.7984 -2.4957 0.9610
-7.8147 5.6422 -2.4956 0.9610
-7.9264 5.4838 -2.4956 0.9610
-8.4357 4.6600 -2.4953 0.9610
-8.6159 4.3169 -2.4951 0.9610
-8.7008 4.1427 -2.4951 0.9610
-8.7821 3.9668 -2.4951 0.9610
-8.8600 3.7894 -2.4950 0.9610
-8.9342 3.6104 -2.4950 0.9610
-9.4372 1.9432 -2.4947 0.9610
-9.4743 1.7531 -2.4947 0.9610
-9.5076 1.5622 -2.4947 0.9610
-9.5370 1.3708 -2.4947 0.9610
-9.6163 0.6001 -2.4947 0.9610
-9.6327 0.2130 -2.4947 0.9610
-9.6282 -0.3682 -2.4947 0.9610
-9.6189 -0.5617 -2.4947 0.9610
-9.6057 -0.7550 -2.4948 0.9610
-9.5678 -1.1406 -2.4948 0.9610
-9.4457 -1.9057 -2.4949 0.9610
-9.4056 -2.0953 -2.4950 0.9610
-9.3618 -2.2840 -2.4950 0.9610
-9.2627 -2.6586 -2.4951 0.9610
-9.1487 -3.0290 -2.4952 0.9610
-9.0862 -3.2124 -2.4953 0.9610
-8.9501 -3.5753 -2.4954 0.9610
-8.7190 -4.1087 -2.4956 0.9610
-8.6348 -4.2833 -2.4957 0.9610
-8.5472 -4.4562 -2.4957 0.9610
-8.4561 -4.6273 -2.4958 0.9610
-8.1625 -5.1291 -2.4960 0.9610
-8.0580 -5.2924 -2.4961 0.9609
-7.9503 -5.4535 -2.4962 0.9609
-7.8393 -5.6125 -2.4963 0.9609
-7.4875 -6.0755 -2.4966 0.9609
-7.3641 -6.2251 -2.4967 0.9609
-7.2377 -6.3721 -2.4968 0.9609
-6.9762 -6.6585 -2.4970 0.9609
-6.7035 -6.9342 -2.4972 0.9609
-6.5630 -7.0679 -2.4973 0.9609
-6.4198 -7.1987 -2.4974 0.9609
-6.1257 -7.4516 -2.4976 0.9609
-5.9749 -7.5737 -2.4977 0.9609
-5.6661 -7.8085 -2.4979 0.9609
-5.3481 -8.0307 -2.4982 0.9609
-4.6865 -8.4361 -2.4987 0.9609
-4.5162 -8.5290 -2.4988 0.9609
-4.3440 -8.6186 -2.4989 0.9609
-3.9944 -8.7871 -2.4992 0.9609
-3.6383 -8.9415 -2.4994 0.9609
-3.4579 -9.0133 -2.4996 0.9609
-2.3487 -9.3670 -2.5004 0.9609
-1.5889 -9.5275 -2.5009 0.9609
-1.3971 -9.5580 -2.5010 0.9609
-1.0118 -9.6075 -2.5013 0.9609
-0.8185 -9.6264 -2.5014 0.9609
-0.6248 -9.6415 -2.5016 0.9609
-0.4308 -9.6526 -2.5017 0.9609
-0.2367 -9.6599 -2.5019 0.9609
0.3462 -9.6581 -2.5023 0.9609
0.5403 -9.6497 -2.5024 0.9609
0.7343 -9.6374 -2.5025 0.9609
0.9280 -9.6212 -2.5027 0.9608
1.1213 -9.6011 -2.5028 0.9608
1.3142 -9.5772 -2.5029 0.9608
1.5065 -9.5493 -2.5031 0.9608
1.8895 -9.4820 -2.5033 0.9608
2.4580 -9.3523 -2.5037 0.9608
2.6457 -9.3015 -2.5038 0.9608
2.8323 -9.2469 -2.5040 0.9608
3.3852 -9.0607 -2.5044 0.9608
3.5668 -8.9912 -2.5045 0.9608
3.7471 -8.9181 -2.5046 0.9608
3.9258 -8.8414 -2.5047 0.9608
4.1030 -8.7611 -2.5048 0.9608
4.2785 -8.6772 -2.5050 0.9608
4.4523 -8.5899 -2.5051 0.9608
5.1290 -8.2058 -2.5055 0.9608
5.2932 -8.1014 -2.5056 0.9608
5.6151 -7.8827 -2.5058 0.9608
5.7727 -7.7685 -2.5059 0.9608
6.0808 -7.5308 -2.5061 0.9608
6.2313 -7.4073 -2.5062 0.9608
6.3792 -7.2808 -2.5063 0.9608
6.6672 -7.0189 -2.5065 0.9608
6.9445 -6.7457 -2.5067 0.9608
7.4650 -6.1667 -2.5070 0.9608
7.5877 -6.0156 -2.5071 0.9608
8.0474 -5.3871 -2.5074 0.9608
8.1543 -5.2243 -2.5075 0.9608
8.2579 -5.0594 -2.5075 0.9608
8.3582 -4.8925 -2.5076 0.9608
8.4551 -4.7236 -2.5076 0.9608
8.5485 -4.5527 -2.5077 0.9608
8.6385 -4.3800 -2.5077 0.9608
8.7250 -4.2055 -2.5078 0.9608
8.8080 -4.0293 -2.5078 0.9608
8.8874 -3.8515 -2.5079 0.9608
9.0353 -3.4911 -2.5080 0.9608
9.1038 -3.3088 -2.5080 0.9608
9.1686 -3.1251 -2.5080 0.9608
9.3407 -2.5668 -2.5081 0.9608
9.3905 -2.3785 -2.5081 0.9608
9.4365 -2.1892 -2.5082 0.9608
9.4787 -1.9991 -2.5082 0.9608
9.6088 -1.2311 -2.5082 0.9608
9.6316 -1.0376 -2.5082 0.9608
9.6656 -0.6496 -2.5082 0.9608
9.6864 0.1291 -2.5082 0.9608
9.6732 0.5184 -2.5082 0.9608
9.6608 0.7128 -2.5081 0.9608
9.6444 0.9069 -2.5081 0.9608
9.5718 1.4867 -2.5080 0.9608
9.5399 1.6788 -2.5080 0.9608
9.5041 1.8702 -2.5080 0.9608
9.4644 2.0609 -2.5079 0.9608
9.4209 2.2508 -2.5079 0.9608
9.3224 2.6276 -2.5078 0.9608
9.2089 3.0002 -2.5077 0.9608
9.1465 3.1846 -2.5076 0.9608
9.0804 3.3678 -2.5076 0.9608
9.0106 3.5496 -2.5075 0.9608
8.9372 3.7300 -2.5075 0.9608
8.7796 4.0861 -2.5073 0.9608
8.6954 4.2617 -2.5073 0.9608
8.6077 4.4355 -2.5072 0.9608
8.5165 4.6075 -2.5071 0.9608
8.2225 5.1121 -2.5069 0.9608
8.1178 5.2762 -2.5068 0.9608
8.0098 5.4382 -2.5067 0.9608
7.5459 6.0633 -2.5063 0.9608
7.4221 6.2136 -2.5062 0.9608
7.2954 6.3613 -2.5061 0.9608
7.1658 6.5064 -2.5060 0.9608
6.8978 6.7887 -2.5058 0.9608
8.3531 -2.9459 -2.5075 0.9638
8.4107 -2.7774 -2.5075 0.9638
8.4650 -2.6078 -2.5075 0.9638
8.5158 -2.4370 -2.5075 0.9638
8.5631 -2.2654 -2.5076 0.9638
8.6070 -2.0927 -2.5076 0.9638
8.7966 -1.0417 -2.5076 0.9638
8.8158 -0.8646 -2.5076 0.9638
8.8434 -0.5094 -2.5076 0.9638
8.8518 -0.3315 -2.5076 0.9638
8.8567 -0.1535 -2.5076 0.9638
8.8579 0.0246 -2.5076 0.9638
8.8402 0.5586 -2.5076 0.9638
8.8271 0.7362 -2.5076 0.9638
8.7902 1.0905 -2.5075 0.9638
8.7664 1.2670 -2.5075 0.9638
8.6737 1.7931 -2.5074 0.9638
8.6358 1.9671 -2.5074 0.9638
8.5010 2.4840 -2.5072 0.9639
8.4492 2.6544 -2.5072 0.9639
8.3940 2.8237 -2.5071 0.9639
8.3354 2.9919 -2.5071 0.9639
8.2733 3.1588 -2.5070 0.9639
8.1393 3.4887 -2.5069 0.9639
7.9136 3.9727 -2.5067 0.9639
7.7470 4.2875 -2.5066 0.9639
7.4738 4.7463 -2.5064 0.9639
7.3766 4.8954 -2.5063 0.9639
7.2765 5.0426 -2.5062 0.9639
7.1734 5.1877 -2.5061 0.9639
7.0674 5.3307 -2.5061 0.9639
6.9586 5.4716 -2.5060 0.9639
6.8469 5.6102 -2.5059 0.9639
6.6153 5.8805 -2.5057 0.9639
6.4955 6.0121 -2.5056 0.9639
6.3731 6.1413 -2.5055 0.9639
6.2481 6.2679 -2.5054 0.9639
6.1206 6.3920 -2.5053 0.9639
5.9906 6.5136 -2.5052 0.9639
5.0100 7.2785 -2.5014 0.9639
4.8594 7.3730 -2.4998 0.9640
4.5534 7.5531 -2.4967 0.9640
4.3614 7.5750 -2.4745 0.9643
3.9765 7.5973 -2.4275 0.9650
3.7891 7.6079 -2.4061 0.9653
3.6049 7.6182 -2.3859 0.9656
3.2475 7.6433 -2.3510 0.9661
3.0928 7.7063 -2.3507 0.9661
2.3031 7.9759 -2.3502 0.9661
1.8179 8.0990 -2.3498 0.9661
1.3261 8.1926 -2.3495 0.9661
0.9955 8.2385 -2.3492 0.9661
0.8296 8.2564 -2.3491 0.9661
0.3303 8.2902 -2.3488 0.9661
0.1636 8.2948 -2.3486 0.9661
-0.0032 8.2959 -2.3485 0.9661
-0.1700 8.2938 -2.3484 0.9661
-0.3367 8.2883 -2.3483 0.9661
-0.5033 8.2794 -2.3482 0.9661
-0.6696 8.2673 -2.3481 0.9661
-0.8357 8.2517 -2.3479 0.9661
-1.1667 8.2106 -2.3477 0.9661
-1.3314 8.1851 -2.3476 0.9661
-1.6593 8.1242 -2.3474 0.9661
-1.8222 8.0888 -2.3473 0.9661
-2.1457 8.0082 -2.3470 0.9661
-2.3062 7.9631 -2.3469 0.9661
-2.4658 7.9148 -2.3468 0.9661
-3.1596 7.8550 -2.3969 0.9654
-4.0878 7.7951 -2.4918 0.9641
-4.4025 7.6325 -2.4944 0.9640
-4.5577 7.5467 -2.4958 0.9640
-4.7112 7.4579 -2.4972 0.9640
-5.2953 7.0554 -2.4973 0.9640
-5.4359 6.9472 -2.4972 0.9640
-5.8442 6.6062 -2.4969 0.9640
-6.2312 6.2412 -2.4967 0.9640
-6.4767 5.9853 -2.4965 0.9640
-6.8252 5.5834 -2.4963 0.9640
-6.9358 5.4449 -2.4963 0.9640
-7.0437 5.3042 -2.4962 0.9640
-7.1488 5.1614 -2.4961 0.9640
-7.3501 4.8696 -2.4960 0.9640
-7.5396 4.5699 -2.4959 0.9640
-8.0339 3.6289 -2.4956 0.9640
-8.1731 3.3028 -2.4955 0.9640
-8.2377 3.1378 -2.4955 0.9640
-8.3570 2.8040 -2.4954 0.9640
-8.4116 2.6353 -2.4954 0.9640
-8.5106 2.2950 -2.4953 0.9640
-8.5549 2.1234 -2.4953 0.9640
-8.5958 1.9510 -2.4953 0.9640
-8.6672 1.6038 -2.4953 0.9640
-8.7246 1.2540 -2.4953 0.9640
-8.7680 0.9022 -2.4953 0.9640
-8.7843 0.7257 -2.4952 0.9640
-8.7971 0.5489 -2.4953 0.9640
-8.8121 0.1948 -2.4953 0.9640
-8.8143 0.0176 -2.4953 0.9640
-8.8129 -0.1596 -2.4953 0.9640
-8.8080 -0.3368 -2.4953 0.9640
-8.7874 -0.6907 -2.4953 0.9640
-8.7719 -0.8672 -2.4954 0.9640
-8.7039 -1.3945 -2.4954 0.9640
-8.6410 -1.7434 -2.4955 0.9640
-8.5642 -2.0894 -2.4956 0.9640
-8.3692 -2.7709 -2.4958 0.9640
-8.2514 -3.1053 -2.4959 0.9640
-8.1202 -3.4347 -2.4960 0.9640
-7.9760 -3.7586 -2.4961 0.9640
-7.7355 -4.2329 -2.4963 0.9640
-7.6490 -4.3877 -2.4964 0.9640
-7.4669 -4.6920 -2.4965 0.9640
-7.3712 -4.8413 -2.4966 0.9640
-7.2726 -4.9887 -2.4967 0.9640
-7.1711 -5.1341 -2.4967 0.9640
-6.8492 -5.5576 -2.4970 0.9640
-6.7363 -5.6944 -2.4971 0.9640
-6.6207 -5.8289 -2.4972 0.9640
-6.5024 -5.9611 -2.4973 0.9640
-6.3815 -6.0908 -2.4973 0.9640
-6.1319 -6.3429 -2.4975 0.9640
-6.0034 -6.4652 -2.4976 0.9640
-5.8724 -6.5849 -2.4977 0.9640
-4.8920 -7.3457 -2.4985 0.9640
-4.7435 -7.4429 -2.4986 0.9640
-4.1309 -7.8014 -2.4990 0.9640
-3.9734 -7.8832 -2.4991 0.9640
-3.1628 -8.2442 -2.4997 0.9640
-2.9966 -8.3065 -2.4998 0.9640
-2.8291 -8.3655 -2.5000 0.9640
-2.6604 -8.4211 -2.5001 0.9640
-2.3199 -8.5221 -2.5003 0.9639
-1.9756 -8.6093 -2.5006 0.9639
-1.8022 -8.6477 -2.5007 0.9639
-1.4532 -8.7140 -2.5009 0.9639
-0.7486 -8.8044 -2.5014 0.9639
-0.2165 -8.8348 -2.5018 0.9639
-0.0388 -8.8378 -2.5019 0.9639
0.1389 -8.8372 -2.5021 0.9639
0.4942 -8.8254 -2.5023 0.9639
1.0255 -8.7808 -2.5027 0.9639
1.2019 -8.7589 -2.5028 0.9639
1.5532 -8.7043 -2.5030 0.9639
1.7280 -8.6717 -2.5032 0.9639
2.0754 -8.5961 -2.5034 0.9639
2.2480 -8.5530 -2.5035 0.9639
2.4196 -8.5065 -2.5036 0.9639
2.5903 -8.4565 -2.5038 0.9639
2.7599 -8.4031 -2.5039 0.9639
2.9284 -8.3463 -2.5040 0.9639
3.4267 -8.1557 -2.5043 0.9639
3.7522 -8.0120 -2.5045 0.9639
3.9127 -7.9353 -2.5047 0.9639
4.2289 -7.7722 -2.5049 0.9639
4.3845 -7.6859 -2.5050 0.9639
4.5383 -7.5965 -2.5051 0.9639
4.6903 -7.5040 -2.5052 0.9639
4.9886 -7.3100 -2.5054 0.9639
5.2789 -7.1040 -2.5056 0.9639
5.5607 -6.8866 -2.5057 0.9639
5.6982 -6.7736 -2.5058 0.9639
6.0968 -6.4184 -2.5061 0.9639
6.2248 -6.2947 -2.5062 0.9639
6.3504 -6.1685 -2.5062 0.9639
6.8263 -5.6390 -2.5065 0.9639
7.1544 -5.2177 -2.5068 0.9639
7.2580 -5.0729 -2.5068 0.9639
7.3587 -4.9260 -2.5069 0.9639
7.4565 -4.7772 -2.5069 0.9639
7.6428 -4.4738 -2.5070 0.9639
8.0540 -3.6844 -2.5073 0.9639
8.1266 -3.5218 -2.5073 0.9638
8.1959 -3.3577 -2.5074 0.9638
8.2619 -3.1923 -2.5074 0.9638
8.3245 -3.0256 -2.5074 0.9638
8.3838 -2.8577 -2.5075 0.9638
8.5411 -2.3471 -2.5075 0.9638
8.5866 -2.1749 -2.5076 0.9638
8.6287 -2.0018 -2.5076 0.9638
8.6672 -1.8279 -2.5076 0.9638
8.7023 -1.6533 -2.5076 0.9638
8.7338 -1.4780 -2.5076 0.9638
8.7862 -1.1257 -2.5076 0.9638
8.8071 -0.9488 -2.5076 0.9638
8.8381 -0.5939 -2.5076 0.9638
8.8482 -0.4161 -2.5076 0.9638
8.8548 -0.2381 -2.5076 0.9638
8.8578 -0.0600 -2.5076 0.9638
8.8571 0.1181 -2.5076 0.9638
8.8337 0.6518 -2.5076 0.9638
8.6905 1.7101 -2.5074 0.9638
8.6145 2.0581 -2.5073 0.9638
8.5712 2.2309 -2.5073 0.9639
8.5245 2.4027 -2.5072 0.9639
8.3636 2.9121 -2.5071 0.9639
8.3032 3.0796 -2.5071 0.9639
8.1723 3.4108 -2.5069 0.9639
8.0282 3.7364 -2.5068 0.9639
7.7012 4.3689 -2.5066 0.9639
7.6116 4.5227 -2.5065 0.9639
7.5189 4.6747 -2.5064 0.9639
7.4232 4.8248 -2.5063 0.9639
7.1181 5.2630 -2.5061 0.9639
7.0106 5.4049 -2.5060 0.9639
6.7872 5.6820 -2.5058 0.9639
6.6714 5.8171 -2.5057 0.9639
6.4316 6.0802 -2.5056 0.9639
7.6867 -2.7109 -2.5070 0.9665
7.7896 -2.3997 -2.5070 0.9665
7.8363 -2.2426 -2.5070 0.9665
7.8799 -2.0846 -2.5071 0.9665
7.9575 -1.7661 -2.5071 0.9665
7.9914 -1.6058 -2.5071 0.9665
8.0496 -1.2832 -2.5071 0.9665
8.1123 -0.7956 -2.5072 0.9665
8.1267 -0.6323 -2.5072 0.9665
8.1378 -0.4688 -2.5072 0.9665
8.1512 0.0227 -2.5071 0.9665
8.1436 0.3504 -2.5071 0.9665
8.1228 0.6775 -2.5071 0.9665
8.0134 1.4892 -2.5069 0.9665
7.9817 1.6501 -2.5069 0.9665
7.9468 1.8102 -2.5069 0.9665
7.8674 2.1281 -2.5068 0.9665
7.8229 2.2859 -2.5068 0.9665
7.7752 2.4427 -2.5067 0.9665
7.7244 2.5984 -2.5067 0.9665
7.6704 2.7532 -2.5066 0.9665
7.6134 2.9068 -2.5066 0.9665
7.4238 3.3603 -2.5064 0.9665
7.3546 3.5088 -2.5064 0.9665
7.2824 3.6559 -2.5063 0.9665
7.1291 3.9455 -2.5062 0.9665
7.0482 4.0879 -2.5061 0.9665
6.6962 4.6405 -2.5058 0.9665
6.6014 4.7740 -2.5058 0.9665
6.5038 4.9057 -2.5057 0.9665
6.4037 5.0353 -2.5056 0.9665
5.8650 5.6516 -2.5052 0.9665
5.7500 5.7682 -2.5051 0.9665
5.6326 5.8825 -2.5050 0.9665
5.2672 6.2106 -2.5047 0.9665
4.8826 6.5162 -2.5045 0.9665
4.6163 6.7067 -2.5043 0.9665
4.4804 6.7978 -2.5042 0.9665
4.2031 6.9719 -2.5039 0.9665
3.7729 7.2085 -2.5025 0.9665
3.6255 7.2793 -2.5013 0.9665
3.1758 7.4746 -2.4979 0.9666
3.0236 7.5338 -2.4969 0.9666
2.7115 7.6303 -2.4907 0.9667
2.5428 7.6389 -2.4763 0.9669
2.2106 7.6554 -2.4508 0.9672
2.0469 7.6632 -2.4397 0.9674
1.8845 7.6708 -2.4295 0.9675
1.7234 7.6782 -2.4204 0.9676
0.7755 7.7181 -2.3859 0.9681
0.4638 7.7298 -2.3818 0.9681
0.3082 7.7354 -2.3811 0.9681
0.1526 7.7409 -2.3814 0.9681
-0.1589 7.7513 -2.3846 0.9681
-0.4718 7.7611 -2.3915 0.9680
-0.7869 7.7702 -2.4022 0.9678
-0.9456 7.7746 -2.4089 0.9678
-1.2660 7.7829 -2.4253 0.9675
-1.5911 7.7905 -2.4457 0.9673
-1.7558 7.7942 -2.4574 0.9671
-1.9222 7.7977 -2.4702 0.9669
-2.2540 7.7827 -2.4922 0.9667
-2.4107 7.7381 -2.4929 0.9667
-2.5666 7.6905 -2.4937 0.9666
-2.7217 7.6399 -2.4945 0.9666
-2.8757 7.5864 -2.4954 0.9666
-3.7723 7.1936 -2.4984 0.9666
-3.9160 7.1160 -2.4983 0.9666
-4.0582 7.0355 -2.4982 0.9666
-4.3374 6.8662 -2.4980 0.9666
-4.4745 6.7774 -2.4979 0.9666
-4.7430 6.5915 -2.4977 0.9666
-4.8744 6.4946 -2.4976 0.9666
-5.0038 6.3950 -2.4975 0.9666
-5.1312 6.2929 -2.4975 0.9666
-5.2565 6.1883 -2.4974 0.9666
-5.3797 6.0812 -2.4973 0.9666
-5.6195 5.8596 -2.4971 0.9666
-5.7360 5.7453 -2.4971 0.9666
-5.9620 5.5097 -2.4969 0.9666
-6.0714 5.3885 -2.4969 0.9666
-6.1784 5.2652 -2.4968 0.9666
-6.2828 5.1398 -2.4967 0.9666
-6.4841 4.8828 -2.4966 0.9666
-6.8548 4.3457 -2.4964 0.9666
-7.0237 4.0664 -2.4963 0.9666
-7.3272 3.4887 -2.4961 0.9666
-7.4613 3.1912 -2.4960 0.9666
-7.6398 2.7354 -2.4959 0.9666
-7.8346 2.1127 -2.4958 0.9666
-7.9131 1.7960 -2.4958 0.9666
-7.9475 1.6365 -2.4958 0.9666
-7.9788 1.4764 -2.4958 0.9666
-8.0866 0.6681 -2.4957 0.9666
-8.1122 0.1793 -2.4958 0.9666
-8.1129 -0.1470 -2.4958 0.9666
-8.1084 -0.3100 -2.4958 0.9666
-8.0751 -0.7983 -2.4958 0.9666
-8.0575 -0.9605 -2.4959 0.9666
-8.0366 -1.1224 -2.4959 0.9666
-7.9852 -1.4446 -2.4959 0.9666
-7.9546 -1.6049 -2.4960 0.9666
-7.8437 -2.0816 -2.4961 0.9666
-7.7044 -2.5508 -2.4962 0.9666
-7.6517 -2.7053 -2.4962 0.9666
-7.5959 -2.8586 -2.4963 0.9666
-7.4102 -3.3116 -2.4965 0.9666
-7.3423 -3.4600 -2.4965 0.9666
-7.2714 -3.6070 -2.4966 0.9666
-7.1976 -3.7525 -2.4966 0.9666
-7.1208 -3.8966 -2.4967 0.9666
-6.9588 -4.1799 -2.4968 0.9666
-6.8735 -4.3191 -2.4969 0.9666
-6.6012 -4.7261 -2.4971 0.9666
-6.4062 -4.9880 -2.4973 0.9666
-6.0945 -5.3656 -2.4975 0.9666
-5.5261 -5.9513 -2.4979 0.9666
-5.4055 -6.0614 -2.4980 0.9666
-5.1579 -6.2743 -2.4982 0.9666
-4.9018 -6.4771 -2.4984 0.9666
-4.7708 -6.5746 -2.4985 0.9666
-4.3663 -6.8511 -2.4988 0.9666
-3.9458 -7.1027 -2.4991 0.9666
-3.6573 -7.2562 -2.4993 0.9666
-3.5108 -7.3286 -2.4994 0.9666
-3.3629 -7.3980 -2.4995 0.9666
-3.2136 -7.4645 -2.4996 0.9666
-2.6040 -7.6999 -2.5001 0.9666
-2.4488 -7.7510 -2.5002 0.9666
-2.1353 -7.8439 -2.5004 0.9666
-1.9773 -7.8856 -2.5005 0.9665
-1.3376 -8.0205 -2.5010 0.9665
-1.1761 -8.0461 -2.5011 0.9665
0.2914 -8.1297 -2.5021 0.9665
0.7811 -8.0985 -2.5025 0.9665
0.9438 -8.0815 -2.5026 0.9665
1.1062 -8.0612 -2.5027 0.9665
1.2681 -8.0377 -2.5028 0.9665
1.4295 -8.0110 -2.5029 0.9665
1.5903 -7.9810 -2.5030 0.9665
1.7506 -7.9477 -2.5031 0.9665
2.0689 -7.8716 -2.5034 0.9665
2.3839 -7.7827 -2.5036 0.9665
3.6008 -7.3028 -2.5044 0.9665
3.7471 -7.2292 -2.5045 0.9665
4.0350 -7.0733 -2.5047 0.9665
4.1766 -6.9910 -2.5048 0.9665
4.3164 -6.9058 -2.5049 0.9665
4.5909 -6.7272 -2.5051 0.9665
4.8580 -6.5376 -2.5052 0.9665
5.1173 -6.3375 -2.5054 0.9665
5.4906 -6.0180 -2.5056 0.9665
5.7284 -5.7928 -2.5058 0.9665
5.8439 -5.6766 -2.5059 0.9665
6.1760 -5.3144 -2.5061 0.9665
6.2818 -5.1893 -2.5061 0.9665
6.3850 -5.0620 -2.5062 0.9665
6.4857 -4.9328 -2.5063 0.9665
6.6791 -4.6682 -2.5064 0.9665
6.7717 -4.5331 -2.5064 0.9665
7.0332 -4.1169 -2.5066 0.9665
7.1146 -3.9747 -2.5066 0.9665
7.2689 -3.6856 -2.5067 0.9665
7.3417 -3.5388 -2.5068 0.9665
7.4783 -3.2408 -2.5069 0.9665
7.6027 -2.9376 -2.5069 0.9665
7.8145 -2.3174 -2.5070 0.9665
7.8596 -2.1598 -2.5071 0.9665
8.1044 -0.8731 -2.5072 0.9665
8.1329 -0.5466 -2.5072 0.9665
8.1483 -0.2191 -2.5071 0.9665
8.1510 -0.0552 -2.5071 0.9665
8.1466 0.2725 -2.5071 0.9665
8.1289 0.5998 -2.5071 0.9665
8.0981 0.9261 -2.5070 0.9665
7.9972 1.5737 -2.5069 0.9665
7.9638 1.7342 -2.5069 0.9665
7.8444 2.2110 -2.5068 0.9665
7.7982 2.3682 -2.5067 0.9665
7.7489 2.5245 -2.5067 0.9665
7.6409 2.8339 -2.5066 0.9665
7.5205 3.1387 -2.5065 0.9665
7.4557 3.2892 -2.5064 0.9665
7.3171 3.5861 -2.5063 0.9665
7.0046 4.1620 -2.5061 0.9665
6.9193 4.3019 -2.5060 0.9665
6.8312 4.4400 -2.5059 0.9665
6.7403 4.5763 -2.5059 0.9665
6.4516 4.9739 -2.5056 0.9665
6.0304 5.4755 -2.5053 0.9665
5.9188 5.5954 -2.5052 0.9665
5.8049 5.7131 -2.5051 0.9665
7.1114 -2.5080 -2.5066 0.9687
7.1604 -2.3645 -2.5066 0.9687
7.2066 -2.2201 -2.5066 0.9687
7.2498 -2.0747 -2.5066 0.9687
7.3619 -1.6339 -2.5067 0.9687
7.3933 -1.4856 -2.5067 0.9687
7.4217 -1.3367 -2.5067 0.9687
7.4471 -1.1871 -2.5067 0.9687
7.5185 -0.5850 -2.5067 0.9687
7.5287 -0.4337 -2.5067 0.9687
7.5359 -0.2822 -2.5067 0.9687
7.5400 -0.1307 -2.5067 0.9687
7.5411 0.0210 -2.5067 0.9687
7.5341 0.3241 -2.5067 0.9687
7.5148 0.6268 -2.5066 0.9687
7.4834 0.9284 -2.5066 0.9687
7.4136 1.3778 -2.5065 0.9687
7.3521 1.6747 -2.5065 0.9687
7.3168 1.8222 -2.5064 0.9687
7.2374 2.1148 -2.5064 0.9687
7.1933 2.2599 -2.5063 0.9687
6.8683 3.1088 -2.5060 0.9687
6.6679 3.5170 -2.5059 0.9687
6.5957 3.6503 -2.5058 0.9687
6.5208 3.7821 -2.5058 0.9687
6.4433 3.9123 -2.5057 0.9687
6.2805 4.1680 -2.5056 0.9687
6.1953 4.2933 -2.5055 0.9687
6.1075 4.4169 -2.5054 0.9687
6.0173 4.5387 -2.5054 0.9687
5.8296 4.7767 -2.5052 0.9687
5.1007 5.5460 -2.5047 0.9687
4.9880 5.6473 -2.5046 0.9687
4.8733 5.7462 -2.5045 0.9687
4.7566 5.8428 -2.5044 0.9687
4.6380 5.9371 -2.5043 0.9687
4.5175 6.0289 -2.5042 0.9687
4.0179 6.3714 -2.5039 0.9687
3.2211 6.8071 -2.5033 0.9688
2.9446 6.9306 -2.5031 0.9688
2.8046 6.9881 -2.5030 0.9688
2.6634 7.0428 -2.5029 0.9688
2.5211 7.0946 -2.5028 0.9688
1.7948 7.3057 -2.5007 0.9688
1.3503 7.3959 -2.4991 0.9688
1.0515 7.4418 -2.4983 0.9688
0.6007 7.4891 -2.4974 0.9688
0.4500 7.4991 -2.4972 0.9688
-0.3050 7.5059 -2.4970 0.9688
-0.6065 7.4883 -2.4973 0.9688
-0.7571 7.4753 -2.4975 0.9688
-0.9073 7.4593 -2.4978 0.9688
-1.0572 7.4404 -2.4981 0.9688
-1.6527 7.3365 -2.4998 0.9688
-2.0918 7.2227 -2.4995 0.9688
-2.3803 7.1322 -2.4993 0.9688
-2.6649 7.0302 -2.4991 0.9688
-2.9452 6.9169 -2.4990 0.9688
-3.2207 6.7923 -2.4988 0.9688
-3.7554 6.5107 -2.4984 0.9688
-4.1407 6.2718 -2.4982 0.9688
-4.2658 6.1871 -2.4981 0.9688
-4.5108 6.0102 -2.4979 0.9688
-4.6306 5.9181 -2.4978 0.9688
-5.3083 5.3168 -2.4974 0.9688
-5.4140 5.2089 -2.4973 0.9688
-5.5175 5.0988 -2.4973 0.9688
-5.6187 4.9867 -2.4972 0.9688
-5.7177 4.8726 -2.4971 0.9688
-5.8144 4.7566 -2.4971 0.9688
-5.9087 4.6386 -2.4970 0.9688
-6.0006 4.5188 -2.4970 0.9688
-6.2618 4.1485 -2.4968 0.9688
-6.4232 3.8933 -2.4967 0.9688
-6.5001 3.7633 -2.4967 0.9688
-6.7148 3.3644 -2.4965 0.9688
-6.7810 3.2286 -2.4965 0.9688
-6.8445 3.0916 -2.4965 0.9688
-6.9630 2.8138 -2.4964 0.9688
-7.0181 2.6732 -2.4964 0.9688
-7.0704 2.5316 -2.4963 0.9688
-7.1198 2.3889 -2.4963 0.9688
-7.1663 2.2452 -2.4963 0.9688
-7.2099 2.1006 -2.4963 0.9688
-7.2884 1.8090 -2.4962 0.9688
-7.3841 1.3663 -2.4962 0.9688
-7.4330 1.0683 -2.4962 0.9688
-7.4700 0.7686 -2.4962 0.9688
-7.4948 0.4677 -2.4962 0.9688
-7.5094 0.0150 -2.4962 0.9688
-7.3900 -1.3369 -2.4963 0.9688
-7.3304 -1.6330 -2.4964 0.9688
-7.2591 -1.9264 -2.4965 0.9688
-7.2190 -2.0720 -2.4965 0.9688
-7.0813 -2.5036 -2.4966 0.9688
-7.0296 -2.6455 -2.4967 0.9688
-6.9751 -2.7864 -2.4967 0.9688
-6.7293 -3.3381 -2.4969 0.9688
-6.6609 -3.4728 -2.4970 0.9688
-6.5162 -3.7379 -2.4971 0.9688
-6.4399 -3.8683 -2.4972 0.9688
-6.2795 -4.1243 -2.4973 0.9688
-6.1090 -4.3737 -2.4974 0.9688
-5.9285 -4.6160 -2.4976 0.9688
-5.7385 -4.8509 -2.4977 0.9688
-5.5391 -5.0780 -2.4979 0.9688
-5.4361 -5.1885 -2.4979 0.9688
-5.2234 -5.4032 -2.4981 0.9688
-5.1139 -5.5073 -2.4982 0.9688
-5.0023 -5.6092 -2.4983 0.9688
-4.8887 -5.7089 -2.4984 0.9688
-4.6555 -5.9012 -2.4985 0.9688
-4.2918 -6.1718 -2.4988 0.9688
-4.1670 -6.2571 -2.4989 0.9688
-4.0405 -6.3399 -2.4990 0.9688
-3.9123 -6.4201 -2.4991 0.9688
-3.7826 -6.4977 -2.4992 0.9688
-3.2488 -6.7816 -2.4996 0.9688
-3.1119 -6.8459 -2.4997 0.9688
-2.8344 -6.9660 -2.4999 0.9688
-2.4096 -7.1251 -2.5002 0.9688
-2.2659 -7.1724 -2.5003 0.9688
-1.6826 -7.3325 -2.5007 0.9688
-1.3866 -7.3948 -2.5009 0.9688
-1.0883 -7.4452 -2.5011 0.9688
-0.9384 -7.4659 -2.5012 0.9688
-0.7881 -7.4836 -2.5013 0.9688
-0.6375 -7.4982 -2.5014 0.9688
-0.4866 -7.5099 -2.5016 0.9688
-0.3356 -7.5184 -2.5017 0.9688
-0.1843 -7.5240 -2.5018 0.9688
0.1183 -7.5260 -2.5020 0.9688
0.2696 -7.5224 -2.5021 0.9688
0.4208 -7.5158 -2.5022 0.9688
0.7227 -7.4934 -2.5024 0.9688
1.1733 -7.4371 -2.5027 0.9688
1.4715 -7.3845 -2.5029 0.9688
1.6197 -7.3537 -2.5030 0.9688
1.7673 -7.3200 -2.5031 0.9688
1.9142 -7.2833 -2.5032 0.9688
2.2057 -7.2010 -2.5034 0.9688
2.3501 -7.1555 -2.5035 0.9688
2.9179 -6.9446 -2.5039 0.9687
3.0570 -6.8848 -2.5040 0.9687
3.1950 -6.8221 -2.5041 0.9687
3.3316 -6.7568 -2.5042 0.9687
3.6008 -6.6179 -2.5044 0.9687
3.7333 -6.5443 -2.5044 0.9687
3.8642 -6.4682 -2.5045 0.9687
4.1214 -6.3080 -2.5047 0.9687
4.2476 -6.2241 -2.5048 0.9687
4.3720 -6.1376 -2.5049 0.9687
4.7345 -5.8634 -2.5051 0.9687
4.8516 -5.7672 -2.5052 0.9687
5.0799 -5.5678 -2.5053 0.9687
5.1909 -5.4647 -2.5054 0.9687
5.4067 -5.2519 -2.5055 0.9687
6.0004 -4.5637 -2.5059 0.9687
6.1793 -4.3189 -2.5060 0.9687
6.2650 -4.1939 -2.5061 0.9687
6.5068 -3.8088 -2.5062 0.9687
6.5822 -3.6773 -2.5063 0.9687
6.7923 -3.2739 -2.5064 0.9687
6.9776 -2.8586 -2.5065 0.9687
7.0337 -2.7178 -2.5065 0.9687
7.0870 -2.5758 -2.5065 0.9687
7.3459 -1.7042 -2.5067 0.9687
7.3787 -1.5562 -2.5067 0.9687
7.4592 -1.1085 -2.5067 0.9687
7.5125 -0.6568 -2.5067 0.9687
7.5242 -0.5057 -2.5067 0.9687
7.5409 -0.0511 -2.5067 0.9687
7.5205 0.5549 -2.5067 0.9687
7.5078 0.7060 -2.5066 0.9687
7.4920 0.8568 -2.5066 0.9687
7.4732 1.0073 -2.5066 0.9687
7.4265 1.3069 -2.5065 0.9687
7.3678 1.6044 -2.5065 0.9687
7.2574 2.0455 -2.5064 0.9687
7.1690 2.3356 -2.5063 0.9687
7.0691 2.6219 -2.5062 0.9687
7.0148 2.7634 -2.5062 0.9687
6.5568 3.7196 -2.5058 0.9687
6.4805 3.8506 -2.5057 0.9687
6.4016 3.9800 -2.5057 0.9687
6.1495 4.3584 -2.5055 0.9687
5.9690 4.6018 -2.5053 0.9687
5.3708 5.2858 -2.5049 0.9687
6.6093 -2.3309 -2.5062 0.9707
6.6977 -2.0633 -2.5062 0.9707
6.7754 -1.7924 -2.5063 0.9707
6.8712 -1.3807 -2.5063 0.9707
6.8976 -1.2423 -2.5063 0.9707
6.9213 -1.1033 -2.5063 0.9707
6.9421 -0.9640 -2.5063 0.9707
6.9600 -0.8242 -2.5063 0.9707
6.9752 -0.6841 -2.5064 0.9707
6.9971 -0.4031 -2.5064 0.9707
7.0037 -0.2623 -2.5063 0.9707
7.0086 0.0195 -2.5063 0.9707
6.9842 0.5825 -2.5063 0.9707
6.9711 0.7228 -2.5063 0.9707
6.9551 0.8628 -2.5062 0.9707
6.9146 1.1417 -2.5062 0.9707
6.8630 1.4188 -2.5061 0.9707
6.8330 1.5565 -2.5061 0.9707
6.5954 2.3673 -2.5059 0.9707
6.4947 2.6305 -2.5058 0.9707
6.4404 2.7605 -2.5058 0.9707
6.3834 2.8894 -2.5057 0.9707
6.3239 3.0171 -2.5057 0.9707
6.1973 3.2688 -2.5056 0.9707
5.8372 3.8738 -2.5053 0.9707
5.7580 3.9903 -2.5052 0.9707
5.5926 4.2183 -2.5051 0.9707
5.3277 4.5475 -2.5049 0.9707
5.2350 4.6535 -2.5048 0.9707
4.9445 4.9602 -2.5046 0.9707
4.7408 5.1547 -2.5044 0.9707
4.6361 5.2488 -2.5044 0.9707
4.5295 5.3408 -2.5043 0.9707
4.4210 5.4306 -2.5042 0.9707
4.1988 5.6036 -2.5040 0.9707
3.9699 5.7675 -2.5039 0.9707
3.8530 5.8459 -2.5038 0.9707
3.7345 5.9220 -2.5037 0.9707
3.6146 5.9957 -2.5036 0.9707
3.1207 6.2658 -2.5032 0.9707
2.9940 6.3271 -2.5031 0.9707
2.7370 6.4418 -2.5030 0.9707
2.6068 6.4953 -2.5029 0.9707
2.4756 6.5462 -2.5028 0.9707
2.0762 6.6828 -2.5025 0.9707
1.5323 6.8269 -2.5021 0.9707
1.2565 6.8825 -2.5019 0.9707
1.1178 6.9061 -2.5018 0.9707
0.9787 6.9268 -2.5017 0.9707
0.8392 6.9449 -2.5016 0.9707
0.6994 6.9601 -2.5015 0.9707
0.5593 6.9724 -2.5014 0.9707
-0.1433 6.9920 -2.5009 0.9707
-0.2839 6.9874 -2.5008 0.9707
-0.7045 6.9568 -2.5005 0.9707
-0.8442 6.9409 -2.5004 0.9707
-1.2610 6.8766 -2.5001 0.9707
-1.3990 6.8496 -2.5000 0.9707
-1.8092 6.7521 -2.4998 0.9707
-2.0790 6.6734 -2.4996 0.9707
-2.2127 6.6300 -2.4995 0.9707
-2.3455 6.5839 -2.4994 0.9707
-2.4773 6.5352 -2.4993 0.9707
-2.6081 6.4838 -2.4992 0.9707
-2.9939 6.3141 -2.4990 0.9708
-3.4911 6.0524 -2.4986 0.9708
-3.9656 5.7516 -2.4983 0.9708
-4.0803 5.6705 -2.4982 0.9708
-4.3047 5.5016 -2.4981 0.9708
-4.6282 5.2316 -2.4979 0.9708
-4.7323 5.1374 -2.4978 0.9708
-4.8345 5.0411 -2.4977 0.9708
-5.2234 4.6359 -2.4975 0.9708
-5.3154 4.5298 -2.4974 0.9708
-5.5785 4.2008 -2.4973 0.9708
-5.6617 4.0877 -2.4972 0.9708
-5.7426 3.9730 -2.4972 0.9708
-5.8212 3.8567 -2.4971 0.9708
-5.9714 3.6194 -2.4970 0.9708
-6.0428 3.4985 -2.4970 0.9708
-6.1784 3.2526 -2.4969 0.9708
-6.2425 3.1277 -2.4969 0.9708
-6.3040 3.0015 -2.4968 0.9708
-6.4732 2.6159 -2.4968 0.9708
-6.5245 2.4852 -2.4967 0.9708
-6.6190 2.2208 -2.4967 0.9708
-6.6622 2.0873 -2.4967 0.9708
-6.7028 1.9529 -2.4966 0.9708
-6.8082 1.5452 -2.4966 0.9708
-6.8647 1.2702 -2.4966 0.9708
-6.8889 1.1319 -2.4965 0.9708
-6.9102 0.9932 -2.4965 0.9708
-6.9288 0.8541 -2.4965 0.9708
-6.9575 0.5748 -2.4965 0.9708
-6.9677 0.4348 -2.4965 0.9708
-6.9795 0.1543 -2.4965 0.9708
-6.9813 0.0139 -2.4966 0.9708
-6.9802 -0.1264 -2.4966 0.9708
-6.9600 -0.5470 -2.4966 0.9708
-6.9476 -0.6869 -2.4966 0.9708
-6.9324 -0.8264 -2.4966 0.9708
-6.9145 -0.9656 -2.4967 0.9708
-6.8937 -1.1045 -2.4967 0.9708
-6.8702 -1.2429 -2.4967 0.9708
-6.7112 -1.9263 -2.4969 0.9708
-6.4844 -2.5904 -2.4971 0.9708
-6.4312 -2.7202 -2.4971 0.9708
-6.2558 -3.1032 -2.4972 0.9708
-6.1263 -3.3524 -2.4974 0.9708
-5.9868 -3.5961 -2.4975 0.9708
-5.7595 -3.9508 -2.4976 0.9708
-5.6791 -4.0659 -2.4977 0.9708
-5.4241 -4.4012 -2.4979 0.9708
-5.3346 -4.5095 -2.4980 0.9708
-5.1493 -4.7206 -2.4981 0.9708
-5.0535 -4.8233 -2.4982 0.9708
-4.7540 -5.1197 -2.4984 0.9708
-4.5446 -5.3070 -2.4986 0.9708
-4.4371 -5.3975 -2.4987 0.9708
-4.1040 -5.6557 -2.4989 0.9708
-3.9896 -5.7373 -2.4990 0.9708
-3.6369 -5.9680 -2.4993 0.9707
-3.5162 -6.0401 -2.4993 0.9707
-3.3942 -6.1098 -2.4994 0.9707
-3.1460 -6.2418 -2.4996 0.9707
-2.8928 -6.3637 -2.4998 0.9707
-2.7643 -6.4208 -2.4999 0.9707
-2.2399 -6.6232 -2.5003 0.9707
-1.9719 -6.7084 -2.5005 0.9707
-1.7007 -6.7828 -2.5007 0.9707
-1.5641 -6.8159 -2.5008 0.9707
-0.8723 -6.9398 -2.5012 0.9707
-0.4524 -6.9806 -2.5015 0.9707
-0.3119 -6.9886 -2.5016 0.9707
-0.1713 -6.9937 -2.5017 0.9707
-0.0307 -6.9960 -2.5018 0.9707
0.1100 -6.9955 -2.5019 0.9707
0.2506 -6.9921 -2.5020 0.9707
0.3912 -6.9859 -2.5021 0.9707
0.5316 -6.9769 -2.5022 0.9707
0.6718 -6.9651 -2.5023 0.9707
0.9513 -6.9330 -2.5025 0.9707
1.0906 -6.9127 -2.5026 0.9707
1.2294 -6.8897 -2.5027 0.9707
1.6427 -6.8038 -2.5030 0.9707
1.7792 -6.7696 -2.5031 0.9707
2.1844 -6.6508 -2.5034 0.9707
2.4502 -6.5581 -2.5035 0.9707
2.5816 -6.5077 -2.5036 0.9707
3.0966 -6.2801 -2.5040 0.9707
3.3468 -6.1510 -2.5041 0.9707
3.9479 -5.7849 -2.5045 0.9707
4.0635 -5.7045 -2.5046 0.9707
4.6162 -5.2686 -2.5050 0.9707
4.9258 -4.9812 -2.5052 0.9707
5.0251 -4.8812 -2.5052 0.9707
5.1224 -4.7793 -2.5053 0.9707
5.2176 -4.6755 -2.5054 0.9707
5.4903 -4.3527 -2.5055 0.9707
5.5768 -4.2415 -2.5056 0.9707
5.7431 -4.0141 -2.5057 0.9707
5.8227 -3.8978 -2.5057 0.9707
5.9001 -3.7800 -2.5058 0.9707
6.1175 -3.4177 -2.5059 0.9707
6.1851 -3.2940 -2.5060 0.9707
6.2502 -3.1690 -2.5060 0.9707
6.3127 -3.0428 -2.5060 0.9707
6.4301 -2.7866 -2.5061 0.9707
6.4849 -2.6568 -2.5061 0.9707
6.5867 -2.3940 -2.5062 0.9707
6.6335 -2.2611 -2.5062 0.9707
6.7192 -1.9926 -2.5063 0.9707
6.7579 -1.8571 -2.5063 0.9707
6.7940 -1.7208 -2.5063 0.9707
6.8854 -1.3081 -2.5063 0.9707
6.9104 -1.1694 -2.5063 0.9707
6.9325 -1.0303 -2.5063 0.9707
6.9518 -0.8907 -2.5063 0.9707
6.9929 -0.4699 -2.5064 0.9707
7.0009 -0.3292 -2.5063 0.9707
7.0061 -0.1884 -2.5063 0.9707
7.0080 0.0934 -2.5063 0.9707
7.0047 0.2343 -2.5063 0.9707
6.9985 0.3751 -2.5063 0.9707
6.9895 0.5157 -2.5063 0.9707
6.9630 0.7963 -2.5063 0.9707
6.9252 1.0756 -2.5062 0.9707
6.9022 1.2146 -2.5062 0.9707
6.8161 1.6284 -2.5061 0.9707
6.7450 1.9011 -2.5060 0.9707
6.6629 2.1707 -2.5060 0.9707
6.6178 2.3042 -2.5059 0.9707
6.5700 2.4367 -2.5059 0.9707
6.5196 2.5683 -2.5058 0.9707
6.4108 2.8283 -2.5057 0.9707
6.2283 3.2094 -2.5056 0.9707
6.1624 3.3339 -2.5055 0.9707
5.9498 3.6991 -2.5054 0.9707
5.8740 3.8179 -2.5053 0.9707
5.7959 3.9351 -2.5052 0.9707
5.4605 4.3876 -2.5050 0.9707
5.3710 4.4964 -2.5049 0.9707
5.0897 4.8116 -2.5047 0.9707
6.2093 -2.0504 -2.5059 0.9724
6.2493 -1.9252 -2.5059 0.9724
6.2868 -1.7992 -2.5059 0.9724
6.3218 -1.6724 -2.5060 0.9724
6.3542 -1.5450 -2.5060 0.9724
6.4112 -1.2883 -2.5060 0.9724
6.4579 -1.0295 -2.5060 0.9724
6.4773 -0.8994 -2.5060 0.9724
6.5082 -0.6383 -2.5060 0.9724
6.5197 -0.5073 -2.5060 0.9724
6.5286 -0.3761 -2.5060 0.9724
6.5348 -0.2447 -2.5060 0.9724
6.5384 -0.1133 -2.5060 0.9724
6.5376 0.1497 -2.5060 0.9724
6.4719 0.9354 -2.5059 0.9724
6.4517 1.0653 -2.5059 0.9724
6.4289 1.1948 -2.5059 0.9724
6.3450 1.5801 -2.5058 0.9724
6.3118 1.7074 -2.5057 0.9724
6.2379 1.9597 -2.5057 0.9724
6.1539 2.2089 -2.5056 0.9724
6.0599 2.4544 -2.5055 0.9724
5.9561 2.6960 -2.5054 0.9724
5.8427 2.9331 -2.5053 0.9724
5.7825 3.0500 -2.5053 0.9724
5.6549 3.2799 -2.5052 0.9724
5.5877 3.3928 -2.5051 0.9724
5.5182 3.5044 -2.5051 0.9724
5.4465 3.6146 -2.5050 0.9724
5.1380 4.0401 -2.5048 0.9724
4.4236 4.8098 -2.5042 0.9724
4.3259 4.8977 -2.5042 0.9724
4.0224 5.1491 -2.5039 0.9724
3.9179 5.2287 -2.5039 0.9724
3.7043 5.3817 -2.5037 0.9724
3.5952 5.4549 -2.5036 0.9724
3.4847 5.5259 -2.5035 0.9724
3.1449 5.7254 -2.5033 0.9724
2.9120 5.8468 -2.5031 0.9724
2.6744 5.9587 -2.5029 0.9724
2.5540 6.0111 -2.5029 0.9724
2.3101 6.1085 -2.5027 0.9724
2.0625 6.1960 -2.5025 0.9724
1.9374 6.2360 -2.5024 0.9724
1.8115 6.2734 -2.5023 0.9724
1.4299 6.3705 -2.5020 0.9724
1.1725 6.4224 -2.5019 0.9724
1.0431 6.4444 -2.5018 0.9724
0.1287 6.5254 -2.5011 0.9724
-0.0025 6.5264 -2.5010 0.9724
-0.1338 6.5248 -2.5009 0.9724
-0.2649 6.5205 -2.5009 0.9724
-0.5268 6.5041 -2.5007 0.9724
-0.6575 6.4920 -2.5006 0.9724
-0.7878 6.4772 -2.5005 0.9724
-1.0475 6.4399 -2.5003 0.9724
-1.1768 6.4173 -2.5002 0.9724
-1.3055 6.3921 -2.5001 0.9724
-1.4337 6.3643 -2.5000 0.9724
-1.5613 6.3340 -2.5000 0.9724
-1.6883 6.3011 -2.4999 0.9724
-1.9402 6.2277 -2.4997 0.9724
-2.0649 6.1872 -2.4996 0.9724
-2.3118 6.0988 -2.4994 0.9724
-2.4339 6.0509 -2.4994 0.9724
-2.6751 5.9477 -2.4992 0.9725
-2.7940 5.8926 -2.4991 0.9725
-3.0285 5.7751 -2.4990 0.9725
-3.1439 5.7129 -2.4989 0.9725
-3.8079 5.2920 -2.4985 0.9725
-3.9134 5.2142 -2.4984 0.9725
-4.1197 5.0524 -2.4982 0.9725
-4.2203 4.9684 -2.4982 0.9725
-4.3193 4.8825 -2.4981 0.9725
-4.6971 4.5192 -2.4979 0.9725
-4.9607 4.2275 -2.4977 0.9725
-5.0446 4.1268 -2.4977 0.9725
-5.1265 4.0245 -2.4976 0.9725
-5.2062 3.9205 -2.4976 0.9725
-5.4328 3.5993 -2.4974 0.9725
-5.7041 3.1510 -2.4973 0.9725
-5.7662 3.0356 -2.4972 0.9725
-5.9385 2.6824 -2.4971 0.9725
-6.0414 2.4414 -2.4971 0.9725
-6.0892 2.3194 -2.4970 0.9725
-6.1345 2.1965 -2.4970 0.9725
-6.1774 2.0727 -2.4970 0.9725
-6.2178 1.9480 -2.4970 0.9725
-6.2556 1.8226 -2.4970 0.9725
-6.2910 1.6965 -2.4969 0.9725
-6.3238 1.5696 -2.4969 0.9725
-6.3540 1.4421 -2.4969 0.9725
-6.4293 1.0564 -2.4969 0.9725
-6.4493 0.9269 -2.4969 0.9725
-6.4666 0.7971 -2.4969 0.9725
-6.4813 0.6669 -2.4969 0.9725
-6.4934 0.5364 -2.4969 0.9725
-6.5029 0.4058 -2.4969 0.9725
-6.5139 0.1440 -2.4969 0.9725
-6.5155 0.0130 -2.4969 0.9725
-6.5145 -0.1180 -2.4969 0.9725
-6.4700 -0.7713 -2.4970 0.9725
-6.4532 -0.9012 -2.4970 0.9725
-6.3873 -1.2887 -2.4970 0.9725
-6.3305 -1.5445 -2.4971 0.9725
-6.2634 -1.7978 -2.4972 0.9725
-6.1862 -2.0482 -2.4972 0.9725
-6.0991 -2.2953 -2.4973 0.9725
-6.0518 -2.4175 -2.4974 0.9725
-6.0021 -2.5387 -2.4974 0.9725
-5.9499 -2.6590 -2.4974 0.9725
-5.8954 -2.7781 -2.4975 0.9725
-5.7175 -3.1287 -2.4976 0.9725
-5.5873 -3.3561 -2.4977 0.9725
-5.5188 -3.4679 -2.4978 0.9725
-5.3752 -3.6871 -2.4979 0.9725
-5.3001 -3.7946 -2.4980 0.9725
-5.0620 -4.1075 -2.4981 0.9725
-4.8931 -4.3079 -2.4983 0.9725
-4.8056 -4.4055 -2.4983 0.9725
-4.7162 -4.5014 -2.4984 0.9725
-4.6248 -4.5954 -2.4985 0.9725
-4.4366 -4.7779 -2.4986 0.9725
-4.2412 -4.9527 -2.4988 0.9725
-4.0389 -5.1195 -2.4989 0.9725
-3.8300 -5.2781 -2.4991 0.9725
-3.5052 -5.4999 -2.4993 0.9724
-3.3940 -5.5695 -2.4994 0.9724
-3.2814 -5.6368 -2.4995 0.9724
-2.8183 -5.8830 -2.4998 0.9724
-2.5797 -5.9920 -2.5000 0.9724
-2.4588 -6.0428 -2.5001 0.9724
-2.2140 -6.1372 -2.5003 0.9724
-2.0902 -6.1807 -2.5003 0.9724
-1.8402 -6.2602 -2.5005 0.9724
-1.5871 -6.3296 -2.5007 0.9724
-1.4596 -6.3605 -2.5008 0.9724
-1.3315 -6.3888 -2.5009 0.9724
-0.9440 -6.4581 -2.5012 0.9724
-0.8140 -6.4760 -2.5013 0.9724
-0.5530 -6.5040 -2.5014 0.9724
-0.2911 -6.5215 -2.5016 0.9724
0.2339 -6.5247 -2.5020 0.9724
0.3650 -6.5189 -2.5021 0.9724
0.6269 -6.4995 -2.5023 0.9724
0.8877 -6.4695 -2.5024 0.9724
1.0177 -6.4505 -2.5025 0.9724
1.2763 -6.4049 -2.5027 0.9724
1.4048 -6.3782 -2.5028 0.9724
1.5329 -6.3488 -2.5029 0.9724
1.6603 -6.3169 -2.5030 0.9724
1.9130 -6.2455 -2.5032 0.9724
2.0383 -6.2060 -2.5032 0.9724
2.1627 -6.1640 -2.5033 0.9724
2.6513 -5.9711 -2.5037 0.9724
2.7709 -5.9167 -2.5037 0.9724
2.8894 -5.8600 -2.5038 0.9724
3.0068 -5.8009 -2.5039 0.9724
3.3513 -5.6096 -2.5041 0.9724
3.5744 -5.4707 -2.5043 0.9724
3.7916 -5.3228 -2.5044 0.9724
4.2075 -5.0015 -2.5047 0.9724
4.3073 -4.9160 -2.5047 0.9724
4.4054 -4.8286 -2.5048 0.9724
4.5017 -4.7392 -2.5049 0.9724
4.6888 -4.5546 -2.5050 0.9724
4.8684 -4.3625 -2.5051 0.9724
4.9552 -4.2639 -2.5052 0.9724
5.0400 -4.1635 -2.5052 0.9724
5.1228 -4.0614 -2.5053 0.9724
5.2822 -3.8523 -2.5054 0.9724
5.3587 -3.7454 -2.5054 0.9724
5.4330 -3.6369 -2.5055 0.9724
5.5051 -3.5270 -2.5055 0.9724
5.5750 -3.4157 -2.5055 0.9724
5.6426 -3.3029 -2.5056 0.9724
5.7080 -3.1889 -2.5056 0.9724
5.7710 -3.0735 -2.5057 0.9724
5.8318 -2.9569 -2.5057 0.9724
5.8901 -2.8391 -2.5057 0.9724
5.9996 -2.6000 -2.5058 0.9724
6.0508 -2.4789 -2.5058 0.9724
6.0995 -2.3568 -2.5058 0.9724
6.1457 -2.2337 -2.5059 0.9724
6.1894 -2.1097 -2.5059 0.9724
6.2693 -1.8592 -2.5059 0.9724
6.3055 -1.7327 -2.5059 0.9724
6.3391 -1.6056 -2.5060 0.9724
6.3701 -1.4779 -2.5060 0.9724
6.3986 -1.3495 -2.5060 0.9724
6.4244 -1.2206 -2.5060 0.9724
6.4477 -1.0911 -2.5060 0.9724
6.4684 -0.9613 -2.5060 0.9724
6.4864 -0.8310 -2.5060 0.9724
6.5018 -0.7004 -2.5060 0.9724
6.5146 -0.5696 -2.5060 0.9724
6.5247 -0.4385 -2.5060 0.9724
6.5392 -0.0443 -2.5060 0.9724
6.5388 0.0872 -2.5060 0.9724
6.5215 0.4812 -2.5060 0.9724
6.4616 1.0036 -2.5059 0.9724
6.4401 1.1333 -2.5059 0.9724
6.3892 1.3913 -2.5058 0.9724
6.3598 1.5194 -2.5058 0.9724
6.3279 1.6470 -2.5058 0.9724
6.1748 2.1500 -2.5056 0.9724
6.0336 2.5182 -2.5055 0.9724
5.9273 2.7586 -2.5054 0.9724
5.8114 2.9946 -2.5053 0.9724
5.7499 3.1108 -2.5053 0.9724
5.6861 3.2257 -2.5052 0.9724
5.5515 3.4515 -2.5051 0.9724
5.4809 3.5624 -2.5050 0.9724
5.4080 3.6718 -2.5050 0.9724
5.3330 3.7797 -2.5049 0.9724
5.2558 3.8860 -2.5049 0.9724
5.1765 3.9908 -2.5048 0.9724
5.0951 4.0940 -2.5047 0.9724
5.0116 4.1955 -2.5047 0.9724
4.8386 4.3934 -2.5045 0.9724
5.8133 -1.9197 -2.5056 0.9739
5.8508 -1.8024 -2.5056 0.9739
5.9489 -1.4464 -2.5057 0.9739
6.0254 -1.0852 -2.5057 0.9739
6.0460 -0.9638 -2.5057 0.9739
6.0642 -0.8420 -2.5057 0.9739
6.0931 -0.5976 -2.5057 0.9739
6.1039 -0.4749 -2.5057 0.9739
6.1223 0.0170 -2.5057 0.9739
6.1207 0.1401 -2.5057 0.9739
6.1166 0.2632 -2.5057 0.9739
6.1101 0.3861 -2.5057 0.9739
6.1010 0.5089 -2.5057 0.9739
