ply
format ascii 1.0
element vertex 1591
property float32 x
property float32 y
property float32 z
property float32 I
end_header
11.6897 -0.1826 -2.4713 0.9533
11.6858 0.2875 -2.4709 0.9533
11.6633 0.7571 -2.4706 0.9533
11.6451 0.9914 -2.4704 0.9533
11.6222 1.2253 -2.4703 0.9533
11.5625 1.6916 -2.4701 0.9533
11.4843 2.1550 -2.4699 0.9534
11.3328 2.8433 -2.4698 0.9534
11.2732 3.0706 -2.4697 0.9534
10.9902 3.9666 -2.4698 0.9534
10.9084 4.1869 -2.4698 0.9534
10.8222 4.4055 -2.4699 0.9534
10.6369 4.8374 -2.4700 0.9533
10.4347 5.2617 -2.4702 0.9533
9.8566 6.2844 -2.4709 0.9533
9.4428 6.8549 -2.4665 0.9534
8.9964 7.1003 -2.4226 0.9542
8.1974 7.3136 -2.3222 0.9561
7.8985 7.6391 -2.3227 0.9561
7.7443 7.7974 -2.3230 0.9561
7.5869 7.9525 -2.3233 0.9561
7.4264 8.1045 -2.3236 0.9561
7.2629 8.2534 -2.3239 0.9560
7.0965 8.3990 -2.3242 0.9560
6.9271 8.5412 -2.3246 0.9560
6.7550 8.6801 -2.3249 0.9560
6.0395 9.2008 -2.3264 0.9560
4.2918 10.1547 -2.3303 0.9559
3.6741 10.4015 -2.3318 0.9559
3.4649 10.4755 -2.3323 0.9559
3.2543 10.5454 -2.3328 0.9559
3.0422 10.6111 -2.3333 0.9559
2.8288 10.6725 -2.3339 0.9559
2.1817 10.8311 -2.3355 0.9558
1.9639 10.8753 -2.3360 0.9558
-10.6711 1.4167 -2.5300 0.9567
-10.6985 1.2019 -2.5302 0.9567
-10.7642 0.3385 -2.5311 0.9567
-10.7707 -0.0947 -2.5315 0.9567
-10.7595 -0.5277 -2.5318 0.9567
-10.7473 -0.7441 -2.5319 0.9567
-10.7307 -0.9601 -2.5320 0.9567
-10.6547 -1.6055 -2.5324 0.9567
-10.5821 -2.0328 -2.5325 0.9567
-10.4923 -2.4568 -2.5326 0.9567
-10.4409 -2.6673 -2.5327 0.9567
-10.3852 -2.8768 -2.5327 0.9567
-10.3253 -3.0850 -2.5327 0.9567
-10.0436 -3.9046 -2.5326 0.9567
-9.9629 -4.1057 -2.5325 0.9567
-9.7891 -4.5027 -2.5324 0.9567
-9.6963 -4.6985 -2.5323 0.9567
-9.4987 -5.0842 -2.5321 0.9567
-9.2856 -5.4614 -2.5318 0.9567
-9.1733 -5.6467 -2.5317 0.9567
-9.0573 -5.8297 -2.5315 0.9567
-8.6874 -6.3638 -2.5309 0.9567
-8.5570 -6.5366 -2.5307 0.9567
-8.4231 -6.7068 -2.5305 0.9567
-8.0010 -7.2004 -2.5298 0.9567
-7.8538 -7.3591 -2.5295 0.9567
-7.7034 -7.5147 -2.5292 0.9567
-7.2337 -7.9627 -2.5283 0.9568
-7.0712 -8.1055 -2.5280 0.9568
-6.9059 -8.2450 -2.5277 0.9568
-6.3935 -8.6428 -2.5266 0.9568
-5.8581 -9.0085 -2.5255 0.9568
-5.3017 -9.3408 -2.5243 0.9568
-5.1119 -9.4439 -2.5238 0.9568
-4.9201 -9.5432 -2.5234 0.9568
-4.7264 -9.6385 -2.5230 0.9568
-4.3334 -9.8172 -2.5221 0.9569
-3.5279 -10.1260 -2.5201 0.9569
-2.4910 -10.4185 -2.5176 0.9569
-2.0685 -10.5024 -2.5157 0.9570
-1.4296 -10.5935 -2.5123 0.9570
-0.7874 -10.6488 -2.5095 0.9571
-0.5729 -10.6591 -2.5087 0.9571
-0.3583 -10.6655 -2.5080 0.9571
-0.1437 -10.6684 -2.5075 0.9571
0.4996 -10.6530 -2.5064 0.9571
0.7136 -10.6398 -2.5062 0.9571
1.3538 -10.5766 -2.5060 0.9571
1.5663 -10.5480 -2.5062 0.9571
2.8212 -10.2705 -2.5032 0.9572
3.0265 -10.2093 -2.5026 0.9572
3.2304 -10.1439 -2.5020 0.9572
3.6339 -10.0010 -2.5008 0.9572
3.8334 -9.9236 -2.5002 0.9572
4.6140 -9.5743 -2.4979 0.9573
5.1793 -9.2721 -2.4961 0.9573
5.5454 -9.0522 -2.4949 0.9573
5.7250 -8.9368 -2.4944 0.9573
6.7499 -8.1716 -2.4910 0.9574
6.9114 -8.0325 -2.4904 0.9574
7.0700 -7.8901 -2.4899 0.9574
7.2257 -7.7447 -2.4894 0.9574
7.9583 -6.9730 -2.4868 0.9575
8.2290 -6.6447 -2.4858 0.9575
8.4862 -6.3060 -2.4848 0.9575
8.6097 -6.1329 -2.4843 0.9575
8.7297 -5.9574 -2.4839 0.9575
8.8461 -5.7796 -2.4834 0.9575
8.9589 -5.5995 -2.4830 0.9575
9.0681 -5.4172 -2.4825 0.9575
9.1736 -5.2329 -2.4821 0.9575
9.2754 -5.0465 -2.4817 0.9575
9.3734 -4.8581 -2.4813 0.9575
9.5581 -4.4758 -2.4805 0.9576
9.8060 -3.8896 -2.4793 0.9576
9.8808 -3.6911 -2.4790 0.9576
10.0184 -3.2898 -2.4783 0.9576
10.0812 -3.0873 -2.4779 0.9576
10.1946 -2.6787 -2.4773 0.9576
10.2916 -2.2661 -2.4767 0.9576
10.3721 -1.8500 -2.4762 0.9576
10.4061 -1.6409 -2.4759 0.9576
10.5134 -0.5877 -2.4747 0.9577
10.5274 0.0473 -2.4742 0.9577
10.5156 0.4705 -2.4739 0.9577
10.5034 0.6818 -2.4737 0.9577
10.4665 1.1035 -2.4735 0.9577
10.4129 1.5233 -2.4733 0.9577
10.3426 1.9407 -2.4732 0.9577
10.0948 2.9690 -2.4730 0.9577
9.9673 3.3725 -2.4730 0.9577
9.8976 3.5723 -2.4730 0.9577
9.8239 3.7707 -2.4731 0.9577
9.6648 4.1628 -2.4732 0.9577
9.5794 4.3565 -2.4733 0.9577
9.4901 4.5483 -2.4733 0.9577
9.3971 4.7385 -2.4734 0.9577
9.1998 5.1130 -2.4737 0.9577
9.0956 5.2972 -2.4738 0.9577
8.7613 5.8371 -2.4742 0.9577
8.1344 6.6898 -2.4752 0.9576
7.9972 6.8512 -2.4750 0.9577
7.8518 7.0053 -2.4730 0.9577
7.0936 7.4355 -2.4152 0.9587
6.6136 7.5155 -2.3529 0.9597
6.3896 7.5624 -2.3268 0.9601
6.0820 7.8153 -2.3274 0.9601
5.6021 8.1713 -2.3284 0.9601
5.4375 8.2835 -2.3288 0.9601
4.4051 8.8865 -2.3311 0.9601
4.0457 9.0597 -2.3319 0.9601
3.6794 9.2184 -2.3327 0.9600
3.4940 9.2923 -2.3332 0.9600
2.3528 9.6567 -2.3359 0.9600
1.9634 9.7476 -2.3369 0.9600
1.7674 9.7872 -2.3374 0.9600
-9.6478 1.4788 -2.5272 0.9605
-9.6765 1.2847 -2.5274 0.9605
-9.7388 0.6990 -2.5280 0.9605
-9.7605 0.3069 -2.5284 0.9605
-9.7662 -0.0858 -2.5288 0.9604
-9.7631 -0.2822 -2.5289 0.9604
-9.7560 -0.4785 -2.5290 0.9604
-9.7298 -0.8705 -2.5293 0.9604
-9.6607 -1.4558 -2.5296 0.9604
-9.6298 -1.6498 -2.5297 0.9604
-9.5949 -1.8432 -2.5297 0.9604
-9.5561 -2.0358 -2.5298 0.9604
-9.4163 -2.6084 -2.5299 0.9604
-9.3038 -2.9849 -2.5299 0.9604
-9.2418 -3.1714 -2.5298 0.9604
-9.1066 -3.5403 -2.5298 0.9604
-8.9565 -3.9035 -2.5297 0.9604
-8.7040 -4.4360 -2.5294 0.9604
-8.2127 -5.2860 -2.5288 0.9604
-7.8774 -5.7704 -2.5283 0.9605
-7.7592 -5.9272 -2.5281 0.9605
-7.5134 -6.2334 -2.5277 0.9605
-7.3859 -6.3827 -2.5275 0.9605
-6.9856 -6.8145 -2.5267 0.9605
-6.8464 -6.9529 -2.5265 0.9605
-6.5598 -7.2210 -2.5259 0.9605
-6.4126 -7.3506 -2.5256 0.9605
-6.2627 -7.4771 -2.5253 0.9605
-6.1103 -7.6007 -2.5250 0.9605
-5.7983 -7.8382 -2.5244 0.9605
-5.4770 -8.0628 -2.5237 0.9605
-4.6365 -8.5656 -2.5219 0.9606
-4.1096 -8.8254 -2.5206 0.9606
-3.7502 -8.9805 -2.5198 0.9606
-3.5682 -9.0526 -2.5194 0.9606
-3.3849 -9.1209 -2.5189 0.9606
-3.2002 -9.1855 -2.5185 0.9606
-3.0143 -9.2464 -2.5181 0.9606
-2.8272 -9.3034 -2.5176 0.9606
-2.4499 -9.4061 -2.5167 0.9606
-2.2599 -9.4517 -2.5162 0.9606
-0.1306 -9.6959 -2.5107 0.9607
0.0644 -9.6946 -2.5102 0.9607
0.2592 -9.6893 -2.5096 0.9607
0.4539 -9.6801 -2.5091 0.9607
1.2293 -9.6041 -2.5070 0.9608
1.4219 -9.5754 -2.5064 0.9608
1.6138 -9.5428 -2.5059 0.9608
1.9953 -9.4661 -2.5048 0.9608
2.1848 -9.4220 -2.5042 0.9608
2.3733 -9.3741 -2.5037 0.9608
2.9323 -9.2079 -2.5021 0.9609
3.1162 -9.1451 -2.5015 0.9609
3.2988 -9.0786 -2.5010 0.9609
3.4799 -9.0085 -2.5004 0.9609
4.0142 -8.7766 -2.4988 0.9609
4.1889 -8.6922 -2.4983 0.9609
4.3619 -8.6044 -2.4977 0.9609
4.5331 -8.5131 -2.4972 0.9609
4.7024 -8.4184 -2.4967 0.9609
4.8697 -8.3204 -2.4962 0.9609
5.0350 -8.2191 -2.4956 0.9610
5.1982 -8.1145 -2.4951 0.9610
5.3592 -8.0066 -2.4946 0.9610
5.5180 -7.8956 -2.4941 0.9610
5.8286 -7.6642 -2.4930 0.9610
5.9803 -7.5439 -2.4925 0.9610
6.1296 -7.4206 -2.4920 0.9610
6.5620 -7.0334 -2.4906 0.9610
6.7008 -6.8986 -2.4901 0.9610
6.9701 -6.6211 -2.4891 0.9611
7.1006 -6.4784 -2.4887 0.9611
7.2281 -6.3331 -2.4882 0.9611
7.9295 -5.4113 -2.4856 0.9611
8.0353 -5.2499 -2.4852 0.9611
8.3332 -4.7535 -2.4840 0.9611
8.4258 -4.5843 -2.4836 0.9611
8.7618 -3.8901 -2.4821 0.9612
8.9767 -3.3533 -2.4811 0.9612
9.1020 -2.9889 -2.4805 0.9612
9.1592 -2.8049 -2.4802 0.9612
9.2126 -2.6199 -2.4799 0.9612
9.3084 -2.2468 -2.4793 0.9612
9.3507 -2.0589 -2.4791 0.9612
9.5056 -1.1093 -2.4779 0.9612
9.5252 -0.9179 -2.4777 0.9612
9.5529 -0.5340 -2.4773 0.9612
9.5653 -0.1494 -2.4769 0.9612
9.5658 0.0429 -2.4768 0.9612
9.5624 0.2353 -2.4766 0.9612
9.5442 0.6196 -2.4764 0.9613
9.5294 0.8113 -2.4763 0.9613
9.4883 1.1937 -2.4761 0.9613
9.4320 1.5742 -2.4759 0.9613
9.3982 1.7635 -2.4758 0.9613
9.3194 2.1399 -2.4757 0.9613
9.2743 2.3269 -2.4757 0.9613
9.2256 2.5129 -2.4757 0.9613
9.1731 2.6979 -2.4757 0.9613
8.7823 3.7827 -2.4759 0.9613
8.6236 4.1331 -2.4760 0.9613
8.4511 4.4768 -2.4762 0.9613
8.2650 4.8135 -2.4764 0.9613
8.0656 5.1425 -2.4767 0.9612
7.8533 5.4633 -2.4770 0.9612
7.7423 5.6205 -2.4772 0.9612
7.6283 5.7755 -2.4773 0.9612
7.1419 6.3719 -2.4782 0.9612
7.0130 6.5149 -2.4784 0.9612
6.4694 7.0602 -2.4794 0.9612
6.1733 7.3063 -2.4766 0.9612
5.8683 7.5407 -2.4740 0.9613
5.6892 7.6220 -2.4626 0.9615
5.4756 7.6521 -2.4363 0.9619
5.2663 7.6815 -2.4114 0.9622
5.0610 7.7100 -2.3879 0.9626
4.8595 7.7379 -2.3658 0.9629
4.6614 7.7649 -2.3449 0.9633
4.4812 7.8167 -2.3329 0.9635
4.0016 8.0725 -2.3328 0.9635
3.6749 8.2295 -2.3336 0.9634
3.3422 8.3734 -2.3343 0.9634
3.1736 8.4403 -2.3347 0.9634
2.4869 8.6742 -2.3364 0.9634
2.1369 8.7704 -2.3372 0.9634
1.6051 8.8884 -2.3386 0.9634
-8.8165 1.3514 -2.5250 0.9636
-8.8652 0.9960 -2.5255 0.9636
-8.8841 0.8176 -2.5257 0.9636
-8.9111 0.4597 -2.5260 0.9636
-8.9235 0.1010 -2.5263 0.9636
-8.9242 -0.0784 -2.5265 0.9636
-8.9213 -0.2579 -2.5266 0.9636
-8.9148 -0.4373 -2.5268 0.9636
-8.9046 -0.6165 -2.5269 0.9636
-8.8908 -0.7955 -2.5270 0.9636
-8.8734 -0.9741 -2.5271 0.9636
-8.7993 -1.5075 -2.5273 0.9636
-8.7674 -1.6842 -2.5274 0.9636
-8.6929 -2.0355 -2.5274 0.9636
-8.6503 -2.2099 -2.5275 0.9636
-8.6041 -2.3834 -2.5275 0.9636
-8.3212 -3.2350 -2.5274 0.9636
-8.2543 -3.4016 -2.5274 0.9636
-8.1840 -3.5668 -2.5273 0.9636
-8.0336 -3.8928 -2.5272 0.9636
-7.7833 -4.3697 -2.5269 0.9636
-7.6006 -4.6786 -2.5267 0.9636
-7.4055 -4.9799 -2.5264 0.9636
-7.3034 -5.1275 -2.5262 0.9636
-7.1984 -5.2730 -2.5261 0.9636
-7.0904 -5.4163 -2.5259 0.9636
-6.7494 -5.8327 -2.5253 0.9636
-6.6302 -5.9667 -2.5251 0.9636
-6.3837 -6.2274 -2.5246 0.9636
-6.2566 -6.3539 -2.5244 0.9636
-6.1270 -6.4778 -2.5242 0.9636
-5.9949 -6.5990 -2.5239 0.9636
-5.0056 -7.3689 -2.5219 0.9636
-4.8558 -7.4672 -2.5216 0.9636
-4.5504 -7.6544 -2.5209 0.9637
-4.3950 -7.7433 -2.5205 0.9637
-4.2378 -7.8290 -2.5202 0.9637
-4.0789 -7.9115 -2.5198 0.9637
-3.2616 -8.2747 -2.5179 0.9637
-3.0941 -8.3373 -2.5175 0.9637
-2.5845 -8.5046 -2.5163 0.9637
-2.2397 -8.5987 -2.5154 0.9637
-2.0659 -8.6405 -2.5150 0.9637
-1.7162 -8.7136 -2.5141 0.9638
-1.5404 -8.7448 -2.5137 0.9638
-1.1871 -8.7965 -2.5128 0.9638
-1.0097 -8.8169 -2.5123 0.9638
-0.8321 -8.8338 -2.5119 0.9638
-0.1194 -8.8655 -2.5100 0.9638
0.0588 -8.8644 -2.5095 0.9638
0.2370 -8.8597 -2.5090 0.9638
0.5929 -8.8396 -2.5080 0.9638
0.9475 -8.8051 -2.5071 0.9639
1.3003 -8.7565 -2.5061 0.9639
1.6507 -8.6937 -2.5051 0.9639
2.3421 -8.5261 -2.5031 0.9639
2.5126 -8.4756 -2.5026 0.9639
3.1830 -8.2398 -2.5006 0.9639
3.6718 -8.0281 -2.4991 0.9640
3.8318 -7.9511 -2.4986 0.9640
4.1468 -7.7875 -2.4977 0.9640
4.6061 -7.5190 -2.4962 0.9640
5.0482 -7.2234 -2.4948 0.9640
5.1915 -7.1191 -2.4943 0.9640
5.7425 -6.6740 -2.4925 0.9641
5.8745 -6.5560 -2.4920 0.9641
6.0041 -6.4354 -2.4916 0.9641
6.1312 -6.3122 -2.4911 0.9641
6.3778 -6.0585 -2.4903 0.9641
6.8394 -5.5226 -2.4886 0.9641
7.1566 -5.0977 -2.4874 0.9641
7.2565 -4.9521 -2.4870 0.9641
7.4475 -4.6548 -2.4863 0.9641
7.7113 -4.1955 -2.4852 0.9642
7.9470 -3.7214 -2.4842 0.9642
8.1538 -3.2342 -2.4832 0.9642
8.2161 -3.0692 -2.4829 0.9642
8.2752 -2.9030 -2.4826 0.9642
8.3310 -2.7357 -2.4823 0.9642
8.3834 -2.5674 -2.4821 0.9642
8.4324 -2.3980 -2.4818 0.9642
8.5590 -1.8846 -2.4810 0.9642
8.5944 -1.7119 -2.4808 0.9642
8.6547 -1.3647 -2.4804 0.9642
8.7192 -0.8402 -2.4798 0.9642
8.7447 -0.4888 -2.4794 0.9642
8.7536 0.2154 -2.4788 0.9643
8.7370 0.5671 -2.4786 0.9643
8.7064 0.9179 -2.4784 0.9643
8.6344 1.4411 -2.4781 0.9643
8.5313 1.9590 -2.4780 0.9643
8.2914 2.8054 -2.4780 0.9643
8.1721 3.1366 -2.4780 0.9643
8.1075 3.3004 -2.4781 0.9643
8.0396 3.4628 -2.4781 0.9643
7.9686 3.6239 -2.4782 0.9643
7.7363 4.0982 -2.4784 0.9643
7.3833 4.7074 -2.4789 0.9643
7.2876 4.8552 -2.4790 0.9643
7.1889 5.0011 -2.4791 0.9642
7.0873 5.1450 -2.4793 0.9642
6.8756 5.4265 -2.4796 0.9642
6.7656 5.5641 -2.4798 0.9642
6.5374 5.8326 -2.4802 0.9642
6.4194 5.9634 -2.4804 0.9642
6.2987 6.0919 -2.4806 0.9642
6.1755 6.2178 -2.4809 0.9642
6.0498 6.3414 -2.4811 0.9642
5.7911 6.5808 -2.4816 0.9642
5.6582 6.6967 -2.4819 0.9642
4.5103 7.5132 -2.4808 0.9642
4.3568 7.5997 -2.4799 0.9642
3.6903 7.8367 -2.4522 0.9646
3.5085 7.8568 -2.4359 0.9649
3.1488 7.8890 -2.4046 0.9653
2.7971 7.9188 -2.3775 0.9657
2.6240 7.9333 -2.3655 0.9659
2.4525 7.9474 -2.3545 0.9660
2.2825 7.9616 -2.3447 0.9662
2.1160 7.9832 -2.3380 0.9662
1.4687 8.1327 -2.3396 0.9662
-8.1088 1.2429 -2.5232 0.9663
-8.1955 0.4228 -2.5241 0.9662
-8.2029 0.2579 -2.5243 0.9662
-8.2069 0.0929 -2.5244 0.9662
-8.2048 -0.2372 -2.5247 0.9662
-8.1894 -0.5670 -2.5249 0.9662
-8.1766 -0.7316 -2.5250 0.9662
-8.1412 -1.0598 -2.5252 0.9662
-8.1184 -1.2234 -2.5253 0.9662
-8.0630 -1.5489 -2.5254 0.9662
-7.9945 -1.8719 -2.5254 0.9662
-7.9553 -2.0323 -2.5255 0.9662
-7.7111 -2.8206 -2.5255 0.9662
-7.6527 -2.9751 -2.5254 0.9662
-7.5912 -3.1283 -2.5254 0.9662
-7.5266 -3.2803 -2.5253 0.9662
-7.4589 -3.4309 -2.5253 0.9662
-7.3882 -3.5801 -2.5252 0.9662
-7.1582 -4.0187 -2.5249 0.9662
-7.0756 -4.1616 -2.5248 0.9662
-6.7169 -4.7158 -2.5243 0.9662
-6.4192 -5.1112 -2.5238 0.9662
-6.3146 -5.2389 -2.5237 0.9662
-6.2076 -5.3645 -2.5235 0.9662
-6.0980 -5.4878 -2.5233 0.9663
-5.9859 -5.6088 -2.5231 0.9663
-5.6353 -5.9580 -2.5224 0.9663
-5.5139 -6.0696 -2.5222 0.9663
-5.3902 -6.1786 -2.5219 0.9663
-5.2643 -6.2851 -2.5217 0.9663
-5.1363 -6.3891 -2.5214 0.9663
-4.7402 -6.6850 -2.5206 0.9663
-4.6043 -6.7782 -2.5203 0.9663
-4.4665 -6.8686 -2.5200 0.9663
-4.3270 -6.9562 -2.5197 0.9663
-4.0428 -7.1227 -2.5191 0.9663
-3.7521 -7.2777 -2.5184 0.9663
-3.4555 -7.4206 -2.5178 0.9663
-3.1534 -7.5515 -2.5171 0.9663
-3.0005 -7.6123 -2.5167 0.9663
-2.8464 -7.6700 -2.5163 0.9663
-2.5349 -7.7759 -2.5156 0.9664
-2.0605 -7.9109 -2.5144 0.9664
-1.5790 -8.0169 -2.5132 0.9664
-1.2550 -8.0713 -2.5124 0.9664
-1.0922 -8.0935 -2.5120 0.9664
-0.4380 -8.1496 -2.5103 0.9664
-0.2740 -8.1553 -2.5098 0.9664
0.0541 -8.1569 -2.5089 0.9664
0.3820 -8.1452 -2.5080 0.9665
0.5456 -8.1344 -2.5076 0.9665
0.7089 -8.1204 -2.5072 0.9665
0.8719 -8.1030 -2.5067 0.9665
1.5191 -8.0009 -2.5049 0.9665
1.6794 -7.9673 -2.5044 0.9665
1.9977 -7.8905 -2.5035 0.9665
2.4685 -7.7514 -2.5021 0.9665
2.6234 -7.6988 -2.5017 0.9665
2.7771 -7.6430 -2.5012 0.9665
2.9297 -7.5843 -2.5008 0.9665
3.0811 -7.5225 -2.5003 0.9666
3.3799 -7.3898 -2.4994 0.9666
3.9599 -7.0892 -2.4976 0.9666
4.5136 -6.7433 -2.4958 0.9666
4.6475 -6.6500 -2.4954 0.9666
4.9094 -6.4555 -2.4945 0.9666
5.0374 -6.3544 -2.4941 0.9666
5.2870 -6.1446 -2.4933 0.9666
5.5280 -5.9251 -2.4924 0.9667
5.7599 -5.6962 -2.4916 0.9667
5.8724 -5.5783 -2.4912 0.9667
5.9824 -5.4583 -2.4908 0.9667
6.2978 -5.0852 -2.4897 0.9667
6.4952 -4.8265 -2.4890 0.9667
6.8582 -4.2865 -2.4876 0.9667
6.9420 -4.1471 -2.4872 0.9667
7.0231 -4.0062 -2.4869 0.9667
7.1013 -3.8636 -2.4866 0.9667
7.5668 -2.8266 -2.4845 0.9668
7.6213 -2.6736 -2.4842 0.9668
7.6727 -2.5195 -2.4839 0.9668
7.7210 -2.3645 -2.4837 0.9668
7.7662 -2.2085 -2.4834 0.9668
7.8831 -1.7358 -2.4827 0.9668
7.9157 -1.5767 -2.4825 0.9668
7.9451 -1.4171 -2.4823 0.9668
7.9714 -1.2570 -2.4821 0.9668
8.0309 -0.7738 -2.4816 0.9668
8.0614 -0.2882 -2.4811 0.9668
8.0655 0.0362 -2.4808 0.9668
8.0628 0.1984 -2.4807 0.9668
8.0568 0.3605 -2.4806 0.9668
8.0476 0.5224 -2.4805 0.9668
8.0351 0.6841 -2.4804 0.9668
8.0006 1.0066 -2.4802 0.9668
7.9247 1.4870 -2.4800 0.9668
7.8931 1.6461 -2.4800 0.9668
7.8583 1.8044 -2.4799 0.9668
7.8203 1.9621 -2.4799 0.9668
7.7792 2.1189 -2.4799 0.9668
7.7350 2.2749 -2.4799 0.9668
7.6373 2.5841 -2.4799 0.9668
7.4054 3.1896 -2.4800 0.9668
7.2001 3.6306 -2.4802 0.9668
7.1259 3.7748 -2.4803 0.9668
7.0488 3.9175 -2.4804 0.9668
6.8862 4.1981 -2.4806 0.9668
6.8007 4.3360 -2.4807 0.9668
6.7125 4.4721 -2.4809 0.9668
6.5279 4.7389 -2.4811 0.9668
6.4317 4.8695 -2.4813 0.9668
6.3329 4.9982 -2.4814 0.9668
6.2315 5.1249 -2.4816 0.9668
5.9125 5.4925 -2.4822 0.9668
5.8013 5.6108 -2.4824 0.9668
5.5720 5.8405 -2.4828 0.9668
5.4539 5.9519 -2.4830 0.9668
5.2112 6.1676 -2.4835 0.9668
5.0866 6.2718 -2.4838 0.9668
4.9600 6.3735 -2.4840 0.9668
4.7007 6.5692 -2.4846 0.9668
4.5681 6.6631 -2.4848 0.9668
4.4337 6.7544 -2.4851 0.9668
4.0199 7.0120 -2.4860 0.9667
3.8785 7.0923 -2.4863 0.9667
3.4452 7.3162 -2.4873 0.9667
3.2978 7.3850 -2.4877 0.9667
3.1485 7.4496 -2.4876 0.9667
2.9975 7.5099 -2.4871 0.9667
2.2271 7.7679 -2.4855 0.9667
1.7543 7.8866 -2.4850 0.9668
-7.4985 1.1494 -2.5217 0.9685
-7.5207 0.9984 -2.5218 0.9685
-7.5687 0.5433 -2.5223 0.9685
-7.5870 -0.2193 -2.5230 0.9685
-7.5727 -0.5243 -2.5232 0.9685
-7.5070 -1.1312 -2.5235 0.9685
-7.4829 -1.2820 -2.5236 0.9685
-7.3561 -1.8793 -2.5237 0.9685
-7.3168 -2.0268 -2.5238 0.9685
-7.2294 -2.3194 -2.5238 0.9685
-7.1302 -2.6082 -2.5237 0.9685
-7.0763 -2.7510 -2.5237 0.9685
-6.8971 -3.1725 -2.5236 0.9685
-6.8318 -3.3105 -2.5235 0.9685
-6.6191 -3.7160 -2.5232 0.9685
-6.5428 -3.8482 -2.5231 0.9685
-6.2980 -4.2352 -2.5228 0.9685
-6.2112 -4.3607 -2.5227 0.9685
-6.1219 -4.4845 -2.5225 0.9685
-5.9359 -4.7264 -2.5222 0.9685
-5.6390 -5.0748 -2.5217 0.9685
-5.3215 -5.4043 -2.5211 0.9685
-5.2113 -5.5097 -2.5209 0.9685
-4.9847 -5.7138 -2.5205 0.9685
-4.7500 -5.9085 -2.5200 0.9685
-4.3838 -6.1823 -2.5192 0.9686
-4.0017 -6.4333 -2.5184 0.9686
-3.6053 -6.6606 -2.5175 0.9686
-3.4702 -6.7309 -2.5172 0.9686
-3.3337 -6.7985 -2.5169 0.9686
-3.1960 -6.8633 -2.5166 0.9686
-3.0569 -6.9253 -2.5163 0.9686
-2.9166 -6.9844 -2.5160 0.9686
-2.7752 -7.0408 -2.5156 0.9686
-2.6327 -7.0942 -2.5153 0.9686
-2.4892 -7.1447 -2.5149 0.9686
-2.1993 -7.2370 -2.5142 0.9686
-1.9059 -7.3175 -2.5135 0.9686
-1.6097 -7.3860 -2.5128 0.9686
-1.4606 -7.4158 -2.5124 0.9686
-1.0103 -7.4869 -2.5113 0.9687
-0.7082 -7.5191 -2.5105 0.9687
-0.5568 -7.5307 -2.5101 0.9687
-0.2535 -7.5446 -2.5093 0.9687
0.3534 -7.5356 -2.5076 0.9687
0.5048 -7.5258 -2.5072 0.9687
0.8067 -7.4969 -2.5064 0.9687
0.9571 -7.4779 -2.5060 0.9687
1.2566 -7.4308 -2.5051 0.9687
1.4056 -7.4028 -2.5047 0.9687
1.5539 -7.3718 -2.5043 0.9687
1.7015 -7.3378 -2.5039 0.9687
1.9945 -7.2610 -2.5030 0.9688
2.2841 -7.1725 -2.5022 0.9688
2.7111 -7.0182 -2.5009 0.9688
2.8512 -6.9611 -2.5005 0.9688
2.9901 -6.9012 -2.5000 0.9688
3.1277 -6.8385 -2.4996 0.9688
3.2641 -6.7731 -2.4992 0.9688
3.6647 -6.5607 -2.4980 0.9688
3.7953 -6.4846 -2.4975 0.9688
3.9242 -6.4059 -2.4971 0.9688
4.0516 -6.3246 -2.4967 0.9688
4.1773 -6.2409 -2.4963 0.9688
4.4234 -6.0659 -2.4955 0.9689
4.5438 -5.9748 -2.4951 0.9689
4.8935 -5.6873 -2.4940 0.9689
5.0061 -5.5869 -2.4936 0.9689
5.1167 -5.4842 -2.4932 0.9689
5.3314 -5.2725 -2.4924 0.9689
5.4356 -5.1634 -2.4921 0.9689
5.5375 -5.0523 -2.4917 0.9689
5.6372 -4.9392 -2.4914 0.9689
5.7346 -4.8242 -2.4910 0.9689
5.8296 -4.7072 -2.4907 0.9689
5.9223 -4.5884 -2.4903 0.9689
6.0125 -4.4678 -2.4900 0.9689
6.1003 -4.3454 -2.4896 0.9689
6.3487 -3.9681 -2.4887 0.9689
6.4265 -3.8392 -2.4883 0.9689
7.0559 -2.4753 -2.4856 0.9690
7.1483 -2.1891 -2.4851 0.9690
7.1903 -2.0447 -2.4848 0.9690
7.2293 -1.8996 -2.4846 0.9690
7.2654 -1.7537 -2.4844 0.9690
7.2986 -1.6071 -2.4842 0.9690
7.3561 -1.3121 -2.4838 0.9690
7.3805 -1.1638 -2.4836 0.9690
7.4019 -1.0151 -2.4834 0.9690
7.4576 -0.4169 -2.4828 0.9690
7.4675 -0.1167 -2.4825 0.9690
7.4654 0.1837 -2.4823 0.9690
7.4599 0.3337 -2.4822 0.9690
7.4514 0.4837 -2.4821 0.9690
7.4399 0.6334 -2.4820 0.9690
7.4079 0.9320 -2.4819 0.9690
7.3875 1.0808 -2.4818 0.9690
7.3378 1.3769 -2.4817 0.9690
7.2411 1.8167 -2.4816 0.9690
7.2031 1.9620 -2.4816 0.9690
7.1621 2.1064 -2.4816 0.9690
7.1183 2.2500 -2.4816 0.9690
7.0222 2.5345 -2.4816 0.9690
6.9148 2.8149 -2.4816 0.9690
6.8569 2.9534 -2.4817 0.9690
6.7962 3.0908 -2.4817 0.9690
6.5980 3.4952 -2.4819 0.9690
6.5266 3.6273 -2.4820 0.9690
6.3760 3.8871 -2.4822 0.9690
6.1309 4.2651 -2.4826 0.9690
5.9551 4.5087 -2.4829 0.9690
5.8636 4.6278 -2.4830 0.9690
5.6735 4.8605 -2.4833 0.9690
5.5750 4.9739 -2.4835 0.9690
5.4742 5.0854 -2.4837 0.9690
5.3713 5.1948 -2.4839 0.9690
5.2661 5.3022 -2.4841 0.9690
5.0495 5.5106 -2.4845 0.9690
4.9381 5.6115 -2.4847 0.9690
4.8247 5.7102 -2.4849 0.9690
4.5920 5.9007 -2.4854 0.9690
4.4729 5.9925 -2.4856 0.9690
4.2292 6.1687 -2.4861 0.9690
4.1047 6.2532 -2.4864 0.9690
3.9786 6.3351 -2.4867 0.9690
3.8508 6.4146 -2.4870 0.9690
3.3245 6.7065 -2.4881 0.9689
3.0529 6.8364 -2.4888 0.9689
2.6361 7.0108 -2.4897 0.9689
2.0654 7.2039 -2.4911 0.9689
1.6280 7.3185 -2.4922 0.9689
1.4807 7.3509 -2.4926 0.9689
-6.9663 1.0678 -2.5203 0.9705
-6.9869 0.9276 -2.5205 0.9705
-7.0045 0.7869 -2.5206 0.9705
-7.0194 0.6460 -2.5208 0.9705
-7.0501 0.0798 -2.5213 0.9705
-7.0349 -0.4871 -2.5217 0.9705
-7.0239 -0.6284 -2.5218 0.9705
-6.9738 -1.0509 -2.5220 0.9705
-6.9262 -1.3305 -2.5221 0.9705
-6.8336 -1.7458 -2.5222 0.9705
-6.7579 -2.0191 -2.5222 0.9705
-6.7159 -2.1547 -2.5222 0.9705
-6.6238 -2.4229 -2.5222 0.9705
-6.5736 -2.5556 -2.5222 0.9705
-6.5208 -2.6873 -2.5221 0.9705
-6.4654 -2.8178 -2.5221 0.9705
-6.2833 -3.2023 -2.5219 0.9705
-6.1490 -3.4521 -2.5218 0.9705
-6.0782 -3.5750 -2.5217 0.9705
-6.0048 -3.6963 -2.5216 0.9705
-5.6873 -4.1661 -2.5211 0.9705
-5.6021 -4.2794 -2.5210 0.9705
-5.5145 -4.3909 -2.5208 0.9705
-5.0442 -4.9207 -2.5200 0.9705
-4.9439 -5.0208 -2.5198 0.9705
-4.8416 -5.1188 -2.5196 0.9705
-4.5230 -5.4001 -2.5190 0.9705
-4.3014 -5.5766 -2.5185 0.9705
-4.1880 -5.6614 -2.5183 0.9705
-4.0729 -5.7439 -2.5181 0.9705
-3.9562 -5.8241 -2.5178 0.9705
-3.7181 -5.9772 -2.5173 0.9705
-3.5967 -6.0502 -2.5170 0.9705
-3.4739 -6.1206 -2.5168 0.9705
-3.3498 -6.1886 -2.5165 0.9705
-2.8404 -6.4347 -2.5153 0.9706
-2.4463 -6.5918 -2.5144 0.9706
-2.0436 -6.7247 -2.5134 0.9706
-1.9077 -6.7636 -2.5131 0.9706
-1.6337 -6.8330 -2.5124 0.9706
-1.2183 -6.9162 -2.5113 0.9706
-1.0788 -6.9383 -2.5110 0.9706
-0.7987 -6.9740 -2.5103 0.9706
-0.6582 -6.9877 -2.5099 0.9706
-0.5175 -6.9985 -2.5095 0.9706
-0.2356 -7.0115 -2.5088 0.9706
0.0466 -7.0132 -2.5080 0.9706
0.6096 -6.9825 -2.5065 0.9707
0.8896 -6.9502 -2.5057 0.9707
1.1680 -6.9067 -2.5049 0.9707
1.4443 -6.8519 -2.5042 0.9707
1.5816 -6.8204 -2.5038 0.9707
1.7181 -6.7862 -2.5034 0.9707
1.8540 -6.7492 -2.5030 0.9707
1.9890 -6.7095 -2.5026 0.9707
2.3888 -6.5743 -2.5014 0.9707
2.5201 -6.5239 -2.5010 0.9707
2.9075 -6.3571 -2.4998 0.9707
3.0343 -6.2963 -2.4994 0.9707
3.1598 -6.2331 -2.4990 0.9707
3.5283 -6.0284 -2.4979 0.9708
3.7667 -5.8799 -2.4971 0.9708
3.8836 -5.8021 -2.4968 0.9708
4.5497 -5.2877 -2.4946 0.9708
4.6545 -5.1944 -2.4942 0.9708
4.8582 -5.0017 -2.4935 0.9708
4.9571 -4.9023 -2.4931 0.9708
5.0540 -4.8009 -2.4928 0.9708
5.4206 -4.3770 -2.4915 0.9708
5.5908 -4.1544 -2.4908 0.9708
5.8289 -3.8083 -2.4899 0.9709
5.9036 -3.6899 -2.4896 0.9709
5.9759 -3.5700 -2.4893 0.9709
6.0458 -3.4487 -2.4891 0.9709
6.1133 -3.3261 -2.4888 0.9709
6.3007 -2.9505 -2.4880 0.9709
6.3581 -2.8229 -2.4877 0.9709
6.4651 -2.5644 -2.4872 0.9709
6.5618 -2.3019 -2.4867 0.9709
6.6869 -1.9016 -2.4861 0.9709
6.7568 -1.6309 -2.4857 0.9709
6.8159 -1.3577 -2.4853 0.9709
6.8640 -1.0824 -2.4849 0.9709
6.9359 -0.3877 -2.4842 0.9709
6.9456 0.0312 -2.4838 0.9709
6.9433 0.1708 -2.4837 0.9709
6.9382 0.3104 -2.4836 0.9709
6.9302 0.4499 -2.4835 0.9709
6.8899 0.8668 -2.4833 0.9709
6.7974 1.4176 -2.4831 0.9709
6.7674 1.5540 -2.4831 0.9709
6.6206 2.0927 -2.4830 0.9709
6.4312 2.6180 -2.4831 0.9709
6.3774 2.7469 -2.4831 0.9709
6.3210 2.8746 -2.4832 0.9709
6.2620 3.0012 -2.4833 0.9709
6.2006 3.1266 -2.4833 0.9709
6.0702 3.3736 -2.4835 0.9709
5.9301 3.6152 -2.4836 0.9709
5.7020 3.9667 -2.4840 0.9709
5.5385 4.1933 -2.4842 0.9709
5.1849 4.6258 -2.4848 0.9709
5.0911 4.7295 -2.4850 0.9709
4.8975 4.9311 -2.4853 0.9709
4.6960 5.1248 -2.4857 0.9709
4.5924 5.2187 -2.4859 0.9709
4.0471 5.6558 -2.4870 0.9709
3.8172 5.8151 -2.4875 0.9709
3.6998 5.8913 -2.4878 0.9709
3.4607 6.0366 -2.4883 0.9709
3.3389 6.1056 -2.4886 0.9709
2.9657 6.2980 -2.4894 0.9709
2.8388 6.3571 -2.4897 0.9709
2.4512 6.5191 -2.4906 0.9708
2.3199 6.5679 -2.4909 0.9708
1.6500 6.7720 -2.4926 0.9708
1.2392 6.8620 -2.4936 0.9708
-6.5333 0.7340 -2.5194 0.9722
-6.5756 0.0745 -2.5201 0.9722
-6.5689 -0.3222 -2.5204 0.9722
-6.5511 -0.5861 -2.5205 0.9722
-6.5382 -0.7178 -2.5206 0.9722
-6.5226 -0.8491 -2.5207 0.9722
-6.5043 -0.9801 -2.5207 0.9722
-6.4834 -1.1108 -2.5208 0.9722
-6.4337 -1.3706 -2.5209 0.9722
-6.3395 -1.7561 -2.5209 0.9722
-6.3030 -1.8832 -2.5209 0.9722
-6.2638 -2.0096 -2.5209 0.9722
-6.1779 -2.2598 -2.5209 0.9722
-6.1311 -2.3839 -2.5209 0.9722
-6.0819 -2.5063 -2.5208 0.9722
-6.0301 -2.6281 -2.5208 0.9722
-5.9759 -2.7488 -2.5207 0.9722
-5.7351 -3.2198 -2.5205 0.9722
-5.5300 -3.5593 -2.5202 0.9722
-5.4570 -3.6696 -2.5201 0.9722
-5.3046 -3.8858 -2.5199 0.9722
-5.2251 -3.9914 -2.5197 0.9722
-5.1435 -4.0955 -2.5196 0.9722
-5.0598 -4.1978 -2.5195 0.9722
-4.7049 -4.5897 -2.5188 0.9722
-4.6114 -4.6831 -2.5186 0.9722
-4.2188 -5.0369 -2.5179 0.9722
-4.0122 -5.2016 -2.5175 0.9723
-3.5800 -5.5052 -2.5165 0.9723
-3.4682 -5.5756 -2.5163 0.9723
-3.1248 -5.7728 -2.5155 0.9723
-3.0077 -5.8339 -2.5153 0.9723
-2.6496 -6.0026 -2.5144 0.9723
-2.5281 -6.0540 -2.5142 0.9723
-2.4056 -6.1029 -2.5139 0.9723
-2.2821 -6.1494 -2.5136 0.9723
-2.0325 -6.2346 -2.5130 0.9723
-1.7797 -6.3098 -2.5124 0.9723
-1.6522 -6.3435 -2.5120 0.9723
-1.5242 -6.3746 -2.5117 0.9723
-1.2663 -6.4291 -2.5111 0.9723
-1.0065 -6.4731 -2.5104 0.9723
-0.8760 -6.4912 -2.5101 0.9723
-0.7451 -6.5066 -2.5097 0.9723
-0.4828 -6.5295 -2.5091 0.9723
-0.3513 -6.5370 -2.5087 0.9723
-0.0882 -6.5440 -2.5080 0.9724
0.5688 -6.5152 -2.5062 0.9724
0.6996 -6.5015 -2.5059 0.9724
0.8301 -6.4852 -2.5055 0.9724
1.0899 -6.4447 -2.5048 0.9724
1.2191 -6.4205 -2.5044 0.9724
1.3477 -6.3937 -2.5040 0.9724
1.4758 -6.3644 -2.5037 0.9724
1.6033 -6.3325 -2.5033 0.9724
1.8561 -6.2611 -2.5026 0.9724
1.9813 -6.2216 -2.5022 0.9724
2.1057 -6.1796 -2.5018 0.9724
2.2292 -6.1351 -2.5015 0.9724
2.4734 -6.0387 -2.5007 0.9724
2.7134 -5.9326 -2.5000 0.9724
2.8318 -5.8760 -2.4996 0.9724
3.1795 -5.6921 -2.4986 0.9725
3.2929 -5.6262 -2.4982 0.9725
3.5155 -5.4877 -2.4975 0.9725
3.6246 -5.4151 -2.4971 0.9725
3.7322 -5.3404 -2.4968 0.9725
4.3444 -4.8483 -2.4947 0.9725
4.4404 -4.7594 -2.4944 0.9725
4.5346 -4.6685 -2.4941 0.9725
4.6270 -4.5758 -2.4938 0.9725
4.7175 -4.4812 -2.4935 0.9725
4.9772 -4.1871 -2.4925 0.9725
5.1403 -3.9826 -2.4919 0.9725
5.2187 -3.8779 -2.4916 0.9725
5.2951 -3.7718 -2.4913 0.9725
5.3692 -3.6641 -2.4910 0.9725
5.5110 -3.4445 -2.4905 0.9725
5.5785 -3.3326 -2.4902 0.9725
5.8819 -2.7543 -2.4889 0.9726
5.9355 -2.6353 -2.4887 0.9726
5.9867 -2.5151 -2.4885 0.9726
6.0355 -2.3940 -2.4882 0.9726
6.0819 -2.2719 -2.4880 0.9726
6.1673 -2.0252 -2.4876 0.9726
6.2062 -1.9006 -2.4874 0.9726
6.2767 -1.6492 -2.4870 0.9726
6.3633 -1.2675 -2.4864 0.9726
6.3871 -1.1392 -2.4863 0.9726
6.4269 -0.8814 -2.4860 0.9726
6.4429 -0.7519 -2.4858 0.9726
6.4672 -0.4922 -2.4855 0.9726
6.4755 -0.3620 -2.4854 0.9726
6.4811 -0.2317 -2.4853 0.9726
6.4842 -0.1013 -2.4852 0.9726
6.4825 0.1595 -2.4850 0.9726
6.4704 0.4200 -2.4848 0.9726
6.4604 0.5500 -2.4847 0.9726
6.4479 0.6798 -2.4846 0.9726
6.3947 1.0673 -2.4845 0.9726
6.3718 1.1956 -2.4844 0.9726
6.3184 1.4508 -2.4844 0.9726
6.2879 1.5776 -2.4843 0.9726
6.2194 1.8292 -2.4843 0.9726
6.1408 2.0778 -2.4843 0.9726
6.0978 2.2008 -2.4843 0.9726
6.0045 2.4443 -2.4844 0.9726
5.8465 2.8021 -2.4845 0.9726
5.7294 3.0351 -2.4847 0.9726
5.4677 3.4861 -2.4850 0.9726
5.3968 3.5955 -2.4851 0.9726
5.2483 3.8100 -2.4853 0.9726
5.1708 3.9149 -2.4854 0.9726
5.0914 4.0183 -2.4856 0.9726
5.0098 4.1201 -2.4857 0.9726
4.8406 4.3187 -2.4860 0.9726
4.7531 4.4155 -2.4862 0.9726
4.6637 4.5105 -2.4863 0.9726
4.4791 4.6950 -2.4867 0.9726
4.3841 4.7845 -2.4868 0.9726
4.1889 4.9577 -2.4872 0.9726
4.0886 5.0413 -2.4874 0.9726
3.8833 5.2025 -2.4878 0.9726
3.7782 5.2800 -2.4881 0.9726
3.5635 5.4287 -2.4885 0.9726
3.4539 5.4997 -2.4888 0.9726
3.1170 5.6997 -2.4895 0.9726
3.0020 5.7618 -2.4898 0.9726
2.8858 5.8216 -2.4900 0.9726
2.6500 5.9343 -2.4906 0.9725
2.5304 5.9870 -2.4908 0.9725
2.4098 6.0374 -2.4911 0.9725
2.1656 6.1308 -2.4917 0.9725
1.6667 6.2881 -2.4929 0.9725
-6.0814 0.9322 -2.5180 0.9738
-6.1276 0.5639 -2.5185 0.9738
-6.1513 0.1934 -2.5188 0.9738
-6.1546 -0.0541 -2.5190 0.9737
-6.1479 -0.3016 -2.5192 0.9737
-6.1191 -0.6718 -2.5194 0.9737
-6.0874 -0.9173 -2.5196 0.9737
-6.0458 -1.1614 -2.5196 0.9737
-6.0213 -1.2828 -2.5197 0.9737
-5.9650 -1.5239 -2.5197 0.9737
-5.9331 -1.6435 -2.5197 0.9737
-5.8989 -1.7625 -2.5197 0.9737
-5.8232 -1.9983 -2.5197 0.9737
-5.6920 -2.3457 -2.5196 0.9737
-5.4847 -2.7953 -2.5195 0.9737
-5.4272 -2.9049 -2.5194 0.9737
-5.2417 -3.2266 -2.5192 0.9737
-4.9646 -3.6368 -2.5187 0.9738
-4.8139 -3.8331 -2.5185 0.9738
-4.7356 -3.9289 -2.5184 0.9738
-4.6554 -4.0231 -2.5182 0.9738
-4.5733 -4.1157 -2.5181 0.9738
-4.4893 -4.2066 -2.5179 0.9738
-4.2267 -4.4687 -2.5174 0.9738
-4.0430 -4.6344 -2.5171 0.9738
-3.8528 -4.7925 -2.5167 0.9738
-3.7553 -4.8686 -2.5165 0.9738
-3.5560 -5.0149 -2.5161 0.9738
-3.4541 -5.0849 -2.5159 0.9738
-3.2462 -5.2188 -2.5154 0.9738
-2.8153 -5.4607 -2.5145 0.9738
-2.5929 -5.5683 -2.5139 0.9738
-2.4802 -5.6188 -2.5137 0.9738
-2.3664 -5.6669 -2.5134 0.9738
-2.2518 -5.7127 -2.5131 0.9738
-2.1362 -5.7562 -2.5129 0.9738
-1.9026 -5.8362 -2.5123 0.9738
-1.7846 -5.8725 -2.5120 0.9738
-1.6660 -5.9066 -2.5117 0.9738
-1.5467 -5.9382 -2.5114 0.9738
-1.3063 -5.9941 -2.5108 0.9738
-1.1854 -6.0185 -2.5105 0.9738
-1.0640 -6.0403 -2.5102 0.9738
-0.6976 -6.0912 -2.5093 0.9738
-0.0825 -6.1265 -2.5077 0.9739
0.4098 -6.1101 -2.5063 0.9739
0.6550 -6.0870 -2.5057 0.9739
1.0204 -6.0340 -2.5046 0.9739
1.1414 -6.0114 -2.5043 0.9739
1.2619 -5.9865 -2.5039 0.9739
1.3818 -5.9591 -2.5036 0.9739
1.6199 -5.8970 -2.5029 0.9739
1.7379 -5.8625 -2.5026 0.9739
2.2021 -5.7007 -2.5012 0.9739
2.3160 -5.6545 -2.5008 0.9739
2.5408 -5.5553 -2.5002 0.9739
2.7614 -5.4471 -2.4995 0.9740
2.9774 -5.3303 -2.4988 0.9740
3.1885 -5.2048 -2.4981 0.9740
3.2921 -5.1390 -2.4978 0.9740
3.6924 -4.8553 -2.4965 0.9740
3.7888 -4.7794 -2.4962 0.9740
3.8837 -4.7017 -2.4959 0.9740
4.2468 -4.3722 -2.4946 0.9740
4.3334 -4.2854 -2.4943 0.9740
4.8878 -3.6321 -2.4923 0.9740
5.0963 -3.3296 -2.4915 0.9740
5.2250 -3.1214 -2.4910 0.9740
5.3452 -2.9082 -2.4905 0.9740
5.4021 -2.7999 -2.4903 0.9740
5.7379 -2.0129 -2.4887 0.9741
5.8794 -1.5449 -2.4880 0.9741
5.9088 -1.4262 -2.4878 0.9741
5.9359 -1.3070 -2.4876 0.9741
5.9606 -1.1873 -2.4874 0.9741
5.9829 -1.0671 -2.4873 0.9741
6.0353 -0.7043 -2.4869 0.9741
6.0479 -0.5828 -2.4867 0.9741
6.0745 0.0273 -2.4862 0.9741
6.0725 0.1494 -2.4861 0.9741
6.0680 0.2715 -2.4860 0.9741
6.0612 0.3934 -2.4859 0.9741
6.0518 0.5152 -2.4858 0.9741
5.9689 1.1200 -2.4856 0.9741
5.9189 1.3591 -2.4855 0.9741
5.8261 1.7135 -2.4855 0.9741
5.7905 1.8303 -2.4855 0.9741
5.7122 2.0617 -2.4855 0.9741
5.6697 2.1762 -2.4855 0.9741
5.6248 2.2898 -2.4855 0.9741
5.3090 2.9506 -2.4858 0.9741
5.1864 3.1618 -2.4860 0.9741
5.0554 3.3681 -2.4862 0.9741
4.9869 3.4692 -2.4863 0.9741
4.9163 3.5689 -2.4864 0.9741
4.8438 3.6673 -2.4865 0.9741
4.7692 3.7641 -2.4866 0.9741
4.6145 3.9533 -2.4869 0.9741
4.5344 4.0455 -2.4870 0.9741
4.4523 4.1361 -2.4872 0.9741
4.2830 4.3123 -2.4875 0.9741
4.1957 4.3979 -2.4877 0.9741
4.1067 4.4816 -2.4878 0.9741
4.0160 4.5637 -2.4880 0.9741
3.8298 4.7221 -2.4884 0.9741
3.7343 4.7986 -2.4886 0.9741
3.6374 4.8731 -2.4888 0.9741
3.5390 4.9457 -2.4890 0.9741
3.4391 5.0162 -2.4892 0.9741
3.2351 5.1514 -2.4896 0.9741
3.1312 5.2159 -2.4899 0.9740
2.8118 5.3967 -2.4906 0.9740
2.7030 5.4527 -2.4908 0.9740
2.5930 5.5065 -2.4911 0.9740
2.3700 5.6075 -2.4916 0.9740
2.2570 5.6546 -2.4918 0.9740
2.1431 5.6995 -2.4921 0.9740
2.0282 5.7421 -2.4924 0.9740
1.9126 5.7823 -2.4927 0.9740
1.5610 5.8892 -2.4935 0.9740
1.2035 5.9747 -2.4944 0.9740
1.0832 5.9984 -2.4947 0.9740
-5.7089 0.8751 -2.5171 0.9751
-5.7522 0.5293 -2.5175 0.9751
-5.7441 -0.6306 -2.5184 0.9751
-5.6959 -0.9758 -2.5186 0.9751
-5.6752 -1.0902 -2.5186 0.9751
-5.5993 -1.4305 -2.5187 0.9751
-5.5373 -1.6545 -2.5187 0.9751
-5.5029 -1.7655 -2.5187 0.9751
-5.3864 -2.0940 -2.5186 0.9751
-5.3431 -2.2019 -2.5186 0.9751
-5.2004 -2.5200 -2.5185 0.9751
-5.0946 -2.7269 -2.5184 0.9751
-5.0386 -2.8287 -2.5183 0.9751
-4.9805 -2.9294 -2.5182 0.9751
-4.7284 -3.3196 -2.5179 0.9751
-4.6605 -3.4139 -2.5177 0.9751
-4.5906 -3.5068 -2.5176 0.9751
-4.5190 -3.5982 -2.5175 0.9751
-4.4455 -3.6882 -2.5174 0.9751
-4.1338 -4.0326 -2.5168 0.9751
-4.0517 -4.1147 -2.5167 0.9751
-3.8824 -4.2737 -2.5164 0.9751
-3.7069 -4.4258 -2.5160 0.9751
-3.6169 -4.4991 -2.5158 0.9751
-3.4326 -4.6402 -2.5154 0.9751
-3.3383 -4.7079 -2.5152 0.9751
-3.0476 -4.8994 -2.5146 0.9751
-2.8476 -5.0171 -2.5142 0.9751
-2.7459 -5.0729 -2.5140 0.9751
-2.6431 -5.1266 -2.5137 0.9751
-2.3285 -5.2751 -2.5130 0.9752
-2.2217 -5.3204 -2.5127 0.9752
-2.0056 -5.4043 -2.5122 0.9752
-1.7863 -5.4794 -2.5117 0.9752
-1.3396 -5.6028 -2.5106 0.9752
-1.1130 -5.6508 -2.5100 0.9752
-0.7700 -5.7057 -2.5092 0.9752
-0.6550 -5.7193 -2.5089 0.9752
-0.4244 -5.7396 -2.5083 0.9752
0.0382 -5.7524 -2.5070 0.9752
0.1538 -5.7497 -2.5067 0.9752
0.2694 -5.7448 -2.5064 0.9752
0.3848 -5.7374 -2.5061 0.9752
0.7298 -5.7016 -2.5051 0.9752
0.8442 -5.6851 -2.5048 0.9752
1.1850 -5.6217 -2.5039 0.9752
1.2976 -5.5960 -2.5035 0.9752
1.4097 -5.5680 -2.5032 0.9752
1.7422 -5.4708 -2.5022 0.9753
1.8516 -5.4339 -2.5019 0.9753
1.9603 -5.3949 -2.5016 0.9753
2.0681 -5.3537 -2.5013 0.9753
2.4903 -5.1675 -2.5000 0.9753
2.6954 -5.0619 -2.4993 0.9753
2.9946 -4.8884 -2.4984 0.9753
3.0919 -4.8266 -2.4981 0.9753
3.3761 -4.6296 -2.4972 0.9753
3.6477 -4.4160 -2.4963 0.9753
4.1499 -3.9421 -2.4945 0.9753
4.5913 -3.4117 -2.4929 0.9753
4.8487 -3.0305 -2.4919 0.9754
4.9082 -2.9321 -2.4917 0.9754
5.0212 -2.7319 -2.4912 0.9754
5.1260 -2.5273 -2.4908 0.9754
5.2226 -2.3187 -2.4903 0.9754
5.2677 -2.2131 -2.4901 0.9754
5.3107 -2.1065 -2.4899 0.9754
5.3516 -1.9991 -2.4897 0.9754
5.3903 -1.8910 -2.4895 0.9754
5.5510 -1.3398 -2.4887 0.9754
5.5996 -1.1154 -2.4884 0.9754
5.6393 -0.8892 -2.4881 0.9754
5.6699 -0.6617 -2.4878 0.9754
5.6818 -0.5475 -2.4877 0.9754
5.7037 -0.2039 -2.4873 0.9754
5.7049 0.1403 -2.4871 0.9754
5.7008 0.2551 -2.4870 0.9754
5.6943 0.3696 -2.4869 0.9754
5.6856 0.4841 -2.4868 0.9754
5.6612 0.7123 -2.4867 0.9754
5.6278 0.9393 -2.4866 0.9754
5.6077 1.0522 -2.4866 0.9754
5.5339 1.3884 -2.4865 0.9754
5.4735 1.6098 -2.4865 0.9754
5.4044 1.8286 -2.4865 0.9754
5.3666 1.9369 -2.4865 0.9754
5.3266 2.0445 -2.4865 0.9754
5.2402 2.2570 -2.4866 0.9754
5.1454 2.4660 -2.4867 0.9754
5.0423 2.6711 -2.4868 0.9754
4.9877 2.7720 -2.4869 0.9754
4.8725 2.9705 -2.4870 0.9754
4.6187 3.3529 -2.4874 0.9754
4.5505 3.4453 -2.4875 0.9754
4.4087 3.6258 -2.4877 0.9754
4.3351 3.7139 -2.4878 0.9754
4.1040 3.9692 -2.4883 0.9754
4.0236 4.0512 -2.4884 0.9754
3.9416 4.1315 -2.4886 0.9754
3.6860 4.3625 -2.4891 0.9754
3.5978 4.4361 -2.4892 0.9754
3.5081 4.5079 -2.4894 0.9754
3.1355 4.7767 -2.4902 0.9754
2.8425 4.9583 -2.4908 0.9754
2.7425 5.0149 -2.4911 0.9754
2.5391 5.1221 -2.4915 0.9754
2.2263 5.2674 -2.4922 0.9754
2.0131 5.3537 -2.4927 0.9754
1.5770 5.5005 -2.4938 0.9753
1.4662 5.5317 -2.4941 0.9753
1.3548 5.5607 -2.4943 0.9753
1.1304 5.6119 -2.4949 0.9753
-5.3732 0.8236 -2.5162 0.9763
-5.3890 0.7154 -2.5164 0.9763
-5.4025 0.6070 -2.5165 0.9763
-5.4139 0.4982 -2.5166 0.9763
-5.4231 0.3892 -2.5167 0.9763
-5.4348 0.1709 -2.5169 0.9763
-5.4358 -0.1571 -2.5172 0.9763
-5.4317 -0.2664 -2.5173 0.9763
-5.4254 -0.3756 -2.5173 0.9763
-5.3781 -0.8104 -2.5176 0.9763
-5.3197 -1.1333 -2.5177 0.9763
-5.2959 -1.2400 -2.5177 0.9763
-5.2699 -1.3463 -2.5177 0.9763
-5.2115 -1.5571 -2.5177 0.9763
-5.1447 -1.7654 -2.5177 0.9763
-5.1081 -1.8685 -2.5177 0.9763
-5.0288 -2.0724 -2.5176 0.9763
-4.9860 -2.1730 -2.5176 0.9763
-4.8944 -2.3717 -2.5175 0.9763
-4.7422 -2.6623 -2.5174 0.9763
-4.5124 -3.0344 -2.5170 0.9763
-4.1841 -3.4713 -2.5165 0.9763
-3.8908 -3.7955 -2.5160 0.9763
-3.5724 -4.0949 -2.5154 0.9763
-3.4890 -4.1656 -2.5152 0.9763
-3.4043 -4.2347 -2.5150 0.9763
-3.3183 -4.3020 -2.5149 0.9763
-3.2309 -4.3675 -2.5147 0.9763
-3.1421 -4.4313 -2.5145 0.9763
-2.8686 -4.6116 -2.5139 0.9763
-2.7750 -4.6680 -2.5137 0.9763
-2.6804 -4.7224 -2.5135 0.9763
-2.3901 -4.8742 -2.5128 0.9764
-2.2914 -4.9208 -2.5126 0.9764
-2.1918 -4.9654 -2.5124 0.9764
-2.0913 -5.0080 -2.5121 0.9764
-1.8879 -5.0871 -2.5117 0.9764
-1.6815 -5.1579 -2.5112 0.9764
-1.4724 -5.2203 -2.5107 0.9764
-1.1546 -5.2979 -2.5099 0.9764
-1.0477 -5.3195 -2.5096 0.9764
-0.9404 -5.3389 -2.5093 0.9764
-0.8328 -5.3561 -2.5090 0.9764
-0.6166 -5.3841 -2.5085 0.9764
-0.2907 -5.4096 -2.5076 0.9764
-0.0730 -5.4157 -2.5071 0.9764
0.0359 -5.4154 -2.5068 0.9764
0.2536 -5.4083 -2.5062 0.9764
0.3623 -5.4015 -2.5059 0.9764
0.4708 -5.3925 -2.5056 0.9764
0.5791 -5.3813 -2.5053 0.9764
0.6871 -5.3679 -2.5050 0.9764
0.7948 -5.3523 -2.5047 0.9764
1.3273 -5.2423 -2.5032 0.9764
1.4322 -5.2140 -2.5029 0.9764
1.9472 -5.0408 -2.5013 0.9765
2.0479 -5.0000 -2.5010 0.9765
2.2468 -4.9124 -2.5004 0.9765
2.5380 -4.7663 -2.4995 0.9765
2.6330 -4.7137 -2.4992 0.9765
2.8198 -4.6029 -2.4986 0.9765
2.9114 -4.5448 -2.4983 0.9765
3.0019 -4.4848 -2.4981 0.9765
3.1790 -4.3594 -2.4975 0.9765
3.3510 -4.2271 -2.4969 0.9765
3.5175 -4.0881 -2.4964 0.9765
3.5986 -4.0160 -2.4961 0.9765
3.7563 -3.8672 -2.4955 0.9765
3.8329 -3.7905 -2.4953 0.9765
3.9080 -3.7123 -2.4950 0.9765
4.1234 -3.4688 -2.4942 0.9765
4.1919 -3.3848 -2.4940 0.9765
4.2587 -3.2995 -2.4937 0.9765
4.3871 -3.1250 -2.4932 0.9765
4.4486 -3.0359 -2.4930 0.9765
4.5084 -2.9455 -2.4928 0.9765
4.5663 -2.8540 -2.4925 0.9765
4.6765 -2.6676 -2.4921 0.9765
4.7288 -2.5728 -2.4919 0.9766
4.8276 -2.3802 -2.4915 0.9766
5.0017 -1.9839 -2.4907 0.9766
5.0402 -1.8828 -2.4905 0.9766
5.1111 -1.6784 -2.4901 0.9766
5.1434 -1.5751 -2.4900 0.9766
5.1737 -1.4713 -2.4898 0.9766
5.2019 -1.3669 -2.4896 0.9766
5.2280 -1.2619 -2.4895 0.9766
5.2739 -1.0505 -2.4892 0.9766
5.2937 -0.9442 -2.4890 0.9766
5.3514 -0.5157 -2.4885 0.9766
5.3604 -0.4079 -2.4884 0.9766
5.3673 -0.3000 -2.4883 0.9766
5.3750 0.0241 -2.4880 0.9766
5.3633 0.3481 -2.4878 0.9766
5.3447 0.5635 -2.4877 0.9766
5.3322 0.6708 -2.4876 0.9766
5.3175 0.7779 -2.4876 0.9766
5.2607 1.0971 -2.4875 0.9766
5.1849 1.4123 -2.4874 0.9766
5.1554 1.5162 -2.4874 0.9766
5.0903 1.7223 -2.4874 0.9766
5.0546 1.8243 -2.4874 0.9766
4.9773 2.0261 -2.4875 0.9766
4.8463 2.3227 -2.4876 0.9766
4.7987 2.4197 -2.4876 0.9766
4.7492 2.5158 -2.4877 0.9766
4.6977 2.6108 -2.4878 0.9766
4.6444 2.7049 -2.4878 0.9766
4.4126 3.0697 -2.4882 0.9766
3.9395 3.6596 -2.4889 0.9766
3.7895 3.8155 -2.4892 0.9766
3.7123 3.8912 -2.4894 0.9766
3.6335 3.9653 -2.4895 0.9766
3.5532 4.0378 -2.4897 0.9766
3.4716 4.1087 -2.4898 0.9766
3.3040 4.2456 -2.4902 0.9766
3.0426 4.4380 -2.4907 0.9766
2.9530 4.4987 -2.4909 0.9766
2.8622 4.5575 -2.4911 0.9766
2.6770 4.6697 -2.4915 0.9766
2.5828 4.7229 -2.4917 0.9766
2.4875 4.7743 -2.4919 0.9766
2.3912 4.8238 -2.4922 0.9765
2.2939 4.8714 -2.4924 0.9765
2.0966 4.9606 -2.4928 0.9765
1.6918 5.1150 -2.4938 0.9765
1.5888 5.1485 -2.4940 0.9765
1.4851 5.1799 -2.4943 0.9765
1.2759 5.2365 -2.4948 0.9765
1.1704 5.2617 -2.4951 0.9765
1.0645 5.2847 -2.4953 0.9765
0.9581 5.3056 -2.4956 0.9765
-5.0689 0.7770 -2.5155 0.9774
-5.0965 0.5726 -2.5157 0.9774
-5.1159 0.3672 -2.5159 0.9774
-5.1224 0.2643 -2.5160 0.9774
-5.1269 0.1612 -2.5161 0.9774
-5.1293 0.0581 -2.5162 0.9774
-5.1296 -0.0451 -2.5163 0.9774
-5.1278 -0.1482 -2.5164 0.9774
-5.1239 -0.2513 -2.5164 0.9774
-5.1099 -0.4572 -2.5166 0.9774
-5.0998 -0.5599 -2.5166 0.9774
-5.0876 -0.6623 -2.5167 0.9774
-5.0734 -0.7645 -2.5167 0.9774
-5.0387 -0.9679 -2.5168 0.9774
-5.0183 -1.0691 -2.5168 0.9774
-4.9958 -1.1698 -2.5168 0.9774
-4.8857 -1.5675 -2.5169 0.9774
-4.8187 -1.7626 -2.5168 0.9774
-4.7822 -1.8592 -2.5168 0.9774
-4.7438 -1.9549 -2.5168 0.9774
-4.7035 -2.0499 -2.5168 0.9774
-4.6171 -2.2373 -2.5167 0.9774
-4.5232 -2.4211 -2.5166 0.9774
-4.2567 -2.8625 -2.5162 0.9774
-3.6705 -3.5805 -2.5152 0.9774
-3.5975 -3.6535 -2.5151 0.9774
-3.5231 -3.7248 -2.5149 0.9774
-3.4473 -3.7947 -2.5148 0.9774
-3.2915 -3.9298 -2.5145 0.9774
-3.2116 -3.9949 -2.5143 0.9774
-3.1304 -4.0584 -2.5142 0.9774
-3.0480 -4.1203 -2.5140 0.9774
-2.7934 -4.2956 -2.5135 0.9774
-2.7062 -4.3506 -2.5133 0.9774
-2.6180 -4.4038 -2.5131 0.9774
-2.5287 -4.4552 -2.5129 0.9774
-2.4384 -4.5048 -2.5127 0.9774
-2.3471 -4.5526 -2.5125 0.9774
-2.2549 -4.5985 -2.5123 0.9774
-2.1618 -4.6425 -2.5120 0.9774
-1.9730 -4.7248 -2.5116 0.9774
-1.7811 -4.7995 -2.5111 0.9775
-1.5864 -4.8663 -2.5107 0.9775
-0.9885 -5.0189 -2.5092 0.9775
-0.5818 -5.0800 -2.5082 0.9775
-0.2743 -5.1042 -2.5073 0.9775
-0.1716 -5.1082 -2.5071 0.9775
-0.0688 -5.1100 -2.5068 0.9775
0.1367 -5.1075 -2.5062 0.9775
0.5464 -5.0777 -2.5051 0.9775
0.8513 -5.0338 -2.5043 0.9775
1.3515 -4.9201 -2.5028 0.9775
1.4500 -4.8914 -2.5025 0.9775
1.5479 -4.8607 -2.5023 0.9775
1.6452 -4.8280 -2.5020 0.9775
1.7417 -4.7934 -2.5017 0.9775
1.8376 -4.7569 -2.5014 0.9775
1.9326 -4.7184 -2.5011 0.9775
2.0269 -4.6781 -2.5008 0.9775
2.1203 -4.6358 -2.5005 0.9775
2.2128 -4.5917 -2.5003 0.9775
2.3045 -4.5458 -2.5000 0.9775
2.5735 -4.3971 -2.4991 0.9776
2.6611 -4.3440 -2.4989 0.9776
3.0003 -4.1143 -2.4978 0.9776
3.0821 -4.0527 -2.4975 0.9776
3.2418 -3.9246 -2.4970 0.9776
3.3963 -3.7903 -2.4964 0.9776
3.4715 -3.7209 -2.4962 0.9776
3.7577 -3.4285 -2.4952 0.9776
4.1408 -2.9496 -2.4938 0.9776
4.2553 -2.7802 -2.4933 0.9776
4.5110 -2.3380 -2.4923 0.9776
4.5567 -2.2466 -2.4921 0.9776
4.6006 -2.1544 -2.4919 0.9776
4.7211 -1.8726 -2.4913 0.9776
4.7575 -1.7772 -2.4912 0.9776
4.7919 -1.6810 -2.4910 0.9776
4.8550 -1.4868 -2.4907 0.9776
4.8836 -1.3888 -2.4905 0.9776
4.9576 -1.0916 -2.4901 0.9776
4.9969 -0.8913 -2.4898 0.9776
5.0282 -0.6896 -2.4895 0.9776
5.0409 -0.5883 -2.4894 0.9776
5.0685 0.2268 -2.4887 0.9776
5.0628 0.3286 -2.4886 0.9776
5.0550 0.4304 -2.4886 0.9777
5.0452 0.5319 -2.4885 0.9777
4.9858 0.9355 -2.4883 0.9777
4.9659 1.0356 -2.4883 0.9777
4.9441 1.1353 -2.4883 0.9777
4.8666 1.4313 -2.4883 0.9777
4.8368 1.5288 -2.4883 0.9777
4.6591 2.0067 -2.4884 0.9777
4.5747 2.1925 -2.4884 0.9777
4.4830 2.3748 -2.4885 0.9777
4.3841 2.5533 -2.4887 0.9776
4.2782 2.7277 -2.4888 0.9776
4.1653 2.8977 -2.4890 0.9776
4.0457 3.0631 -2.4891 0.9776
3.8542 3.3018 -2.4895 0.9776
3.7872 3.3789 -2.4896 0.9776
3.7186 3.4545 -2.4897 0.9776
3.6486 3.5288 -2.4898 0.9776
3.5771 3.6016 -2.4900 0.9776
3.4298 3.7430 -2.4902 0.9776
3.3540 3.8114 -2.4904 0.9776
3.2769 3.8783 -2.4905 0.9776
3.0377 4.0696 -2.4910 0.9776
2.7874 4.2463 -2.4916 0.9776
2.7016 4.3018 -2.4917 0.9776
2.6147 4.3556 -2.4919 0.9776
2.5268 4.4076 -2.4921 0.9776
2.1652 4.5979 -2.4929 0.9776
1.9789 4.6821 -2.4934 0.9776
1.6934 4.7942 -2.4941 0.9776
1.5968 4.8277 -2.4943 0.9776
1.3032 4.9166 -2.4950 0.9776
1.1046 4.9660 -2.4955 0.9776
1.0047 4.9877 -2.4957 0.9776
0.9043 5.0075 -2.4960 0.9776
-4.7914 0.7344 -2.5147 0.9784
-4.8055 0.6380 -2.5149 0.9784
-4.8358 0.3471 -2.5152 0.9784
-4.8462 0.1524 -2.5154 0.9784
-4.8485 0.0549 -2.5154 0.9784
-4.8487 -0.0426 -2.5155 0.9784
-4.8470 -0.1401 -2.5156 0.9784
-4.8301 -0.4322 -2.5158 0.9784
-4.8206 -0.5292 -2.5158 0.9784
-4.7628 -0.9149 -2.5160 0.9784
-4.7435 -1.0105 -2.5160 0.9784
-4.6990 -1.2005 -2.5161 0.9784
-4.6740 -1.2947 -2.5161 0.9784
-4.6181 -1.4816 -2.5161 0.9784
-4.5548 -1.6661 -2.5160 0.9784
-4.4840 -1.8479 -2.5160 0.9784
-4.4060 -2.0266 -2.5159 0.9784
-4.3643 -2.1148 -2.5159 0.9784
-4.3208 -2.2021 -2.5159 0.9784
-4.0237 -2.7058 -2.5155 0.9784
-3.7927 -3.0199 -2.5151 0.9784
-3.7310 -3.0954 -2.5150 0.9784
-3.6679 -3.1697 -2.5149 0.9784
-3.6032 -3.2427 -2.5148 0.9784
-3.4006 -3.4535 -2.5144 0.9784
-3.3303 -3.5210 -2.5143 0.9784
-3.1857 -3.6517 -2.5140 0.9784
-3.1114 -3.7148 -2.5138 0.9784
-3.0359 -3.7764 -2.5137 0.9784
-2.8812 -3.8949 -2.5134 0.9784
-2.8021 -3.9518 -2.5132 0.9784
-2.7219 -4.0071 -2.5130 0.9784
-2.6406 -4.0607 -2.5129 0.9784
-2.5582 -4.1127 -2.5127 0.9784
-2.4748 -4.1630 -2.5125 0.9784
-2.3051 -4.2585 -2.5121 0.9784
-2.2188 -4.3037 -2.5119 0.9784
-1.9548 -4.4286 -2.5113 0.9784
-1.8652 -4.4666 -2.5111 0.9784
-1.5921 -4.5697 -2.5105 0.9784
-1.4997 -4.6004 -2.5102 0.9784
-1.1248 -4.7043 -2.5093 0.9784
-1.0299 -4.7256 -2.5091 0.9784
-0.9345 -4.7449 -2.5088 0.9784
-0.7428 -4.7777 -2.5083 0.9784
-0.5500 -4.8027 -2.5078 0.9785
-0.2594 -4.8257 -2.5071 0.9785
-0.1622 -4.8294 -2.5068 0.9785
-0.0651 -4.8312 -2.5066 0.9785
0.1292 -4.8289 -2.5060 0.9785
0.2263 -4.8248 -2.5058 0.9785
0.3232 -4.8188 -2.5055 0.9785
0.5166 -4.8009 -2.5050 0.9785
0.6130 -4.7890 -2.5047 0.9785
0.7091 -4.7752 -2.5044 0.9785
0.8049 -4.7595 -2.5042 0.9785
1.0900 -4.7008 -2.5034 0.9785
1.1842 -4.6774 -2.5031 0.9785
1.3710 -4.6250 -2.5025 0.9785
1.6469 -4.5324 -2.5017 0.9785
1.7375 -4.4979 -2.5015 0.9785
2.0049 -4.3835 -2.5006 0.9785
2.0924 -4.3418 -2.5004 0.9785
2.1791 -4.2984 -2.5001 0.9785
2.3497 -4.2064 -2.4996 0.9785
2.9145 -3.8324 -2.4978 0.9785
3.0656 -3.7113 -2.4973 0.9785
3.2118 -3.5843 -2.4968 0.9785
3.2829 -3.5187 -2.4965 0.9785
3.3526 -3.4516 -2.4963 0.9786
3.7416 -3.0213 -2.4949 0.9786
3.8013 -2.9451 -2.4947 0.9786
3.8594 -2.8679 -2.4944 0.9786
3.9160 -2.7894 -2.4942 0.9786
3.9709 -2.7099 -2.4940 0.9786
4.0243 -2.6293 -2.4938 0.9786
4.1261 -2.4649 -2.4934 0.9786
4.1745 -2.3813 -2.4932 0.9786
4.2662 -2.2111 -2.4928 0.9786
4.3095 -2.1247 -2.4926 0.9786
4.4288 -1.8606 -2.4921 0.9786
4.4994 -1.6808 -2.4918 0.9786
4.5320 -1.5899 -2.4916 0.9786
4.5628 -1.4983 -2.4915 0.9786
4.5917 -1.4062 -2.4913 0.9786
4.6188 -1.3135 -2.4912 0.9786
4.6440 -1.2203 -2.4910 0.9786
4.6674 -1.1266 -2.4909 0.9786
4.7084 -0.9379 -2.4906 0.9786
4.7261 -0.8430 -2.4905 0.9786
4.7418 -0.7477 -2.4904 0.9786
4.7676 -0.5564 -2.4901 0.9786
4.7962 -0.1715 -2.4898 0.9786
4.7939 0.2145 -2.4894 0.9786
4.7811 0.4071 -2.4893 0.9786
4.7719 0.5031 -2.4893 0.9786
4.7326 0.7899 -2.4891 0.9786
4.6292 1.2609 -2.4890 0.9786
4.5748 1.4460 -2.4890 0.9786
4.5448 1.5377 -2.4890 0.9786
4.4439 1.8090 -2.4891 0.9786
4.3676 1.9863 -2.4892 0.9786
4.2844 2.1604 -2.4892 0.9786
4.0973 2.4979 -2.4895 0.9786
4.0464 2.5799 -2.4895 0.9786
3.9938 2.6608 -2.4896 0.9786
3.9396 2.7407 -2.4897 0.9786
3.8265 2.8971 -2.4899 0.9786
3.7072 3.0488 -2.4901 0.9786
3.6453 3.1229 -2.4902 0.9786
3.5819 3.1957 -2.4903 0.9786
3.5171 3.2673 -2.4904 0.9786
3.4508 3.3375 -2.4905 0.9786
3.3142 3.4739 -2.4908 0.9786
3.1722 3.6048 -2.4911 0.9786
3.0992 3.6680 -2.4912 0.9786
3.0250 3.7298 -2.4913 0.9786
2.9496 3.7902 -2.4915 0.9786
2.8729 3.8489 -2.4917 0.9786
2.6362 4.0160 -2.4922 0.9786
2.4729 4.1193 -2.4925 0.9786
2.3056 4.2160 -2.4929 0.9786
2.0477 4.3484 -2.4935 0.9786
1.9600 4.3890 -2.4937 0.9786
1.8715 4.4279 -2.4939 0.9786
1.6015 4.5339 -2.4945 0.9786
1.5101 4.5656 -2.4947 0.9786
1.2324 4.6496 -2.4954 0.9786
1.0447 4.6963 -2.4959 0.9786
-4.5505 0.6041 -2.5142 0.9793
-4.5715 0.4207 -2.5144 0.9793
-4.5851 0.2365 -2.5146 0.9793
-4.5911 0.0520 -2.5148 0.9793
-4.5914 -0.0404 -2.5148 0.9793
-4.5810 -0.3171 -2.5150 0.9793
-4.5738 -0.4092 -2.5151 0.9793
-4.5647 -0.5011 -2.5151 0.9793
-4.5538 -0.5928 -2.5152 0.9793
-4.5264 -0.7755 -2.5153 0.9793
-4.4715 -1.0470 -2.5153 0.9793
-4.4496 -1.1367 -2.5153 0.9793
-4.4003 -1.3147 -2.5153 0.9793
-4.3439 -1.4906 -2.5153 0.9793
-4.3130 -1.5777 -2.5153 0.9793
-4.2804 -1.6641 -2.5153 0.9793
-4.2460 -1.7498 -2.5153 0.9793
-4.2099 -1.8348 -2.5153 0.9793
-4.0914 -2.0852 -2.5151 0.9793
-4.0486 -2.1670 -2.5151 0.9793
-4.0041 -2.2479 -2.5150 0.9793
-3.8610 -2.4851 -2.5149 0.9793
-3.8101 -2.5622 -2.5148 0.9793
-3.7577 -2.6382 -2.5147 0.9793
-3.5914 -2.8597 -2.5144 0.9793
-3.5331 -2.9312 -2.5143 0.9793
-3.4733 -3.0015 -2.5142 0.9793
-3.4120 -3.0706 -2.5141 0.9793
-3.2855 -3.2051 -2.5139 0.9793
-3.1537 -3.3342 -2.5136 0.9793
-3.0858 -3.3968 -2.5135 0.9793
-2.9464 -3.5178 -2.5132 0.9793
-2.8749 -3.5761 -2.5131 0.9793
-2.7285 -3.6884 -2.5128 0.9793
-2.5006 -3.8454 -2.5123 0.9793
-2.1829 -4.0328 -2.5116 0.9793
-2.0187 -4.1167 -2.5112 0.9793
-1.9353 -4.1562 -2.5110 0.9793
-1.8512 -4.1939 -2.5108 0.9793
-1.6808 -4.2643 -2.5104 0.9793
-1.1547 -4.4334 -2.5092 0.9793
-1.0652 -4.4553 -2.5089 0.9793
-0.9753 -4.4754 -2.5087 0.9793
-0.6123 -4.5376 -2.5078 0.9793
-0.5209 -4.5486 -2.5076 0.9793
-0.3375 -4.5650 -2.5071 0.9793
-0.1537 -4.5740 -2.5066 0.9793
0.0304 -4.5756 -2.5061 0.9793
0.2143 -4.5697 -2.5056 0.9794
0.4893 -4.5471 -2.5048 0.9794
0.6716 -4.5228 -2.5043 0.9794
0.7623 -4.5080 -2.5041 0.9794
0.8528 -4.4913 -2.5038 0.9794
0.9428 -4.4728 -2.5036 0.9794
1.0325 -4.4524 -2.5033 0.9794
1.2104 -4.4064 -2.5028 0.9794
1.4734 -4.3241 -2.5020 0.9794
1.8154 -4.1900 -2.5010 0.9794
1.8991 -4.1522 -2.5007 0.9794
1.9820 -4.1128 -2.5005 0.9794
2.1454 -4.0289 -2.5000 0.9794
2.2257 -3.9845 -2.4997 0.9794
2.3837 -3.8911 -2.4992 0.9794
