ply
format ascii 1.0
element vertex 1523
property float32 x
property float32 y
property float32 z
property float32 I
end_header
-25.0161 21.0063 3.5077 0.8769
-25.4232 19.6628 3.4512 0.8787
-25.4262 18.0812 3.3503 0.8820
-19.4177 12.6660 2.4895 0.9110
-18.9000 11.2731 2.3631 0.9153
-19.1611 10.9132 2.3679 0.9151
-19.3736 10.5246 2.3675 0.9151
-24.8909 12.8813 3.0095 0.8934
-26.2097 12.9032 3.1369 0.8891
-26.3892 12.3393 3.1282 0.8894
-26.4356 11.7200 3.1052 0.8902
-26.4368 11.0907 3.0785 0.8911
-32.4402 10.6380 3.6660 0.8717
-33.1943 8.0015 3.6666 0.8717
-33.3494 7.3334 3.6667 0.8716
-33.4909 6.6624 3.6668 0.8716
-33.7333 5.3123 3.6670 0.8716
-33.8341 4.6339 3.6671 0.8716
-33.8199 3.2548 3.6484 0.8722
-33.8124 2.5699 3.6413 0.8725
-33.8050 1.8873 3.6357 0.8727
-33.7976 1.2067 3.6316 0.8728
-33.7902 0.5273 3.6289 0.8729
-33.7755 -0.8300 3.6280 0.8729
-33.7535 -2.8700 3.6376 0.8726
-33.7461 -3.5533 3.6438 0.8724
-33.7388 -4.2392 3.6514 0.8721
-33.7314 -4.9283 3.6606 0.8718
-33.6896 -5.6154 3.6676 0.8716
-33.3804 -6.2554 3.6468 0.8723
-33.4364 -6.9637 3.6675 0.8716
-33.2894 -7.6338 3.6675 0.8716
-32.9550 -8.9642 3.6673 0.8716
-31.3684 -13.4916 3.6667 0.8716
-30.7168 -13.9488 3.6226 0.8731
-30.7390 -15.4769 3.6956 0.8707
-30.7419 -17.0592 3.7753 0.8681
-26.7618 -16.2896 3.3642 0.8816
-27.1149 -17.2601 3.4515 0.8787
-26.9704 -17.9392 3.4783 0.8778
-25.8725 -17.9688 3.3825 0.8810
-30.1073 -21.8191 3.9927 0.8611
-19.8920 -15.6719 2.7193 0.9031
-19.3743 -16.5673 2.7374 0.9025
-23.9018 -22.1612 3.5001 0.8771
-23.0847 -22.2823 3.4453 0.8789
-22.1773 -22.2840 3.3760 0.8812
-20.1560 -25.8378 3.5189 0.8765
-20.2631 -28.2446 3.7327 0.8695
-20.2677 -30.7906 3.9584 0.8622
-24.9185 -39.5640 5.0209 0.8285
-22.3684 -38.8963 4.8182 0.8348
-17.4048 -38.8210 4.5684 0.8427
-16.7762 -39.5271 4.6109 0.8414
-14.9287 -39.5160 4.5360 0.8437
-12.2669 -39.5214 4.4436 0.8466
-11.4581 -39.7160 4.4387 0.8468
-7.7848 -38.2990 4.1967 0.8545
-6.4180 -39.6778 4.3160 0.8507
-4.7724 -39.5145 4.2740 0.8520
-3.9886 -39.7095 4.2855 0.8517
-2.3715 -39.5191 4.2513 0.8528
-0.7810 -39.5043 4.2429 0.8530
0.0125 -39.5052 4.2421 0.8531
0.7840 -38.4216 4.1266 0.8568
2.3173 -38.2105 4.1106 0.8573
4.0167 -39.7358 4.2886 0.8516
5.5994 -39.4732 4.2811 0.8518
6.4402 -39.6560 4.3141 0.8508
8.0515 -39.4827 4.3270 0.8503
9.7220 -39.4988 4.3680 0.8490
10.5223 -39.3292 4.3718 0.8489
11.9795 -38.5092 4.3307 0.8502
16.3298 -38.4074 4.4815 0.8454
19.7068 -39.5495 4.7449 0.8371
20.6892 -39.5126 4.7894 0.8357
22.7687 -39.5343 4.8990 0.8323
25.6428 -38.9028 5.0033 0.8291
29.6849 -39.6182 5.3160 0.8194
30.5794 -39.1482 5.3343 0.8189
31.1527 -38.2721 5.2991 0.8199
34.9501 -39.5783 5.6699 0.8086
31.7479 -21.0880 4.0927 0.8578
82.6561 -47.9931 10.2634 0.6808
85.5041 -47.3766 10.4968 0.6749
81.5123 -33.0747 9.4460 0.7020
81.5158 -31.1844 9.3720 0.7039
81.6631 -27.5352 9.2542 0.7070
83.6773 -20.9097 9.2617 0.7068
81.5896 -15.2361 8.9127 0.7161
81.6123 -13.5502 8.8836 0.7169
84.1614 -10.5205 9.1077 0.7109
87.2457 -5.6005 9.3879 0.7035
87.2490 -3.8432 9.3780 0.7037
87.2556 -0.3359 9.3697 0.7040
87.2622 3.1708 9.3765 0.7038
71.3691 50.8203 9.4082 0.7029
68.4255 50.8258 9.1529 0.7097
58.0641 50.8452 8.2877 0.7331
53.5712 50.8537 7.9317 0.7429
49.4418 50.8614 7.6168 0.7517
47.4961 50.8650 7.4730 0.7558
-32.0677 40.3559 4.3635 0.8131
-32.1969 35.8540 4.0793 0.8241
-33.5057 35.8367 4.1531 0.8212
-25.0693 21.9245 2.8193 0.8749
-25.1724 20.2897 2.7369 0.8783
-25.4266 18.0814 2.6412 0.8823
-17.8901 11.6695 1.8082 0.9178
-18.0936 11.2909 1.8054 0.9179
-18.7565 10.1894 1.8070 0.9179
-24.8873 12.8794 2.3722 0.8936
-23.5938 10.4601 2.1848 0.9016
-33.9158 12.6518 3.0643 0.8648
-33.9072 11.8784 3.0414 0.8657
-33.8987 11.1163 3.0200 0.8666
-33.8904 10.3645 3.0001 0.8674
-33.8660 8.1634 2.9490 0.8695
-33.7471 5.3145 2.8920 0.8718
-33.7247 3.2456 2.8681 0.8728
-33.7173 2.5626 2.8625 0.8731
-33.7026 1.2033 2.8548 0.8734
-33.6806 -0.8276 2.8520 0.8735
-33.6732 -1.5046 2.8534 0.8734
-33.6659 -2.1825 2.8559 0.8733
-33.6585 -2.8619 2.8596 0.8732
-33.6512 -3.5433 2.8644 0.8730
-33.6437 -4.2273 2.8704 0.8727
-33.6288 -5.6053 2.8860 0.8721
-33.7012 -7.0189 2.9141 0.8709
-33.6937 -7.7265 2.9263 0.8704
-33.6861 -8.4403 2.9398 0.8699
-33.6785 -9.1610 2.9546 0.8693
-33.6707 -9.8893 2.9707 0.8686
-33.6629 -10.6259 2.9883 0.8679
-33.6550 -11.3716 3.0072 0.8671
-33.6471 -12.1271 3.0277 0.8663
-33.5968 -16.9157 3.1842 0.8598
-33.5879 -17.7656 3.2165 0.8585
-33.5789 -18.6334 3.2509 0.8571
-33.5696 -19.5202 3.2873 0.8557
-25.5133 -15.5294 2.5284 0.8870
-25.8639 -16.4637 2.5954 0.8842
-25.8652 -17.2041 2.6297 0.8828
-28.2701 -22.2726 3.0466 0.8655
-18.7854 -16.0638 2.0924 0.9055
-19.0204 -17.6353 2.1957 0.9011
-22.1773 -22.2840 2.6614 0.8814
-20.8759 -21.8365 2.5574 0.8858
-20.0537 -21.8380 2.5098 0.8878
-20.1561 -25.8378 2.7741 0.8767
-20.0608 -26.8091 2.8345 0.8742
-20.5141 -28.5946 2.9791 0.8683
-20.5164 -29.8455 3.0659 0.8647
-23.1776 -38.4932 3.8037 0.8350
-18.1616 -38.4226 3.5976 0.8432
-15.8493 -39.5326 3.6055 0.8428
-13.1362 -39.5017 3.5240 0.8461
-12.2669 -39.5214 3.5030 0.8469
-10.5478 -39.5246 3.4630 0.8486
-8.5890 -38.2975 3.3225 0.8542
-7.7849 -38.2991 3.3084 0.8548
-3.9691 -39.5161 3.3620 0.8526
-3.1691 -39.5179 3.3560 0.8529
-0.7814 -39.5224 3.3463 0.8533
0.0125 -39.5052 3.3442 0.8533
0.7840 -38.4209 3.2531 0.8570
1.5498 -38.2591 3.2414 0.8575
2.3173 -38.2106 3.2406 0.8576
3.9941 -39.5125 3.3619 0.8526
5.6019 -39.4912 3.3765 0.8520
6.4451 -39.6860 3.4035 0.8510
7.2309 -39.4941 3.3989 0.8511
8.0542 -39.4959 3.4122 0.8506
9.7220 -39.4988 3.4435 0.8493
10.4194 -38.9445 3.4127 0.8506
11.0714 -38.2845 3.3737 0.8522
11.9101 -38.2861 3.3942 0.8513
14.0826 -39.5888 3.5570 0.8448
14.9667 -39.5408 3.5790 0.8439
15.5406 -38.6916 3.5297 0.8459
18.7240 -39.5475 3.7041 0.8389
19.7068 -39.5495 3.7406 0.8375
20.6987 -39.5307 3.7774 0.8360
21.7223 -39.5326 3.8185 0.8344
25.7107 -39.0057 3.9547 0.8290
29.6849 -39.6182 4.1908 0.8198
30.6526 -39.2419 4.2153 0.8188
31.1527 -38.2722 4.1775 0.8203
32.4543 -38.2746 4.2480 0.8175
67.4875 -55.3309 7.3877 0.7045
69.3360 -50.1815 7.2454 0.7092
74.9515 -51.9844 7.7216 0.6934
31.7310 -21.0767 3.2243 0.8582
81.5182 -29.3225 7.3336 0.7063
82.1782 -25.8829 7.2935 0.7076
83.6730 -22.7033 7.3393 0.7061
83.6763 -20.9095 7.3012 0.7073
81.5381 -18.6436 7.0806 0.7148
81.5414 -16.9286 7.0499 0.7158
81.5948 -11.8686 6.9799 0.7182
84.1622 -10.5206 7.1800 0.7114
89.5591 -9.3727 7.6228 0.6966
87.3823 -7.3742 7.4234 0.7033
87.3856 -5.6095 7.4127 0.7036
87.4182 -2.0927 7.4023 0.7040
87.4248 1.4195 7.4017 0.7040
71.3689 50.8202 7.4168 0.7035
68.4254 50.8257 7.2155 0.7102
62.9879 50.8359 6.8520 0.7226
60.4674 50.8406 6.6876 0.7282
58.0640 50.8451 6.5334 0.7336
55.7682 50.8494 6.3888 0.7386
-34.2666 53.3397 3.9313 0.7756
-34.3157 48.9730 3.7081 0.7869
-34.2292 41.3433 3.3283 0.8065
-34.2103 39.6707 3.2484 0.8106
-25.4137 25.0821 2.2142 0.8667
-25.1660 23.8591 2.1504 0.8702
-25.0697 21.9248 2.0652 0.8751
-25.0160 21.0062 2.0256 0.8773
-24.9731 20.1291 1.9890 0.8794
-24.9747 19.3159 1.9578 0.8811
-24.9762 18.5275 1.9284 0.8828
-17.7720 12.6381 1.3523 0.9163
-17.1456 11.6813 1.2865 0.9202
-17.3381 11.3095 1.2836 0.9204
-17.7575 10.5916 1.2821 0.9205
-17.9802 10.2406 1.2831 0.9204
-23.6818 12.8650 1.6712 0.8976
-20.2188 10.4638 1.4113 0.9128
-21.2318 10.4525 1.4675 0.9095
-24.5630 10.8897 1.6661 0.8979
-40.8194 16.1682 2.7225 0.8387
-42.3937 12.9651 2.7490 0.8372
-42.3837 12.0367 2.7322 0.8381
-43.9240 6.0158 2.7492 0.8372
-43.8950 3.3362 2.7298 0.8383
-43.8854 2.4501 2.7256 0.8385
-43.8663 0.6845 2.7205 0.8388
-43.8568 -0.1966 2.7196 0.8388
-43.8281 -2.8413 2.7235 0.8386
-43.7896 -6.3979 2.7442 0.8375
-43.7700 -8.2024 2.7614 0.8365
-43.7602 -9.1139 2.7718 0.8360
-43.7502 -10.0326 2.7834 0.8354
-42.1619 -11.4684 2.7095 0.8394
-42.0993 -14.2248 2.7556 0.8369
-40.4558 -17.4000 2.7309 0.8382
-38.3180 -21.2632 2.7174 0.8389
-35.8289 -21.8084 2.6010 0.8453
-24.3995 -15.5316 1.7935 0.8906
-21.4391 -15.5371 1.6419 0.8993
-29.0520 -21.9576 2.2582 0.8642
-21.8878 -17.9684 1.7560 0.8927
-21.9290 -22.0346 1.9277 0.8829
-20.0537 -21.8381 1.8385 0.8880
-20.0537 -22.7384 1.8800 0.8856
-20.2559 -23.9194 1.9436 0.8820
-20.1561 -25.8379 2.0321 0.8769
-20.5169 -29.8462 2.2459 0.8649
-20.2686 -30.7920 2.2860 0.8627
-16.7532 -39.4729 2.6591 0.8421
-15.8294 -39.4828 2.6378 0.8433
-14.9099 -39.4664 2.6161 0.8444
-11.4024 -39.5231 2.5508 0.8480
-10.5478 -39.5247 2.5367 0.8488
-7.8301 -38.5217 2.4376 0.8542
-7.1736 -39.3218 2.4786 0.8520
-6.4055 -39.6007 2.4876 0.8515
-3.9692 -39.5165 2.4628 0.8529
-2.3716 -39.5195 2.4550 0.8533
-1.5759 -39.5210 2.4527 0.8534
-0.7814 -39.5225 2.4513 0.8535
0.0125 -39.5050 2.4497 0.8536
0.7938 -38.9045 2.4130 0.8556
1.5646 -38.6244 2.3971 0.8565
3.1938 -39.5113 2.4581 0.8531
4.7978 -39.5143 2.4683 0.8525
6.4137 -39.4929 2.4811 0.8518
8.0542 -39.4960 2.4996 0.8508
9.7221 -39.4992 2.5225 0.8496
11.1135 -38.4303 2.4807 0.8519
11.9490 -38.4113 2.4945 0.8511
13.1873 -39.5717 2.5865 0.8461
17.1593 -38.2087 2.5973 0.8455
18.6812 -39.4573 2.7071 0.8395
19.6618 -39.4592 2.7338 0.8380
20.6985 -39.5304 2.7670 0.8362
21.7221 -39.5324 2.7971 0.8346
22.7687 -39.5344 2.8290 0.8329
23.8400 -39.5366 2.8629 0.8311
24.9376 -39.5388 2.8988 0.8292
25.6039 -38.8437 2.8849 0.8299
28.4592 -39.6161 3.0248 0.8224
29.6850 -39.6184 3.0699 0.8200
30.5374 -39.0944 3.0762 0.8197
32.4543 -38.2747 3.1118 0.8178
34.9499 -39.5781 3.2742 0.8093
66.8288 -54.7909 5.3588 0.7073
69.7347 -52.6361 5.4178 0.7046
31.7282 -21.0749 2.3616 0.8584
81.7747 -47.4813 5.8637 0.6846
83.1314 -46.0619 5.8934 0.6833
81.5206 -27.4872 5.3347 0.7084
82.1576 -25.8764 5.3413 0.7081
83.5658 -24.4863 5.3998 0.7054
81.5153 -16.9232 5.1626 0.7163
81.5436 -15.2275 5.1439 0.7172
81.5467 -13.5393 5.1260 0.7180
81.5248 -11.8584 5.1086 0.7188
83.9591 -10.4952 5.2469 0.7124
87.2370 -9.1297 5.4391 0.7036
81.3817 -6.8678 5.0644 0.7209
81.3900 -5.2246 5.0574 0.7212
81.3983 -3.5855 5.0524 0.7214
81.4065 -1.9488 5.0495 0.7216
78.6063 4.4386 4.8822 0.7294
78.9294 6.0491 4.9088 0.7281
78.9324 7.6466 4.9175 0.7277
78.9354 9.2506 4.9283 0.7272
78.9415 12.4829 4.9560 0.7259
78.9446 14.1140 4.9730 0.7251
81.5249 21.4479 5.2274 0.7133
68.4253 50.8256 5.2855 0.7106
60.4672 50.8405 4.8988 0.7286
58.0639 50.8450 4.7859 0.7340
47.4959 50.8649 4.3154 0.7566
-29.6675 55.5286 2.4825 0.7772
-31.8697 51.8707 2.4005 0.7837
-32.2859 50.2566 2.3554 0.7873
-36.3070 51.8148 2.4948 0.7763
-38.9682 51.1147 2.5344 0.7731
-42.1059 50.8570 2.6034 0.7677
-43.8836 50.8880 2.6496 0.7641
-47.6391 50.9535 2.7505 0.7564
-24.9169 23.6230 1.3539 0.8716
-24.9703 21.8378 1.3080 0.8756
-24.9735 20.1294 1.2648 0.8795
-15.3909 11.4171 0.7556 0.9262
-16.6274 11.3283 0.7933 0.9226
-16.8649 11.0008 0.7940 0.9226
-17.0584 10.6448 0.7928 0.9227
-21.1963 12.0723 0.9618 0.9070
-21.1911 10.4325 0.9314 0.9098
-34.9124 16.3248 1.5197 0.8570
-36.8304 16.3284 1.5886 0.8511
-43.8069 16.3415 1.8436 0.8293
-49.8675 16.3529 2.0694 0.8105
-53.9798 16.5084 2.2258 0.7977
-79.2831 22.5158 3.2498 0.7190
-55.9081 12.2940 2.2572 0.7952
-57.3410 10.2142 2.2966 0.7920
-61.7934 -15.4828 2.5119 0.7749
-55.9769 -17.6695 2.3146 0.7906
-48.8513 -22.1840 2.1156 0.8067
-43.6822 -21.9937 1.9284 0.8222
-39.2888 -21.8019 1.7718 0.8354
-35.8290 -21.8084 1.6539 0.8454
-34.2648 -21.8114 1.6016 0.8499
-32.7961 -21.8141 1.5531 0.8541
-21.2504 -16.7421 1.0667 0.8974
-17.1891 -15.9373 0.9243 0.9104
-16.6913 -16.7716 0.9330 0.9096
-20.8760 -21.8366 1.1912 0.8861
-20.0095 -25.6500 1.2828 0.8779
-20.0160 -29.1175 1.3932 0.8681
-20.0184 -30.4118 1.4356 0.8644
-24.9195 -39.5656 1.8438 0.8293
-21.7113 -39.5720 1.7798 0.8347
-19.6635 -39.5255 1.7407 0.8380
-18.7370 -39.6400 1.7289 0.8390
-16.1058 -40.1724 1.7066 0.8409
-11.3874 -39.4712 1.6199 0.8484
-10.5478 -39.5247 1.6130 0.8489
-9.7189 -39.5942 1.6076 0.8494
-8.0488 -39.5974 1.5933 0.8507
-7.2242 -39.5991 1.5872 0.8512
-6.5009 -40.1902 1.6053 0.8496
-4.7724 -39.5150 1.5694 0.8527
-2.3716 -39.5196 1.5611 0.8534
-0.7814 -39.5225 1.5587 0.8536
0.0125 -39.5050 1.5577 0.8537
0.8061 -39.5065 1.5581 0.8537
1.6070 -39.6715 1.5656 0.8530
4.0588 -40.1528 1.5913 0.8508
5.6020 -39.4914 1.5728 0.8524
6.4053 -39.4409 1.5756 0.8522
7.2310 -39.4945 1.5832 0.8515
8.8727 -39.4456 1.5942 0.8506
10.5901 -39.5823 1.6157 0.8487
12.3143 -39.5856 1.6347 0.8471
13.1926 -39.5876 1.6454 0.8462
14.3105 -40.2295 1.6837 0.8429
14.9666 -39.5406 1.6671 0.8443
16.8131 -39.5441 1.6943 0.8420
21.7224 -39.5328 1.7786 0.8348
22.7689 -39.5348 1.7989 0.8331
26.0767 -39.5609 1.8683 0.8272
29.6852 -39.6186 1.9521 0.8202
30.8698 -39.5200 1.9774 0.8181
32.2117 -39.5732 2.0120 0.8152
34.9502 -39.5785 2.0820 0.8095
15.6154 -12.2865 0.7835 0.9235
69.1728 -52.2120 3.4173 0.7069
70.3229 -50.8958 3.4230 0.7064
31.7255 -21.0731 1.5018 0.8586
82.2908 -50.0175 3.7972 0.6801
82.3648 -47.8240 3.7555 0.6830
81.5600 -29.3376 3.4177 0.7068
81.6246 -27.5223 3.3965 0.7083
81.5295 -22.1217 3.3310 0.7131
81.5328 -20.3738 3.3138 0.7143
81.6818 -15.2534 3.2765 0.7170
81.6529 -11.8770 3.2536 0.7187
84.1729 -10.5220 3.3449 0.7121
81.3890 -5.2246 3.2159 0.7215
81.3973 -3.5854 3.2127 0.7217
81.4055 -1.9488 3.2108 0.7218
75.7279 5.8038 2.9948 0.7378
75.7308 7.3365 3.0001 0.7374
75.7336 8.8754 3.0067 0.7369
75.7366 10.4217 3.0145 0.7364
75.7424 13.5415 3.0340 0.7349
50.2328 10.0259 2.0198 0.8146
75.7484 16.7072 3.0586 0.7331
71.3686 50.8200 3.4547 0.7042
65.6361 50.8307 3.2735 0.7173
62.9876 50.8357 3.1917 0.7232
53.5709 50.8534 2.9125 0.7440
51.4645 50.8573 2.8530 0.7485
49.4415 50.8611 2.7969 0.7528
47.4959 50.8648 2.7441 0.7569
-32.2488 60.3601 1.1560 0.7605
-32.0995 52.2448 1.0358 0.7825
-33.8921 50.4970 1.0273 0.7840
-35.8828 51.2096 1.0562 0.7787
-40.2123 52.7465 1.1204 0.7669
-40.1879 50.5748 1.0912 0.7723
-43.9235 50.9343 1.1361 0.7641
-45.8486 51.0562 1.1591 0.7599
-25.1649 24.8366 0.5973 0.8681
-25.1686 22.9195 0.5750 0.8727
-15.3483 12.8882 0.3385 0.9230
-25.4777 18.1177 0.5281 0.8824
-15.2085 10.3616 0.3109 0.9290
-15.9206 10.3848 0.3211 0.9268
-20.2591 12.0837 0.3985 0.9099
-20.1938 10.4505 0.3841 0.9131
-33.5610 16.5222 0.6319 0.8610
-34.9124 16.3247 0.6510 0.8571
-38.9312 16.3323 0.7131 0.8446
-41.2447 16.3366 0.7494 0.8374
-43.8068 16.3415 0.7898 0.8294
-46.6622 16.3468 0.8352 0.8205
-49.8673 16.3529 0.8865 0.8106
-53.4935 16.3596 0.9449 0.7995
-78.9282 22.4150 1.3860 0.7202
-60.2266 10.7282 1.0333 0.7829
-63.7690 10.0423 1.0905 0.7724
-81.5966 11.1754 1.3912 0.7193
-60.2775 -16.3963 1.0552 0.7789
-68.5018 -21.6231 1.2134 0.7502
-64.0200 -21.6315 1.1415 0.7631
-53.5672 -21.7751 0.9767 0.7935
-39.2889 -21.8020 0.7590 0.8355
-35.8291 -21.8085 0.7085 0.8455
-34.2649 -21.8114 0.6861 0.8500
-31.4131 -21.8168 0.6460 0.8581
-30.1075 -21.8192 0.6281 0.8618
-19.7251 -15.5404 0.4242 0.9044
-20.3144 -17.3713 0.4515 0.8986
-16.6770 -15.4625 0.3842 0.9130
-20.8760 -21.8366 0.5103 0.8862
-16.3358 -17.7893 0.4080 0.9079
-15.7052 -17.8077 0.4011 0.9094
-20.4270 -24.1214 0.5339 0.8812
-20.4289 -25.1301 0.5471 0.8785
-20.1562 -25.8380 0.5535 0.8771
-20.0620 -26.8107 0.5656 0.8746
-20.2670 -29.4827 0.6043 0.8666
-23.9590 -39.7910 0.7846 0.8304
-22.7557 -39.5698 0.7710 0.8331
-17.7223 -39.5292 0.7318 0.8409
-16.0889 -40.1300 0.7303 0.8412
-14.9289 -39.5166 0.7136 0.8445
-14.0292 -39.5183 0.7084 0.8456
-12.2670 -39.5216 0.6990 0.8474
-10.5478 -39.5248 0.6910 0.8490
-9.7189 -39.5942 0.6887 0.8495
-8.9302 -39.8192 0.6893 0.8494
-8.0452 -39.5797 0.6822 0.8508
-7.2242 -39.5991 0.6799 0.8513
-6.4970 -40.1661 0.6873 0.8498
-5.6764 -40.1996 0.6858 0.8501
-4.7724 -39.5151 0.6723 0.8528
-3.1860 -39.7281 0.6732 0.8526
-1.5842 -39.7311 0.6717 0.8529
-0.7814 -39.5226 0.6677 0.8537
1.6083 -39.7016 0.6712 0.8530
2.3961 -39.5096 0.6686 0.8535
3.1938 -39.5113 0.6696 0.8534
5.6020 -39.4915 0.6738 0.8525
6.4479 -39.7031 0.6794 0.8514
8.0971 -39.7062 0.6845 0.8503
2.9289 -13.0211 0.2254 0.9480
3.1365 -11.7232 0.2050 0.9526
3.6472 -11.7242 0.2074 0.9521
3.9073 -11.7247 0.2088 0.9518
4.1709 -11.7252 0.2102 0.9514
4.4383 -11.7257 0.2118 0.9511
4.9859 -11.7267 0.2152 0.9503
5.5526 -11.7277 0.2192 0.9494
6.1413 -11.7289 0.2236 0.9484
22.7690 -39.5348 0.7707 0.8332
24.9377 -39.5389 0.7896 0.8294
26.2377 -39.8053 0.8053 0.8264
25.1748 -36.5724 0.7500 0.8373
29.6852 -39.6186 0.8362 0.8203
32.2116 -39.5731 0.8619 0.8154
34.0650 -40.1742 0.8897 0.8100
34.9503 -39.5786 0.8919 0.8096
15.6096 -12.2820 0.3355 0.9236
71.3540 -53.8584 1.5101 0.6993
31.7216 -21.0705 0.6433 0.8587
81.6519 -31.2365 1.4767 0.7049
81.6554 -29.3719 1.4658 0.7067
81.5318 -20.3736 1.4196 0.7145
81.5372 -16.9277 1.4067 0.7167
81.5875 -13.5461 1.3970 0.7183
81.6519 -11.8769 1.3938 0.7189
81.3797 -6.8676 1.3795 0.7213
81.4128 -0.3134 1.3752 0.7220
72.8437 4.1132 1.2324 0.7469
72.8465 5.5829 1.2341 0.7466
66.3644 9.1321 1.1316 0.7649
72.8605 13.0263 1.2503 0.7437
81.5140 19.7036 1.4166 0.7150
62.9875 50.8356 1.3673 0.7234
58.0637 50.8448 1.3037 0.7344
55.7679 50.8492 1.2748 0.7394
53.5708 50.8533 1.2477 0.7442
49.4414 50.8610 1.1982 0.7529
47.4958 50.8647 1.1755 0.7570
-54.9893 72.1296 -0.5107 0.6957
-54.5012 65.8285 -0.4812 0.7105
-54.5061 63.2060 -0.4699 0.7162
-25.4185 23.1471 -0.1936 0.8715
-25.1739 20.2909 -0.1820 0.8787
-25.4251 19.6643 -0.1810 0.8794
-25.4266 18.8616 -0.1782 0.8811
-18.1390 12.8991 -0.1253 0.9148
-18.8873 12.8680 -0.1287 0.9126
-19.6330 12.8064 -0.1320 0.9105
-18.3936 10.4760 -0.1192 0.9188
-32.4051 16.7700 -0.2054 0.8642
-33.8308 16.6551 -0.2123 0.8600
-39.3720 17.4552 -0.2425 0.8417
-39.1451 16.4220 -0.2390 0.8438
-44.3718 17.5753 -0.2687 0.8262
-44.1288 16.4616 -0.2652 0.8283
-49.3723 17.2962 -0.2945 0.8112
-53.9812 16.5088 -0.3178 0.7979
-80.2909 21.0690 -0.4674 0.7175
-80.2281 19.3390 -0.4646 0.7188
-62.0993 12.3535 -0.3565 0.7763
-62.1018 11.0623 -0.3551 0.7770
-65.0361 10.2419 -0.3707 0.7685
-60.0384 -21.6391 -0.3593 0.7747
-58.0279 -22.2411 -0.3499 0.7799
-48.8739 -22.1942 -0.3022 0.8068
-45.7407 -21.8899 -0.2855 0.8164
-43.7814 -22.0436 -0.2760 0.8220
-44.4490 -23.5104 -0.2831 0.8178
-39.3532 -21.8377 -0.2534 0.8352
-39.4479 -22.9383 -0.2569 0.8332
-19.7075 -15.5264 -0.1411 0.9045
-18.1925 -15.5568 -0.1348 0.9087
-19.6901 -17.5341 -0.1484 0.8999
-19.3639 -17.9537 -0.1487 0.8998
-23.0849 -22.2825 -0.1806 0.8796
-22.1775 -22.2842 -0.1770 0.8818
-16.4277 -17.8895 -0.1367 0.9074
-20.1562 -25.8380 -0.1845 0.8771
-20.5158 -28.5969 -0.1982 0.8687
-20.5182 -29.8480 -0.2039 0.8651
-20.2699 -30.7940 -0.2076 0.8629
-24.9197 -39.5658 -0.2633 0.8294
-23.8246 -39.5678 -0.2600 0.8313
-21.0014 -40.1708 -0.2552 0.8342
-19.6636 -39.5257 -0.2485 0.8381
-18.6838 -39.5274 -0.2462 0.8396
-16.4717 -38.8096 -0.2374 0.8448
-14.0293 -39.5183 -0.2361 0.8456
-12.2670 -39.5216 -0.2330 0.8474
-11.4025 -39.5232 -0.2316 0.8483
-9.7189 -39.5944 -0.2295 0.8495
-8.0488 -39.5974 -0.2275 0.8508
-6.4970 -40.1662 -0.2291 0.8498
-4.7725 -39.5151 -0.2241 0.8528
-1.5759 -39.5212 -0.2227 0.8537
0.0125 -39.5052 -0.2224 0.8538
2.3961 -39.5096 -0.2229 0.8536
3.1938 -39.5114 -0.2232 0.8534
4.0545 -40.1104 -0.2270 0.8511
4.7090 -38.7836 -0.2200 0.8553
5.8885 -36.2589 -0.2068 0.8633
7.4131 -36.3521 -0.2089 0.8621
4.0513 -13.0232 -0.0768 0.9469
4.3476 -13.0461 -0.0774 0.9465
5.5478 -13.0484 -0.0798 0.9449
6.2030 -13.1015 -0.0816 0.9437
20.0096 -36.4158 -0.2339 0.8469
20.9755 -36.4207 -0.2366 0.8453
22.9694 -36.4181 -0.2424 0.8418
25.0846 -36.4414 -0.2491 0.8378
26.1826 -36.4470 -0.2527 0.8357
28.4785 -36.4586 -0.2605 0.8311
30.9248 -36.4709 -0.2692 0.8259
32.2118 -36.4774 -0.2740 0.8231
33.5457 -36.4842 -0.2790 0.8202
34.8479 -36.4052 -0.2838 0.8174
71.3084 -53.8240 -0.5030 0.6995
31.7167 -21.0672 -0.2143 0.8587
81.6225 -27.5216 -0.4850 0.7085
81.2612 -25.5941 -0.4797 0.7112
81.6645 -23.9292 -0.4791 0.7115
81.5340 -18.6427 -0.4709 0.7157
81.5362 -16.9275 -0.4688 0.7167
47.7008 -8.9077 -0.2732 0.8236
81.6830 -13.5619 -0.4662 0.7181
81.6509 -11.8767 -0.4646 0.7189
84.1746 -10.5222 -0.4776 0.7123
81.3787 -6.8675 -0.4598 0.7213
81.3953 -3.5854 -0.4587 0.7219
81.4036 -1.9487 -0.4584 0.7220
81.4118 -0.3134 -0.4584 0.7221
70.2799 2.5537 -0.3959 0.7548
70.2826 3.9686 -0.3963 0.7546
70.2852 5.3866 -0.3969 0.7543
70.2879 6.8092 -0.3976 0.7539
70.2906 8.2375 -0.3985 0.7535
66.8415 9.1977 -0.3799 0.7635
70.2960 11.1158 -0.4007 0.7523
70.3015 14.0314 -0.4036 0.7507
81.5218 21.4471 -0.4746 0.7138
71.3683 50.8197 -0.4933 0.7044
62.9874 50.8355 -0.4557 0.7234
51.4643 50.8571 -0.4074 0.7487
47.4957 50.8646 -0.3918 0.7570
-41.5631 77.7937 -2.4835 0.7026
-44.6223 76.0081 -2.4818 0.7028
-46.1241 75.0711 -2.4809 0.7029
-47.6059 74.1038 -2.4801 0.7030
-54.6966 68.8333 -2.4756 0.7034
-55.0060 63.7857 -2.3717 0.7139
-25.0641 25.7511 -1.0119 0.8661
-25.4172 24.0973 -0.9862 0.8692
-25.4190 23.1475 -0.9680 0.8715
-25.0712 21.9261 -0.9378 0.8752
-18.1144 12.8816 -0.6259 0.9149
-18.6959 12.7376 -0.6370 0.9135
-18.6517 12.1663 -0.6270 0.9147
-18.6544 11.1266 -0.6116 0.9168
-30.0334 16.3155 -0.9624 0.8722
-32.4050 16.7699 -1.0274 0.8642
-34.9121 16.3246 -1.0852 0.8571
-42.8396 16.9684 -1.2974 0.8316
-47.8009 16.7457 -1.4262 0.8165
-53.4931 16.3595 -1.5751 0.7994
-72.4037 20.5621 -2.1193 0.7399
-80.2306 21.0531 -2.3356 0.7175
-34.3056 6.8244 -0.9849 0.8694
-34.2938 6.1088 -0.9808 0.8699
-34.8256 5.4843 -0.9927 0.8684
-42.8498 5.8687 -1.2178 0.8411
-81.3452 9.4808 -2.3060 0.7206
-87.1703 1.3601 -2.4548 0.7055
-87.1481 -2.1415 -2.4546 0.7055
-87.0857 -3.8913 -2.4546 0.7055
-86.8563 -7.3852 -2.4545 0.7055
-86.6905 -9.1281 -2.4545 0.7055
-86.4904 -10.8674 -2.4545 0.7055
-64.4769 -9.4204 -1.8348 0.7705
-62.6512 -10.4428 -1.7885 0.7756
-64.3410 -16.1211 -1.8677 0.7669
-73.2347 -21.5096 -2.1492 0.7368
-68.1722 -21.5191 -2.0130 0.7512
-50.7539 -21.8293 -1.5557 0.8016
-43.7815 -22.0437 -1.3802 0.8219
-41.8906 -22.1572 -1.3344 0.8273
-39.3537 -21.8379 -1.2673 0.8352
-39.4484 -22.9387 -1.2849 0.8331
-34.3537 -21.8680 -1.1467 0.8496
-34.4502 -23.9261 -1.1810 0.8455
-30.1077 -21.8193 -1.0470 0.8618
-29.0538 -21.9589 -1.0255 0.8644
-18.9250 -15.5362 -0.6896 0.9067
-18.1769 -15.5434 -0.6734 0.9087
-17.4644 -15.5521 -0.6585 0.9107
-18.7526 -17.3870 -0.7201 0.9027
-22.1775 -22.2842 -0.8853 0.8818
-20.8761 -21.8367 -0.8507 0.8861
-20.5099 -25.2297 -0.9155 0.8780
-20.5162 -28.5975 -0.9910 0.8686
-20.5186 -29.8487 -1.0199 0.8651
-24.9199 -39.5662 -1.3167 0.8293
-23.8249 -39.5682 -1.3005 0.8313
-21.5876 -37.5386 -1.2193 0.8409
-20.0249 -38.3030 -1.2170 0.8412
-19.6638 -39.5260 -1.2431 0.8381
-18.6840 -39.5279 -1.2311 0.8395
-15.0785 -37.6098 -1.1410 0.8503
-14.9289 -39.5167 -1.1895 0.8445
-14.0293 -39.5184 -1.1808 0.8455
-13.1423 -39.5200 -1.1727 0.8465
-12.2670 -39.5217 -1.1652 0.8474
-9.7190 -39.5947 -1.1480 0.8495
-8.8802 -39.5963 -1.1426 0.8501
-7.2242 -39.5991 -1.1334 0.8512
-3.9692 -39.5167 -1.1183 0.8531
-3.1691 -39.5182 -1.1163 0.8533
-0.7852 -39.7137 -1.1185 0.8530
0.8061 -39.5070 -1.1127 0.8537
1.6004 -39.5085 -1.1134 0.8537
3.9312 -38.8905 -1.1007 0.8552
4.6877 -38.6077 -1.0951 0.8559
7.4131 -36.3522 -1.0447 0.8620
2.8934 -12.8634 -0.3713 0.9486
2.8990 -11.7782 -0.3416 0.9526
10.5171 -36.3679 -1.0660 0.8594
4.0513 -13.0232 -0.3840 0.9469
4.3476 -13.0461 -0.3872 0.9465
4.6410 -13.0467 -0.3899 0.9461
5.2207 -12.9981 -0.3944 0.9455
5.5478 -13.0484 -0.3992 0.9448
6.2028 -13.1011 -0.4081 0.9436
19.0652 -36.4110 -1.1573 0.8483
21.9642 -36.4257 -1.1977 0.8435
22.9688 -36.4173 -1.2124 0.8417
24.0169 -36.4361 -1.2288 0.8398
26.1826 -36.4470 -1.2636 0.8356
28.4785 -36.4586 -1.3027 0.8310
29.6116 -36.3788 -1.3208 0.8289
34.8480 -36.4053 -1.4190 0.8174
60.2153 -60.4284 -2.4021 0.7108
60.8224 -58.6339 -2.3789 0.7131
63.1654 -56.1773 -2.3803 0.7130
65.4073 -53.6254 -2.3816 0.7129
15.6056 -12.2788 -0.5591 0.9236
66.1192 -49.9072 -2.3326 0.7179
66.0569 -47.8083 -2.2961 0.7216
31.7117 -21.0639 -1.0720 0.8587
73.8229 -46.9268 -2.4631 0.7047
68.2601 -39.6343 -2.2226 0.7292
75.0125 -39.6156 -2.3886 0.7122
54.5361 -23.4150 -1.6712 0.7886
53.0592 -21.5295 -1.6123 0.7952
52.4798 -18.8773 -1.5704 0.8000
81.5163 -27.4858 -2.4223 0.7088
81.6635 -23.9289 -2.3962 0.7114
81.5264 -22.1209 -2.3786 0.7132
81.5297 -20.3731 -2.3663 0.7144
47.6898 -8.9057 -1.3661 0.8235
44.9334 -4.7025 -1.2721 0.8346
81.3777 -6.8674 -2.2996 0.7212
81.3860 -5.2244 -2.2964 0.7216
81.3943 -3.5853 -2.2941 0.7218
81.4026 -1.9487 -2.2928 0.7219
81.4108 -0.3134 -2.2924 0.7220
67.8176 2.4642 -1.9109 0.7622
67.7559 3.8259 -1.9109 0.7622
67.7241 5.1904 -1.9126 0.7620
67.7266 6.5611 -1.9160 0.7616
67.7292 7.9374 -1.9202 0.7612
66.8407 9.1976 -1.8998 0.7634
67.7370 12.1103 -1.9376 0.7593
67.7450 16.3753 -1.9625 0.7566
81.5208 21.4469 -2.3736 0.7137
86.3657 24.5863 -2.5285 0.6981
85.3806 28.0585 -2.5306 0.6979
83.6354 33.1884 -2.5336 0.6976
79.2135 43.0973 -2.5392 0.6971
77.4685 46.2734 -2.5409 0.6969
74.6050 50.8978 -2.5430 0.6967
73.5803 52.3948 -2.5435 0.6967
70.2683 56.7117 -2.5426 0.6967
55.7677 50.8490 -2.1251 0.7393
49.4413 50.8609 -1.9973 0.7529
-22.7393 42.5612 -2.4472 0.8243
-23.5668 42.0554 -2.4448 0.8244
-25.1856 40.9918 -2.4399 0.8247
-27.5201 39.2748 -2.4321 0.8252
-30.4434 36.7706 -2.4210 0.8260
-31.1387 36.1088 -2.4181 0.8262
-31.8191 35.4332 -2.4152 0.8263
-32.4844 34.7443 -2.4122 0.8265
-24.9647 25.6490 -1.8152 0.8664
-24.9666 24.6409 -1.7790 0.8689
-24.9702 22.7388 -1.7127 0.8735
-24.9735 20.9705 -1.6538 0.8776
-24.9750 20.1306 -1.6268 0.8794
-16.6800 12.9006 -1.0694 0.9190
-24.9780 18.5289 -1.5772 0.8829
-18.0710 12.8507 -1.1246 0.9150
-18.0730 11.7888 -1.0943 0.9172
-16.7735 10.4668 -1.0024 0.9239
-30.0333 16.3154 -1.7334 0.8721
-31.5322 16.3182 -1.8006 0.8674
-33.1529 16.3213 -1.8740 0.8624
-34.9120 16.3246 -1.9545 0.8570
-39.0506 16.3824 -2.1476 0.8440
-41.3711 16.3867 -2.2567 0.8368
-43.1578 16.0994 -2.3360 0.8315
-43.4075 15.2066 -2.3326 0.8318
-43.8671 13.4157 -2.3264 0.8322
-44.5852 10.7473 -2.3259 0.8322
-32.7414 6.5133 -1.6930 0.8748
-33.9070 5.3397 -1.7408 0.8716
-48.4921 5.6518 -2.4759 0.8224
-48.6761 3.6995 -2.4757 0.8224
-48.7387 2.7211 -2.4756 0.8224
-48.8060 0.7615 -2.4755 0.8224
-48.8103 -0.2188 -2.4754 0.8224
-48.7951 -1.1991 -2.4754 0.8224
-48.7605 -2.1788 -2.4753 0.8224
-48.6329 -4.1351 -2.4753 0.8224
-48.4278 -6.0849 -2.4753 0.8224
-48.1452 -8.0249 -2.4753 0.8224
-47.9751 -8.9904 -2.4754 0.8224
-47.7857 -9.9523 -2.4754 0.8224
-47.5775 -10.9103 -2.4755 0.8224
-45.8804 -11.4957 -2.3987 0.8274
-44.2342 -12.0324 -2.3248 0.8323
-42.8148 -16.4102 -2.3253 0.8322
-42.4790 -17.2678 -2.3255 0.8322
-42.1263 -18.1185 -2.3256 0.8322
-41.7566 -18.9622 -2.3258 0.8322
-41.3703 -19.7984 -2.3259 0.8322
-40.9673 -20.6268 -2.3261 0.8322
-40.5480 -21.4471 -2.3263 0.8322
-38.4552 -22.3611 -2.2560 0.8368
-34.2540 -21.8045 -2.0593 0.8499
-28.8723 -21.8217 -1.8354 0.8651
-17.4562 -15.5448 -1.1854 0.9106
-17.8949 -17.2729 -1.2613 0.9052
-16.4489 -17.9125 -1.2333 0.9072
-20.2578 -23.9216 -1.5897 0.8820
-20.0612 -25.7162 -1.6541 0.8775
-20.0633 -26.8123 -1.6983 0.8745
-20.0655 -27.9692 -1.7457 0.8712
-23.7436 -39.4332 -2.3344 0.8316
-18.7785 -39.7278 -2.2285 0.8386
-16.4794 -36.7571 -2.0429 0.8510
-15.7593 -37.1310 -2.0457 0.8508
-14.8318 -36.9947 -2.0213 0.8525
-14.9290 -39.5167 -2.1423 0.8444
-14.0293 -39.5184 -2.1267 0.8454
-13.1423 -39.5201 -2.1121 0.8464
-11.4576 -39.7143 -2.0962 0.8474
-9.7190 -39.5948 -2.0676 0.8493
-6.0623 -37.4792 -1.9254 0.8589
-3.9692 -39.5168 -2.0141 0.8529
-2.3716 -39.5198 -2.0078 0.8534
-1.5835 -39.7122 -2.0156 0.8528
0.0125 -39.5056 -2.0035 0.8537
0.8102 -39.7071 -2.0141 0.8529
2.3961 -39.5101 -2.0074 0.8534
3.7765 -37.3602 -1.9044 0.8604
4.5364 -37.3616 -1.9087 0.8601
5.6020 -39.4916 -2.0228 0.8524
5.8885 -36.2590 -1.8629 0.8632
6.6549 -36.3484 -1.8740 0.8624
2.8934 -12.8633 -0.6687 0.9486
9.7290 -36.3639 -1.9090 0.8600
10.5171 -36.3679 -1.9199 0.8593
4.0513 -13.0232 -0.6917 0.9468
4.6410 -13.0467 -0.7023 0.9460
4.9386 -13.0473 -0.7075 0.9457
5.2208 -12.9981 -0.7104 0.9454
5.8602 -13.0490 -0.7254 0.9443
6.2482 -12.5395 -0.7105 0.9454
19.0652 -36.4111 -2.0844 0.8482
20.0097 -36.4159 -2.1072 0.8467
22.9683 -36.4164 -2.1835 0.8416
25.0847 -36.4415 -2.2436 0.8376
26.1826 -36.4471 -2.2759 0.8355
27.3131 -36.4528 -2.3100 0.8332
30.8549 -34.9409 -2.3640 0.8297
31.5559 -34.3201 -2.3644 0.8297
32.9198 -33.0363 -2.3652 0.8296
34.2313 -31.6982 -2.3660 0.8296
35.4879 -30.3076 -2.3668 0.8295
39.6830 -29.9530 -2.5214 0.8194
40.2825 -29.1542 -2.5218 0.8194
41.9824 -26.6867 -2.5228 0.8194
42.5156 -25.8415 -2.5232 0.8193
43.0315 -24.9856 -2.5235 0.8193
44.9194 -21.4619 -2.5247 0.8192
46.1450 -18.7240 -2.5255 0.8192
46.5164 -17.7952 -2.5258 0.8192
46.8689 -16.8590 -2.5260 0.8191
47.8115 -14.0097 -2.5267 0.8191
46.1741 -7.6663 -2.3737 0.8291
46.7208 -2.9991 -2.3743 0.8290
46.8065 -1.1205 -2.3744 0.8290
46.8207 -0.1803 -2.3745 0.8290
46.8507 0.7607 -2.3763 0.8289
46.8761 1.7033 -2.3789 0.8287
46.8667 3.5918 -2.3838 0.8284
46.7781 5.4820 -2.3886 0.8281
46.7121 6.4278 -2.3913 0.8279
46.5076 8.3148 -2.3960 0.8276
46.0453 11.1301 -2.4024 0.8272
45.6494 12.9954 -2.4071 0.8269
45.1751 14.8458 -2.4116 0.8266
44.2986 17.5787 -2.4170 0.8262
43.2626 20.2627 -2.4228 0.8259
40.7117 25.4409 -2.4346 0.8251
40.2149 26.2680 -2.4360 0.8250
39.7017 27.0859 -2.4374 0.8249
39.1769 27.8970 -2.4391 0.8248
38.0894 29.4977 -2.4432 0.8245
37.5098 30.2732 -2.4445 0.8244
36.9293 31.0500 -2.4469 0.8243
36.3268 31.8105 -2.4488 0.8242
35.6973 32.5488 -2.4499 0.8241
35.0681 33.2892 -2.4521 0.8239
34.4199 34.0140 -2.4541 0.8238
33.7444 34.7133 -2.4552 0.8237
33.0552 35.3998 -2.4563 0.8237
-15.4186 28.8591 -2.3991 0.8770
-15.9847 28.5249 -2.3975 0.8771
-16.5431 28.1789 -2.3959 0.8772
-17.0937 27.8215 -2.3942 0.8772
-17.6364 27.4529 -2.3925 0.8773
-18.6974 26.6837 -2.3890 0.8775
-20.7138 25.0189 -2.3816 0.8779
-21.1949 24.5779 -2.3796 0.8779
-22.5797 23.1986 -2.3737 0.8782
-23.4523 22.2344 -2.3695 0.8784
-24.2829 21.2367 -2.3653 0.8786
-25.0702 20.2073 -2.3610 0.8788
-17.4471 12.4070 -1.5697 0.9177
-17.4480 11.8874 -1.5480 0.9188
-17.4490 11.3817 -1.5275 0.9198
-17.4046 10.8609 -1.5042 0.9210
-16.2665 9.7023 -1.3887 0.9268
-27.7653 15.8137 -2.3429 0.8797
-28.8416 13.4861 -2.3345 0.8801
-29.1045 12.9032 -2.3343 0.8801
-29.3556 12.3152 -2.3342 0.8801
-29.5950 11.7223 -2.3340 0.8801
-30.2414 9.9170 -2.3335 0.8802
-30.4327 9.3071 -2.3334 0.8802
-33.2290 6.6102 -2.4842 0.8729
-33.6472 3.9216 -2.4838 0.8730
-33.7181 3.2449 -2.4837 0.8730
-33.7756 2.5671 -2.4836 0.8730
-33.8195 1.8881 -2.4836 0.8730
-33.8499 1.2085 -2.4835 0.8730
-33.8668 0.5284 -2.4835 0.8730
-33.8597 -0.8320 -2.4834 0.8730
-33.8358 -1.5119 -2.4834 0.8730
-33.7983 -2.1911 -2.4834 0.8730
-33.6830 -3.5467 -2.4834 0.8730
-33.6051 -4.2225 -2.4834 0.8730
-33.2906 -6.2386 -2.4834 0.8730
-33.1590 -6.9060 -2.4835 0.8730
-33.0142 -7.5707 -2.4835 0.8730
-32.8561 -8.2324 -2.4836 0.8730
-32.6849 -8.8908 -2.4836 0.8730
-32.3032 -10.1967 -2.4837 0.8730
-31.4486 -11.3347 -2.4511 0.8745
-29.4733 -11.9809 -2.3328 0.8802
-29.2280 -12.5710 -2.3329 0.8802
-25.8080 -11.7197 -2.0783 0.8925
-24.5022 -11.7259 -1.9917 0.8968
-24.6578 -12.4150 -2.0242 0.8952
-27.5134 -15.9986 -2.3336 0.8802
-27.1882 -16.5490 -2.3338 0.8802
-26.5052 -17.6298 -2.3341 0.8801
-25.7795 -18.6827 -2.3344 0.8801
-25.4010 -19.1981 -2.3346 0.8801
-25.0123 -19.7059 -2.3348 0.8801
-24.6134 -20.2059 -2.3349 0.8801
-17.4562 -15.5448 -1.7138 0.9105
-16.7672 -15.5461 -1.6765 0.9124
-17.1891 -16.5917 -1.7517 0.9086
-17.1904 -17.2732 -1.7868 0.9069
-16.4489 -17.9125 -1.7831 0.9071
-20.0559 -22.7409 -2.2232 0.8855
-20.0596 -24.6758 -2.3317 0.8803
-19.6075 -25.1347 -2.3374 0.8800
-17.5350 -26.6390 -2.3384 0.8799
-16.4548 -27.3280 -2.3389 0.8799
-15.9046 -27.6563 -2.3392 0.8799
-14.7846 -28.2796 -2.3398 0.8799
-13.6404 -28.8577 -2.3404 0.8798
-12.4737 -29.3897 -2.3410 0.8798
-11.8825 -29.6382 -2.3413 0.8798
-11.2863 -29.8748 -2.3416 0.8798
-10.0802 -30.3120 -2.3422 0.8797
-9.4707 -30.5125 -2.3425 0.8797
-8.8572 -30.7008 -2.3429 0.8797
-5.7386 -31.4561 -2.3445 0.8796
-3.8356 -31.7582 -2.3455 0.8796
-2.5579 -31.8958 -2.3462 0.8796
-0.6328 -32.0061 -2.3472 0.8795
1.9390 -31.9725 -2.3486 0.8794
2.5811 -31.9318 -2.3489 0.8794
3.2224 -31.8782 -2.3493 0.8794
4.5013 -31.7325 -2.3500 0.8794
6.4069 -31.4178 -2.3510 0.8793
2.8934 -12.8632 -0.9667 0.9485
2.8987 -11.7770 -0.8893 0.9525
4.3477 -13.0462 -1.0083 0.9463
5.8602 -13.0490 -1.0488 0.9442
6.2024 -13.1004 -1.0628 0.9435
6.2480 -12.5391 -1.0272 0.9454
15.4744 -28.1620 -2.3561 0.8791
16.5974 -27.5253 -2.3567 0.8790
17.1491 -27.1901 -2.3570 0.8790
18.2321 -26.4865 -2.3577 0.8790
19.2860 -25.7396 -2.3583 0.8790
20.3092 -24.9506 -2.3589 0.8789
21.7828 -23.6909 -2.3597 0.8789
22.7220 -22.8024 -2.3603 0.8789
23.6247 -21.8764 -2.3608 0.8789
24.4896 -20.9147 -2.3613 0.8788
24.9073 -20.4207 -2.3616 0.8788
26.0998 -18.8896 -2.3623 0.8788
26.4765 -18.3634 -2.3626 0.8788
26.8426 -17.8297 -2.3628 0.8788
30.0262 -16.6371 -2.5170 0.8714
30.6752 -15.4204 -2.5174 0.8714
30.9812 -14.8024 -2.5176 0.8713
31.2746 -14.1783 -2.5178 0.8713
32.3206 -11.6259 -2.5185 0.8713
33.6437 -6.9847 -2.5194 0.8713
33.7786 -6.3079 -2.5195 0.8713
34.0074 -4.9466 -2.5197 0.8712
34.1809 -3.5772 -2.5199 0.8712
34.2470 -2.8898 -2.5200 0.8712
34.3370 -1.5125 -2.5201 0.8712
34.3611 -0.8226 -2.5201 0.8712
34.3675 0.5580 -2.5202 0.8712
34.3287 1.2474 -2.5187 0.8713
33.8899 1.9136 -2.4888 0.8727
32.8096 2.5145 -2.4127 0.8764
32.1285 3.1125 -2.3668 0.8786
31.9775 4.4002 -2.3667 0.8786
31.7744 5.6808 -2.3667 0.8786
31.6535 6.3177 -2.3667 0.8786
31.3732 7.5835 -2.3666 0.8786
30.8572 9.4583 -2.3664 0.8786
30.2669 11.3125 -2.3692 0.8785
29.8308 12.5367 -2.3726 0.8783
29.0810 14.3396 -2.3774 0.8781
28.8062 14.9306 -2.3790 0.8780
28.5189 15.5161 -2.3805 0.8779
28.2191 16.0958 -2.3820 0.8778
27.9097 16.6710 -2.3837 0.8778
27.5876 17.2397 -2.3853 0.8777
26.9053 18.3556 -2.3881 0.8775
26.1802 19.4464 -2.3912 0.8774
25.8034 19.9828 -2.3930 0.8773
25.0076 21.0263 -2.3956 0.8772
24.1685 22.0368 -2.3981 0.8771
23.7331 22.5292 -2.3994 0.8770
22.8365 23.4922 -2.4022 0.8769
22.3737 23.9607 -2.4037 0.8768
-11.6537 21.8122 -2.3742 0.9054
-12.0833 21.5629 -2.3730 0.9054
-12.5076 21.3050 -2.3718 0.9055
-12.9262 21.0386 -2.3706 0.9055
-13.7458 20.4804 -2.3680 0.9056
-14.1465 20.1889 -2.3667 0.9057
-14.5408 19.8894 -2.3654 0.9057
-14.9287 19.5820 -2.3640 0.9058
-15.3098 19.2668 -2.3626 0.9058
-15.6842 18.9440 -2.3612 0.9059
-16.0516 18.6137 -2.3597 0.9060
-16.4120 18.2761 -2.3582 0.9060
-17.1106 17.5796 -2.3552 0.9061
-17.7793 16.8560 -2.3521 0.9062
-18.1020 16.4845 -2.3505 0.9063
-18.7237 15.7226 -2.3473 0.9064
-16.6225 12.8562 -2.0175 0.9190
-16.8222 12.4788 -2.0109 0.9193
-16.8231 11.9633 -1.9818 0.9204
-16.7834 10.9477 -1.9238 0.9226
-21.4028 11.6270 -2.3384 0.9068
-21.8498 10.7567 -2.3381 0.9068
-22.6375 8.9665 -2.3376 0.9068
-22.9770 8.0494 -2.3374 0.9068
-24.9360 7.0817 -2.4886 0.9011
-25.1983 6.0741 -2.4885 0.9011
-25.3143 5.5666 -2.4884 0.9011
-25.4201 5.0568 -2.4883 0.9011
-25.5158 4.5452 -2.4882 0.9011
-25.6762 3.5166 -2.4881 0.9011
-25.7955 2.4825 -2.4879 0.9011
-25.8734 1.4445 -2.4878 0.9011
-25.9123 -0.1162 -2.4877 0.9011
-25.8863 -1.1567 -2.4877 0.9011
-25.7694 -2.7134 -2.4877 0.9011
-25.7098 -3.2304 -2.4877 0.9011
-25.6398 -3.7461 -2.4877 0.9011
-25.4690 -4.7728 -2.4877 0.9011
-24.7130 -7.8008 -2.4880 0.9011
-24.5519 -8.2958 -2.4880 0.9011
-24.3810 -8.7874 -2.4881 0.9011
-23.6001 -10.7171 -2.4884 0.9011
-23.3310 -11.1654 -2.4832 0.9013
-21.5187 -11.3819 -2.3371 0.9068
-20.7971 -12.6588 -2.3374 0.9068
-20.5396 -13.0746 -2.3375 0.9068
-20.0001 -13.8903 -2.3378 0.9068
-19.4284 -14.6840 -2.3380 0.9068
-19.1307 -15.0721 -2.3382 0.9068
-18.8253 -15.4542 -2.3383 0.9068
-18.5123 -15.8302 -2.3385 0.9068
-18.1918 -16.1999 -2.3386 0.9068
-16.2197 -17.6629 -2.3022 0.9081
-15.8628 -17.9865 -2.3024 0.9081
-15.7502 -18.5987 -2.3398 0.9067
-14.9929 -19.2193 -2.3402 0.9067
-14.6051 -19.5181 -2.3404 0.9067
-13.8119 -20.0923 -2.3408 0.9067
-12.5802 -20.8931 -2.3414 0.9066
-12.1591 -21.1434 -2.3416 0.9066
-9.5346 -22.4647 -2.3429 0.9066
-8.1670 -23.0050 -2.3436 0.9066
-6.2970 -23.5961 -2.3446 0.9065
-5.8224 -23.7203 -2.3449 0.9065
-4.3849 -24.0356 -2.3456 0.9065
-3.9017 -24.1215 -2.3459 0.9065
-3.4168 -24.1976 -2.3461 0.9065
-2.4429 -24.3207 -2.3467 0.9064
-0.9742 -24.4318 -2.3474 0.9064
-0.4834 -24.4492 -2.3477 0.9064
1.4810 -24.4201 -2.3488 0.9064
2.4610 -24.3465 -2.3493 0.9063
3.9240 -24.1623 -2.3501 0.9063
4.8923 -23.9907 -2.3506 0.9063
2.8933 -12.8630 -1.2658 0.9484
2.8986 -11.7764 -1.1643 0.9524
6.3302 -23.6604 -2.3514 0.9063
6.8049 -23.5312 -2.3517 0.9063
4.0513 -13.0233 -1.3094 0.9467
4.3477 -13.0462 -1.3202 0.9462
4.6410 -13.0467 -1.3294 0.9459
4.9386 -13.0473 -1.3393 0.9455
5.2208 -12.9982 -1.3448 0.9453
5.8602 -13.0490 -1.3733 0.9441
6.2023 -13.1000 -1.3915 0.9434
12.2408 -21.2542 -2.3547 0.9061
13.5026 -20.4848 -2.3554 0.9061
14.7160 -19.6404 -2.3561 0.9061
15.8766 -18.7239 -2.3568 0.9061
16.2510 -18.4030 -2.3570 0.9061
16.6188 -18.0746 -2.3573 0.9060
16.9800 -17.7388 -2.3575 0.9060
17.3344 -17.3957 -2.3577 0.9060
18.0221 -16.6884 -2.3581 0.9060
18.6809 -15.9539 -2.3585 0.9060
18.9991 -15.5767 -2.3587 0.9060
19.6124 -14.8035 -2.3590 0.9060
19.9073 -14.4078 -2.3592 0.9060
20.1941 -14.0061 -2.3594 0.9060
21.6013 -13.1296 -2.4269 0.9034
23.1507 -12.2263 -2.5135 0.9001
23.3930 -11.7596 -2.5136 0.9001
23.6259 -11.2881 -2.5138 0.9001
23.8492 -10.8120 -2.5139 0.9001
24.0629 -10.3314 -2.5141 0.9001
24.4610 -9.3577 -2.5144 0.9001
24.6452 -8.8650 -2.5145 0.9001
25.1378 -7.3659 -2.5148 0.9001
25.5388 -5.8394 -2.5151 0.9001
25.7545 -4.8094 -2.5153 0.9001
25.9284 -3.7715 -2.5154 0.9001
25.9996 -3.2500 -2.5155 0.9001
26.1498 -1.6786 -2.5157 0.9001
26.1970 -0.6271 -2.5158 0.9001
26.2047 -0.1009 -2.5158 0.9001
26.1881 0.9516 -2.5158 0.9001
26.1290 2.0025 -2.5159 0.9001
25.9610 3.5723 -2.5159 0.9001
25.6806 5.1256 -2.5141 0.9001
25.3755 5.5969 -2.4947 0.9008
24.4126 5.9010 -2.4112 0.9040
23.7977 6.2608 -2.3624 0.9058
23.2165 8.1498 -2.3622 0.9059
22.6815 9.5322 -2.3620 0.9059
22.4847 9.9854 -2.3619 0.9059
22.2788 10.4346 -2.3619 0.9059
22.0639 10.8795 -2.3618 0.9059
20.6012 13.4565 -2.3624 0.9059
20.0651 14.2879 -2.3648 0.9058
18.8912 15.8836 -2.3695 0.9056
17.9265 17.0171 -2.3730 0.9054
16.8912 18.0894 -2.3761 0.9053
-9.3585 17.5164 -2.3590 0.9231
-9.7046 17.3180 -2.3581 0.9231
-11.3675 16.2229 -2.3530 0.9233
-11.6856 15.9840 -2.3520 0.9233
-12.9059 14.9658 -2.3474 0.9235
-13.1972 14.6962 -2.3463 0.9235
-14.3099 13.5668 -2.3423 0.9236
-14.5785 13.2758 -2.3422 0.9236
-14.8412 12.9794 -2.3420 0.9237
-14.9780 12.5772 -2.3233 0.9242
-15.1044 12.1746 -2.3045 0.9248
-15.8071 11.2408 -2.3040 0.9248
-16.4844 10.2867 -2.3081 0.9247
-16.9236 10.0943 -2.3407 0.9237
-17.1220 9.7518 -2.3406 0.9237
-17.6755 8.7017 -2.3402 0.9237
-17.8459 8.3446 -2.3401 0.9237
-18.0090 7.9841 -2.3400 0.9237
-19.2368 7.6195 -2.4578 0.9200
-19.9290 6.5352 -2.4913 0.9190
-20.0555 6.1335 -2.4912 0.9190
-20.1739 5.7292 -2.4911 0.9190
-20.2842 5.3228 -2.4911 0.9190
-20.3864 4.9141 -2.4910 0.9190
-20.4804 4.5036 -2.4909 0.9190
-20.5661 4.0912 -2.4908 0.9190
-20.6436 3.6773 -2.4908 0.9190
-20.7737 2.8452 -2.4907 0.9190
-20.8262 2.4273 -2.4906 0.9190
-20.9062 1.5889 -2.4905 0.9190
-20.9335 1.1687 -2.4905 0.9190
-20.9631 0.3271 -2.4904 0.9190
-20.9589 -0.5150 -2.4904 0.9190
-20.9442 -0.9359 -2.4904 0.9190
-20.8896 -1.7762 -2.4903 0.9190
-20.8014 -2.6137 -2.4903 0.9190
-20.6066 -3.8616 -2.4904 0.9190
-20.5251 -4.2747 -2.4904 0.9190
-20.4353 -4.6861 -2.4904 0.9190
-20.1169 -5.9084 -2.4905 0.9190
-19.5794 -7.5045 -2.4907 0.9190
-19.2632 -8.2851 -2.4909 0.9190
-18.9161 -9.0525 -2.4910 0.9190
-18.7310 -9.4309 -2.4911 0.9190
-18.5385 -9.8055 -2.4912 0.9190
-18.1310 -10.5429 -2.4914 0.9190
-17.9078 -10.9001 -2.4903 0.9190
-17.6460 -11.2326 -2.4847 0.9192
-16.2676 -11.2981 -2.3527 0.9233
-15.7168 -11.8788 -2.3402 0.9237
-15.2286 -12.5016 -2.3404 0.9237
-14.7158 -13.1044 -2.3407 0.9237
-14.1792 -13.6863 -2.3409 0.9237
-13.9022 -13.9691 -2.3410 0.9237
-13.6197 -14.2464 -2.3412 0.9237
-13.3316 -14.5179 -2.3413 0.9237
-13.0381 -14.7836 -2.3415 0.9237
-11.4941 -16.0215 -2.3422 0.9236
-10.8429 -16.4725 -2.3426 0.9236
-10.5106 -16.6881 -2.3427 0.9236
-9.8334 -17.0993 -2.3431 0.9236
-9.1402 -17.4830 -2.3434 0.9236
-8.7879 -17.6644 -2.3436 0.9236
-8.0726 -18.0058 -2.3440 0.9236
-7.3442 -18.3185 -2.3443 0.9236
-6.9754 -18.4638 -2.3445 0.9236
-6.6037 -18.6017 -2.3447 0.9236
-5.8523 -18.8550 -2.3451 0.9236
-4.7075 -19.1781 -2.3457 0.9235
-4.3218 -19.2704 -2.3459 0.9235
-3.5450 -19.4318 -2.3463 0.9235
-2.3690 -19.6153 -2.3469 0.9235
-0.7875 -19.7492 -2.3478 0.9235
-0.3907 -19.7628 -2.3480 0.9235
0.8003 -19.7559 -2.3486 0.9234
1.5933 -19.7114 -2.3491 0.9234
1.2603 -12.4680 -1.4886 0.9508
1.4942 -12.3064 -1.4726 0.9513
2.8984 -11.7758 -1.4405 0.9523
5.1153 -19.1195 -2.3510 0.9234
5.4988 -19.0146 -2.3512 0.9234
4.6410 -13.0467 -1.6449 0.9457
4.9386 -13.0473 -1.6571 0.9454
5.1378 -12.7917 -1.6375 0.9460
5.8603 -13.0490 -1.6992 0.9440
9.1898 -17.5508 -2.3533 0.9233
9.5412 -17.3641 -2.3535 0.9233
9.8889 -17.1705 -2.3537 0.9233
10.9076 -16.5479 -2.3543 0.9233
11.2386 -16.3268 -2.3545 0.9233
12.2043 -15.6241 -2.3550 0.9232
12.5166 -15.3771 -2.3552 0.9232
13.4229 -14.5987 -2.3557 0.9232
14.0003 -14.0499 -2.3561 0.9232
14.2807 -13.7669 -2.3562 0.9232
15.3436 -12.5798 -2.3569 0.9232
15.4855 -12.1844 -2.3406 0.9237
15.8385 -11.9550 -2.3572 0.9232
16.0764 -11.6352 -2.3573 0.9232
17.8374 -11.3386 -2.5107 0.9184
18.2804 -10.6143 -2.5110 0.9184
19.0772 -9.1148 -2.5115 0.9184
19.8992 -7.1579 -2.5120 0.9183
20.8678 -3.4647 -2.5127 0.9183
20.9337 -3.0450 -2.5128 0.9183
20.9911 -2.6240 -2.5129 0.9183
21.0400 -2.2019 -2.5129 0.9183
21.1354 -0.9310 -2.5130 0.9183
21.1501 -0.5063 -2.5131 0.9183
21.1562 -0.0814 -2.5131 0.9183
21.1428 0.7683 -2.5131 0.9183
21.1231 1.1927 -2.5131 0.9183
21.0950 1.6167 -2.5131 0.9183
21.0583 2.0401 -2.5131 0.9183
20.9593 2.8841 -2.5131 0.9183
20.8971 3.3044 -2.5131 0.9183
20.8264 3.7234 -2.5131 0.9183
20.7472 4.1409 -2.5131 0.9183
20.6597 4.5567 -2.5131 0.9183
20.4595 5.3826 -2.5130 0.9183
20.3470 5.7923 -2.5130 0.9183
20.2262 6.1997 -2.5129 0.9183
19.0676 7.1267 -2.4180 0.9213
18.3126 7.6961 -2.3596 0.9231
17.8144 8.7841 -2.3594 0.9231
17.4460 9.4918 -2.3592 0.9231
17.2513 9.8399 -2.3591 0.9231
15.9391 11.8395 -2.3585 0.9231
15.6974 12.1566 -2.3584 0.9231
15.1950 12.7759 -2.3582 0.9231
14.9346 13.0778 -2.3580 0.9232
14.6681 13.3744 -2.3579 0.9232
14.1201 13.9535 -2.3581 0.9231
13.8423 14.2397 -2.3590 0.9231
13.5585 14.5202 -2.3598 0.9231
-9.2235 13.7425 -2.3451 0.9353
-9.4970 13.5535 -2.3449 0.9353
-10.0323 13.1595 -2.3446 0.9353
-10.2939 12.9545 -2.3445 0.9353
-10.5514 12.7443 -2.3443 0.9353
-10.8045 12.5291 -2.3442 0.9353
-11.0533 12.3088 -2.3440 0.9354
-11.7723 11.6187 -2.3436 0.9354
-12.2280 11.1353 -2.3433 0.9354
-12.4484 10.8868 -2.3432 0.9354
-13.0793 10.1158 -2.3428 0.9354
-13.2792 9.8506 -2.3427 0.9354
-13.4736 9.5814 -2.3426 0.9354
-13.6627 9.3084 -2.3424 0.9354
-13.8462 9.0317 -2.3423 0.9354
-14.0241 8.7514 -2.3422 0.9354
-14.3629 8.1804 -2.3420 0.9354
-14.7913 7.6546 -2.3598 0.9349
-15.5093 7.6353 -2.4494 0.9325
-15.9133 7.4409 -2.4891 0.9315
-16.0876 7.1323 -2.4934 0.9314
-16.9244 4.8064 -2.4928 0.9314
-17.0171 4.4654 -2.4928 0.9314
-17.1818 3.7782 -2.4926 0.9314
-17.2538 3.4323 -2.4926 0.9314
-17.3189 3.0850 -2.4925 0.9314
-17.3770 2.7365 -2.4925 0.9314
-17.5094 1.6851 -2.4924 0.9314
-17.5395 1.3331 -2.4923 0.9314
-17.5625 0.9805 -2.4923 0.9314
-17.5873 0.2744 -2.4922 0.9314
-17.5839 -0.4321 -2.4922 0.9314
-17.5716 -0.7852 -2.4922 0.9314
-17.4923 -1.8419 -2.4922 0.9314
-17.4518 -2.1928 -2.4922 0.9314
-17.4043 -2.5429 -2.4922 0.9314
-16.8772 -4.9570 -2.4923 0.9314
-16.7745 -5.2950 -2.4924 0.9314
-16.5489 -5.9646 -2.4925 0.9314
-16.2967 -6.6246 -2.4926 0.9314
-15.7140 -7.9119 -2.4928 0.9314
-15.5524 -8.2261 -2.4929 0.9314
-14.8439 -9.4489 -2.4932 0.9314
-14.6517 -9.7455 -2.4933 0.9314
-14.0398 -10.6113 -2.4936 0.9314
-13.5732 -11.1426 -2.4882 0.9315
-13.1767 -11.2677 -2.4565 0.9324
-12.6623 -11.2758 -2.4024 0.9338
-12.1697 -11.2835 -2.3514 0.9352
-11.4245 -11.9502 -2.3425 0.9354
-10.9365 -12.4006 -2.3427 0.9354
-10.1715 -13.0388 -2.3431 0.9354
-9.9082 -13.2412 -2.3432 0.9354
-9.0944 -13.8162 -2.3436 0.9354
-8.5333 -14.1720 -2.3439 0.9354
-8.2474 -14.3414 -2.3441 0.9353
-7.9582 -14.5050 -2.3442 0.9353
-7.6658 -14.6629 -2.3444 0.9353
-6.4660 -15.2348 -2.3450 0.9353
-4.5000 -11.9114 -1.8041 0.9499
-4.2597 -11.9990 -1.8041 0.9499
-5.2239 -15.7089 -2.3456 0.9353
-4.9077 -15.8117 -2.3458 0.9353
-4.2694 -15.9983 -2.3461 0.9353
-3.9475 -16.0820 -2.3463 0.9353
-3.6240 -16.1592 -2.3465 0.9353
-2.9726 -16.2941 -2.3468 0.9353
-2.6449 -16.3517 -2.3470 0.9353
-2.3162 -16.4028 -2.3472 0.9353
-1.6558 -16.4850 -2.3475 0.9353
-1.3245 -16.5162 -2.3477 0.9353
-0.9926 -16.5407 -2.3479 0.9352
0.0053 -16.5742 -2.3484 0.9352
0.3382 -16.5721 -2.3486 0.9352
1.0036 -16.5477 -2.3489 0.9352
1.3358 -16.5254 -2.3491 0.9352
1.4860 -12.2386 -1.7468 0.9514
2.6585 -16.3699 -2.3498 0.9352
2.9870 -16.3145 -2.3500 0.9352
3.3143 -16.2525 -2.3502 0.9352
2.9289 -13.0212 -1.8911 0.9475
4.2880 -16.0270 -2.3507 0.9352
4.0513 -13.0233 -1.9325 0.9464
4.4461 -12.4988 -1.8797 0.9478
4.7356 -12.5112 -1.8954 0.9474
5.1357 -12.7865 -1.9524 0.9459
5.8535 -13.0340 -2.0245 0.9439
7.4047 -14.8604 -2.3525 0.9351
9.9618 -13.2953 -2.3539 0.9351
10.4891 -12.8862 -2.3542 0.9351
10.7465 -12.6737 -2.3544 0.9351
10.9995 -12.4562 -2.3545 0.9351
11.2482 -12.2335 -2.3547 0.9351
11.9666 -11.5360 -2.3551 0.9351
12.1966 -11.2940 -2.3552 0.9351
13.1465 -11.2274 -2.4496 0.9325
13.6545 -11.1949 -2.5018 0.9312
14.3441 -10.3814 -2.5089 0.9310
14.5504 -10.0918 -2.5090 0.9310
14.9454 -9.5003 -2.5092 0.9310
15.1339 -9.1986 -2.5093 0.9310
15.4925 -8.5842 -2.5096 0.9309
15.8261 -7.9558 -2.5098 0.9309
15.9834 -7.6366 -2.5099 0.9309
16.2784 -6.9891 -2.5101 0.9309
16.5471 -6.3302 -2.5103 0.9309
16.6715 -5.9968 -2.5103 0.9309
16.9000 -5.3228 -2.5105 0.9309
17.0039 -4.9825 -2.5106 0.9309
17.2745 -3.9498 -2.5108 0.9309
17.3508 -3.6022 -2.5108 0.9309
17.4200 -3.2530 -2.5109 0.9309
17.4822 -2.9026 -2.5109 0.9309
17.5853 -2.1982 -2.5110 0.9309
17.6262 -1.8446 -2.5111 0.9309
17.6599 -1.4903 -2.5111 0.9309
17.7183 -0.4242 -2.5112 0.9309
17.7234 -0.0682 -2.5112 0.9309
17.6721 1.3544 -2.5113 0.9309
17.6413 1.7090 -2.5113 0.9309
17.5584 2.4161 -2.5113 0.9309
17.5063 2.7682 -2.5113 0.9309
17.3074 3.8174 -2.5112 0.9309
17.2271 4.1641 -2.5112 0.9309
17.0456 4.8525 -2.5111 0.9309
16.8365 5.5330 -2.5111 0.9309
16.6001 6.2044 -2.5110 0.9309
16.3368 6.8657 -2.5109 0.9309
16.0004 7.4940 -2.5034 0.9311
15.3706 7.5791 -2.4282 0.9331
14.7732 7.6571 -2.3577 0.9350
14.6160 7.9521 -2.3576 0.9350
14.1093 8.8170 -2.3574 0.9350
13.9289 9.0982 -2.3573 0.9350
13.7428 9.3758 -2.3572 0.9350
12.9440 10.4468 -2.3568 0.9350
12.5129 10.9573 -2.3566 0.9350
12.2898 11.2058 -2.3565 0.9350
-6.7117 12.5623 -2.3464 0.9439
-6.9622 12.4243 -2.3462 0.9439
-7.6964 11.9803 -2.3458 0.9439
-7.9350 11.8226 -2.3457 0.9439
-9.0777 10.9644 -2.3450 0.9439
-9.2956 10.7793 -2.3449 0.9439
-10.1286 9.9964 -2.3444 0.9439
-10.3268 9.7905 -2.3443 0.9439
-11.0771 8.9284 -2.3438 0.9440
-11.4257 8.4756 -2.3436 0.9440
-11.9138 7.7712 -2.3433 0.9440
-12.8155 7.6439 -2.4582 0.9413
-13.1343 7.4806 -2.4901 0.9406
-13.7175 6.4142 -2.4947 0.9405
-13.9631 5.8578 -2.4945 0.9405
-14.0775 5.5760 -2.4944 0.9405
-14.1862 5.2920 -2.4943 0.9405
-14.2893 5.0058 -2.4943 0.9405
-14.5636 4.1360 -2.4941 0.9405
-14.6434 3.8425 -2.4940 0.9405
-14.7853 3.2512 -2.4939 0.9405
-14.8473 2.9536 -2.4939 0.9405
-15.0674 1.4501 -2.4937 0.9405
-15.0933 1.1471 -2.4936 0.9405
-15.1131 0.8438 -2.4936 0.9405
-15.1361 -0.0679 -2.4935 0.9405
-15.1316 -0.3718 -2.4935 0.9405
-15.0528 -1.5850 -2.4935 0.9405
-15.0180 -1.8870 -2.4935 0.9405
-14.9302 -2.4886 -2.4935 0.9405
-14.8183 -3.0862 -2.4935 0.9405
-14.6060 -3.9730 -2.4936 0.9405
-14.5234 -4.2656 -2.4936 0.9405
-14.4350 -4.5565 -2.4937 0.9405
-14.2408 -5.1327 -2.4937 0.9405
-14.1351 -5.4177 -2.4938 0.9405
-14.0237 -5.7006 -2.4938 0.9405
-13.9066 -5.9812 -2.4939 0.9405
-13.5221 -6.8083 -2.4940 0.9405
-13.3829 -7.0787 -2.4941 0.9405
-13.2384 -7.3462 -2.4942 0.9405
-12.9334 -7.8723 -2.4943 0.9405
-12.6076 -8.3859 -2.4944 0.9405
-12.4370 -8.6376 -2.4945 0.9405
-12.2614 -8.8860 -2.4946 0.9405
-11.7053 -9.6092 -2.4949 0.9405
