ply
format ascii 1.0
element vertex 1590
property float32 x
property float32 y
property float32 z
property float32 I
end_header
4.5795 -13.8076 -2.0612 0.9429
5.2151 -13.8385 -2.0954 0.9420
5.8732 -13.8705 -2.1342 0.9410
6.5573 -13.9038 -2.1781 0.9398
7.3125 -14.0174 -2.2401 0.9381
8.5433 -14.2183 -2.3503 0.9352
9.3845 -13.6798 -2.3505 0.9352
9.6575 -13.4892 -2.3506 0.9352
10.1918 -13.0916 -2.3508 0.9352
10.4529 -12.8849 -2.3509 0.9352
10.7098 -12.6729 -2.3509 0.9352
11.2105 -12.2337 -2.3511 0.9352
12.6789 -12.2647 -2.4994 0.9312
12.9459 -12.0295 -2.5040 0.9311
13.6477 -11.2296 -2.5042 0.9311
14.3001 -10.3888 -2.5044 0.9311
14.9007 -9.5102 -2.5046 0.9311
15.2712 -8.9050 -2.5048 0.9311
15.4473 -8.5969 -2.5048 0.9311
15.6172 -8.2854 -2.5049 0.9311
15.7807 -7.9704 -2.5050 0.9311
15.9379 -7.6523 -2.5050 0.9311
16.2330 -7.0068 -2.5052 0.9311
16.3708 -6.6797 -2.5052 0.9311
16.5019 -6.3499 -2.5053 0.9311
16.8552 -5.3456 -2.5054 0.9311
16.9595 -5.0064 -2.5055 0.9311
17.1475 -4.3218 -2.5056 0.9311
17.2310 -3.9769 -2.5056 0.9310
17.3077 -3.6303 -2.5057 0.9310
17.3774 -3.2822 -2.5057 0.9310
17.4957 -2.5822 -2.5058 0.9310
17.5858 -1.8780 -2.5059 0.9310
17.6202 -1.5246 -2.5059 0.9310
17.6676 -0.8163 -2.5060 0.9310
17.6866 -0.1065 -2.5060 0.9310
17.6853 0.2485 -2.5061 0.9310
17.6770 0.6034 -2.5061 0.9310
17.6614 0.9581 -2.5061 0.9310
17.6388 1.3124 -2.5061 0.9310
17.6090 1.6662 -2.5062 0.9310
17.5282 2.3716 -2.5062 0.9310
17.4771 2.7230 -2.5062 0.9310
17.4191 3.0732 -2.5062 0.9310
17.3539 3.4222 -2.5062 0.9310
17.2818 3.7699 -2.5062 0.9310
17.1166 4.4605 -2.5062 0.9310
16.3885 6.0807 -2.4768 0.9318
15.3287 6.3985 -2.3535 0.9351
15.1971 6.7049 -2.3535 0.9351
14.9156 7.3093 -2.3535 0.9351
14.7658 7.6072 -2.3535 0.9351
14.6100 7.9020 -2.3535 0.9351
13.7571 7.8015 -2.2408 0.9381
13.3585 7.9340 -2.2014 0.9392
12.1406 8.2376 -2.0788 0.9425
11.7438 8.3174 -2.0390 0.9435
11.5896 8.5626 -2.0417 0.9434
11.6765 8.9946 -2.0884 0.9422
11.8629 9.9217 -2.1912 0.9394
11.8286 10.3036 -2.2227 0.9386
12.3014 11.1575 -2.3531 0.9351
11.8433 11.6418 -2.3530 0.9351
11.6070 11.8769 -2.3530 0.9351
11.3661 12.1073 -2.3530 0.9351
11.1206 12.3328 -2.3529 0.9351
10.8706 12.5532 -2.3529 0.9351
10.6162 12.7687 -2.3528 0.9351
10.3575 12.9789 -2.3528 0.9351
10.0947 13.1839 -2.3527 0.9351
9.0110 13.9606 -2.3543 0.9351
8.0943 13.7193 -2.2570 0.9377
7.7582 13.7741 -2.2399 0.9381
6.3723 13.7973 -2.1534 0.9404
6.1062 13.9501 -2.1576 0.9403
5.7519 13.8934 -2.1306 0.9411
5.0595 13.7591 -2.0771 0.9425
4.4456 13.7727 -2.0506 0.9432
3.5786 13.8984 -2.0335 0.9437
2.9864 13.8844 -2.0123 0.9442
2.4067 13.8775 -1.9956 0.9447
2.1284 13.9275 -1.9963 0.9447
1.8430 13.9267 -1.9905 0.9448
1.5629 13.9596 -1.9903 0.9448
0.7231 14.0890 -1.9989 0.9446
0.4415 14.1440 -2.0050 0.9444
-0.6939 14.1261 -2.0039 0.9445
-1.5554 14.1736 -2.0203 0.9440
-2.1432 14.2340 -2.0395 0.9435
-3.3433 14.2958 -2.0802 0.9424
-3.6171 14.1765 -2.0730 0.9426
-3.8818 14.0321 -2.0629 0.9429
-4.1724 13.9839 -2.0677 0.9427
-5.1328 14.0535 -2.1199 0.9413
-6.0181 13.8313 -2.1372 0.9409
-6.6332 13.7127 -2.1583 0.9403
-6.9486 13.6584 -2.1713 0.9400
-7.2836 13.6328 -2.1900 0.9395
-7.9462 13.5361 -2.2240 0.9386
-5.0871 8.2804 -1.3770 0.9615
-7.8233 10.2639 -1.8286 0.9492
-10.5641 12.7629 -2.3475 0.9353
-11.3119 12.1027 -2.3472 0.9353
-11.5521 11.8728 -2.3472 0.9353
-11.7878 11.6382 -2.3471 0.9353
-12.0186 11.3989 -2.3470 0.9353
-12.4656 10.9066 -2.3469 0.9353
-12.6816 10.6539 -2.3468 0.9353
-13.2986 9.8705 -2.3466 0.9353
-13.8673 9.0514 -2.3464 0.9353
-14.2186 8.4871 -2.3462 0.9353
-15.6415 6.5695 -2.4038 0.9338
-16.2482 6.4437 -2.4766 0.9318
-16.6349 5.8359 -2.4978 0.9313
-16.7483 5.5008 -2.4978 0.9313
-6.6113 -12.6169 -2.3466 0.9439
-6.0999 -12.8727 -2.3467 0.9439
-5.8404 -12.9929 -2.3467 0.9439
-5.5786 -13.1078 -2.3468 0.9439
-5.0483 -13.3218 -2.3469 0.9439
-4.7800 -13.4208 -2.3470 0.9439
-4.5098 -13.5144 -2.3470 0.9439
-4.2377 -13.6025 -2.3471 0.9439
-3.1334 -13.9001 -2.3474 0.9439
-2.4720 -13.4646 -2.2552 0.9460
-1.6469 -13.5047 -2.2412 0.9463
-0.2848 -13.5709 -2.2362 0.9465
0.2606 -13.5975 -2.2404 0.9464
0.5343 -13.6108 -2.2440 0.9463
0.8089 -13.6241 -2.2484 0.9462
1.3621 -13.6511 -2.2600 0.9459
1.9220 -13.6783 -2.2755 0.9455
2.2050 -13.6921 -2.2847 0.9453
2.4904 -13.7059 -2.2949 0.9451
3.9423 -13.7041 -2.3492 0.9438
4.4894 -13.5357 -2.3493 0.9438
4.7603 -13.4433 -2.3494 0.9438
5.8240 -13.0198 -2.3497 0.9438
6.0843 -12.9007 -2.3498 0.9438
6.3422 -12.7764 -2.3498 0.9438
6.5976 -12.6470 -2.3499 0.9438
7.3474 -12.2281 -2.3501 0.9438
7.5916 -12.0785 -2.3502 0.9438
7.8328 -11.9241 -2.3503 0.9438
8.3607 -11.6779 -2.3660 0.9434
8.7612 -11.7324 -2.4122 0.9424
9.7972 -11.5930 -2.5005 0.9403
10.4894 -10.9953 -2.5034 0.9403
11.3388 -10.1197 -2.5037 0.9402
11.5399 -9.8903 -2.5038 0.9402
11.7364 -9.6570 -2.5038 0.9402
11.9282 -9.4197 -2.5039 0.9402
12.2973 -8.9338 -2.5040 0.9402
12.6466 -8.4335 -2.5041 0.9402
12.8136 -8.1782 -2.5042 0.9402
12.9755 -7.9196 -2.5043 0.9402
13.2835 -7.3927 -2.5044 0.9402
13.4295 -7.1248 -2.5044 0.9402
13.5701 -6.8539 -2.5045 0.9402
13.8349 -6.3041 -2.5046 0.9402
13.9589 -6.0252 -2.5047 0.9402
14.8168 -3.4196 -2.5051 0.9402
14.8827 -3.1216 -2.5051 0.9402
14.9425 -2.8223 -2.5051 0.9402
15.0859 -1.9180 -2.5052 0.9402
15.1919 -0.7019 -2.5054 0.9402
15.2031 -0.3968 -2.5054 0.9402
15.1998 0.5188 -2.5055 0.9402
15.1413 1.4327 -2.5055 0.9402
15.0718 2.0393 -2.5055 0.9402
15.0279 2.3414 -2.5056 0.9402
14.9779 2.6426 -2.5056 0.9402
14.9219 2.9427 -2.5056 0.9402
14.8599 3.2416 -2.5056 0.9402
14.7919 3.5392 -2.5056 0.9402
14.7179 3.8354 -2.5056 0.9402
14.6379 4.1300 -2.5056 0.9402
14.3628 5.0035 -2.5056 0.9402
14.2595 5.2908 -2.5056 0.9402
13.9134 6.1385 -2.5052 0.9402
13.7651 6.4062 -2.5012 0.9403
13.5540 6.6421 -2.4866 0.9406
12.6266 6.8292 -2.3648 0.9435
12.1306 7.5382 -2.3528 0.9437
11.9768 7.7801 -2.3528 0.9437
11.4591 8.4662 -2.3471 0.9439
11.3137 8.7153 -2.3527 0.9437
11.1364 8.9405 -2.3527 0.9437
10.7683 9.3800 -2.3526 0.9438
10.5777 9.5941 -2.3526 0.9438
10.1838 10.0106 -2.3525 0.9438
9.9807 10.2129 -2.3525 0.9438
9.5625 10.6048 -2.3524 0.9438
9.1288 10.9797 -2.3523 0.9438
7.9820 11.8380 -2.3521 0.9438
7.5001 12.1483 -2.3520 0.9438
7.2546 12.2961 -2.3519 0.9438
7.0062 12.4390 -2.3519 0.9438
5.7239 13.0769 -2.3516 0.9438
5.1942 13.2954 -2.3515 0.9438
4.9262 13.3966 -2.3514 0.9438
4.3843 13.5828 -2.3513 0.9438
4.1107 13.6677 -2.3512 0.9438
3.8354 13.7471 -2.3512 0.9438
3.5587 13.8209 -2.3511 0.9438
3.0009 13.9519 -2.3510 0.9438
2.7200 14.0080 -2.3508 0.9438
1.2966 14.1422 -2.3395 0.9441
1.0130 14.1734 -2.3409 0.9440
0.4419 14.1577 -2.3335 0.9442
-0.4140 14.2649 -2.3510 0.9438
-1.5563 14.1814 -2.3502 0.9438
-2.1237 14.1042 -2.3497 0.9438
-2.4061 14.0571 -2.3494 0.9438
-3.2477 13.8866 -2.3494 0.9438
-3.5256 13.8182 -2.3493 0.9438
-4.0771 13.6647 -2.3492 0.9438
-4.8916 13.3933 -2.3489 0.9438
-5.6883 13.0733 -2.3487 0.9438
-5.9493 12.9561 -2.3486 0.9438
-6.2080 12.8337 -2.3486 0.9438
-6.4641 12.7061 -2.3485 0.9438
-5.7433 10.7497 -2.0078 0.9518
-5.7245 10.2156 -1.9291 0.9536
-5.0866 8.2795 -1.6008 0.9614
-6.7685 9.6610 -1.9433 0.9533
-6.5523 8.9641 -1.8292 0.9560
-6.8334 8.9652 -1.8570 0.9553
-7.1145 8.9553 -1.8842 0.9547
-7.4040 8.9451 -1.9129 0.9540
-7.7027 8.9345 -1.9433 0.9533
-9.5196 10.6041 -2.3476 0.9439
-9.7303 10.4105 -2.3475 0.9439
-9.9370 10.2128 -2.3474 0.9439
-10.1397 10.0110 -2.3474 0.9439
-10.3383 9.8052 -2.3473 0.9439
-10.5327 9.5955 -2.3472 0.9439
-10.9088 9.1645 -2.3471 0.9439
-11.4397 8.4907 -2.3469 0.9439
-11.6075 8.2592 -2.3469 0.9439
-11.7706 8.0244 -2.3468 0.9439
-11.9290 7.7863 -2.3468 0.9439
-12.0826 7.5451 -2.3467 0.9439
-12.4657 7.1054 -2.3638 0.9435
-12.9222 7.0258 -2.4231 0.9421
-13.4009 6.9413 -2.4862 0.9407
-13.9831 5.8729 -2.4985 0.9404
-14.0979 5.5909 -2.4984 0.9404
-14.2070 5.3067 -2.4984 0.9404
-5.1195 -11.3891 -2.3470 0.9504
-4.1899 -11.7641 -2.3472 0.9504
-3.9530 -11.8461 -2.3473 0.9504
-3.7146 -11.9233 -2.3474 0.9504
-3.2332 -12.0634 -2.3475 0.9504
-2.9905 -12.1261 -2.3475 0.9504
-2.5015 -12.2370 -2.3476 0.9504
-2.0085 -12.3281 -2.3478 0.9504
-0.7632 -12.4689 -2.3481 0.9504
-0.5128 -12.4821 -2.3481 0.9504
1.2406 -12.4333 -2.3486 0.9504
1.4899 -12.4062 -2.3486 0.9504
2.2340 -12.2951 -2.3488 0.9504
2.4804 -12.2481 -2.3489 0.9504
2.7259 -12.1962 -2.3490 0.9504
2.9702 -12.1393 -2.3490 0.9504
3.2133 -12.0776 -2.3491 0.9504
4.1722 -11.7823 -2.3494 0.9504
4.4079 -11.6965 -2.3494 0.9504
4.8741 -11.5108 -2.3496 0.9504
5.1043 -11.4110 -2.3496 0.9504
5.3349 -11.3119 -2.3508 0.9504
5.6245 -11.3306 -2.3777 0.9498
5.9237 -11.3551 -2.4073 0.9492
6.2332 -11.3851 -2.4397 0.9485
7.0739 -11.2548 -2.4986 0.9473
7.5321 -10.9796 -2.5027 0.9473
7.9671 -10.6690 -2.5028 0.9472
8.1799 -10.5073 -2.5029 0.9472
8.5954 -10.1710 -2.5030 0.9472
8.7981 -9.9967 -2.5031 0.9472
9.1927 -9.6360 -2.5032 0.9472
10.1131 -8.6675 -2.5035 0.9472
10.2853 -8.4630 -2.5035 0.9472
10.9319 -7.6115 -2.5038 0.9472
11.0828 -7.3907 -2.5038 0.9472
11.3709 -6.9402 -2.5039 0.9472
11.5082 -6.7107 -2.5040 0.9472
11.6408 -6.4785 -2.5040 0.9472
11.8919 -6.0063 -2.5041 0.9472
12.0103 -5.7665 -2.5042 0.9472
12.4350 -4.7850 -2.5044 0.9472
12.5288 -4.5345 -2.5044 0.9472
12.8529 -3.5153 -2.5046 0.9472
12.9210 -3.2566 -2.5046 0.9472
13.0417 -2.7355 -2.5047 0.9472
13.2198 -1.6807 -2.5048 0.9472
13.2768 -1.1488 -2.5048 0.9472
13.2974 -0.8821 -2.5049 0.9472
13.3125 -0.6151 -2.5049 0.9472
13.3267 -0.0803 -2.5049 0.9472
13.3257 0.1872 -2.5050 0.9472
13.3077 0.7219 -2.5050 0.9472
13.2906 0.9889 -2.5050 0.9472
13.2681 1.2554 -2.5050 0.9472
13.1249 2.3156 -2.5051 0.9472
13.0758 2.5786 -2.5051 0.9472
12.8270 3.6191 -2.5051 0.9472
12.6714 4.1310 -2.5051 0.9472
12.4953 4.6362 -2.5051 0.9472
12.3997 4.8860 -2.5051 0.9472
12.1936 5.3797 -2.5051 0.9472
11.8475 6.1038 -2.5050 0.9472
10.5310 7.1455 -2.3920 0.9495
10.2129 7.2332 -2.3523 0.9503
9.9141 7.6371 -2.3523 0.9503
9.7588 7.8345 -2.3522 0.9503
9.4362 8.2196 -2.3522 0.9503
9.0985 8.5916 -2.3521 0.9503
8.9241 8.7723 -2.3521 0.9503
8.3797 9.2931 -2.3520 0.9503
7.9997 9.6216 -2.3519 0.9503
7.8048 9.7801 -2.3519 0.9503
7.6068 9.9346 -2.3518 0.9503
7.4058 10.0851 -2.3518 0.9503
6.9948 10.3739 -2.3517 0.9504
6.7851 10.5120 -2.3517 0.9504
6.3574 10.7755 -2.3516 0.9504
5.6971 11.1379 -2.3515 0.9504
5.0161 11.4598 -2.3513 0.9504
4.5520 11.6514 -2.3512 0.9504
4.0805 11.8241 -2.3511 0.9504
3.3612 12.0475 -2.3509 0.9504
3.1187 12.1122 -2.3509 0.9504
2.6299 12.2270 -2.3508 0.9504
1.3914 12.4274 -2.3505 0.9504
0.8915 12.4726 -2.3503 0.9504
0.6409 12.4877 -2.3503 0.9504
0.1392 12.5027 -2.3502 0.9504
-0.3627 12.4975 -2.3500 0.9504
-0.6134 12.4873 -2.3500 0.9504
-1.1141 12.4520 -2.3498 0.9504
-1.3637 12.4268 -2.3498 0.9504
-1.6128 12.3966 -2.3497 0.9504
-2.1089 12.3212 -2.3496 0.9504
-2.3558 12.2760 -2.3495 0.9504
-2.8464 12.1709 -2.3494 0.9504
-3.5734 11.9765 -2.3492 0.9504
-4.5220 11.6500 -2.3489 0.9504
-4.7548 11.5566 -2.3488 0.9504
-5.4412 11.2485 -2.3486 0.9504
-5.6351 10.5473 -2.2477 0.9525
-5.0472 8.2155 -1.8123 0.9615
-6.2943 8.9842 -2.0619 0.9563
-7.1145 8.9553 -2.1498 0.9545
-8.3442 9.2948 -2.3478 0.9504
-8.8878 8.7751 -2.3476 0.9504
-9.0620 8.5947 -2.3475 0.9504
-9.2324 8.4109 -2.3475 0.9504
-9.3992 8.2237 -2.3474 0.9504
-9.7212 7.8394 -2.3473 0.9504
-10.3687 7.3778 -2.3919 0.9495
-10.7393 7.3213 -2.4430 0.9485
-11.4141 6.8131 -2.4985 0.9473
-11.6810 6.3510 -2.4991 0.9473
-11.8059 6.1151 -2.4991 0.9473
-11.9260 5.8768 -2.4990 0.9473
-12.1518 5.3932 -2.4989 0.9473
-12.2574 5.1481 -2.4989 0.9473
-12.6300 4.1481 -2.4987 0.9473
-12.7859 3.6378 -2.4986 0.9473
-5.0631 -10.6847 -2.4993 0.9528
-4.6237 -10.8642 -2.4958 0.9529
-4.4020 -10.9479 -2.4942 0.9529
-4.1788 -11.0275 -2.4927 0.9529
-3.9378 -11.0563 -2.4809 0.9531
-3.6864 -11.0471 -2.4617 0.9535
-3.4387 -11.0379 -2.4438 0.9538
-2.9554 -11.0269 -2.4131 0.9544
-2.7181 -11.0218 -2.3996 0.9546
-1.3447 -11.0264 -2.3480 0.9556
-0.6787 -11.0881 -2.3482 0.9556
-0.4560 -11.0997 -2.3482 0.9556
-0.0102 -11.1096 -2.3484 0.9556
0.2128 -11.1079 -2.3484 0.9556
0.4358 -11.1016 -2.3485 0.9556
1.1032 -11.0561 -2.3486 0.9556
1.5518 -11.0444 -2.3575 0.9554
1.7799 -11.0527 -2.3664 0.9553
2.0098 -11.0608 -2.3763 0.9551
2.2416 -11.0689 -2.3872 0.9549
2.4757 -11.0769 -2.3992 0.9547
2.9536 -11.1014 -2.4282 0.9541
3.4438 -11.1257 -2.4618 0.9535
3.9394 -11.1249 -2.4947 0.9529
4.6111 -10.8898 -2.4997 0.9528
5.0492 -10.7059 -2.5021 0.9528
5.4750 -10.4951 -2.5022 0.9528
5.6847 -10.3834 -2.5022 0.9528
6.4998 -9.8949 -2.5025 0.9528
6.8921 -9.6265 -2.5026 0.9527
7.0841 -9.4865 -2.5027 0.9527
7.2732 -9.3426 -2.5027 0.9527
8.1736 -8.5678 -2.5030 0.9527
8.3441 -8.4022 -2.5031 0.9527
8.5113 -8.2332 -2.5031 0.9527
8.6750 -8.0609 -2.5032 0.9527
9.4400 -7.1519 -2.5034 0.9527
9.7198 -6.7675 -2.5035 0.9527
9.8539 -6.5712 -2.5036 0.9527
9.9840 -6.3722 -2.5036 0.9527
10.2321 -5.9666 -2.5037 0.9527
10.3500 -5.7601 -2.5038 0.9527
10.4637 -5.5513 -2.5038 0.9527
10.5732 -5.3403 -2.5039 0.9527
10.7794 -4.9118 -2.5039 0.9527
10.9682 -4.4753 -2.5040 0.9527
11.2181 -3.8073 -2.5041 0.9527
11.2925 -3.5814 -2.5042 0.9527
11.4274 -3.1254 -2.5042 0.9527
11.5952 -2.4321 -2.5043 0.9527
11.7812 -1.2581 -2.5045 0.9527
11.8359 -0.5468 -2.5045 0.9527
11.8476 0.1665 -2.5046 0.9527
11.8163 0.8792 -2.5046 0.9527
11.7963 1.1162 -2.5046 0.9527
11.7716 1.3527 -2.5047 0.9527
11.7421 1.5888 -2.5047 0.9527
11.7079 1.8241 -2.5047 0.9527
11.6253 2.2926 -2.5047 0.9527
11.5770 2.5255 -2.5047 0.9527
11.4663 2.9881 -2.5047 0.9527
11.4041 3.2176 -2.5047 0.9527
11.3372 3.4459 -2.5047 0.9527
11.2657 3.6727 -2.5047 0.9527
11.1897 3.8981 -2.5047 0.9527
11.1092 4.1219 -2.5047 0.9527
11.0242 4.3441 -2.5047 0.9527
10.7427 4.9996 -2.5047 0.9527
10.4222 5.6370 -2.5046 0.9527
10.3069 5.8450 -2.5046 0.9527
10.0639 6.2539 -2.5046 0.9527
9.9363 6.4546 -2.5046 0.9527
9.8047 6.6527 -2.5046 0.9527
9.5157 7.0304 -2.5009 0.9528
9.1158 7.3183 -2.4710 0.9533
8.5040 7.4076 -2.3839 0.9549
8.2412 7.4748 -2.3518 0.9555
7.9343 7.7994 -2.3518 0.9555
7.7761 7.9569 -2.3517 0.9555
7.6147 8.1113 -2.3517 0.9555
7.4503 8.2624 -2.3517 0.9555
7.2828 8.4102 -2.3516 0.9555
7.1125 8.5546 -2.3516 0.9555
6.9392 8.6955 -2.3516 0.9555
6.7632 8.8329 -2.3515 0.9555
6.0326 9.3463 -2.3514 0.9555
5.8437 9.4653 -2.3514 0.9555
5.6525 9.5805 -2.3513 0.9555
5.4589 9.6919 -2.3513 0.9555
5.0654 9.9029 -2.3512 0.9555
4.6637 10.0978 -2.3511 0.9555
3.8384 10.4385 -2.3509 0.9555
3.6281 10.5132 -2.3509 0.9555
3.4163 10.5837 -2.3508 0.9555
2.5562 10.8227 -2.3506 0.9556
2.3384 10.8716 -2.3506 0.9556
1.6797 10.9919 -2.3504 0.9556
1.2372 11.0499 -2.3503 0.9556
0.7926 11.0902 -2.3502 0.9556
0.1238 11.1170 -2.3500 0.9556
-0.0994 11.1169 -2.3500 0.9556
-0.5454 11.1035 -2.3499 0.9556
-0.7682 11.0900 -2.3498 0.9556
-1.4341 11.0229 -2.3496 0.9556
-2.0947 10.9158 -2.3495 0.9556
-2.5310 10.8224 -2.3494 0.9556
-3.8124 10.4383 -2.3490 0.9556
-4.0210 10.3594 -2.3489 0.9556
-4.2280 10.2764 -2.3489 0.9556
-4.4333 10.1892 -2.3488 0.9556
-5.0381 9.9032 -2.3487 0.9556
-5.2358 9.7998 -2.3486 0.9556
-5.4313 9.6925 -2.3485 0.9556
-5.9800 8.9110 -2.2684 0.9571
-6.7341 8.8349 -2.3481 0.9556
-6.9098 8.6977 -2.3481 0.9556
-7.2530 8.4130 -2.3480 0.9556
-7.4203 8.2655 -2.3479 0.9556
-7.5845 8.1147 -2.3479 0.9556
-7.9037 7.8035 -2.3478 0.9556
-8.3353 7.5936 -2.3835 0.9549
-8.6391 7.5587 -2.4264 0.9542
-8.9495 7.5185 -2.4707 0.9533
-9.4932 7.0460 -2.4990 0.9528
-9.6353 6.8559 -2.4997 0.9528
-9.7707 6.6610 -2.4996 0.9528
-9.9023 6.4634 -2.4996 0.9528
-10.0298 6.2632 -2.4995 0.9528
-10.1533 6.0605 -2.4995 0.9528
-10.2727 5.8554 -2.4994 0.9528
-10.9007 4.5783 -2.4992 0.9528
-11.0753 4.1370 -2.4991 0.9528
-11.3038 3.4628 -2.4990 0.9528
-4.7464 -9.5180 -2.4997 0.9572
-4.5545 -9.6115 -2.4997 0.9572
-4.3608 -9.7012 -2.4998 0.9572
-4.1652 -9.7869 -2.4998 0.9572
-3.9680 -9.8687 -2.4998 0.9572
-3.7692 -9.9466 -2.4999 0.9572
-3.3671 -10.0902 -2.5000 0.9572
-2.9595 -10.2176 -2.5001 0.9572
-2.7539 -10.2751 -2.5001 0.9572
-1.9211 -10.4637 -2.5003 0.9572
-1.4996 -10.5326 -2.5004 0.9572
-0.8626 -10.5992 -2.4993 0.9572
-0.4365 -10.6242 -2.4990 0.9572
-0.0097 -10.6331 -2.4990 0.9572
0.2037 -10.6317 -2.4991 0.9572
0.4171 -10.6264 -2.4994 0.9572
0.6304 -10.6172 -2.4997 0.9572
0.8435 -10.6040 -2.5000 0.9572
1.0563 -10.5867 -2.5005 0.9572
1.2689 -10.5655 -2.5010 0.9572
2.1125 -10.4312 -2.5013 0.9572
2.3215 -10.3869 -2.5014 0.9572
2.5296 -10.3385 -2.5015 0.9572
2.7366 -10.2858 -2.5015 0.9572
2.9426 -10.2291 -2.5016 0.9572
3.1474 -10.1682 -2.5016 0.9572
3.3509 -10.1032 -2.5017 0.9572
3.7539 -9.9610 -2.5018 0.9572
3.9531 -9.8839 -2.5018 0.9572
4.1508 -9.8028 -2.5019 0.9572
4.5411 -9.6287 -2.5020 0.9572
4.7336 -9.5358 -2.5021 0.9572
5.1127 -9.3386 -2.5022 0.9572
5.4836 -9.1262 -2.5023 0.9572
5.6658 -9.0145 -2.5023 0.9572
5.8458 -8.8992 -2.5024 0.9572
6.3711 -8.5318 -2.5026 0.9572
6.5412 -8.4023 -2.5026 0.9572
7.0355 -7.9939 -2.5028 0.9572
7.1947 -7.8513 -2.5028 0.9572
7.6546 -7.4045 -2.5030 0.9572
7.8018 -7.2495 -2.5030 0.9572
8.0868 -6.9308 -2.5031 0.9572
8.3588 -6.6009 -2.5032 0.9572
8.4897 -6.4319 -2.5032 0.9572
8.6173 -6.2603 -2.5033 0.9572
8.9789 -5.7307 -2.5034 0.9572
9.6033 -4.6108 -2.5037 0.9572
9.7809 -4.2218 -2.5037 0.9572
9.8638 -4.0247 -2.5038 0.9572
9.9427 -3.8260 -2.5038 0.9572
10.0177 -3.6257 -2.5038 0.9572
10.2181 -3.0164 -2.5039 0.9572
10.3312 -2.6039 -2.5040 0.9572
10.3815 -2.3960 -2.5040 0.9572
10.4695 -1.9774 -2.5041 0.9572
10.5406 -1.5557 -2.5041 0.9572
10.5699 -1.3438 -2.5042 0.9572
10.5948 -1.1314 -2.5042 0.9572
10.6154 -0.9185 -2.5042 0.9572
10.6318 -0.7053 -2.5042 0.9572
10.6517 -0.2780 -2.5043 0.9572
10.6552 -0.0642 -2.5043 0.9572
10.6493 0.3635 -2.5043 0.9572
10.6400 0.5772 -2.5043 0.9572
10.6263 0.7907 -2.5043 0.9572
10.6083 1.0038 -2.5043 0.9572
10.5861 1.2165 -2.5043 0.9572
10.5596 1.4287 -2.5044 0.9572
10.5288 1.6404 -2.5044 0.9572
10.4545 2.0617 -2.5044 0.9572
10.4111 2.2711 -2.5044 0.9572
10.2555 2.8936 -2.5044 0.9572
10.1954 3.0988 -2.5044 0.9572
10.1311 3.3028 -2.5044 0.9572
9.7491 4.3013 -2.5044 0.9572
9.6608 4.4961 -2.5044 0.9572
9.5686 4.6891 -2.5043 0.9572
9.4725 4.8802 -2.5043 0.9572
9.3726 5.0693 -2.5043 0.9572
9.2689 5.2563 -2.5043 0.9572
8.9356 5.8046 -2.5043 0.9572
8.8173 5.9827 -2.5043 0.9572
8.1731 6.8358 -2.5042 0.9572
7.8843 7.1512 -2.5017 0.9572
7.0871 7.5493 -2.4336 0.9583
6.5912 7.6115 -2.3664 0.9595
6.0822 7.9435 -2.3513 0.9597
5.9215 8.0638 -2.3513 0.9597
5.7584 8.1810 -2.3512 0.9597
5.5929 8.2948 -2.3512 0.9597
5.4252 8.4052 -2.3512 0.9597
5.2553 8.5123 -2.3511 0.9597
5.0833 8.6160 -2.3511 0.9597
4.7333 8.8128 -2.3510 0.9597
4.5554 8.9058 -2.3510 0.9597
4.1941 9.0812 -2.3509 0.9597
3.6398 9.3167 -2.3508 0.9597
3.4520 9.3877 -2.3508 0.9597
3.2628 9.4549 -2.3507 0.9597
3.0724 9.5183 -2.3507 0.9597
2.6878 9.6336 -2.3506 0.9597
2.1030 9.7773 -2.3504 0.9597
1.5107 9.8856 -2.3503 0.9597
0.9130 9.9580 -2.3502 0.9597
0.7129 9.9741 -2.3501 0.9597
0.3120 9.9942 -2.3500 0.9597
-0.2900 9.9942 -2.3499 0.9597
-0.4906 9.9862 -2.3498 0.9597
-0.6909 9.9741 -2.3498 0.9598
-0.8909 9.9580 -2.3497 0.9598
-1.0906 9.9379 -2.3496 0.9598
-1.2898 9.9138 -2.3496 0.9598
-1.8840 9.8175 -2.3494 0.9598
-2.2764 9.7335 -2.3493 0.9598
-2.4712 9.6857 -2.3493 0.9598
-2.8579 9.5783 -2.3492 0.9598
-3.0495 9.5188 -2.3491 0.9598
-3.2398 9.4554 -2.3491 0.9598
-3.8028 9.2427 -2.3489 0.9598
-3.9874 9.1643 -2.3489 0.9598
-4.1705 9.0822 -2.3488 0.9598
-4.3518 8.9965 -2.3488 0.9598
-4.9424 8.4192 -2.2945 0.9607
-5.0358 8.1970 -2.2610 0.9612
-5.4005 8.4073 -2.3484 0.9598
-5.5680 8.2971 -2.3484 0.9598
-5.7333 8.1835 -2.3483 0.9598
-5.8963 8.0666 -2.3483 0.9598
-6.0569 7.9464 -2.3482 0.9598
-6.4168 7.7523 -2.3651 0.9595
-7.5565 7.4606 -2.4957 0.9573
-7.7115 7.3139 -2.4979 0.9573
-8.1447 6.8424 -2.5000 0.9572
-8.4124 6.5098 -2.4999 0.9572
-8.5412 6.3395 -2.4999 0.9572
-8.6666 6.1667 -2.4999 0.9572
-8.7885 5.9914 -2.4998 0.9572
-8.9068 5.8137 -2.4998 0.9572
-9.2401 5.2669 -2.4996 0.9572
-9.3438 5.0802 -2.4996 0.9572
-9.5399 4.7010 -2.4995 0.9572
-9.6322 4.5085 -2.4995 0.9572
-9.7206 4.3142 -2.4995 0.9572
-9.8051 4.1181 -2.4994 0.9572
-9.9622 3.7212 -2.4993 0.9572
-10.1032 3.3183 -2.4993 0.9572
-10.2280 2.9101 -2.4992 0.9572
-4.1345 -8.7251 -2.4999 0.9609
-3.9586 -8.8065 -2.4999 0.9609
-3.7811 -8.8843 -2.5000 0.9609
-3.4216 -9.0292 -2.5000 0.9609
-3.2397 -9.0962 -2.5001 0.9609
-2.4999 -9.3274 -2.5003 0.9609
-2.1236 -9.4205 -2.5003 0.9609
-1.7438 -9.4985 -2.5004 0.9609
-1.1691 -9.5868 -2.5006 0.9609
-0.7834 -9.6263 -2.5007 0.9609
-0.3965 -9.6504 -2.5008 0.9609
-0.2027 -9.6566 -2.5008 0.9609
0.1851 -9.6573 -2.5009 0.9609
0.3789 -9.6518 -2.5010 0.9609
0.5725 -9.6425 -2.5010 0.9609
1.7271 -9.5050 -2.5013 0.9609
2.1073 -9.4284 -2.5014 0.9609
2.6710 -9.2850 -2.5016 0.9609
3.0417 -9.1708 -2.5017 0.9609
3.4074 -9.0417 -2.5018 0.9609
3.5883 -8.9716 -2.5018 0.9609
3.7677 -8.8980 -2.5019 0.9609
3.9456 -8.8207 -2.5019 0.9609
4.2967 -8.6556 -2.5020 0.9609
4.8101 -8.3818 -2.5022 0.9609
4.9774 -8.2838 -2.5022 0.9609
5.4673 -7.9697 -2.5024 0.9609
5.9373 -7.6266 -2.5025 0.9609
6.3859 -7.2559 -2.5027 0.9608
6.6722 -6.9940 -2.5027 0.9608
6.8114 -6.8588 -2.5028 0.9608
7.5869 -5.9914 -2.5031 0.9608
8.3521 -4.8703 -2.5033 0.9608
8.5411 -4.5313 -2.5034 0.9608
8.6305 -4.3591 -2.5034 0.9608
8.9528 -3.6530 -2.5036 0.9608
9.0924 -3.2908 -2.5036 0.9608
9.2743 -2.7377 -2.5037 0.9608
9.3769 -2.3634 -2.5038 0.9608
9.5024 -1.7948 -2.5038 0.9608
9.6161 -1.0269 -2.5039 0.9608
9.6497 -0.6401 -2.5040 0.9608
9.6607 -0.4463 -2.5040 0.9608
9.6678 -0.2523 -2.5040 0.9608
9.6709 -0.0583 -2.5040 0.9608
9.6702 0.1359 -2.5040 0.9608
9.6446 0.7176 -2.5041 0.9608
9.6081 1.1041 -2.5041 0.9608
9.5841 1.2968 -2.5041 0.9608
9.5562 1.4889 -2.5041 0.9608
9.4493 2.0613 -2.5041 0.9608
9.4060 2.2505 -2.5041 0.9608
9.3590 2.4389 -2.5041 0.9608
9.3081 2.6263 -2.5041 0.9608
9.2535 2.8126 -2.5041 0.9608
9.0675 3.3643 -2.5041 0.9608
8.9251 3.7256 -2.5041 0.9608
8.6847 4.2559 -2.5041 0.9608
8.3152 4.9387 -2.5041 0.9608
8.1102 5.2684 -2.5040 0.9608
8.0028 5.4300 -2.5040 0.9608
7.8921 5.5895 -2.5040 0.9608
7.7783 5.7468 -2.5040 0.9608
7.5413 6.0542 -2.5039 0.9608
7.4182 6.2043 -2.5039 0.9608
7.1631 6.4970 -2.5039 0.9608
6.8964 6.7791 -2.5038 0.9608
6.4743 7.1800 -2.5032 0.9608
6.1716 7.4229 -2.4995 0.9609
5.8566 7.6488 -2.4943 0.9610
5.6340 7.6724 -2.4646 0.9614
5.4165 7.6953 -2.4365 0.9619
5.2037 7.7176 -2.4100 0.9623
4.9953 7.7391 -2.3849 0.9627
4.7887 7.7566 -2.3602 0.9630
4.4559 7.9111 -2.3509 0.9632
4.1347 8.0834 -2.3508 0.9632
3.6406 8.3172 -2.3507 0.9632
3.4728 8.3884 -2.3507 0.9632
3.1333 8.5208 -2.3506 0.9632
2.9616 8.5818 -2.3506 0.9632
2.6147 8.6935 -2.3505 0.9632
2.2636 8.7911 -2.3504 0.9632
1.7303 8.9109 -2.3503 0.9632
1.1908 8.9984 -2.3502 0.9632
1.0099 9.0203 -2.3501 0.9632
0.2832 9.0716 -2.3499 0.9632
0.1010 9.0753 -2.3499 0.9632
-0.6271 9.0534 -2.3497 0.9632
-0.8087 9.0388 -2.3497 0.9632
-1.3511 8.9732 -2.3495 0.9632
-1.8886 8.8751 -2.3494 0.9632
-2.2432 8.7918 -2.3493 0.9632
-2.4191 8.7448 -2.3492 0.9632
-2.5941 8.6943 -2.3492 0.9632
-2.7680 8.6403 -2.3491 0.9632
-2.9408 8.5829 -2.3491 0.9632
-3.2828 8.4575 -2.3490 0.9632
-3.6195 8.3187 -2.3489 0.9632
-3.7856 8.2442 -2.3488 0.9632
-3.9503 8.1663 -2.3488 0.9632
-4.1133 8.0853 -2.3487 0.9632
-4.2747 8.0009 -2.3487 0.9632
-5.0288 7.8287 -2.4091 0.9623
-5.2430 7.8128 -2.4361 0.9619
-5.6824 7.7739 -2.4932 0.9610
-5.8411 7.6633 -2.4948 0.9610
-5.9978 7.5497 -2.4965 0.9609
-6.4515 7.1864 -2.5005 0.9609
-6.7345 6.9215 -2.5004 0.9609
-7.0066 6.6453 -2.5003 0.9609
-7.1385 6.5033 -2.5003 0.9609
-7.2674 6.3585 -2.5002 0.9609
-7.3935 6.2113 -2.5002 0.9609
-7.8673 5.5979 -2.5000 0.9609
-7.9780 5.4388 -2.5000 0.9609
-8.0854 5.2775 -2.4999 0.9609
-8.1896 5.1141 -2.4999 0.9609
-8.3879 4.7811 -2.4998 0.9609
-8.4821 4.6117 -2.4998 0.9609
-8.6601 4.2674 -2.4997 0.9609
-8.8242 3.9163 -2.4996 0.9609
-9.0435 3.3780 -2.4996 0.9609
-9.1716 3.0123 -2.4995 0.9609
-9.2301 2.8276 -2.4995 0.9609
-9.2849 2.6417 -2.4994 0.9609
-4.0988 -7.8221 -2.5000 0.9640
-3.7816 -7.9805 -2.5000 0.9640
-3.6207 -8.0549 -2.5001 0.9640
-3.4584 -8.1261 -2.5001 0.9640
-2.9632 -8.3198 -2.5002 0.9640
-2.7957 -8.3778 -2.5003 0.9639
-2.6270 -8.4323 -2.5003 0.9639
-2.1148 -8.5755 -2.5004 0.9639
-1.5950 -8.6877 -2.5005 0.9639
-1.2451 -8.7450 -2.5006 0.9639
-0.7166 -8.8045 -2.5007 0.9639
-0.5397 -8.8173 -2.5008 0.9639
-0.3626 -8.8265 -2.5008 0.9639
0.1693 -8.8328 -2.5010 0.9639
0.8772 -8.7914 -2.5011 0.9639
1.4048 -8.7232 -2.5013 0.9639
1.5796 -8.6934 -2.5013 0.9639
1.7538 -8.6601 -2.5014 0.9639
2.4430 -8.4921 -2.5016 0.9639
2.6129 -8.4416 -2.5016 0.9639
2.7819 -8.3876 -2.5017 0.9639
2.9498 -8.3302 -2.5017 0.9639
3.6087 -8.0674 -2.5019 0.9639
3.7699 -7.9935 -2.5019 0.9639
4.3992 -7.6659 -2.5021 0.9639
4.5523 -7.5762 -2.5022 0.9639
4.8529 -7.3876 -2.5023 0.9639
5.0003 -7.2889 -2.5023 0.9639
5.2889 -7.0826 -2.5024 0.9639
5.4301 -6.9751 -2.5024 0.9639
5.5692 -6.8649 -2.5025 0.9639
5.7059 -6.7518 -2.5025 0.9639
6.1022 -6.3965 -2.5026 0.9639
6.2295 -6.2728 -2.5027 0.9639
6.3542 -6.1466 -2.5027 0.9639
6.7129 -5.7534 -2.5028 0.9639
6.9387 -5.4795 -2.5029 0.9639
7.2562 -5.0522 -2.5030 0.9639
7.3562 -4.9056 -2.5031 0.9639
7.6385 -4.4542 -2.5032 0.9639
7.7264 -4.3000 -2.5032 0.9639
7.9715 -3.8274 -2.5033 0.9639
8.0468 -3.6666 -2.5033 0.9639
8.1189 -3.5044 -2.5034 0.9639
8.6173 -1.9888 -2.5036 0.9639
8.6903 -1.6414 -2.5037 0.9639
8.7216 -1.4666 -2.5037 0.9639
8.7735 -1.1154 -2.5037 0.9639
8.7942 -0.9391 -2.5037 0.9639
8.8249 -0.5854 -2.5038 0.9639
8.8350 -0.4082 -2.5038 0.9639
8.8414 -0.2308 -2.5038 0.9639
8.8316 0.4791 -2.5038 0.9639
8.8054 0.8332 -2.5039 0.9639
8.7869 1.0098 -2.5039 0.9639
8.7103 1.5368 -2.5039 0.9639
8.6416 1.8851 -2.5039 0.9639
8.6020 2.0582 -2.5039 0.9639
8.4093 2.7415 -2.5039 0.9639
8.2924 3.0768 -2.5039 0.9639
8.1622 3.4071 -2.5039 0.9639
8.0922 3.5702 -2.5039 0.9639
8.0189 3.7319 -2.5039 0.9639
7.9423 3.8921 -2.5039 0.9639
7.8626 4.0507 -2.5039 0.9639
7.5122 4.6682 -2.5038 0.9639
7.2176 5.1118 -2.5038 0.9639
7.1135 5.2556 -2.5038 0.9639
6.8967 5.5368 -2.5037 0.9639
6.6688 5.8091 -2.5037 0.9639
6.4302 6.0719 -2.5037 0.9639
6.1812 6.3250 -2.5036 0.9639
5.7892 6.6853 -2.5035 0.9639
5.3762 7.0214 -2.5035 0.9639
5.0900 7.2314 -2.5034 0.9639
4.6384 7.5130 -2.4995 0.9640
4.4842 7.6004 -2.4982 0.9640
4.3285 7.6849 -2.4969 0.9640
4.1713 7.7664 -2.4957 0.9640
3.9823 7.7854 -2.4756 0.9643
3.6097 7.8158 -2.4372 0.9648
3.0673 7.8513 -2.3863 0.9656
2.7167 7.8723 -2.3576 0.9660
2.5504 7.9012 -2.3504 0.9661
2.0702 8.0400 -2.3503 0.9661
1.7457 8.1164 -2.3502 0.9661
1.4185 8.1796 -2.3502 0.9661
1.2541 8.2063 -2.3501 0.9661
1.0891 8.2297 -2.3501 0.9661
0.7579 8.2665 -2.3500 0.9661
0.5918 8.2799 -2.3500 0.9661
0.4255 8.2899 -2.3499 0.9661
0.2590 8.2967 -2.3499 0.9661
-0.2408 8.2968 -2.3497 0.9661
-1.0708 8.2301 -2.3495 0.9661
-1.4002 8.1802 -2.3494 0.9661
-1.5640 8.1503 -2.3494 0.9661
-1.7273 8.1171 -2.3494 0.9661
-2.2125 7.9980 -2.3492 0.9661
-2.8918 7.9177 -2.3863 0.9656
-3.0699 7.9091 -2.4018 0.9653
-3.2504 7.9003 -2.4184 0.9651
-3.9943 7.8513 -2.4937 0.9640
-4.1530 7.7732 -2.4949 0.9640
-4.4660 7.6077 -2.4974 0.9640
-4.6202 7.5204 -2.4987 0.9640
-4.7728 7.4302 -2.5000 0.9640
-4.9227 7.3355 -2.5009 0.9639
-5.2130 7.1317 -2.5008 0.9639
-5.3550 7.0255 -2.5008 0.9639
-6.0314 6.4531 -2.5005 0.9639
-6.1596 6.3306 -2.5005 0.9639
-6.6471 5.8158 -2.5003 0.9639
-6.8750 5.5442 -2.5003 0.9639
-7.0917 5.2637 -2.5002 0.9640
-7.3953 4.8271 -2.5001 0.9640
-7.4906 4.6776 -2.5000 0.9640
-7.5829 4.5262 -2.5000 0.9640
-7.6721 4.3731 -2.5000 0.9640
-7.7582 4.2182 -2.4999 0.9640
-7.8412 4.0615 -2.4999 0.9640
-7.9211 3.9033 -2.4999 0.9640
-8.1413 3.4194 -2.4998 0.9640
-8.2718 3.0898 -2.4997 0.9640
-8.4425 2.5863 -2.4996 0.9640
-8.4926 2.4163 -2.4996 0.9640
-3.6274 -7.2741 -2.5001 0.9666
-3.4808 -7.3455 -2.5002 0.9666
-3.3327 -7.4140 -2.5002 0.9666
-3.1832 -7.4795 -2.5002 0.9666
-3.0325 -7.5420 -2.5003 0.9666
-2.8805 -7.6014 -2.5003 0.9666
-2.7274 -7.6578 -2.5003 0.9666
-2.2617 -7.8084 -2.5004 0.9666
-1.6282 -7.9652 -2.5006 0.9665
-1.4681 -7.9964 -2.5006 0.9665
-1.1460 -8.0491 -2.5007 0.9665
-0.6595 -8.1038 -2.5008 0.9665
-0.0074 -8.1312 -2.5010 0.9665
0.6448 -8.1061 -2.5011 0.9665
0.8074 -8.0917 -2.5012 0.9665
1.1315 -8.0530 -2.5013 0.9665
1.2930 -8.0288 -2.5013 0.9665
1.4539 -8.0014 -2.5014 0.9665
1.6142 -7.9707 -2.5014 0.9665
2.2485 -7.8161 -2.5016 0.9665
2.4050 -7.7695 -2.5016 0.9665
2.5604 -7.7198 -2.5017 0.9665
2.8683 -7.6111 -2.5017 0.9665
3.0206 -7.5521 -2.5018 0.9665
3.3214 -7.4251 -2.5019 0.9665
3.4698 -7.3570 -2.5019 0.9665
3.6168 -7.2860 -2.5020 0.9665
3.9065 -7.1353 -2.5020 0.9665
4.4664 -6.7994 -2.5022 0.9665
4.6021 -6.7085 -2.5022 0.9665
4.7359 -6.6149 -2.5023 0.9665
4.8678 -6.5186 -2.5023 0.9665
5.1256 -6.3182 -2.5024 0.9665
5.2515 -6.2141 -2.5024 0.9665
5.4969 -5.9985 -2.5025 0.9665
5.6162 -5.8871 -2.5026 0.9665
5.8482 -5.6571 -2.5026 0.9665
5.9606 -5.5387 -2.5027 0.9665
6.2834 -5.1701 -2.5028 0.9665
6.3860 -5.0430 -2.5028 0.9665
6.5835 -4.7828 -2.5029 0.9665
6.7703 -4.5148 -2.5030 0.9665
6.9462 -4.2396 -2.5030 0.9665
7.2643 -3.6690 -2.5031 0.9665
7.3365 -3.5225 -2.5032 0.9665
7.4058 -3.3746 -2.5032 0.9665
7.5355 -3.0747 -2.5033 0.9665
7.5958 -2.9228 -2.5033 0.9665
7.6530 -2.7698 -2.5033 0.9665
7.8060 -2.3043 -2.5034 0.9665
7.8507 -2.1472 -2.5034 0.9665
7.8923 -1.9892 -2.5034 0.9665
7.9307 -1.8304 -2.5034 0.9665
7.9659 -1.6709 -2.5035 0.9665
8.0523 -1.1884 -2.5035 0.9665
8.0745 -1.0266 -2.5035 0.9665
8.0936 -0.8643 -2.5036 0.9665
8.1370 -0.2124 -2.5036 0.9665
8.1391 0.1144 -2.5036 0.9665
8.1352 0.2777 -2.5037 0.9665
8.1280 0.4409 -2.5037 0.9665
8.0665 1.0915 -2.5037 0.9665
8.0163 1.4143 -2.5037 0.9665
7.9863 1.5749 -2.5037 0.9665
7.9531 1.7349 -2.5037 0.9665
7.9167 1.8942 -2.5037 0.9665
7.8343 2.2104 -2.5037 0.9665
7.7883 2.3672 -2.5037 0.9665
7.5734 2.9842 -2.5037 0.9665
7.5119 3.1357 -2.5037 0.9665
7.4474 3.2858 -2.5037 0.9665
7.3800 3.4346 -2.5037 0.9665
7.3095 3.5820 -2.5037 0.9665
7.0806 4.0154 -2.5037 0.9665
6.9986 4.1567 -2.5037 0.9665
6.8261 4.4342 -2.5036 0.9665
6.5467 4.8369 -2.5036 0.9665
6.4483 4.9673 -2.5036 0.9665
6.2436 5.2220 -2.5035 0.9665
6.1375 5.3462 -2.5035 0.9665
5.8045 5.7058 -2.5035 0.9665
5.6888 5.8211 -2.5035 0.9665
4.9479 6.4621 -2.5033 0.9665
4.8172 6.5600 -2.5033 0.9665
4.2753 6.9249 -2.5032 0.9665
4.1354 7.0093 -2.5032 0.9665
3.9938 7.0908 -2.5031 0.9665
2.1808 7.8165 -2.4960 0.9666
2.0230 7.8568 -2.4954 0.9666
1.5328 7.8940 -2.4734 0.9669
1.3699 7.8994 -2.4659 0.9670
1.2080 7.9045 -2.4595 0.9671
0.8861 7.9143 -2.4495 0.9672
0.7260 7.9189 -2.4459 0.9673
0.4069 7.9272 -2.4414 0.9673
0.0883 7.9295 -2.4391 0.9674
-0.0709 7.9304 -2.4393 0.9674
-0.2302 7.9311 -2.4405 0.9673
-0.3896 7.9316 -2.4425 0.9673
-0.5494 7.9320 -2.4455 0.9673
-0.7097 7.9322 -2.4495 0.9672
-0.8705 7.9322 -2.4544 0.9672
-1.3568 7.9266 -2.4735 0.9669
-1.6852 7.9192 -2.4903 0.9667
-2.0054 7.8599 -2.4950 0.9666
-2.1633 7.8199 -2.4956 0.9666
-2.4767 7.7310 -2.4969 0.9666
-2.6322 7.6820 -2.4977 0.9666
-2.7867 7.6299 -2.4984 0.9666
-3.2441 7.4561 -2.5010 0.9665
-3.3935 7.3903 -2.5013 0.9665
-3.5411 7.3206 -2.5012 0.9665
-4.2564 6.9283 -2.5010 0.9665
-4.3946 6.8414 -2.5010 0.9665
-4.5309 6.7517 -2.5009 0.9665
-4.9288 6.4665 -2.5008 0.9665
-5.1842 6.2632 -2.5007 0.9665
-5.3088 6.1578 -2.5007 0.9665
-5.5515 5.9396 -2.5006 0.9665
-5.6695 5.8269 -2.5006 0.9665
-5.8986 5.5945 -2.5005 0.9666
-6.0096 5.4749 -2.5005 0.9666
-6.3279 5.1030 -2.5004 0.9666
-6.4290 4.9749 -2.5003 0.9666
-6.5275 4.8448 -2.5003 0.9666
-6.7165 4.5788 -2.5002 0.9666
-6.8947 4.3054 -2.5002 0.9666
-6.9796 4.1661 -2.5001 0.9666
-7.0617 4.0252 -2.5001 0.9666
-7.1410 3.8826 -2.5001 0.9666
-7.2909 3.5927 -2.5000 0.9666
-7.3615 3.4456 -2.5000 0.9666
-7.4290 3.2971 -2.5000 0.9666
-7.4937 3.1473 -2.4999 0.9666
-7.6138 2.8440 -2.4999 0.9666
-7.6692 2.6906 -2.4998 0.9666
-7.8170 2.2241 -2.4998 0.9666
-3.4911 -6.6623 -2.5002 0.9688
-3.2209 -6.7972 -2.5003 0.9688
-2.8061 -6.9790 -2.5004 0.9688
-2.3811 -7.1355 -2.5005 0.9688
-2.2374 -7.1819 -2.5005 0.9688
-1.9474 -7.2661 -2.5006 0.9688
-1.8012 -7.3038 -2.5006 0.9688
-1.5067 -7.3705 -2.5007 0.9688
-0.7607 -7.4849 -2.5008 0.9688
-0.6103 -7.4987 -2.5009 0.9688
-0.1579 -7.5222 -2.5010 0.9688
-0.0069 -7.5240 -2.5010 0.9688
0.1441 -7.5227 -2.5011 0.9688
0.2951 -7.5184 -2.5011 0.9688
0.4460 -7.5111 -2.5011 0.9688
0.7471 -7.4874 -2.5012 0.9688
1.3453 -7.4038 -2.5014 0.9688
1.9349 -7.2725 -2.5015 0.9688
2.0805 -7.2323 -2.5016 0.9688
2.2253 -7.1892 -2.5016 0.9688
2.9347 -6.9306 -2.5018 0.9688
3.0733 -6.8704 -2.5018 0.9688
3.3466 -6.7418 -2.5019 0.9688
3.4813 -6.6734 -2.5020 0.9688
3.6146 -6.6022 -2.5020 0.9688
3.7465 -6.5285 -2.5020 0.9688
3.8768 -6.4521 -2.5021 0.9688
4.0056 -6.3730 -2.5021 0.9688
4.7427 -5.8461 -2.5023 0.9688
4.8592 -5.7498 -2.5024 0.9688
5.0862 -5.5504 -2.5025 0.9688
5.1966 -5.4472 -2.5025 0.9688
5.5153 -5.1248 -2.5026 0.9688
5.6171 -5.0132 -2.5026 0.9688
5.9088 -4.6662 -2.5027 0.9688
6.0915 -4.4254 -2.5028 0.9688
6.1792 -4.3023 -2.5028 0.9688
6.2644 -4.1775 -2.5029 0.9688
6.3470 -4.0509 -2.5029 0.9688
6.4271 -3.9228 -2.5029 0.9688
6.5047 -3.7930 -2.5029 0.9688
6.6518 -3.5290 -2.5030 0.9688
6.7214 -3.3948 -2.5030 0.9688
6.8524 -3.1224 -2.5031 0.9688
6.9137 -2.9842 -2.5031 0.9688
6.9723 -2.8449 -2.5031 0.9688
7.0810 -2.5628 -2.5032 0.9688
7.2640 -1.9867 -2.5033 0.9688
7.3025 -1.8405 -2.5033 0.9688
7.4886 -0.7997 -2.5034 0.9688
7.5233 -0.3476 -2.5035 0.9688
7.5313 -0.0454 -2.5035 0.9688
7.5271 0.2570 -2.5035 0.9688
7.4981 0.7095 -2.5035 0.9688
7.4823 0.8598 -2.5035 0.9688
7.4418 1.1595 -2.5035 0.9688
7.3893 1.4572 -2.5036 0.9688
7.3586 1.6052 -2.5036 0.9688
7.3249 1.7526 -2.5036 0.9688
7.2487 2.0452 -2.5036 0.9688
7.2062 2.1903 -2.5036 0.9688
7.1607 2.3345 -2.5036 0.9688
7.0613 2.6200 -2.5036 0.9688
6.9504 2.9013 -2.5036 0.9688
6.8908 3.0402 -2.5035 0.9688
6.7632 3.3143 -2.5035 0.9688
6.2322 4.2287 -2.5035 0.9688
6.0574 4.4754 -2.5034 0.9688
5.7770 4.8317 -2.5034 0.9688
5.6788 4.9466 -2.5034 0.9688
5.5783 5.0596 -2.5034 0.9688
5.4756 5.1705 -2.5034 0.9688
5.3707 5.2793 -2.5033 0.9688
5.2636 5.3860 -2.5033 0.9688
5.0431 5.5929 -2.5033 0.9688
4.8145 5.7906 -2.5032 0.9688
4.6973 5.8861 -2.5032 0.9688
4.5781 5.9791 -2.5032 0.9688
4.2099 6.2436 -2.5031 0.9688
4.0837 6.3268 -2.5031 0.9688
3.8264 6.4854 -2.5030 0.9688
3.4290 6.7037 -2.5029 0.9688
3.2937 6.7711 -2.5029 0.9688
3.1571 6.8358 -2.5029 0.9688
2.8802 6.9568 -2.5028 0.9688
2.3128 7.1651 -2.5027 0.9688
2.1685 7.2099 -2.5027 0.9688
1.7306 7.3271 -2.5026 0.9688
1.1372 7.4419 -2.5024 0.9688
0.9876 7.4626 -2.5022 0.9688
0.3857 7.5154 -2.5014 0.9688
0.2348 7.5212 -2.5013 0.9688
-0.3692 7.5158 -2.5013 0.9688
-0.5200 7.5073 -2.5014 0.9688
-0.6706 7.4958 -2.5016 0.9688
-1.1206 7.4426 -2.5019 0.9688
-1.2698 7.4185 -2.5018 0.9688
-1.4184 7.3914 -2.5018 0.9688
-1.5664 7.3613 -2.5017 0.9688
-2.2960 7.1668 -2.5015 0.9688
-2.4393 7.1191 -2.5015 0.9688
-2.8632 6.9591 -2.5014 0.9688
-3.1401 6.8384 -2.5013 0.9688
-3.4119 6.7066 -2.5012 0.9688
-3.5458 6.6367 -2.5012 0.9688
-3.8092 6.4888 -2.5011 0.9688
-3.9386 6.4110 -2.5011 0.9688
-4.9124 5.6980 -2.5008 0.9688
-5.1370 5.4961 -2.5007 0.9688
-5.4582 5.1768 -2.5006 0.9688
-5.8555 4.7221 -2.5005 0.9688
-6.2151 4.2370 -2.5003 0.9688
-6.2988 4.1114 -2.5003 0.9688
-6.4586 3.8551 -2.5002 0.9688
-6.7467 3.3246 -2.5001 0.9688
-6.8120 3.1884 -2.5001 0.9688
-7.0455 2.6317 -2.5000 0.9688
-7.1453 2.3468 -2.5000 0.9688
-7.1909 2.2029 -2.4999 0.9688
-7.2336 2.0581 -2.4999 0.9688
-3.2452 -6.1930 -2.5003 0.9707
-2.9940 -6.3184 -2.5004 0.9707
-2.6084 -6.4874 -2.5004 0.9707
-2.0798 -6.6760 -2.5006 0.9707
-1.9454 -6.7165 -2.5006 0.9707
-1.8102 -6.7543 -2.5006 0.9707
-1.5377 -6.8216 -2.5007 0.9707
-0.7071 -6.9575 -2.5009 0.9707
-0.5673 -6.9704 -2.5009 0.9707
-0.4273 -6.9805 -2.5010 0.9707
0.1340 -6.9927 -2.5011 0.9707
0.2743 -6.9887 -2.5011 0.9707
0.4145 -6.9819 -2.5012 0.9707
0.6945 -6.9598 -2.5012 0.9707
0.9733 -6.9265 -2.5013 0.9707
1.2505 -6.8821 -2.5014 0.9707
1.7986 -6.7600 -2.5015 0.9707
2.2022 -6.6398 -2.5016 0.9707
2.3351 -6.5944 -2.5017 0.9707
2.5980 -6.4955 -2.5018 0.9707
2.7279 -6.4422 -2.5018 0.9707
2.9843 -6.3277 -2.5019 0.9707
3.2360 -6.2030 -2.5019 0.9707
3.6036 -5.9973 -2.5020 0.9707
3.7233 -5.9238 -2.5021 0.9707
3.8415 -5.8480 -2.5021 0.9707
4.2984 -5.5213 -2.5023 0.9707
4.4084 -5.4340 -2.5023 0.9707
4.5166 -5.3445 -2.5023 0.9707
4.6230 -5.2529 -2.5024 0.9707
4.9310 -4.9653 -2.5025 0.9707
5.0297 -4.8654 -2.5025 0.9707
5.1264 -4.7635 -2.5025 0.9707
5.2211 -4.6597 -2.5026 0.9707
5.3136 -4.5540 -2.5026 0.9707
5.8227 -3.8829 -2.5028 0.9707
6.1828 -3.2802 -2.5029 0.9707
6.2475 -3.1554 -2.5029 0.9707
6.4806 -2.6443 -2.5030 0.9707
6.5325 -2.5137 -2.5030 0.9707
6.5817 -2.3821 -2.5031 0.9707
6.6721 -2.1160 -2.5031 0.9707
6.7133 -1.9817 -2.5031 0.9707
6.7518 -1.8466 -2.5032 0.9707
6.7875 -1.7107 -2.5032 0.9707
6.8205 -1.5742 -2.5032 0.9707
6.8783 -1.2992 -2.5032 0.9707
6.9030 -1.1608 -2.5032 0.9707
6.9605 -0.7433 -2.5033 0.9707
6.9848 -0.4633 -2.5033 0.9707
6.9927 -0.3231 -2.5033 0.9707
6.9979 -0.1827 -2.5033 0.9707
7.0001 -0.0422 -2.5033 0.9707
6.9996 0.0984 -2.5034 0.9707
6.9963 0.2388 -2.5034 0.9707
6.9901 0.3792 -2.5034 0.9707
6.9372 0.9387 -2.5034 0.9707
6.8940 1.2163 -2.5034 0.9707
6.8396 1.4920 -2.5034 0.9707
6.7743 1.7653 -2.5034 0.9707
6.7375 1.9010 -2.5034 0.9707
6.6979 2.0358 -2.5034 0.9707
6.6557 2.1699 -2.5034 0.9707
6.4048 2.8258 -2.5034 0.9707
6.3468 2.9538 -2.5034 0.9707
6.2231 3.2061 -2.5034 0.9707
6.1575 3.3303 -2.5034 0.9707
5.8704 3.8134 -2.5033 0.9707
5.7126 4.0459 -2.5033 0.9707
5.6302 4.1597 -2.5033 0.9707
5.5456 4.2719 -2.5033 0.9707
5.2783 4.5978 -2.5033 0.9707
5.1849 4.7028 -2.5032 0.9707
4.9919 4.9070 -2.5032 0.9707
4.8924 5.0062 -2.5032 0.9707
4.7909 5.1034 -2.5032 0.9707
4.6875 5.1985 -2.5032 0.9707
4.4750 5.3823 -2.5031 0.9707
4.3660 5.4710 -2.5031 0.9707
4.1428 5.6417 -2.5031 0.9707
3.9130 5.8033 -2.5030 0.9707
2.9345 6.3538 -2.5028 0.9707
2.6771 6.4663 -2.5027 0.9707
2.5467 6.5187 -2.5027 0.9707
2.4154 6.5684 -2.5027 0.9707
2.2830 6.6155 -2.5027 0.9707
2.1497 6.6599 -2.5026 0.9707
1.6086 6.8105 -2.5025 0.9707
1.4715 6.8414 -2.5025 0.9707
1.3339 6.8694 -2.5024 0.9707
1.0571 6.9172 -2.5024 0.9707
0.9180 6.9370 -2.5023 0.9707
0.7786 6.9539 -2.5023 0.9707
0.6388 6.9680 -2.5023 0.9707
0.3587 6.9879 -2.5022 0.9707
0.2183 6.9936 -2.5022 0.9707
-0.2029 6.9937 -2.5021 0.9707
-0.3433 6.9881 -2.5020 0.9707
-0.4835 6.9798 -2.5020 0.9707
-0.7632 6.9545 -2.5019 0.9707
-0.9026 6.9377 -2.5019 0.9707
-1.8651 6.7422 -2.5016 0.9707
-2.2674 6.6175 -2.5015 0.9707
-2.3997 6.5705 -2.5015 0.9707
-2.6614 6.4687 -2.5014 0.9707
-2.7907 6.4139 -2.5014 0.9707
-2.9188 6.3565 -2.5013 0.9707
-3.4191 6.1016 -2.5012 0.9707
-3.5408 6.0316 -2.5011 0.9707
-3.6611 5.9592 -2.5011 0.9707
-4.1270 5.6461 -2.5010 0.9707
-4.2395 5.5620 -2.5009 0.9707
-4.6716 5.2038 -2.5008 0.9707
-4.9762 4.9130 -2.5007 0.9707
-5.0737 4.8121 -2.5007 0.9707
-5.2626 4.6045 -2.5006 0.9707
-5.3539 4.4979 -2.5006 0.9707
-5.6147 4.1673 -2.5005 0.9707
-5.6971 4.0538 -2.5004 0.9707
-5.7773 3.9385 -2.5004 0.9707
-5.8551 3.8218 -2.5004 0.9707
-5.9306 3.7034 -2.5004 0.9707
-6.1425 3.3397 -2.5003 0.9707
-6.2082 3.2157 -2.5003 0.9707
-6.3903 2.8362 -2.5002 0.9707
-6.4989 2.5773 -2.5001 0.9707
-6.5492 2.4464 -2.5001 0.9707
-6.6420 2.1815 -2.5001 0.9707
-6.6844 2.0477 -2.5000 0.9707
-6.7241 1.9131 -2.5000 0.9707
-3.0284 -5.7793 -2.5004 0.9724
-2.9118 -5.8390 -2.5004 0.9724
-2.5552 -6.0039 -2.5005 0.9724
-2.4342 -6.0540 -2.5005 0.9724
-2.3122 -6.1017 -2.5005 0.9724
-2.1893 -6.1470 -2.5006 0.9724
-2.0655 -6.1897 -2.5006 0.9724
-1.8155 -6.2678 -2.5007 0.9724
-1.6893 -6.3030 -2.5007 0.9724
-1.5625 -6.3357 -2.5007 0.9724
-1.4350 -6.3659 -2.5007 0.9724
-1.1784 -6.4185 -2.5008 0.9724
-1.0493 -6.4410 -2.5008 0.9724
-0.9198 -6.4608 -2.5009 0.9724
-0.7900 -6.4780 -2.5009 0.9724
-0.6598 -6.4927 -2.5009 0.9724
-0.2679 -6.5209 -2.5010 0.9724
-0.1370 -6.5250 -2.5011 0.9724
0.2560 -6.5217 -2.5012 0.9724
0.3869 -6.5153 -2.5012 0.9724
0.7783 -6.4805 -2.5013 0.9724
0.9082 -6.4637 -2.5013 0.9724
1.0378 -6.4442 -2.5014 0.9724
1.1669 -6.4222 -2.5014 0.9724
1.4238 -6.3704 -2.5015 0.9724
1.5514 -6.3406 -2.5015 0.9724
1.9302 -6.2360 -2.5016 0.9724
2.0550 -6.1961 -2.5016 0.9724
2.3021 -6.1087 -2.5017 0.9724
2.4243 -6.0614 -2.5017 0.9724
2.5455 -6.0116 -2.5018 0.9724
2.6657 -5.9594 -2.5018 0.9724
3.3627 -5.5964 -2.5020 0.9724
3.4744 -5.5279 -2.5020 0.9724
3.6935 -5.3841 -2.5021 0.9724
4.1137 -5.0708 -2.5022 0.9724
4.2147 -4.9872 -2.5023 0.9724
4.3140 -4.9017 -2.5023 0.9724
4.4116 -4.8142 -2.5023 0.9724
4.5074 -4.7247 -2.5024 0.9724
4.6013 -4.6333 -2.5024 0.9724
4.8720 -4.3482 -2.5025 0.9724
4.9584 -4.2496 -2.5025 0.9724
5.0427 -4.1493 -2.5025 0.9724
5.2053 -3.9436 -2.5026 0.9724
5.2835 -3.8384 -2.5026 0.9724
5.3595 -3.7316 -2.5027 0.9724
5.4334 -3.6233 -2.5027 0.9724
5.5051 -3.5136 -2.5027 0.9724
5.5745 -3.4024 -2.5027 0.9724
5.7067 -3.1760 -2.5028 0.9724
5.8297 -2.9444 -2.5028 0.9724
5.8877 -2.8269 -2.5029 0.9724
5.9965 -2.5883 -2.5029 0.9724
6.0957 -2.3456 -2.5029 0.9724
6.1850 -2.0991 -2.5030 0.9724
6.2259 -1.9746 -2.5030 0.9724
6.2644 -1.8492 -2.5030 0.9724
6.3003 -1.7231 -2.5030 0.9724
6.3336 -1.5963 -2.5031 0.9724
6.3644 -1.4689 -2.5031 0.9724
6.3927 -1.3409 -2.5031 0.9724
6.4950 -0.6936 -2.5032 0.9724
6.5077 -0.5631 -2.5032 0.9724
6.5177 -0.4324 -2.5032 0.9724
6.5299 -0.1704 -2.5032 0.9724
6.5284 0.2229 -2.5032 0.9724
6.5226 0.3538 -2.5033 0.9724
6.4329 1.1350 -2.5033 0.9724
6.3822 1.3922 -2.5033 0.9724
6.3530 1.5201 -2.5033 0.9724
6.2869 1.7738 -2.5033 0.9724
6.2500 1.8996 -2.5033 0.9724
6.1687 2.1490 -2.5033 0.9724
6.1243 2.2723 -2.5033 0.9724
6.0775 2.3948 -2.5033 0.9724
5.8658 2.8745 -2.5033 0.9724
5.8069 2.9917 -2.5033 0.9724
5.7457 3.1076 -2.5033 0.9724
5.6821 3.2223 -2.5033 0.9724
5.6163 3.3357 -2.5033 0.9724
5.4779 3.5584 -2.5032 0.9724
5.4053 3.6676 -2.5032 0.9724
5.2537 3.8816 -2.5032 0.9724
5.1747 3.9862 -2.5032 0.9724
5.0105 4.1907 -2.5032 0.9724
4.8382 4.3883 -2.5031 0.9724
4.6581 4.5789 -2.5031 0.9724
4.5653 4.6714 -2.5031 0.9724
4.4706 4.7621 -2.5031 0.9724
4.3740 4.8508 -2.5030 0.9724
4.2757 4.9376 -2.5030 0.9724
4.1758 5.0224 -2.5030 0.9724
4.0741 5.1052 -2.5030 0.9724
3.7594 5.3410 -2.5029 0.9724
3.6514 5.4153 -2.5029 0.9724
3.5419 5.4875 -2.5029 0.9724
2.8568 5.8729 -2.5027 0.9724
2.7383 5.9290 -2.5027 0.9724
2.3765 6.0829 -2.5026 0.9724
2.1304 6.1732 -2.5026 0.9724
1.8808 6.2536 -2.5025 0.9724
1.6283 6.3239 -2.5025 0.9724
1.3731 6.3840 -2.5024 0.9724
1.1158 6.4338 -2.5023 0.9724
0.8566 6.4733 -2.5023 0.9724
0.4655 6.5128 -2.5022 0.9724
0.3347 6.5207 -2.5022 0.9724
0.2037 6.5261 -2.5021 0.9724
-0.1894 6.5263 -2.5020 0.9724
-0.3203 6.5210 -2.5020 0.9724
-0.4512 6.5132 -2.5020 0.9724
-0.5818 6.5028 -2.5019 0.9724
-0.7122 6.4896 -2.5019 0.9724
-0.8423 6.4740 -2.5019 0.9724
-0.9720 6.4557 -2.5018 0.9724
-1.1014 6.4348 -2.5018 0.9724
-1.2303 6.4113 -2.5018 0.9724
-1.4866 6.3566 -2.5017 0.9724
-1.6139 6.3254 -2.5016 0.9724
-1.7405 6.2916 -2.5016 0.9724
-1.8664 6.2553 -2.5016 0.9724
-2.1159 6.1752 -2.5015 0.9724
-2.3619 6.0851 -2.5014 0.9724
-2.4836 6.0364 -2.5014 0.9724
-2.6042 5.9853 -2.5014 0.9724
-2.9596 5.8175 -2.5013 0.9724
-3.0757 5.7568 -2.5012 0.9724
-3.3042 5.6286 -2.5012 0.9724
-3.4165 5.5610 -2.5011 0.9724
-3.5273 5.4913 -2.5011 0.9724
-3.8513 5.2688 -2.5010 0.9724
-3.9562 5.1904 -2.5010 0.9724
-4.0595 5.1099 -2.5009 0.9724
-4.2612 4.9427 -2.5009 0.9724
-4.3595 4.8561 -2.5008 0.9724
-4.4561 4.7676 -2.5008 0.9724
-4.5508 4.6771 -2.5008 0.9724
-4.6437 4.5848 -2.5008 0.9724
-4.8239 4.3946 -2.5007 0.9724
-5.0794 4.0962 -2.5006 0.9724
-5.1605 3.9934 -2.5006 0.9724
-5.2396 3.8890 -2.5006 0.9724
-5.4640 3.5665 -2.5005 0.9724
-5.5344 3.4560 -2.5004 0.9724
-5.7935 3.0009 -2.5003 0.9724
-5.8526 2.8840 -2.5003 0.9724
-5.9092 2.7659 -2.5003 0.9724
-6.1563 2.1598 -2.5002 0.9724
-6.1984 2.0358 -2.5002 0.9724
-6.2750 1.7854 -2.5001 0.9724
-2.8357 -5.4115 -2.5005 0.9739
-2.7265 -5.4674 -2.5005 0.9739
-2.6162 -5.5211 -2.5005 0.9739
-2.5049 -5.5725 -2.5005 0.9739
-2.3926 -5.6218 -2.5006 0.9739
-1.8173 -5.8335 -2.5007 0.9739
-1.5818 -5.9019 -2.5007 0.9739
-1.2238 -5.9866 -2.5008 0.9739
-0.8613 -6.0496 -2.5009 0.9739
-0.6178 -6.0794 -2.5010 0.9739
-0.4957 -6.0907 -2.5010 0.9739
-0.2508 -6.1058 -2.5011 0.9739
-0.1282 -6.1097 -2.5011 0.9739
-0.0056 -6.1111 -2.5011 0.9739
0.6068 -6.0813 -2.5013 0.9739
0.7287 -6.0680 -2.5013 0.9739
0.9717 -6.0340 -2.5014 0.9739
1.0927 -6.0133 -2.5014 0.9739
1.2131 -5.9903 -2.5014 0.9739
1.3332 -5.9648 -2.5015 0.9739
2.0403 -5.7619 -2.5017 0.9739
2.1556 -5.7198 -2.5017 0.9739
2.7180 -5.4754 -2.5019 0.9739
2.8274 -5.4198 -2.5019 0.9739
3.0427 -5.3021 -2.5020 0.9739
3.1486 -5.2400 -2.5020 0.9739
3.2531 -5.1758 -2.5020 0.9739
3.3564 -5.1096 -2.5020 0.9739
3.4583 -5.0412 -2.5021 0.9739
3.6580 -4.8985 -2.5021 0.9739
4.0393 -4.5895 -2.5023 0.9739
4.1306 -4.5076 -2.5023 0.9739
4.2203 -4.4238 -2.5023 0.9739
4.3083 -4.3383 -2.5023 0.9739
4.6426 -3.9789 -2.5025 0.9739
4.7216 -3.8850 -2.5025 0.9739
4.7986 -3.7895 -2.5025 0.9739
4.8738 -3.6924 -2.5025 0.9739
5.0182 -3.4939 -2.5026 0.9739
5.1544 -3.2898 -2.5026 0.9739
5.2195 -3.1857 -2.5027 0.9739
5.2824 -3.0803 -2.5027 0.9739
5.3432 -2.9737 -2.5027 0.9739
5.4584 -2.7569 -2.5028 0.9739
5.5647 -2.5356 -2.5028 0.9739
5.6146 -2.4235 -2.5028 0.9739
5.7074 -2.1962 -2.5029 0.9739
5.7504 -2.0812 -2.5029 0.9739
5.9302 -1.4946 -2.5030 0.9739
5.9590 -1.3753 -2.5030 0.9739
6.0095 -1.1351 -2.5030 0.9739
6.0503 -0.8929 -2.5030 0.9739
6.0670 -0.7713 -2.5031 0.9739
6.0931 -0.5272 -2.5031 0.9739
6.1025 -0.4048 -2.5031 0.9739
6.1094 -0.2823 -2.5031 0.9739
6.1159 -0.0368 -2.5031 0.9739
6.1154 0.0859 -2.5031 0.9739
6.1125 0.2086 -2.5031 0.9739
6.0889 0.5762 -2.5032 0.9739
6.0761 0.6983 -2.5032 0.9739
6.0006 1.1834 -2.5032 0.9739
5.9185 1.5423 -2.5032 0.9739
5.8864 1.6608 -2.5032 0.9739
5.8518 1.7786 -2.5032 0.9739
5.7757 2.0120 -2.5032 0.9739
5.7342 2.1276 -2.5032 0.9739
5.6903 2.2422 -2.5032 0.9739
5.5957 2.4688 -2.5032 0.9739
5.4921 2.6914 -2.5032 0.9739
5.3796 2.9096 -2.5032 0.9739
5.2585 3.1232 -2.5031 0.9739
5.0609 3.4340 -2.5031 0.9739
4.9910 3.5348 -2.5031 0.9739
4.9190 3.6343 -2.5031 0.9739
4.8451 3.7323 -2.5031 0.9739
4.7691 3.8287 -2.5031 0.9739
4.6913 3.9237 -2.5031 0.9739
4.5300 4.1088 -2.5030 0.9739
4.4466 4.1988 -2.5030 0.9739
4.3614 4.2872 -2.5030 0.9739
4.1858 4.4587 -2.5030 0.9739
3.6196 4.9291 -2.5029 0.9739
3.5199 5.0008 -2.5028 0.9739
3.4188 5.0704 -2.5028 0.9739
3.2125 5.2034 -2.5028 0.9739
3.0010 5.3281 -2.5027 0.9739
2.6748 5.4988 -2.5027 0.9739
2.2251 5.6954 -2.5026 0.9739
2.1103 5.7389 -2.5025 0.9739
1.2857 5.9774 -2.5024 0.9739
1.1654 6.0020 -2.5023 0.9739
0.9236 6.0437 -2.5023 0.9739
0.8021 6.0610 -2.5022 0.9739
0.6803 6.0758 -2.5022 0.9739
0.3134 6.1055 -2.5021 0.9739
0.0681 6.1130 -2.5021 0.9739
-0.1773 6.1107 -2.5020 0.9739
-0.5447 6.0887 -2.5019 0.9739
-0.6668 6.0764 -2.5019 0.9739
-0.7887 6.0618 -2.5018 0.9739
-1.2722 5.9787 -2.5017 0.9739
-1.3920 5.9519 -2.5017 0.9739
-1.6297 5.8910 -2.5016 0.9739
-1.7476 5.8571 -2.5016 0.9739
-1.8648 5.8207 -2.5015 0.9739
-1.9812 5.7821 -2.5015 0.9739
-2.0968 5.7411 -2.5015 0.9739
-2.2116 5.6977 -2.5015 0.9739
-2.7712 5.4471 -2.5013 0.9739
-2.9875 5.3314 -2.5012 0.9739
-3.3028 5.1417 -2.5011 0.9739
-3.4053 5.0744 -2.5011 0.9739
-3.6061 4.9335 -2.5010 0.9739
-3.7044 4.8600 -2.5010 0.9739
-3.8011 4.7846 -2.5010 0.9739
-3.9900 4.6281 -2.5009 0.9739
-4.0820 4.5470 -2.5009 0.9739
-4.1724 4.4642 -2.5009 0.9739
-4.4334 4.2048 -2.5008 0.9739
-4.5985 4.0234 -2.5007 0.9739
-4.6782 3.9302 -2.5007 0.9739
-4.9782 3.5422 -2.5006 0.9739
-5.0482 3.4415 -2.5006 0.9739
-5.4248 2.8099 -2.5004 0.9739
-5.5840 2.4783 -2.5004 0.9739
-5.6789 2.2521 -2.5003 0.9739
-5.7229 2.1377 -2.5003 0.9739
-5.8040 1.9062 -2.5003 0.9739
-2.6630 -5.0821 -2.5005 0.9753
-2.3524 -5.2333 -2.5006 0.9753
-2.1405 -5.3236 -2.5006 0.9753
-1.8163 -5.4429 -2.5007 0.9753
-1.4855 -5.5426 -2.5008 0.9753
-1.2619 -5.5978 -2.5008 0.9753
-0.9227 -5.6638 -2.5009 0.9753
-0.8089 -5.6813 -2.5010 0.9753
-0.6947 -5.6964 -2.5010 0.9753
-0.5802 -5.7093 -2.5010 0.9753
-0.4655 -5.7198 -2.5010 0.9753
-0.3506 -5.7281 -2.5011 0.9753
0.1100 -5.7380 -2.5012 0.9753
0.3402 -5.7291 -2.5012 0.9753
0.6844 -5.6984 -2.5013 0.9753
0.7986 -5.6836 -2.5014 0.9753
1.0261 -5.6471 -2.5014 0.9753
1.3642 -5.5754 -2.5015 0.9753
1.4758 -5.5469 -2.5015 0.9753
1.9160 -5.4109 -2.5017 0.9753
