ply
format ascii 1.0
element vertex 1578
property float32 x
property float32 y
property float32 z
property float32 I
end_header
3.3379 -16.2407 -2.3492 0.9352
3.6641 -16.1702 -2.3492 0.9352
3.9889 -16.0931 -2.3492 0.9352
4.3120 -16.0095 -2.3492 0.9352
4.6335 -15.9194 -2.3492 0.9352
4.0989 -11.4550 -1.7238 0.9520
7.7231 -14.6709 -2.3491 0.9352
8.5945 -14.1779 -2.3491 0.9352
9.1582 -13.8204 -2.3491 0.9352
9.4346 -13.6332 -2.3491 0.9352
10.2402 -13.0388 -2.3491 0.9352
10.5006 -12.8299 -2.3491 0.9352
11.4986 -11.9435 -2.3491 0.9352
11.7367 -11.7096 -2.3491 0.9352
11.9700 -11.4709 -2.3491 0.9352
13.9094 -10.8721 -2.5014 0.9312
14.1254 -10.5899 -2.5014 0.9312
14.3357 -10.3033 -2.5014 0.9312
14.5402 -10.0127 -2.5014 0.9312
16.1063 -7.2284 -2.5014 0.9312
16.2485 -6.9027 -2.5014 0.9312
16.3842 -6.5742 -2.5014 0.9312
16.5132 -6.2430 -2.5014 0.9312
16.6355 -5.9093 -2.5014 0.9312
17.0569 -4.5519 -2.5014 0.9312
17.2263 -3.8616 -2.5014 0.9312
17.3005 -3.5140 -2.5014 0.9312
17.3677 -3.1650 -2.5014 0.9312
17.5979 -1.4036 -2.5013 0.9312
17.6225 -1.0491 -2.5013 0.9312
17.6498 0.3720 -2.5013 0.9312
17.5952 1.4367 -2.5013 0.9312
17.5627 1.7906 -2.5013 0.9312
17.4764 2.4961 -2.5013 0.9312
17.4226 2.8475 -2.5013 0.9312
17.2939 3.5465 -2.5014 0.9312
17.0483 4.5839 -2.5014 0.9312
16.9526 4.9262 -2.5014 0.9312
16.7405 5.6046 -2.5014 0.9312
16.5014 6.2740 -2.5014 0.9312
16.3718 6.6049 -2.5014 0.9312
16.2355 6.9332 -2.5014 0.9312
16.0927 7.2586 -2.5014 0.9312
15.9159 7.5681 -2.4971 0.9313
15.5251 7.7693 -2.4598 0.9323
14.5150 8.0101 -2.3490 0.9352
14.1809 8.5879 -2.3490 0.9352
13.6367 9.4283 -2.3490 0.9352
13.4442 9.7009 -2.3490 0.9352
10.4819 8.2249 -1.8878 0.9476
10.2870 8.4119 -1.8828 0.9477
12.4013 11.0030 -2.3490 0.9352
12.1773 11.2504 -2.3490 0.9352
11.7146 11.7316 -2.3491 0.9352
11.4761 11.9650 -2.3491 0.9352
11.2329 12.1937 -2.3491 0.9352
10.9852 12.4174 -2.3491 0.9352
10.7330 12.6360 -2.3491 0.9352
10.4764 12.8496 -2.3491 0.9352
10.2157 13.0579 -2.3491 0.9352
9.9508 13.2609 -2.3491 0.9352
9.6818 13.4586 -2.3491 0.9352
9.1322 13.8375 -2.3491 0.9352
8.8531 14.0299 -2.3510 0.9352
8.5871 14.2258 -2.3544 0.9351
8.3108 14.4161 -2.3577 0.9350
7.7446 14.7787 -2.3641 0.9348
6.1867 13.0592 -2.0475 0.9433
5.8686 13.0612 -2.0289 0.9438
4.8361 13.5957 -2.0446 0.9434
4.4196 13.2645 -1.9810 0.9451
3.9346 13.6135 -2.0078 0.9444
3.3399 13.5839 -1.9820 0.9451
1.8495 13.0839 -1.8723 0.9480
1.5820 13.0880 -1.8679 0.9481
-13.7336 6.4843 -2.5020 0.9403
-13.9835 5.9262 -2.5020 0.9403
-14.1000 5.6435 -2.5020 0.9403
-14.2108 5.3585 -2.5020 0.9403
-14.4150 4.7821 -2.5020 0.9403
-14.5958 4.1980 -2.5020 0.9403
-14.6774 3.9033 -2.5020 0.9403
-14.7530 3.6070 -2.5020 0.9403
-15.0802 1.8030 -2.5020 0.9403
-15.1405 1.1944 -2.5020 0.9403
-15.1850 0.2784 -2.5020 0.9403
-15.1876 -0.0274 -2.5020 0.9403
-15.1839 -0.3331 -2.5020 0.9403
-15.1582 -0.9441 -2.5020 0.9403
-15.1361 -1.2491 -2.5020 0.9403
-15.1079 -1.5535 -2.5020 0.9403
-15.0736 -1.8574 -2.5020 0.9403
-15.0331 -2.1604 -2.5020 0.9403
-14.8753 -3.0639 -2.5020 0.9403
-14.7399 -3.6602 -2.5020 0.9403
-14.6632 -3.9562 -2.5020 0.9403
-14.5806 -4.2506 -2.5020 0.9403
-14.0796 -5.6943 -2.5020 0.9403
-13.9621 -5.9766 -2.5020 0.9403
-13.7101 -6.5338 -2.5020 0.9403
-13.5758 -6.8085 -2.5020 0.9403
-13.1400 -7.6155 -2.5020 0.9403
-12.3081 -8.8974 -2.5019 0.9403
-12.1265 -9.1434 -2.5019 0.9403
-11.9400 -9.3856 -2.5019 0.9403
-11.7486 -9.6241 -2.5019 0.9403
-11.3516 -10.0892 -2.5019 0.9403
-10.5031 -10.9696 -2.5019 0.9403
-10.2801 -11.1788 -2.5019 0.9403
-10.0530 -11.3834 -2.5019 0.9403
-9.5866 -11.7789 -2.5019 0.9403
-9.3475 -11.9694 -2.5019 0.9403
-9.1046 -12.1552 -2.5019 0.9403
-8.8580 -12.3360 -2.5019 0.9403
-8.6079 -12.5118 -2.5019 0.9403
-8.3542 -12.6825 -2.5019 0.9403
-7.0479 -12.8415 -2.4132 0.9423
-6.6086 -12.6379 -2.3494 0.9438
-6.3529 -12.7683 -2.3494 0.9438
-6.0945 -12.8936 -2.3494 0.9438
-5.8337 -13.0137 -2.3494 0.9438
-5.5705 -13.1284 -2.3494 0.9438
-4.7679 -13.4407 -2.3494 0.9438
-2.8326 -13.9769 -2.3494 0.9438
-2.5507 -14.0311 -2.3493 0.9438
-2.2677 -14.0795 -2.3493 0.9438
-1.4137 -14.1906 -2.3493 0.9438
-0.8413 -14.2360 -2.3493 0.9438
0.3067 -14.2574 -2.3493 0.9438
0.5936 -14.2483 -2.3493 0.9438
0.8803 -14.2334 -2.3493 0.9438
1.4526 -14.1864 -2.3493 0.9438
1.7379 -14.1542 -2.3493 0.9438
2.8708 -13.9684 -2.3492 0.9438
3.4308 -13.8415 -2.3492 0.9438
3.7087 -13.7696 -2.3492 0.9438
3.9852 -13.6921 -2.3492 0.9438
4.5331 -13.5205 -2.3492 0.9438
4.0947 -11.4432 -2.0022 0.9519
5.6060 -13.1119 -2.3492 0.9438
5.8688 -12.9963 -2.3492 0.9438
6.1292 -12.8755 -2.3492 0.9438
6.3872 -12.7495 -2.3492 0.9438
6.8952 -12.4820 -2.3492 0.9438
7.1451 -12.3406 -2.3492 0.9438
7.6360 -12.0430 -2.3491 0.9438
7.8769 -11.8868 -2.3491 0.9438
8.5800 -11.3896 -2.3491 0.9438
9.1511 -11.1810 -2.3802 0.9431
10.2812 -11.1186 -2.4947 0.9405
10.5178 -10.9248 -2.4983 0.9404
10.7495 -10.7246 -2.5015 0.9403
10.9632 -10.5061 -2.5015 0.9403
11.3772 -10.0562 -2.5015 0.9403
11.9634 -9.3511 -2.5015 0.9403
12.3301 -8.8619 -2.5015 0.9403
12.5060 -8.6119 -2.5015 0.9403
12.8425 -8.1014 -2.5014 0.9403
13.5915 -6.7698 -2.5014 0.9403
13.7250 -6.4948 -2.5014 0.9403
13.8530 -6.2171 -2.5014 0.9403
14.0920 -5.6544 -2.5014 0.9403
14.2030 -5.3696 -2.5014 0.9403
14.3082 -5.0826 -2.5014 0.9403
14.4076 -4.7935 -2.5014 0.9403
14.5012 -4.5025 -2.5014 0.9403
14.5888 -4.2096 -2.5014 0.9403
14.7465 -3.6190 -2.5014 0.9403
14.8163 -3.3213 -2.5014 0.9403
14.8802 -3.0224 -2.5014 0.9403
14.9898 -2.4209 -2.5014 0.9403
15.0355 -2.1187 -2.5014 0.9403
15.0751 -1.8156 -2.5014 0.9403
15.1085 -1.5117 -2.5014 0.9403
15.1572 -0.9023 -2.5014 0.9403
15.1722 -0.5970 -2.5014 0.9403
15.0716 1.8439 -2.5014 0.9403
14.9852 2.4491 -2.5014 0.9403
14.8100 3.3492 -2.5014 0.9403
14.7396 3.6466 -2.5014 0.9403
14.3985 4.8205 -2.5014 0.9403
14.1928 5.3963 -2.5014 0.9403
14.0813 5.6809 -2.5014 0.9403
13.9641 5.9632 -2.5014 0.9403
13.4392 7.0673 -2.5014 0.9403
12.2656 7.7698 -2.3919 0.9428
11.8897 7.8715 -2.3491 0.9438
11.5633 8.3437 -2.3491 0.9438
11.3930 8.5749 -2.3491 0.9438
10.4655 8.2120 -2.1915 0.9475
10.8546 9.2469 -2.3491 0.9438
10.6663 9.4636 -2.3491 0.9438
10.4736 9.6765 -2.3491 0.9438
10.2767 9.8853 -2.3491 0.9438
10.0757 10.0902 -2.3491 0.9438
9.8705 10.2911 -2.3491 0.9438
9.6614 10.4877 -2.3491 0.9438
9.2314 10.8681 -2.3491 0.9438
9.0107 11.0518 -2.3491 0.9438
8.5586 11.4056 -2.3491 0.9438
8.3272 11.5756 -2.3491 0.9438
7.8546 11.9015 -2.3491 0.9438
7.3691 12.2081 -2.3491 0.9438
7.1219 12.3540 -2.3491 0.9438
6.6188 12.6307 -2.3492 0.9438
6.3632 12.7614 -2.3492 0.9438
6.1050 12.8870 -2.3492 0.9438
5.8444 13.0073 -2.3492 0.9438
4.2344 13.6170 -2.3492 0.9438
2.6981 13.2540 -2.2282 0.9466
2.4216 13.2557 -2.2199 0.9468
2.1187 13.0822 -2.1832 0.9477
1.8495 13.0839 -2.1769 0.9478
1.3326 13.2603 -2.1955 0.9474
-12.0367 5.6831 -2.5019 0.9473
-12.4549 4.6964 -2.5019 0.9473
-12.6339 4.1913 -2.5019 0.9473
-12.7157 3.9361 -2.5019 0.9473
-13.1426 2.1109 -2.5020 0.9473
-13.1824 1.8459 -2.5020 0.9473
-13.2169 1.5802 -2.5020 0.9473
-13.2460 1.3138 -2.5020 0.9473
-13.2698 1.0469 -2.5020 0.9473
-13.2882 0.7795 -2.5020 0.9473
-13.3012 0.5118 -2.5020 0.9473
-13.2993 -0.5598 -2.5020 0.9473
-13.2853 -0.8275 -2.5020 0.9473
-13.2412 -1.3616 -2.5020 0.9473
-13.1757 -1.8935 -2.5020 0.9473
-13.1349 -2.1584 -2.5020 0.9473
-13.0373 -2.6853 -2.5020 0.9473
-12.9806 -2.9473 -2.5020 0.9473
-12.9187 -3.2080 -2.5019 0.9473
-12.7014 -3.9819 -2.5019 0.9473
-12.6187 -4.2368 -2.5019 0.9473
-12.5308 -4.4900 -2.5019 0.9473
-12.2369 -5.2382 -2.5019 0.9473
-12.0161 -5.7265 -2.5019 0.9473
-11.3798 -6.9050 -2.5019 0.9473
-11.2384 -7.1327 -2.5019 0.9473
-11.0926 -7.3575 -2.5019 0.9473
-10.6282 -8.0136 -2.5019 0.9473
-10.1250 -8.6405 -2.5019 0.9473
-9.3971 -9.4270 -2.5019 0.9473
-9.0100 -9.7976 -2.5019 0.9473
-8.8109 -9.9770 -2.5019 0.9473
-8.1926 -10.4906 -2.5019 0.9473
-7.7636 -10.8118 -2.5019 0.9473
-7.5444 -10.9659 -2.5018 0.9473
-7.3221 -11.1156 -2.5018 0.9473
-7.0968 -11.2607 -2.5018 0.9473
-6.8686 -11.4012 -2.5018 0.9473
-6.4041 -11.6685 -2.5018 0.9473
-6.1656 -11.7907 -2.5009 0.9473
-5.6613 -11.9771 -2.4901 0.9475
-5.3024 -11.8285 -2.4365 0.9486
-4.1788 -11.7801 -2.3494 0.9504
-3.9408 -11.8618 -2.3494 0.9504
-2.9738 -12.1403 -2.3494 0.9504
-2.7288 -12.1976 -2.3494 0.9504
-2.2356 -12.2975 -2.3493 0.9504
-1.9875 -12.3400 -2.3493 0.9504
-1.7387 -12.3775 -2.3493 0.9504
-1.4892 -12.4100 -2.3493 0.9504
-1.2390 -12.4375 -2.3493 0.9504
-0.7373 -12.4772 -2.3493 0.9504
-0.4860 -12.4895 -2.3493 0.9504
0.5203 -12.4880 -2.3493 0.9504
0.7716 -12.4750 -2.3493 0.9504
1.0225 -12.4569 -2.3493 0.9504
1.7726 -12.3724 -2.3493 0.9504
2.7621 -12.1896 -2.3492 0.9504
3.0069 -12.1315 -2.3492 0.9504
3.2506 -12.0684 -2.3492 0.9504
3.4928 -12.0005 -2.3492 0.9504
3.7337 -11.9278 -2.3492 0.9504
4.0904 -11.4313 -2.2821 0.9518
4.6811 -11.5886 -2.3492 0.9504
5.1438 -11.3908 -2.3492 0.9504
5.8926 -11.1936 -2.3777 0.9498
6.1804 -11.1880 -2.4024 0.9493
6.7747 -11.1758 -2.4564 0.9482
7.0820 -11.1692 -2.4858 0.9476
8.0079 -10.6301 -2.5015 0.9473
8.2202 -10.4667 -2.5015 0.9473
8.8370 -9.9514 -2.5015 0.9473
9.0355 -9.7715 -2.5015 0.9473
9.6089 -9.2082 -2.5015 0.9473
10.1471 -8.6114 -2.5015 0.9473
10.3184 -8.4053 -2.5015 0.9473
10.4855 -8.1959 -2.5015 0.9473
10.6483 -7.9831 -2.5015 0.9473
10.9611 -7.5480 -2.5015 0.9473
11.7907 -6.1721 -2.5015 0.9473
11.9125 -5.9335 -2.5015 0.9473
12.1417 -5.4491 -2.5015 0.9473
12.2489 -5.2036 -2.5015 0.9473
12.6278 -4.2013 -2.5014 0.9473
12.7866 -3.6896 -2.5014 0.9473
12.9248 -3.1719 -2.5014 0.9473
13.0420 -2.6490 -2.5014 0.9473
13.0927 -2.3859 -2.5014 0.9473
13.2128 -1.5913 -2.5014 0.9473
13.2661 -1.0581 -2.5014 0.9473
13.2847 -0.7908 -2.5014 0.9473
13.2980 -0.5232 -2.5014 0.9473
13.3053 0.2804 -2.5014 0.9473
13.2970 0.5482 -2.5014 0.9473
13.2832 0.8158 -2.5014 0.9473
13.2098 1.6161 -2.5014 0.9473
13.1746 1.8817 -2.5014 0.9473
13.1340 2.1466 -2.5014 0.9473
13.0881 2.4105 -2.5014 0.9473
13.0370 2.6735 -2.5014 0.9473
12.9805 2.9354 -2.5014 0.9473
12.9188 3.1961 -2.5014 0.9473
12.8519 3.4556 -2.5014 0.9473
12.7023 3.9701 -2.5014 0.9473
12.6198 4.2251 -2.5014 0.9473
12.4395 4.7296 -2.5014 0.9473
12.3418 4.9791 -2.5014 0.9473
12.1314 5.4719 -2.5015 0.9473
11.9013 5.9558 -2.5015 0.9473
11.7790 6.1942 -2.5015 0.9473
11.6519 6.4301 -2.5015 0.9473
11.3837 6.8940 -2.5015 0.9473
11.2426 7.1217 -2.5015 0.9473
11.0934 7.3443 -2.5007 0.9473
10.3056 7.7565 -2.4244 0.9489
9.3486 8.2945 -2.3491 0.9504
9.0072 8.6642 -2.3491 0.9504
8.6512 9.0198 -2.3491 0.9504
8.2811 9.3607 -2.3491 0.9504
7.8976 9.6865 -2.3491 0.9504
7.7010 9.8435 -2.3491 0.9504
7.5013 9.9966 -2.3491 0.9504
6.8842 10.4312 -2.3492 0.9504
6.4587 10.6999 -2.3492 0.9504
6.2420 10.8278 -2.3492 0.9504
5.5771 11.1849 -2.3492 0.9504
3.4703 12.0070 -2.3492 0.9504
3.2279 12.0745 -2.3492 0.9504
2.7392 12.1947 -2.3492 0.9504
-10.8978 4.6185 -2.5019 0.9528
-10.9886 4.3982 -2.5019 0.9528
-11.0749 4.1761 -2.5019 0.9528
-11.2340 3.7268 -2.5019 0.9528
-11.3750 3.2716 -2.5019 0.9528
-11.4975 2.8111 -2.5019 0.9528
-11.6462 2.1119 -2.5019 0.9528
-11.7218 1.6414 -2.5019 0.9528
-11.7525 1.4051 -2.5019 0.9528
-11.7783 1.1682 -2.5019 0.9528
-11.8158 0.6931 -2.5019 0.9528
-11.8361 -0.0214 -2.5019 0.9528
-11.8333 -0.2596 -2.5019 0.9528
-11.8257 -0.4978 -2.5019 0.9528
-11.7961 -0.9734 -2.5019 0.9528
-11.7473 -1.4475 -2.5019 0.9528
-11.7158 -1.6837 -2.5019 0.9528
-11.6795 -1.9192 -2.5019 0.9528
-11.4873 -2.8525 -2.5019 0.9528
-11.2941 -3.5407 -2.5019 0.9528
-11.1424 -3.9925 -2.5019 0.9528
-11.0598 -4.2160 -2.5019 0.9528
-10.9726 -4.4378 -2.5019 0.9528
-10.8811 -4.6578 -2.5019 0.9528
-10.6847 -5.0920 -2.5019 0.9528
-10.3579 -5.7277 -2.5019 0.9528
-9.8635 -6.5423 -2.5019 0.9528
-9.5921 -6.9340 -2.5019 0.9528
-9.4506 -7.1257 -2.5019 0.9528
-9.1561 -7.5004 -2.5019 0.9528
-8.8467 -7.8628 -2.5019 0.9528
-8.5230 -8.2126 -2.5019 0.9528
-8.3559 -8.3825 -2.5019 0.9528
-7.8347 -8.8715 -2.5019 0.9528
-7.6545 -9.0275 -2.5018 0.9528
-6.9034 -9.6139 -2.5018 0.9528
-6.1076 -10.1380 -2.5018 0.9528
-5.9023 -10.2589 -2.5018 0.9528
-5.0578 -10.7004 -2.5018 0.9528
-4.8414 -10.8000 -2.5018 0.9528
-4.4027 -10.9861 -2.5018 0.9528
-3.7234 -11.2075 -2.4963 0.9529
-3.4947 -11.2727 -2.4947 0.9529
-2.9953 -11.2435 -2.4595 0.9535
-2.7518 -11.2341 -2.4449 0.9538
-1.8068 -11.2179 -2.4018 0.9546
-1.5758 -11.2183 -2.3946 0.9547
-0.8899 -11.2187 -2.3789 0.9550
-0.4365 -11.2181 -2.3731 0.9551
-0.2105 -11.2175 -2.3716 0.9552
0.0154 -11.2168 -2.3710 0.9552
0.2412 -11.2158 -2.3714 0.9552
0.4672 -11.2148 -2.3726 0.9551
0.6935 -11.2135 -2.3748 0.9551
1.1479 -11.2105 -2.3821 0.9550
2.7746 -11.1941 -2.4378 0.9539
3.2562 -11.1877 -2.4630 0.9535
3.9768 -11.1138 -2.4951 0.9529
4.4256 -10.9563 -2.4977 0.9528
4.8688 -10.7818 -2.5007 0.9528
5.0868 -10.6856 -2.5016 0.9528
5.3008 -10.5810 -2.5016 0.9528
5.5128 -10.4722 -2.5016 0.9528
5.7225 -10.3590 -2.5016 0.9528
5.9298 -10.2417 -2.5016 0.9528
6.1348 -10.1203 -2.5016 0.9528
6.5372 -9.8651 -2.5016 0.9528
6.7345 -9.7314 -2.5016 0.9528
6.9290 -9.5939 -2.5016 0.9528
7.3096 -9.3071 -2.5016 0.9528
7.6783 -9.0053 -2.5015 0.9528
7.8580 -8.8489 -2.5015 0.9528
8.0345 -8.6889 -2.5015 0.9528
8.2078 -8.5254 -2.5015 0.9528
8.3778 -8.3584 -2.5015 0.9528
8.7074 -8.0144 -2.5015 0.9528
9.0230 -7.6574 -2.5015 0.9528
9.4687 -7.0987 -2.5015 0.9528
9.6097 -6.9067 -2.5015 0.9528
9.7468 -6.7118 -2.5015 0.9528
10.0090 -6.3140 -2.5015 0.9528
10.1341 -6.1112 -2.5015 0.9528
10.2550 -5.9060 -2.5015 0.9528
10.4845 -5.4883 -2.5015 0.9528
10.5928 -5.2762 -2.5015 0.9528
10.6969 -5.0618 -2.5015 0.9528
10.7966 -4.8454 -2.5015 0.9528
10.8920 -4.6271 -2.5015 0.9528
11.3018 -3.5091 -2.5015 0.9528
11.5972 -2.3556 -2.5015 0.9528
11.7182 -1.6512 -2.5015 0.9528
11.7491 -1.4150 -2.5015 0.9528
11.8131 -0.7032 -2.5015 0.9528
11.8339 0.0111 -2.5015 0.9528
11.8313 0.2493 -2.5015 0.9528
11.7947 0.9631 -2.5015 0.9528
11.7729 1.2003 -2.5015 0.9528
11.7151 1.6733 -2.5015 0.9528
11.6790 1.9088 -2.5015 0.9528
11.5927 2.3774 -2.5015 0.9528
11.4876 2.8421 -2.5015 0.9528
11.4281 3.0728 -2.5015 0.9528
11.3639 3.3022 -2.5015 0.9528
11.2218 3.7570 -2.5015 0.9528
11.0615 4.2057 -2.5015 0.9528
10.8832 4.6476 -2.5015 0.9528
10.6873 5.0819 -2.5015 0.9528
10.4741 5.5080 -2.5015 0.9528
10.2439 5.9252 -2.5015 0.9528
9.9971 6.3328 -2.5015 0.9528
9.3092 7.3047 -2.5013 0.9528
9.1493 7.4816 -2.4983 0.9528
8.3898 7.7512 -2.4144 0.9544
7.8526 7.8640 -2.3491 0.9556
7.3637 8.3237 -2.3491 0.9556
6.6702 8.8891 -2.3492 0.9556
6.1215 9.2756 -2.3492 0.9556
5.9336 9.3970 -2.3492 0.9556
5.5505 9.6282 -2.3492 0.9556
5.3556 9.7380 -2.3492 0.9556
5.1584 9.8439 -2.3492 0.9556
4.9592 9.9458 -2.3492 0.9556
3.9347 10.3939 -2.3492 0.9556
3.5131 10.5439 -2.3492 0.9556
2.8702 10.7368 -2.3492 0.9556
2.4357 10.8436 -2.3492 0.9556
2.2169 10.8905 -2.3492 0.9556
1.7767 10.9709 -2.3493 0.9556
1.5555 11.0045 -2.3493 0.9556
1.3337 11.0336 -2.3493 0.9556
-9.6262 4.5450 -2.5019 0.9572
-9.9607 3.7559 -2.5019 0.9572
-10.1038 3.3519 -2.5019 0.9572
-10.2306 2.9425 -2.5019 0.9572
-10.4341 2.1099 -2.5019 0.9572
-10.4745 1.8995 -2.5019 0.9572
-10.5106 1.6882 -2.5019 0.9572
-10.5701 1.2637 -2.5019 0.9572
-10.6375 0.4093 -2.5019 0.9572
-10.6428 -0.2335 -2.5019 0.9572
-10.6359 -0.4477 -2.5019 0.9572
-10.6248 -0.6617 -2.5019 0.9572
-10.5654 -1.3019 -2.5019 0.9572
-10.5371 -1.5143 -2.5019 0.9572
-10.5045 -1.7261 -2.5019 0.9572
-10.3811 -2.3571 -2.5019 0.9572
-10.3315 -2.5656 -2.5019 0.9572
-10.0917 -3.3883 -2.5019 0.9572
-10.0214 -3.5908 -2.5019 0.9572
-9.9471 -3.7918 -2.5019 0.9572
-9.8687 -3.9913 -2.5019 0.9572
-9.6098 -4.5797 -2.5019 0.9572
-9.4176 -4.9628 -2.5019 0.9572
-9.3158 -5.1514 -2.5019 0.9572
-8.9878 -5.7043 -2.5019 0.9572
-8.2349 -6.7458 -2.5019 0.9572
-8.0974 -6.9102 -2.5019 0.9572
-7.9567 -7.0718 -2.5019 0.9572
-7.8127 -7.2305 -2.5019 0.9572
-7.6655 -7.3863 -2.5018 0.9572
-7.3620 -7.6889 -2.5018 0.9572
-7.0465 -7.9790 -2.5018 0.9572
-6.8844 -8.1192 -2.5018 0.9572
-6.5519 -8.3898 -2.5018 0.9572
-6.3817 -8.5200 -2.5018 0.9572
-6.0336 -8.7699 -2.5018 0.9572
-5.3085 -9.2268 -2.5018 0.9572
-5.1217 -9.3318 -2.5018 0.9572
-4.9327 -9.4330 -2.5018 0.9572
-4.7418 -9.5304 -2.5018 0.9572
-4.3543 -9.7135 -2.5018 0.9572
-3.7600 -9.9586 -2.5018 0.9572
-3.1521 -10.1674 -2.5018 0.9572
-2.9467 -10.2287 -2.5018 0.9572
-2.7402 -10.2860 -2.5018 0.9572
-2.1143 -10.4325 -2.5017 0.9572
-1.4807 -10.5411 -2.5017 0.9572
-1.0552 -10.5921 -2.5017 0.9572
-0.6280 -10.6260 -2.5017 0.9572
-0.4139 -10.6365 -2.5017 0.9572
-0.1997 -10.6426 -2.5017 0.9572
0.0146 -10.6445 -2.5017 0.9572
0.2289 -10.6420 -2.5017 0.9572
0.4431 -10.6352 -2.5017 0.9572
0.8708 -10.6087 -2.5017 0.9572
1.0842 -10.5890 -2.5017 0.9572
1.2972 -10.5650 -2.5017 0.9572
1.5096 -10.5368 -2.5017 0.9572
1.7214 -10.5042 -2.5017 0.9572
2.3523 -10.3811 -2.5017 0.9572
2.5608 -10.3316 -2.5016 0.9572
3.1798 -10.1582 -2.5016 0.9572
3.5861 -10.0219 -2.5016 0.9572
3.7871 -9.9476 -2.5016 0.9572
4.1845 -9.7871 -2.5016 0.9572
4.3807 -9.7009 -2.5016 0.9572
4.9582 -9.4187 -2.5016 0.9572
5.1468 -9.3170 -2.5016 0.9572
5.5177 -9.1022 -2.5016 0.9572
5.6998 -8.9893 -2.5016 0.9572
5.8796 -8.8727 -2.5016 0.9572
6.0570 -8.7525 -2.5016 0.9572
6.2320 -8.6288 -2.5016 0.9572
6.4044 -8.5016 -2.5016 0.9572
6.9059 -8.0995 -2.5016 0.9572
7.0675 -7.9588 -2.5016 0.9572
7.3822 -7.6678 -2.5016 0.9572
7.8315 -7.2082 -2.5015 0.9572
8.1153 -6.8871 -2.5015 0.9572
8.5162 -6.3847 -2.5015 0.9572
8.6430 -6.2119 -2.5015 0.9572
8.7663 -6.0367 -2.5015 0.9572
9.0022 -5.6789 -2.5015 0.9572
9.3285 -5.1251 -2.5015 0.9572
9.4298 -4.9362 -2.5015 0.9572
9.5273 -4.7454 -2.5015 0.9572
9.8781 -3.9636 -2.5015 0.9572
10.0993 -3.3601 -2.5015 0.9572
10.3858 -2.3282 -2.5015 0.9572
10.4306 -2.1186 -2.5015 0.9572
10.4711 -1.9082 -2.5015 0.9572
10.5395 -1.4851 -2.5015 0.9572
10.5672 -1.2727 -2.5015 0.9572
10.6353 -0.4185 -2.5015 0.9572
10.6416 -0.2043 -2.5015 0.9572
10.6436 0.0100 -2.5015 0.9572
10.6412 0.2243 -2.5015 0.9572
10.5366 1.5049 -2.5015 0.9572
10.5042 1.7168 -2.5015 0.9572
10.4675 1.9279 -2.5015 0.9572
10.4266 2.1382 -2.5015 0.9572
10.3814 2.3477 -2.5015 0.9572
10.2785 2.7637 -2.5015 0.9572
10.0229 3.5816 -2.5015 0.9572
9.5183 4.7633 -2.5015 0.9572
9.4205 4.9539 -2.5015 0.9572
9.3189 5.1426 -2.5015 0.9572
8.9915 5.6957 -2.5015 0.9572
8.8750 5.8756 -2.5015 0.9572
8.7549 6.0531 -2.5015 0.9572
8.2397 6.7378 -2.5015 0.9572
8.1023 6.9023 -2.5015 0.9572
6.8496 7.7426 -2.4296 0.9584
6.5820 7.7491 -2.3895 0.9591
6.3256 7.7583 -2.3526 0.9597
5.8371 8.1141 -2.3492 0.9598
5.6726 8.2300 -2.3492 0.9598
5.5058 8.3425 -2.3492 0.9598
5.3367 8.4517 -2.3492 0.9598
4.9922 8.6597 -2.3492 0.9598
4.8168 8.7584 -2.3492 0.9598
4.6395 8.8536 -2.3492 0.9598
4.2794 9.0333 -2.3492 0.9598
4.0967 9.1176 -2.3492 0.9598
3.3499 9.4176 -2.3492 0.9598
3.1597 9.4832 -2.3492 0.9598
2.9682 9.5449 -2.3492 0.9598
2.7754 9.6027 -2.3492 0.9598
2.3866 9.7067 -2.3492 0.9598
2.1907 9.7528 -2.3492 0.9598
1.5980 9.8673 -2.3493 0.9598
1.1995 9.9237 -2.3493 0.9598
-8.7378 4.1255 -2.5019 0.9609
-8.8191 3.9488 -2.5019 0.9609
-8.8968 3.7705 -2.5019 0.9609
-8.9709 3.5906 -2.5019 0.9609
-9.0414 3.4093 -2.5019 0.9609
-9.1713 3.0425 -2.5019 0.9609
-9.2863 2.6709 -2.5019 0.9609
-9.3863 2.2949 -2.5019 0.9609
-9.4306 2.1055 -2.5019 0.9609
-9.5695 1.3400 -2.5019 0.9609
-9.6329 0.7600 -2.5019 0.9609
-9.6463 0.5659 -2.5019 0.9609
-9.6605 -0.2120 -2.5019 0.9609
-9.6442 -0.6007 -2.5019 0.9609
-9.6301 -0.7947 -2.5019 0.9609
-9.5646 -1.3745 -2.5019 0.9609
-9.5350 -1.5668 -2.5019 0.9609
-9.5015 -1.7584 -2.5019 0.9609
-9.4642 -1.9494 -2.5019 0.9609
-9.3292 -2.5171 -2.5019 0.9609
-9.2767 -2.7044 -2.5019 0.9609
-9.2203 -2.8906 -2.5019 0.9609
-9.0965 -3.2594 -2.5019 0.9609
-9.0290 -3.4418 -2.5019 0.9609
-8.9579 -3.6229 -2.5019 0.9609
-8.8048 -3.9806 -2.5019 0.9609
-8.7229 -4.1570 -2.5019 0.9609
-8.6374 -4.3318 -2.5019 0.9609
-8.5484 -4.5048 -2.5019 0.9609
-8.4560 -4.6760 -2.5019 0.9609
-7.9433 -5.5021 -2.5019 0.9609
-7.8309 -5.6609 -2.5019 0.9609
-7.4749 -6.1232 -2.5018 0.9609
-7.0916 -6.5632 -2.5018 0.9609
-6.6825 -6.9793 -2.5018 0.9609
-6.5406 -7.1124 -2.5018 0.9609
-6.3961 -7.2426 -2.5018 0.9609
-5.6359 -7.8487 -2.5018 0.9609
-5.3153 -8.0692 -2.5018 0.9609
-5.1518 -8.1745 -2.5018 0.9609
-4.9862 -8.2766 -2.5018 0.9609
-4.6490 -8.4706 -2.5018 0.9609
-4.1292 -8.7357 -2.5018 0.9609
-3.5943 -8.9690 -2.5018 0.9609
-3.0464 -9.1696 -2.5018 0.9609
-2.8612 -9.2290 -2.5018 0.9609
-2.4873 -9.3367 -2.5017 0.9609
-2.2989 -9.3848 -2.5017 0.9609
-2.1094 -9.4292 -2.5017 0.9609
-1.9192 -9.4698 -2.5017 0.9609
-1.3441 -9.5683 -2.5017 0.9609
-0.7641 -9.6319 -2.5017 0.9609
-0.1813 -9.6604 -2.5017 0.9609
0.4022 -9.6537 -2.5017 0.9609
0.7905 -9.6297 -2.5017 0.9609
0.9842 -9.6118 -2.5017 0.9609
1.1775 -9.5900 -2.5017 0.9609
1.3703 -9.5644 -2.5017 0.9609
1.7542 -9.5014 -2.5017 0.9609
1.9451 -9.4642 -2.5017 0.9609
2.1352 -9.4231 -2.5017 0.9609
2.3245 -9.3782 -2.5017 0.9609
2.5128 -9.3294 -2.5016 0.9609
2.7001 -9.2769 -2.5016 0.9609
2.8863 -9.2207 -2.5016 0.9609
3.0714 -9.1607 -2.5016 0.9609
3.2552 -9.0970 -2.5016 0.9609
3.4376 -9.0296 -2.5016 0.9609
4.3276 -8.6384 -2.5016 0.9609
4.6718 -8.4572 -2.5016 0.9609
4.8411 -8.3614 -2.5016 0.9609
5.3370 -8.0539 -2.5016 0.9609
5.4981 -7.9448 -2.5016 0.9609
5.8134 -7.7170 -2.5016 0.9609
5.9676 -7.5984 -2.5016 0.9609
6.4153 -7.2243 -2.5016 0.9609
6.8397 -6.8239 -2.5016 0.9609
6.9757 -6.6848 -2.5016 0.9609
7.1088 -6.5430 -2.5016 0.9609
7.2391 -6.3986 -2.5016 0.9609
7.3664 -6.2515 -2.5016 0.9609
7.7303 -5.7955 -2.5015 0.9609
7.8454 -5.6386 -2.5015 0.9609
7.9573 -5.4796 -2.5015 0.9609
8.0660 -5.3183 -2.5015 0.9609
8.1714 -5.1548 -2.5015 0.9609
8.2736 -4.9893 -2.5015 0.9609
8.4677 -4.6522 -2.5015 0.9609
8.6481 -4.3075 -2.5015 0.9609
8.8923 -3.7776 -2.5015 0.9609
9.0372 -3.4166 -2.5015 0.9609
9.4274 -2.1133 -2.5015 0.9609
9.4681 -1.9231 -2.5015 0.9609
9.5049 -1.7321 -2.5015 0.9609
9.6134 -0.9619 -2.5015 0.9609
9.6443 -0.5741 -2.5015 0.9609
9.6539 -0.3798 -2.5015 0.9609
9.6596 -0.1854 -2.5015 0.9609
9.6614 0.0091 -2.5015 0.9609
9.6592 0.2036 -2.5015 0.9609
9.6532 0.3980 -2.5015 0.9609
9.6432 0.5922 -2.5015 0.9609
9.6293 0.7863 -2.5015 0.9609
9.6116 0.9800 -2.5015 0.9609
9.5643 1.3661 -2.5015 0.9609
9.4644 1.9409 -2.5015 0.9609
9.4234 2.1310 -2.5015 0.9609
9.3786 2.3203 -2.5015 0.9609
9.3300 2.5087 -2.5015 0.9609
9.1616 3.0672 -2.5015 0.9609
9.0980 3.2511 -2.5015 0.9609
8.9598 3.6147 -2.5015 0.9609
8.8852 3.7943 -2.5015 0.9609
8.3632 4.8374 -2.5015 0.9609
8.2642 5.0048 -2.5015 0.9609
7.9470 5.4945 -2.5015 0.9609
7.7194 5.8100 -2.5015 0.9609
7.4793 6.1160 -2.5015 0.9609
7.3547 6.2653 -2.5015 0.9609
7.0965 6.5563 -2.5016 0.9609
6.6878 6.9728 -2.5016 0.9609
6.5461 7.1060 -2.5016 0.9609
5.9405 7.5933 -2.4962 0.9609
5.5616 7.7311 -2.4659 0.9614
4.5315 7.8605 -2.3492 0.9632
4.2114 8.0366 -2.3492 0.9632
3.5512 8.3494 -2.3492 0.9632
3.0408 8.5485 -2.3492 0.9632
2.8681 8.6080 -2.3492 0.9632
2.5193 8.7166 -2.3492 0.9632
2.3433 8.7655 -2.3492 0.9632
2.1664 8.8109 -2.3492 0.9632
1.9885 8.8527 -2.3493 0.9632
0.9073 9.0279 -2.3493 0.9632
-8.0659 3.6116 -2.5019 0.9639
-8.1370 3.4485 -2.5019 0.9639
-8.3303 2.9510 -2.5019 0.9639
-8.4424 2.6133 -2.5019 0.9639
-8.4933 2.4428 -2.5019 0.9639
-8.5847 2.0989 -2.5019 0.9639
-8.6252 1.9257 -2.5019 0.9639
-8.6623 1.7517 -2.5019 0.9639
-8.7258 1.4016 -2.5019 0.9639
-8.8224 0.5175 -2.5019 0.9639
-8.8361 0.1620 -2.5019 0.9639
-8.8205 -0.5494 -2.5019 0.9639
-8.7713 -1.0808 -2.5019 0.9639
-8.7207 -1.4330 -2.5019 0.9639
-8.6900 -1.6083 -2.5019 0.9639
-8.6559 -1.7829 -2.5019 0.9639
-8.5325 -2.3021 -2.5019 0.9639
-8.4844 -2.4734 -2.5019 0.9639
-8.4329 -2.6437 -2.5019 0.9639
-8.3196 -2.9810 -2.5019 0.9639
-8.2579 -3.1479 -2.5019 0.9639
-8.0528 -3.6406 -2.5019 0.9639
-7.9779 -3.8020 -2.5019 0.9639
-7.8184 -4.1201 -2.5018 0.9639
-7.7338 -4.2766 -2.5018 0.9639
-7.6462 -4.4315 -2.5018 0.9639
-7.5554 -4.5845 -2.5018 0.9639
-7.4616 -4.7357 -2.5018 0.9639
-7.3647 -4.8849 -2.5018 0.9639
-7.2649 -5.0322 -2.5018 0.9639
-7.0564 -5.3205 -2.5018 0.9639
-6.8365 -5.6003 -2.5018 0.9639
-6.4860 -6.0027 -2.5018 0.9639
-6.2391 -6.2589 -2.5018 0.9639
-5.9821 -6.5050 -2.5018 0.9639
-5.7153 -6.7405 -2.5018 0.9639
-5.5785 -6.8542 -2.5018 0.9639
-5.4394 -6.9651 -2.5018 0.9639
-5.1546 -7.1784 -2.5018 0.9639
-5.0090 -7.2807 -2.5018 0.9639
-4.8614 -7.3801 -2.5018 0.9639
-4.7119 -7.4764 -2.5018 0.9639
-4.0951 -7.8312 -2.5018 0.9639
-3.6149 -8.0641 -2.5018 0.9639
-3.4519 -8.1352 -2.5018 0.9639
-2.9545 -8.3287 -2.5018 0.9639
-2.6168 -8.4409 -2.5017 0.9639
-2.2749 -8.5393 -2.5017 0.9639
-1.9293 -8.6240 -2.5017 0.9639
-1.7553 -8.6611 -2.5017 0.9639
-1.4052 -8.7247 -2.5017 0.9639
-0.8760 -8.7936 -2.5017 0.9639
-0.6988 -8.8094 -2.5017 0.9639
0.0121 -8.8370 -2.5017 0.9639
0.1900 -8.8350 -2.5017 0.9639
0.5455 -8.8201 -2.5017 0.9639
1.0769 -8.7711 -2.5017 0.9639
1.4291 -8.7206 -2.5017 0.9639
1.6044 -8.6900 -2.5017 0.9639
1.7790 -8.6560 -2.5017 0.9639
2.2982 -8.5328 -2.5017 0.9639
2.6399 -8.4333 -2.5016 0.9639
2.8091 -8.3784 -2.5016 0.9639
2.9772 -8.3202 -2.5016 0.9639
3.1441 -8.2585 -2.5016 0.9639
3.4740 -8.1253 -2.5016 0.9639
3.6368 -8.0537 -2.5016 0.9639
3.7982 -7.9788 -2.5016 0.9639
4.1163 -7.8194 -2.5016 0.9639
4.2729 -7.7350 -2.5016 0.9639
4.5808 -7.5567 -2.5016 0.9639
4.7320 -7.4629 -2.5016 0.9639
4.8813 -7.3661 -2.5016 0.9639
5.1738 -7.1637 -2.5016 0.9639
5.4580 -6.9496 -2.5016 0.9639
5.7333 -6.7242 -2.5016 0.9639
5.8675 -6.6074 -2.5016 0.9639
5.9993 -6.4879 -2.5016 0.9639
6.1287 -6.3659 -2.5016 0.9639
6.2556 -6.2412 -2.5016 0.9639
6.3800 -6.1140 -2.5016 0.9639
6.8511 -5.5809 -2.5016 0.9639
6.9621 -5.4418 -2.5016 0.9639
7.0702 -5.3006 -2.5016 0.9639
7.2778 -5.0117 -2.5016 0.9639
7.3773 -4.8641 -2.5015 0.9639
7.4737 -4.7146 -2.5015 0.9639
7.6574 -4.4100 -2.5015 0.9639
7.8287 -4.0981 -2.5015 0.9639
7.9096 -3.9397 -2.5015 0.9639
7.9873 -3.7796 -2.5015 0.9639
8.0618 -3.6181 -2.5015 0.9639
8.2009 -3.2906 -2.5015 0.9639
8.3267 -2.9578 -2.5015 0.9639
8.3845 -2.7896 -2.5015 0.9639
8.4390 -2.6202 -2.5015 0.9639
8.4900 -2.4498 -2.5015 0.9639
8.5376 -2.2784 -2.5015 0.9639
8.5818 -2.1061 -2.5015 0.9639
8.6224 -1.9329 -2.5015 0.9639
8.6596 -1.7589 -2.5015 0.9639
8.7234 -1.4089 -2.5015 0.9639
8.8084 -0.7025 -2.5015 0.9639
8.8208 -0.5251 -2.5015 0.9639
8.8364 0.0083 -2.5015 0.9639
8.8289 0.3640 -2.5015 0.9639
8.8071 0.7191 -2.5015 0.9639
8.7476 1.2494 -2.5015 0.9639
8.6562 1.7752 -2.5015 0.9639
8.6188 1.9491 -2.5015 0.9639
8.5778 2.1222 -2.5015 0.9639
8.5333 2.2944 -2.5015 0.9639
8.4854 2.4658 -2.5015 0.9639
8.0550 3.6332 -2.5015 0.9639
7.9802 3.7946 -2.5015 0.9639
7.7366 4.2694 -2.5015 0.9639
7.6491 4.4243 -2.5015 0.9639
7.5585 4.5774 -2.5015 0.9639
7.4648 4.7286 -2.5015 0.9639
7.2684 5.0253 -2.5015 0.9639
7.1658 5.1706 -2.5015 0.9639
6.9518 5.4549 -2.5016 0.9639
6.6099 5.8646 -2.5016 0.9639
6.4905 5.9965 -2.5016 0.9639
6.3685 6.1259 -2.5016 0.9639
6.2439 6.2529 -2.5016 0.9639
5.9871 6.4992 -2.5016 0.9639
5.7206 6.7350 -2.5016 0.9639
5.5839 6.8488 -2.5016 0.9639
5.3037 7.0680 -2.5016 0.9639
5.1603 7.1733 -2.5016 0.9639
5.0148 7.2757 -2.5016 0.9639
4.8642 7.3705 -2.5000 0.9640
4.7119 7.4622 -2.4984 0.9640
4.5580 7.5510 -2.4969 0.9640
4.4025 7.6367 -2.4954 0.9640
4.2454 7.7195 -2.4940 0.9640
3.6630 7.7322 -2.4221 0.9651
3.4756 7.7354 -2.4007 0.9654
3.2914 7.7385 -2.3806 0.9656
3.1101 7.7413 -2.3618 0.9659
2.9380 7.7610 -2.3492 0.9661
2.4642 7.9242 -2.3492 0.9661
2.3041 7.9722 -2.3492 0.9661
1.9814 8.0585 -2.3493 0.9661
1.4913 8.1634 -2.3493 0.9661
1.1615 8.2169 -2.3493 0.9661
-7.4238 3.3241 -2.5018 0.9665
-7.4892 3.1739 -2.5018 0.9665
-7.5516 3.0225 -2.5018 0.9665
-7.6109 2.8699 -2.5018 0.9665
-7.6671 2.7161 -2.5018 0.9665
-7.7203 2.5612 -2.5018 0.9665
-7.7703 2.4052 -2.5018 0.9665
-7.8608 2.0905 -2.5018 0.9665
-7.9013 1.9318 -2.5018 0.9665
-7.9386 1.7724 -2.5018 0.9665
-7.9726 1.6122 -2.5018 0.9665
-8.0554 1.1280 -2.5019 0.9665
-8.1201 0.4763 -2.5019 0.9665
-8.1327 0.1491 -2.5019 0.9665
-8.1268 -0.3421 -2.5019 0.9665
-8.1183 -0.5056 -2.5019 0.9665
-8.0914 -0.8320 -2.5019 0.9665
-8.0730 -0.9947 -2.5019 0.9665
-7.9982 -1.4802 -2.5019 0.9665
-7.9668 -1.6409 -2.5019 0.9665
-7.7615 -2.4333 -2.5018 0.9665
-7.7110 -2.5890 -2.5018 0.9665
-7.6005 -2.8973 -2.5018 0.9665
-7.5406 -3.0497 -2.5018 0.9665
-7.4777 -3.2009 -2.5018 0.9665
-7.4117 -3.3508 -2.5018 0.9665
-7.3428 -3.4993 -2.5018 0.9665
-7.1182 -3.9362 -2.5018 0.9665
-7.0375 -4.0787 -2.5018 0.9665
-6.9539 -4.2195 -2.5018 0.9665
-6.8676 -4.3587 -2.5018 0.9665
-6.3948 -5.0267 -2.5018 0.9665
-6.0797 -5.4035 -2.5018 0.9665
-5.9696 -5.5248 -2.5018 0.9665
-5.8572 -5.6439 -2.5018 0.9665
-5.7424 -5.7606 -2.5018 0.9665
-5.5058 -5.9871 -2.5018 0.9665
-5.2603 -6.2039 -2.5018 0.9665
-5.1344 -6.3085 -2.5018 0.9665
-5.0063 -6.4106 -2.5018 0.9665
-4.7442 -6.6069 -2.5018 0.9665
-4.6102 -6.7011 -2.5018 0.9665
-4.3367 -6.8812 -2.5018 0.9665
-4.1973 -6.9671 -2.5018 0.9665
-3.9135 -7.1304 -2.5018 0.9665
-3.7691 -7.2078 -2.5018 0.9665
-3.6232 -7.2822 -2.5018 0.9665
-3.4759 -7.3536 -2.5018 0.9665
-3.3271 -7.4221 -2.5018 0.9665
-3.1771 -7.4875 -2.5018 0.9665
-2.8731 -7.6094 -2.5018 0.9665
-2.7193 -7.6657 -2.5018 0.9665
-2.5644 -7.7188 -2.5017 0.9665
-2.4085 -7.7689 -2.5017 0.9665
-2.2516 -7.8158 -2.5017 0.9665
-2.0938 -7.8595 -2.5017 0.9665
-1.7757 -7.9374 -2.5017 0.9665
-1.6156 -7.9716 -2.5017 0.9665
-1.4548 -8.0025 -2.5017 0.9665
-1.2934 -8.0301 -2.5017 0.9665
-0.9691 -8.0756 -2.5017 0.9665
-0.8063 -8.0935 -2.5017 0.9665
-0.6432 -8.1081 -2.5017 0.9665
-0.3163 -8.1274 -2.5017 0.9665
0.0112 -8.1335 -2.5017 0.9665
0.1749 -8.1316 -2.5017 0.9665
0.3386 -8.1265 -2.5017 0.9665
0.6654 -8.1062 -2.5017 0.9665
0.8285 -8.0912 -2.5017 0.9665
0.9912 -8.0728 -2.5017 0.9665
1.1535 -8.0512 -2.5017 0.9665
1.3154 -8.0264 -2.5017 0.9665
1.7974 -7.9323 -2.5017 0.9665
2.1153 -7.8535 -2.5017 0.9665
2.4297 -7.7620 -2.5016 0.9665
2.5855 -7.7115 -2.5016 0.9665
2.7402 -7.6579 -2.5016 0.9665
3.0462 -7.5413 -2.5016 0.9665
3.1974 -7.4785 -2.5016 0.9665
3.4959 -7.3437 -2.5016 0.9665
3.6430 -7.2718 -2.5016 0.9665
3.7886 -7.1970 -2.5016 0.9665
3.9327 -7.1192 -2.5016 0.9665
4.0753 -7.0386 -2.5016 0.9665
4.2161 -6.9551 -2.5016 0.9665
4.3553 -6.8688 -2.5016 0.9665
4.4927 -6.7798 -2.5016 0.9665
4.8937 -6.4962 -2.5016 0.9665
5.0235 -6.3964 -2.5016 0.9665
5.1512 -6.2939 -2.5016 0.9665
5.2769 -6.1889 -2.5016 0.9665
5.4004 -6.0814 -2.5016 0.9665
5.7576 -5.7444 -2.5016 0.9665
5.8721 -5.6273 -2.5016 0.9665
5.9842 -5.5079 -2.5016 0.9665
6.0939 -5.3863 -2.5016 0.9665
6.2011 -5.2625 -2.5016 0.9665
6.3057 -5.1367 -2.5016 0.9665
6.6043 -4.7466 -2.5016 0.9665
6.7900 -4.4769 -2.5016 0.9665
6.8788 -4.3393 -2.5016 0.9665
6.9647 -4.2000 -2.5016 0.9665
7.0479 -4.0589 -2.5016 0.9665
7.2055 -3.7719 -2.5016 0.9665
7.2800 -3.6261 -2.5016 0.9665
7.3515 -3.4788 -2.5015 0.9665
7.4200 -3.3301 -2.5015 0.9665
7.5481 -3.0287 -2.5015 0.9665
7.6075 -2.8761 -2.5015 0.9665
7.6639 -2.7224 -2.5015 0.9665
7.8142 -2.2548 -2.5015 0.9665
7.9361 -1.7790 -2.5015 0.9665
7.9703 -1.6189 -2.5015 0.9665
8.0012 -1.4581 -2.5015 0.9665
8.0290 -1.2967 -2.5015 0.9665
8.0926 -0.8097 -2.5015 0.9665
8.1315 -0.1561 -2.5015 0.9665
8.1330 0.0076 -2.5015 0.9665
8.1312 0.1714 -2.5015 0.9665
8.1261 0.3350 -2.5015 0.9665
8.1177 0.4985 -2.5015 0.9665
8.1060 0.6619 -2.5015 0.9665
8.0910 0.8249 -2.5015 0.9665
8.0513 1.1500 -2.5015 0.9665
7.9327 1.7939 -2.5015 0.9665
7.8540 2.1118 -2.5015 0.9665
7.8100 2.2695 -2.5015 0.9665
7.7627 2.4262 -2.5015 0.9665
7.6587 2.7367 -2.5015 0.9665
7.6021 2.8904 -2.5015 0.9665
7.5424 3.0428 -2.5015 0.9665
7.4138 3.3440 -2.5015 0.9665
7.3450 3.4926 -2.5015 0.9665
7.1984 3.7854 -2.5015 0.9665
6.9568 4.2130 -2.5016 0.9665
6.8706 4.3522 -2.5016 0.9665
6.7816 4.4897 -2.5016 0.9665
6.2961 5.1485 -2.5016 0.9665
6.1912 5.2742 -2.5016 0.9665
6.0837 5.3978 -2.5016 0.9665
5.8615 5.6383 -2.5016 0.9665
5.7468 5.7551 -2.5016 0.9665
5.6298 5.8697 -2.5016 0.9665
5.5105 5.9818 -2.5016 0.9665
5.3890 6.0916 -2.5016 0.9665
4.7496 6.6023 -2.5016 0.9665
4.4799 6.7882 -2.5016 0.9665
4.2031 6.9630 -2.5016 0.9665
4.0620 7.0462 -2.5016 0.9665
3.6291 7.2782 -2.5015 0.9665
3.1789 7.4740 -2.4981 0.9666
3.0266 7.5334 -2.4971 0.9666
2.8732 7.5899 -2.4962 0.9666
2.7188 7.6434 -2.4952 0.9666
1.8984 7.7213 -2.4456 0.9673
1.7347 7.7227 -2.4345 0.9674
1.5723 7.7240 -2.4245 0.9676
1.2512 7.7259 -2.4073 0.9678
-6.8693 3.0758 -2.5018 0.9688
-6.9298 2.9368 -2.5018 0.9688
-6.9875 2.7967 -2.5018 0.9688
-7.2332 2.0804 -2.5018 0.9688
-7.2736 1.9344 -2.5018 0.9688
-7.3771 1.4918 -2.5018 0.9688
-7.4732 0.8935 -2.5018 0.9688
-7.5032 0.5919 -2.5018 0.9688
-7.5135 0.4408 -2.5018 0.9688
-7.5209 0.2894 -2.5018 0.9688
-7.5247 -0.1651 -2.5018 0.9688
-7.5198 -0.3165 -2.5018 0.9688
-7.5119 -0.4679 -2.5018 0.9688
-7.5010 -0.6190 -2.5018 0.9688
-7.4870 -0.7699 -2.5018 0.9688
-7.4700 -0.9204 -2.5018 0.9688
-7.4499 -1.0706 -2.5018 0.9688
-7.4269 -1.2204 -2.5018 0.9688
-7.3046 -1.8139 -2.5018 0.9688
-7.2666 -1.9606 -2.5018 0.9688
-7.2257 -2.1065 -2.5018 0.9688
-7.1818 -2.2515 -2.5018 0.9688
-7.0853 -2.5388 -2.5018 0.9688
-6.9774 -2.8219 -2.5018 0.9688
-6.9192 -2.9618 -2.5018 0.9688
-6.7943 -3.2379 -2.5018 0.9688
-6.5118 -3.7740 -2.5018 0.9688
-6.4345 -3.9043 -2.5018 0.9688
-6.3546 -4.0331 -2.5018 0.9688
-6.2721 -4.1602 -2.5018 0.9688
-6.0996 -4.4093 -2.5018 0.9688
-6.0096 -4.5312 -2.5018 0.9688
-5.9171 -4.6512 -2.5018 0.9688
-5.8223 -4.7694 -2.5018 0.9688
-5.6255 -4.9999 -2.5018 0.9688
-5.3135 -5.3304 -2.5018 0.9688
-5.2051 -5.4363 -2.5018 0.9688
-4.9820 -5.6414 -2.5018 0.9688
-4.8674 -5.7405 -2.5018 0.9688
-4.7509 -5.8373 -2.5018 0.9688
-4.1402 -6.2852 -2.5018 0.9688
-3.7532 -6.5236 -2.5018 0.9688
-3.6211 -6.5978 -2.5018 0.9688
-3.4876 -6.6694 -2.5018 0.9688
-3.3526 -6.7383 -2.5018 0.9688
-3.0786 -6.8677 -2.5018 0.9688
-2.9398 -6.9283 -2.5018 0.9688
-2.6585 -7.0410 -2.5017 0.9688
-2.2286 -7.1886 -2.5017 0.9688
-1.9374 -7.2725 -2.5017 0.9688
-1.0469 -7.4529 -2.5017 0.9688
-0.8967 -7.4725 -2.5017 0.9688
-0.7461 -7.4890 -2.5017 0.9688
-0.5951 -7.5025 -2.5017 0.9688
-0.4440 -7.5129 -2.5017 0.9688
-0.1412 -7.5247 -2.5017 0.9688
0.4646 -7.5117 -2.5017 0.9688
1.0673 -7.4499 -2.5017 0.9688
1.3664 -7.4009 -2.5017 0.9688
1.5151 -7.3718 -2.5017 0.9688
1.8106 -7.3049 -2.5017 0.9688
1.9573 -7.2669 -2.5017 0.9688
2.1032 -7.2260 -2.5017 0.9688
2.6777 -7.0334 -2.5016 0.9688
3.6390 -6.5875 -2.5016 0.9688
3.9012 -6.4357 -2.5016 0.9688
4.0300 -6.3558 -2.5016 0.9688
4.4063 -6.1010 -2.5016 0.9688
4.5282 -6.0110 -2.5016 0.9688
4.6483 -5.9186 -2.5016 0.9688
4.9971 -5.6272 -2.5016 0.9688
5.2196 -5.4215 -2.5016 0.9688
5.3276 -5.3153 -2.5016 0.9688
5.5373 -5.0966 -2.5016 0.9688
5.6387 -4.9840 -2.5016 0.9688
6.0214 -4.5143 -2.5016 0.9688
6.1110 -4.3921 -2.5016 0.9688
6.1982 -4.2682 -2.5016 0.9688
6.3650 -4.0153 -2.5016 0.9688
6.5958 -3.6237 -2.5016 0.9688
6.6674 -3.4902 -2.5016 0.9688
6.7363 -3.3553 -2.5016 0.9688
6.8025 -3.2190 -2.5016 0.9688
6.8659 -3.0814 -2.5016 0.9688
6.9265 -2.9425 -2.5016 0.9688
6.9843 -2.8025 -2.5016 0.9688
7.1408 -2.3758 -2.5016 0.9688
7.1871 -2.2315 -2.5016 0.9688
7.3087 -1.7936 -2.5016 0.9688
7.3433 -1.6461 -2.5015 0.9688
7.3750 -1.4980 -2.5015 0.9688
7.4037 -1.3492 -2.5015 0.9688
7.4520 -1.0501 -2.5015 0.9688
7.4716 -0.8999 -2.5015 0.9688
7.5018 -0.5983 -2.5015 0.9688
7.5123 -0.4472 -2.5015 0.9688
7.5198 -0.2959 -2.5015 0.9688
7.5242 -0.1444 -2.5015 0.9688
7.5239 0.1586 -2.5015 0.9688
7.5192 0.3100 -2.5015 0.9688
7.4868 0.7633 -2.5015 0.9688
7.4699 0.9139 -2.5015 0.9688
7.4271 1.2138 -2.5015 0.9688
7.3722 1.5118 -2.5015 0.9688
7.1829 2.2450 -2.5016 0.9688
7.1363 2.3892 -2.5016 0.9688
7.0867 2.5324 -2.5016 0.9688
7.0343 2.6745 -2.5016 0.9688
6.9210 2.9555 -2.5016 0.9688
6.7964 3.2317 -2.5016 0.9688
6.6608 3.5027 -2.5016 0.9688
6.5889 3.6361 -2.5016 0.9688
6.4372 3.8984 -2.5016 0.9688
6.3574 4.0272 -2.5016 0.9688
6.2751 4.1544 -2.5016 0.9688
6.1902 4.2799 -2.5016 0.9688
6.1028 4.4036 -2.5016 0.9688
6.0129 4.5256 -2.5016 0.9688
5.8259 4.7640 -2.5016 0.9688
5.7288 4.8803 -2.5016 0.9688
5.5277 5.1069 -2.5016 0.9688
5.4238 5.2172 -2.5016 0.9688
5.3176 5.3253 -2.5016 0.9688
5.2094 5.4313 -2.5016 0.9688
5.0990 5.5351 -2.5016 0.9688
4.9865 5.6366 -2.5016 0.9688
4.7556 5.8328 -2.5016 0.9688
4.5169 6.0195 -2.5016 0.9688
4.3948 6.1092 -2.5016 0.9688
4.1454 6.2812 -2.5016 0.9688
3.8891 6.4430 -2.5016 0.9688
3.6266 6.5943 -2.5016 0.9688
3.4932 6.6660 -2.5016 0.9688
2.8056 6.9833 -2.5016 0.9688
2.3790 7.1400 -2.5016 0.9688
2.0896 7.2300 -2.5016 0.9688
1.9435 7.2702 -2.5015 0.9688
1.7963 7.3061 -2.5009 0.9688
1.6485 7.3391 -2.5003 0.9688
1.5001 7.3693 -2.4998 0.9688
1.0520 7.4426 -2.4986 0.9688
0.9019 7.4613 -2.4982 0.9688
-6.4951 2.5997 -2.5018 0.9707
-6.5461 2.4684 -2.5018 0.9707
-6.5944 2.3361 -2.5018 0.9707
-6.6831 2.0687 -2.5018 0.9707
-6.7610 1.7980 -2.5018 0.9707
-6.7958 1.6616 -2.5018 0.9707
-6.8279 1.5244 -2.5018 0.9707
-6.8837 1.2483 -2.5018 0.9707
-6.9075 1.1095 -2.5018 0.9707
-6.9466 0.8305 -2.5018 0.9707
-6.9619 0.6905 -2.5018 0.9707
-6.9744 0.5502 -2.5018 0.9707
-6.9840 0.4097 -2.5018 0.9707
-6.9909 0.2690 -2.5018 0.9707
-6.9949 0.1282 -2.5018 0.9707
-6.9943 -0.1534 -2.5018 0.9707
-6.9898 -0.2942 -2.5018 0.9707
-6.9825 -0.4349 -2.5018 0.9707
-6.9435 -0.8556 -2.5018 0.9707
-6.9034 -1.1344 -2.5018 0.9707
-6.8792 -1.2731 -2.5018 0.9707
-6.8224 -1.5490 -2.5018 0.9707
-6.7898 -1.6861 -2.5018 0.9707
-6.7545 -1.8224 -2.5018 0.9707
-6.7164 -1.9580 -2.5018 0.9707
-6.6756 -2.0928 -2.5018 0.9707
-6.5860 -2.3599 -2.5018 0.9707
-6.4315 -2.7531 -2.5018 0.9707
-6.3748 -2.8820 -2.5018 0.9707
-6.3155 -3.0098 -2.5018 0.9707
-6.1892 -3.2615 -2.5018 0.9707
-5.9810 -3.6292 -2.5018 0.9707
-5.7511 -3.9836 -2.5018 0.9707
-5.6697 -4.0985 -2.5018 0.9707
-5.5001 -4.3234 -2.5018 0.9707
-5.4119 -4.4333 -2.5018 0.9707
-5.3216 -4.5414 -2.5018 0.9707
-5.2291 -4.6475 -2.5018 0.9707
-5.0377 -4.8543 -2.5018 0.9707
-4.9390 -4.9547 -2.5018 0.9707
-4.8383 -5.0531 -2.5018 0.9707
-4.7355 -5.1495 -2.5018 0.9707
-4.0805 -5.6826 -2.5018 0.9707
-3.8484 -5.8422 -2.5018 0.9707
-3.2418 -6.1994 -2.5018 0.9707
-2.8617 -6.3837 -2.5018 0.9707
-2.7326 -6.4400 -2.5017 0.9707
-2.6024 -6.4938 -2.5017 0.9707
-1.9366 -6.7224 -2.5017 0.9707
-1.8009 -6.7600 -2.5017 0.9707
-1.5273 -6.8270 -2.5017 0.9707
-1.3896 -6.8563 -2.5017 0.9707
-0.9731 -6.9277 -2.5017 0.9707
-0.2720 -6.9904 -2.5017 0.9707
-0.1312 -6.9944 -2.5017 0.9707
0.1504 -6.9940 -2.5017 0.9707
0.4318 -6.9823 -2.5017 0.9707
0.8525 -6.9435 -2.5017 0.9707
0.9921 -6.9249 -2.5017 0.9707
1.1313 -6.9035 -2.5017 0.9707
1.2701 -6.8793 -2.5017 0.9707
1.4083 -6.8524 -2.5017 0.9707
1.5460 -6.8226 -2.5017 0.9707
1.6830 -6.7901 -2.5017 0.9707
1.9550 -6.7168 -2.5017 0.9707
2.4890 -6.5377 -2.5016 0.9707
3.0068 -6.3163 -2.5016 0.9707
3.1334 -6.2545 -2.5016 0.9707
3.3826 -6.1233 -2.5016 0.9707
3.6263 -5.9821 -2.5016 0.9707
3.7460 -5.9079 -2.5016 0.9707
3.9808 -5.7523 -2.5016 0.9707
4.3208 -5.5015 -2.5016 0.9707
4.7493 -5.1361 -2.5016 0.9707
5.2414 -4.6328 -2.5016 0.9707
5.3336 -4.5264 -2.5016 0.9707
5.4236 -4.4181 -2.5016 0.9707
5.5115 -4.3080 -2.5016 0.9707
5.7614 -3.9674 -2.5016 0.9707
5.9904 -3.6124 -2.5016 0.9707
6.1310 -3.3683 -2.5016 0.9707
6.1975 -3.2442 -2.5016 0.9707
6.2616 -3.1188 -2.5016 0.9707
6.3231 -2.9921 -2.5016 0.9707
6.3821 -2.8642 -2.5016 0.9707
6.4922 -2.6050 -2.5016 0.9707
6.5918 -2.3415 -2.5016 0.9707
6.6376 -2.2083 -2.5016 0.9707
6.6807 -2.0743 -2.5016 0.9707
6.7211 -1.9394 -2.5016 0.9707
6.7587 -1.8037 -2.5016 0.9707
6.7937 -1.6673 -2.5016 0.9707
6.8259 -1.5301 -2.5016 0.9707
6.8819 -1.2541 -2.5016 0.9707
6.9058 -1.1153 -2.5016 0.9707
6.9268 -0.9761 -2.5016 0.9707
6.9731 -0.5562 -2.5016 0.9707
6.9940 -0.1342 -2.5016 0.9707
6.9937 0.1474 -2.5016 0.9707
6.9721 0.5693 -2.5016 0.9707
6.9592 0.7095 -2.5016 0.9707
6.9435 0.8495 -2.5016 0.9707
6.9250 0.9891 -2.5016 0.9707
6.9037 1.1283 -2.5016 0.9707
6.6768 2.0868 -2.5016 0.9707
6.6334 2.2208 -2.5016 0.9707
6.5386 2.4861 -2.5016 0.9707
6.4873 2.6172 -2.5016 0.9707
6.4333 2.7473 -2.5016 0.9707
6.1914 3.2559 -2.5016 0.9707
6.1246 3.3799 -2.5016 0.9707
6.0553 3.5025 -2.5016 0.9707
5.9836 3.6237 -2.5016 0.9707
5.9094 3.7434 -2.5016 0.9707
5.8329 3.8616 -2.5016 0.9707
5.6727 4.0933 -2.5016 0.9707
5.5892 4.2067 -2.5016 0.9707
5.5034 4.3183 -2.5016 0.9707
5.4153 4.4283 -2.5016 0.9707
5.1381 4.7471 -2.5016 0.9707
5.0415 4.8495 -2.5016 0.9707
4.5287 5.3317 -2.5016 0.9707
3.9700 5.7598 -2.5016 0.9707
3.7349 5.9150 -2.5016 0.9707
3.6151 5.9890 -2.5016 0.9707
3.4938 6.0605 -2.5016 0.9707
3.3711 6.1296 -2.5016 0.9707
3.2470 6.1963 -2.5016 0.9707
2.9949 6.3219 -2.5016 0.9707
2.8671 6.3810 -2.5016 0.9707
2.7380 6.4374 -2.5016 0.9707
2.3445 6.5909 -2.5016 0.9707
2.0773 6.6800 -2.5016 0.9707
1.9424 6.7205 -2.5017 0.9707
1.6703 6.7932 -2.5017 0.9707
1.5332 6.8255 -2.5017 0.9707
1.2572 6.8817 -2.5017 0.9707
1.1184 6.9056 -2.5017 0.9707
0.8395 6.9450 -2.5017 0.9707
-5.9035 2.7873 -2.5018 0.9724
-5.9584 2.6679 -2.5018 0.9724
-6.0610 2.4259 -2.5018 0.9724
-6.1537 2.1800 -2.5018 0.9724
-6.2365 1.9305 -2.5018 0.9724
-6.2741 1.8045 -2.5018 0.9724
-6.3416 1.5505 -2.5018 0.9724
-6.3716 1.4225 -2.5018 0.9724
-6.4237 1.1649 -2.5018 0.9724
-6.4458 1.0353 -2.5018 0.9724
-6.4966 0.6444 -2.5018 0.9724
-6.5082 0.5134 -2.5018 0.9724
-6.5236 0.2510 -2.5018 0.9724
-6.5274 0.1197 -2.5018 0.9724
-6.5284 -0.0118 -2.5018 0.9724
-6.5269 -0.1432 -2.5018 0.9724
-6.5227 -0.2746 -2.5018 0.9724
-6.5158 -0.4058 -2.5018 0.9724
-6.4942 -0.6678 -2.5018 0.9724
-6.4794 -0.7984 -2.5018 0.9724
-6.4621 -0.9287 -2.5018 0.9724
-6.4421 -1.0586 -2.5018 0.9724
-6.4194 -1.1880 -2.5018 0.9724
-6.3942 -1.3170 -2.5018 0.9724
-6.3031 -1.7006 -2.5018 0.9724
-6.2675 -1.8271 -2.5018 0.9724
-6.1458 -2.2021 -2.5018 0.9724
-6.0522 -2.4477 -2.5018 0.9724
-5.9487 -2.6894 -2.5018 0.9724
-5.8356 -2.9267 -2.5018 0.9724
-5.7131 -3.1592 -2.5018 0.9724
-5.5813 -3.3866 -2.5018 0.9724
-5.1325 -4.0345 -2.5018 0.9724
-5.0502 -4.1370 -2.5018 0.9724
-4.9659 -4.2378 -2.5018 0.9724
-4.8796 -4.3369 -2.5018 0.9724
-4.7011 -4.5299 -2.5018 0.9724
-4.6089 -4.6236 -2.5018 0.9724
-4.5149 -4.7154 -2.5018 0.9724
-4.4191 -4.8053 -2.5018 0.9724
-3.7002 -5.3784 -2.5018 0.9724
-3.5912 -5.4518 -2.5018 0.9724
-3.2556 -5.6586 -2.5018 0.9724
-3.1410 -5.7230 -2.5018 0.9724
-2.9081 -5.8448 -2.5018 0.9724
-2.6704 -5.9571 -2.5017 0.9724
-2.5499 -6.0096 -2.5017 0.9724
-2.4284 -6.0598 -2.5017 0.9724
-2.1825 -6.1526 -2.5017 0.9724
-2.0582 -6.1953 -2.5017 0.9724
-1.9331 -6.2354 -2.5017 0.9724
-1.8072 -6.2731 -2.5017 0.9724
-1.6805 -6.3082 -2.5017 0.9724
-1.2967 -6.3981 -2.5017 0.9724
-1.1676 -6.4229 -2.5017 0.9724
-1.0381 -6.4451 -2.5017 0.9724
-0.7778 -6.4817 -2.5017 0.9724
-0.5162 -6.5077 -2.5017 0.9724
-0.3851 -6.5168 -2.5017 0.9724
-0.2538 -6.5232 -2.5017 0.9724
-0.1225 -6.5270 -2.5017 0.9724
0.5341 -6.5062 -2.5017 0.9724
0.6649 -6.4941 -2.5017 0.9724
0.9258 -6.4621 -2.5017 0.9724
1.0557 -6.4421 -2.5017 0.9724
1.1852 -6.4196 -2.5017 0.9724
1.3142 -6.3944 -2.5017 0.9724
1.4427 -6.3667 -2.5017 0.9724
1.5705 -6.3363 -2.5017 0.9724
1.8243 -6.2679 -2.5017 0.9724
1.9501 -6.2299 -2.5017 0.9724
2.0752 -6.1894 -2.5017 0.9724
2.1993 -6.1464 -2.5017 0.9724
2.4450 -6.0528 -2.5016 0.9724
2.5663 -6.0024 -2.5016 0.9724
2.6866 -5.9495 -2.5016 0.9724
2.9240 -5.8365 -2.5016 0.9724
3.1565 -5.7141 -2.5016 0.9724
3.2709 -5.6494 -2.5016 0.9724
3.3840 -5.5824 -2.5016 0.9724
3.6059 -5.4416 -2.5016 0.9724
3.7148 -5.3679 -2.5016 0.9724
3.8221 -5.2920 -2.5016 0.9724
4.0320 -5.1339 -2.5016 0.9724
4.1345 -5.0517 -2.5016 0.9724
4.2354 -4.9674 -2.5016 0.9724
4.4319 -4.7929 -2.5016 0.9724
4.5275 -4.7027 -2.5016 0.9724
4.6212 -4.6106 -2.5016 0.9724
4.7131 -4.5166 -2.5016 0.9724
4.8031 -4.4208 -2.5016 0.9724
5.0612 -4.1228 -2.5016 0.9724
5.1431 -4.0201 -2.5016 0.9724
5.3008 -3.8098 -2.5016 0.9724
5.6568 -3.2578 -2.5016 0.9724
5.7834 -3.0274 -2.5016 0.9724
5.9555 -2.6728 -2.5016 0.9724
6.0583 -2.4309 -2.5016 0.9724
6.1060 -2.3084 -2.5016 0.9724
6.1512 -2.1851 -2.5016 0.9724
6.1940 -2.0608 -2.5016 0.9724
6.2719 -1.8098 -2.5016 0.9724
6.3397 -1.5558 -2.5016 0.9724
6.3697 -1.4279 -2.5016 0.9724
6.4220 -1.1703 -2.5016 0.9724
6.4443 -1.0408 -2.5016 0.9724
6.4954 -0.6499 -2.5016 0.9724
6.5071 -0.5190 -2.5016 0.9724
6.5162 -0.3879 -2.5016 0.9724
6.5227 -0.2567 -2.5016 0.9724
6.5266 -0.1253 -2.5016 0.9724
6.5223 0.2689 -2.5016 0.9724
6.5155 0.4001 -2.5016 0.9724
6.4941 0.6621 -2.5016 0.9724
6.4795 0.7927 -2.5016 0.9724
6.4622 0.9230 -2.5016 0.9724
6.4423 1.0529 -2.5016 0.9724
6.3367 1.5677 -2.5016 0.9724
6.3039 1.6950 -2.5016 0.9724
6.2685 1.8216 -2.5016 0.9724
6.1901 2.0724 -2.5016 0.9724
6.1017 2.3199 -2.5016 0.9724
6.0033 2.5637 -2.5016 0.9724
5.8376 2.9214 -2.5016 0.9724
5.7777 3.0383 -2.5016 0.9724
5.7153 3.1540 -2.5016 0.9724
5.6507 3.2684 -2.5016 0.9724
5.5837 3.3815 -2.5016 0.9724
5.4431 3.6035 -2.5016 0.9724
5.3694 3.7124 -2.5016 0.9724
5.2157 3.9255 -2.5016 0.9724
4.9692 4.2332 -2.5016 0.9724
4.8830 4.3324 -2.5016 0.9724
4.7046 4.5254 -2.5016 0.9724
4.6126 4.6192 -2.5016 0.9724
4.1250 5.0594 -2.5016 0.9724
4.0223 5.1415 -2.5016 0.9724
3.9180 5.2214 -2.5016 0.9724
3.8121 5.2992 -2.5016 0.9724
3.7047 5.3749 -2.5016 0.9724
3.4853 5.5197 -2.5016 0.9724
3.2603 5.6555 -2.5016 0.9724
3.1458 5.7200 -2.5016 0.9724
3.0300 5.7822 -2.5016 0.9724
2.9130 5.8420 -2.5016 0.9724
2.7948 5.8995 -2.5016 0.9724
2.6755 5.9545 -2.5016 0.9724
2.5550 6.0072 -2.5016 0.9724
2.4336 6.0574 -2.5016 0.9724
2.3112 6.1052 -2.5016 0.9724
2.1878 6.1505 -2.5016 0.9724
2.0635 6.1933 -2.5017 0.9724
1.9384 6.2336 -2.5017 0.9724
1.6859 6.3066 -2.5017 0.9724
1.5586 6.3392 -2.5017 0.9724
1.4307 6.3693 -2.5017 0.9724
1.3022 6.3968 -2.5017 0.9724
1.1731 6.4218 -2.5017 0.9724
1.0436 6.4441 -2.5017 0.9724
0.9137 6.4638 -2.5017 0.9724
0.7834 6.4809 -2.5017 0.9724
-5.5276 2.6099 -2.5018 0.9739
-5.5790 2.4980 -2.5018 0.9739
-5.8018 1.9248 -2.5018 0.9739
-5.8394 1.8076 -2.5018 0.9739
-5.8746 1.6896 -2.5018 0.9739
-5.9075 1.5710 -2.5018 0.9739
-5.9379 1.4518 -2.5018 0.9739
-6.0354 0.9694 -2.5018 0.9739
-6.0829 0.6033 -2.5018 0.9739
-6.1023 0.3580 -2.5018 0.9739
-6.1118 0.1121 -2.5018 0.9739
-6.1113 -0.1341 -2.5018 0.9739
-6.1074 -0.2571 -2.5018 0.9739
-6.1010 -0.3800 -2.5018 0.9739
-6.0921 -0.5027 -2.5018 0.9739
-6.0669 -0.7475 -2.5018 0.9739
-6.0319 -0.9912 -2.5018 0.9739
-6.0107 -1.1124 -2.5018 0.9739
-5.9871 -1.2332 -2.5018 0.9739
-5.9017 -1.5923 -2.5018 0.9739
-5.8685 -1.7108 -2.5018 0.9739
-5.8329 -1.8286 -2.5018 0.9739
-5.7118 -2.1774 -2.5018 0.9739
-5.6196 -2.4055 -2.5018 0.9739
-5.4078 -2.8498 -2.5018 0.9739
-5.3494 -2.9581 -2.5018 0.9739
-5.2887 -3.0651 -2.5018 0.9739
-5.2259 -3.1710 -2.5018 0.9739
-5.0941 -3.3788 -2.5018 0.9739
-5.0250 -3.4807 -2.5018 0.9739
-4.9539 -3.5811 -2.5018 0.9739
-4.3155 -4.3292 -2.5018 0.9739
-4.2274 -4.4152 -2.5018 0.9739
-4.1377 -4.4994 -2.5018 0.9739
-3.9532 -4.6623 -2.5018 0.9739
-3.7623 -4.8176 -2.5018 0.9739
-3.0483 -5.2983 -2.5018 0.9739
-2.8325 -5.4167 -2.5018 0.9739
-2.7229 -5.4727 -2.5017 0.9739
-2.5004 -5.5778 -2.5017 0.9739
-2.0436 -5.7609 -2.5017 0.9739
-1.9272 -5.8008 -2.5017 0.9739
-1.8100 -5.8385 -2.5017 0.9739
-1.4543 -5.9370 -2.5017 0.9739
-1.3345 -5.9651 -2.5017 0.9739
-1.2141 -5.9908 -2.5017 0.9739
-0.9720 -6.0348 -2.5017 0.9739
-0.6059 -6.0824 -2.5017 0.9739
-0.1147 -6.1114 -2.5017 0.9739
0.1314 -6.1111 -2.5017 0.9739
0.2544 -6.1072 -2.5017 0.9739
0.6226 -6.0807 -2.5017 0.9739
1.2305 -5.9873 -2.5017 0.9739
1.9430 -5.7954 -2.5017 0.9739
2.0593 -5.7551 -2.5017 0.9739
2.1748 -5.7124 -2.5017 0.9739
2.5156 -5.5707 -2.5016 0.9739
2.6272 -5.5190 -2.5016 0.9739
2.8473 -5.4087 -2.5016 0.9739
3.3764 -5.0952 -2.5016 0.9739
3.5787 -4.9551 -2.5016 0.9739
3.8713 -4.7300 -2.5016 0.9739
4.2393 -4.4033 -2.5016 0.9739
4.4131 -4.2291 -2.5016 0.9739
4.5797 -4.0480 -2.5016 0.9739
4.6603 -3.9550 -2.5016 0.9739
4.7390 -3.8603 -2.5016 0.9739
4.9633 -3.5672 -2.5016 0.9739
5.1029 -3.3646 -2.5016 0.9739
5.1696 -3.2611 -2.5016 0.9739
5.2342 -3.1564 -2.5016 0.9739
5.2967 -3.0504 -2.5016 0.9739
5.3570 -2.9432 -2.5016 0.9739
5.4711 -2.7251 -2.5016 0.9739
5.6726 -2.2761 -2.5016 0.9739
5.7173 -2.1615 -2.5016 0.9739
5.7596 -2.0459 -2.5016 0.9739
5.9056 -1.5760 -2.5016 0.9739
5.9361 -1.4568 -2.5016 0.9739
5.9899 -1.2167 -2.5016 0.9739
6.0340 -0.9745 -2.5016 0.9739
6.0524 -0.8529 -2.5016 0.9739
6.1014 -0.3632 -2.5016 0.9739
6.1109 0.1288 -2.5016 0.9739
6.1070 0.2518 -2.5016 0.9739
6.1007 0.3747 -2.5016 0.9739
6.0807 0.6200 -2.5016 0.9739
6.0322 0.9859 -2.5016 0.9739
6.0111 1.1071 -2.5016 0.9739
5.9876 1.2279 -2.5016 0.9739
5.9617 1.3482 -2.5016 0.9739
5.9333 1.4679 -2.5016 0.9739
