ply
format ascii 1.0
element vertex 1536
property float32 x
property float32 y
property float32 z
property float32 I
end_header
-33.7416 56.8095 11.6507 0.7646
-34.9967 56.3161 11.6913 0.7639
-37.5359 55.3179 11.7876 0.7622
-38.8224 54.8122 11.8436 0.7612
-42.7635 53.2628 12.0441 0.7577
-44.1089 52.7340 12.1224 0.7564
-51.1388 49.9703 12.6073 0.7480
-52.6171 49.3891 12.7247 0.7459
-57.2306 47.5754 13.1228 0.7391
-58.8355 46.9445 13.2719 0.7366
-60.4779 46.2988 13.4300 0.7339
-62.1606 45.6372 13.5974 0.7311
-63.8864 44.9587 13.7747 0.7281
-61.2464 8.0928 10.8933 0.7781
-60.6767 5.5502 10.7436 0.7808
-59.7387 4.2571 10.5602 0.7841
-59.4750 3.0397 10.5007 0.7851
-59.2709 1.8373 10.4561 0.7860
-57.8864 -0.5306 10.2074 0.7905
-64.6534 -3.1913 11.4140 0.7688
-68.6780 -4.7738 12.1390 0.7561
-55.4133 -40.5350 12.1060 0.7566
-47.1860 -37.5150 10.6293 0.7828
-38.9405 -34.9850 9.2304 0.8085
-37.3202 -39.3803 9.5666 0.8022
-36.6823 -41.9597 9.8273 0.7974
-41.3677 -55.7842 12.2458 0.7542
-40.7213 -57.2812 12.3924 0.7517
14.2270 -31.4306 5.2853 0.8697
16.2481 -30.8111 5.3362 0.8685
17.1323 -30.9647 5.4213 0.8666
17.8011 -30.7018 5.4367 0.8662
18.4742 -30.4376 5.4545 0.8658
51.7986 -31.2916 9.2708 0.7828
51.8694 -29.9298 9.1741 0.7848
55.2206 -27.5740 9.4555 0.7790
55.8717 -26.5114 9.4739 0.7786
57.6510 -24.5711 9.6005 0.7760
75.6870 -28.7255 12.4018 0.7207
77.7691 -27.7427 12.6491 0.7160
81.8342 -25.5390 13.1329 0.7069
95.9573 -21.6794 15.0706 0.6716
59.3091 -7.2604 9.1536 0.7852
58.9726 -6.0203 9.0812 0.7867
57.8737 2.2470 8.8726 0.7911
57.4262 3.3853 8.8126 0.7923
56.9845 4.5089 8.7570 0.7935
18.9980 2.6616 2.9388 0.9253
53.1021 8.5298 8.2392 0.8044
52.6995 9.5541 8.2049 0.8051
52.3411 10.5786 8.1805 0.8057
51.9034 11.5793 8.1468 0.8064
51.6469 12.6157 8.1446 0.8064
51.1172 13.5793 8.1025 0.8073
56.2175 16.1492 8.9606 0.7892
55.4863 18.3805 8.9544 0.7894
54.4958 20.5149 8.9204 0.7901
54.2232 21.6648 8.9452 0.7896
53.7942 22.7562 8.9480 0.7895
53.3647 23.8486 8.9544 0.7894
52.9345 24.9431 8.9645 0.7892
53.4102 29.2184 9.3265 0.7816
19.8844 67.3192 10.7534 0.7527
16.6586 66.0513 10.4355 0.7591
15.1150 65.4446 10.2897 0.7620
13.6132 64.8544 10.1518 0.7648
12.1506 64.2795 10.0216 0.7674
9.3324 63.1718 9.7826 0.7723
2.8071 60.6070 9.2946 0.7823
1.5759 60.1231 9.2137 0.7840
0.3656 59.6474 9.1378 0.7855
-4.2965 57.8149 8.8813 0.7909
-5.4237 57.3718 8.8282 0.7920
-7.6403 56.5005 8.7343 0.7940
-8.7319 56.0715 8.6934 0.7948
-9.8137 55.6462 8.6562 0.7956
-11.9521 54.8057 8.5933 0.7969
-14.0629 53.9760 8.5449 0.7979
-15.1102 53.5643 8.5260 0.7983
-16.1534 53.1542 8.5106 0.7987
-17.1932 52.7455 8.4988 0.7989
-20.3988 58.5626 9.5001 0.7781
-26.3458 59.7176 9.9991 0.7679
-34.9971 56.3168 10.1576 0.7647
-36.2615 55.8197 10.1972 0.7639
-38.8229 54.8128 10.2899 0.7620
-40.1221 54.3021 10.3432 0.7609
-41.4354 53.7858 10.4012 0.7598
-44.1094 52.7346 10.5321 0.7571
-45.4729 52.1986 10.6053 0.7557
-46.8561 51.6548 10.6838 0.7541
-51.1395 49.9709 10.9535 0.7488
-55.6615 48.1932 11.2791 0.7423
-57.2314 47.5760 11.4013 0.7400
-62.1614 45.6378 11.8137 0.7319
-96.7416 14.7647 14.9920 0.6730
-61.2390 6.8439 9.4399 0.7793
-60.7325 5.5554 9.3427 0.7813
-58.9990 1.8288 9.0427 0.7875
-61.6542 -1.8035 9.4491 0.7791
-69.9733 -4.8638 10.7454 0.7529
-73.6535 -6.6078 11.3286 0.7414
-60.1098 -15.3545 9.5042 0.7780
-58.0746 -18.6236 9.3430 0.7813
-56.9865 -20.8325 9.2951 0.7823
-56.5159 -21.9565 9.2883 0.7824
-54.8409 -27.9222 9.4276 0.7796
-54.6366 -29.2140 9.4914 0.7782
-56.0458 -40.9977 10.6378 0.7550
-43.0794 -35.6847 8.5696 0.7974
-38.9404 -34.9849 8.0194 0.8091
-37.6793 -38.1934 8.2191 0.8048
-37.2442 -39.3001 8.2946 0.8032
-36.3488 -41.5782 8.4604 0.7997
-44.5019 -55.2305 10.8658 0.7505
-41.3668 -55.7829 10.6390 0.7550
-34.7246 -50.9832 9.4498 0.7791
-33.1538 -50.8415 9.2983 0.7822
13.2767 -32.7735 4.6047 0.8671
14.6673 -30.7451 4.4359 0.8716
15.2929 -30.4670 4.4392 0.8715
16.3417 -30.9887 4.5621 0.8682
17.1132 -30.9302 4.6031 0.8671
17.9142 -30.8969 4.6508 0.8658
83.1850 -52.5601 12.8136 0.6724
53.4682 -32.3003 8.1345 0.7773
53.1631 -29.2697 7.9028 0.7829
53.7093 -28.1804 7.8983 0.7830
54.0163 -26.9726 7.8622 0.7838
56.3526 -26.7396 8.1225 0.7776
57.1730 -24.3674 8.0931 0.7783
61.0411 -24.5799 8.5691 0.7669
66.3919 -23.6841 9.1793 0.7525
65.6392 -21.9404 9.0125 0.7564
66.9185 -19.4187 9.0737 0.7550
67.9033 -18.2347 9.1557 0.7531
91.3431 -22.5734 12.2526 0.6842
96.7977 -19.8356 12.8670 0.6713
94.3701 -15.4198 12.4519 0.6800
58.8153 -6.0042 7.6988 0.7878
57.8573 -3.5673 7.5485 0.7915
57.3919 -2.3833 7.4801 0.7932
58.0316 -0.0782 7.5569 0.7913
57.4261 3.3853 7.4911 0.7929
56.9845 4.5088 7.4438 0.7941
56.5482 5.6188 7.4000 0.7951
53.9184 6.4530 7.0714 0.8033
18.9969 2.6614 2.4980 0.9255
53.1021 8.5297 7.0036 0.8050
52.6995 9.5541 6.9744 0.8057
51.9033 11.5793 6.9251 0.8069
51.5523 12.5926 6.9106 0.8073
51.1172 13.5793 6.8874 0.8079
55.0567 19.4733 7.6048 0.7901
54.4958 20.5149 7.5827 0.7907
54.2232 21.6648 7.6037 0.7901
48.5128 20.5220 6.8594 0.8086
53.3647 23.8486 7.6116 0.7900
52.5031 26.0405 7.6317 0.7895
53.4296 29.2290 7.9307 0.7822
52.9775 30.3791 7.9525 0.7817
19.8847 67.3202 9.1409 0.7534
18.2476 66.6767 9.0020 0.7567
16.6588 66.0523 8.8707 0.7597
15.1152 65.4455 8.7467 0.7627
13.6134 64.8552 8.6296 0.7654
10.7246 63.7198 8.4144 0.7706
9.3325 63.1726 8.3157 0.7729
7.9721 62.6379 8.2226 0.7751
5.3381 61.6026 8.0520 0.7793
2.8071 60.6078 7.9009 0.7829
1.5760 60.1238 7.8321 0.7846
0.3656 59.6481 7.7676 0.7861
-0.8255 59.1799 7.7072 0.7876
-1.9987 58.7188 7.6508 0.7890
-8.7320 56.0721 7.3898 0.7954
-10.8869 55.2251 7.3299 0.7969
-11.9522 54.8063 7.3047 0.7975
-20.3986 58.5620 8.0754 0.7787
-36.7783 88.1136 12.4336 0.6803
-26.3461 59.7183 8.4997 0.7685
-28.7928 58.7565 8.5206 0.7680
-32.4953 57.3010 8.5781 0.7667
-36.2620 55.8204 8.6681 0.7645
-37.5368 55.3192 8.7056 0.7636
-38.8233 54.8135 8.7469 0.7627
-41.4359 53.7864 8.8415 0.7604
-45.4735 52.1992 9.0150 0.7563
-48.2611 51.1034 9.1532 0.7531
-49.6883 50.5423 9.2296 0.7513
-52.6184 49.3904 9.3977 0.7474
-54.1251 48.7981 9.4899 0.7453
-57.2322 47.5766 9.6917 0.7407
-62.1623 45.6384 10.0422 0.7327
-63.8882 44.9599 10.1732 0.7297
-96.7438 14.7650 12.7439 0.6738
-60.7332 6.7874 7.9580 0.7815
-60.2308 5.5095 7.8761 0.7835
-59.7385 4.2571 7.7989 0.7854
-58.9989 1.8288 7.6866 0.7881
-58.7145 0.6406 7.6463 0.7891
-61.0854 -1.7869 7.9580 0.7815
-64.5018 -3.1839 8.4097 0.7707
-62.6237 -4.3529 8.1746 0.7763
-62.0585 -5.5675 8.1138 0.7778
-61.6685 -6.7830 8.0790 0.7786
-60.7788 -9.1675 8.0042 0.7804
-59.7346 -11.4795 7.9210 0.7824
-61.7320 -13.1537 8.2193 0.7752
-58.3846 -14.9137 7.8470 0.7842
-58.0269 -16.0700 7.8407 0.7844
-59.8730 -17.8829 8.1371 0.7772
-56.6143 -19.4172 7.7939 0.7855
-58.4965 -21.3846 8.1105 0.7778
-58.0391 -22.5483 8.1082 0.7779
-56.6657 -26.0420 8.1210 0.7776
-55.2830 -29.5596 8.1635 0.7766
-52.9295 -35.5469 8.3026 0.7732
-49.8540 -36.4684 8.0436 0.7795
-46.6475 -37.0868 7.7604 0.7863
-38.8803 -36.3678 6.9327 0.8067
-35.8870 -42.7526 7.2687 0.7984
-44.5009 -55.2292 9.2361 0.7512
-34.8164 -51.1180 8.0540 0.7792
14.0154 -32.6950 3.8198 0.8667
14.3107 -31.6157 3.7265 0.8697
15.3198 -30.5204 3.6670 0.8716
18.4737 -30.4368 3.8233 0.8665
55.1609 -33.3229 6.9202 0.7716
53.4886 -28.0646 6.4863 0.7843
54.1489 -27.0388 6.4992 0.7839
40.1426 -19.0479 4.7712 0.8363
59.1609 -23.8228 6.8485 0.7737
80.2795 -28.6382 9.1526 0.7097
66.1471 -17.7631 7.3546 0.7592
59.3090 -7.2604 6.4162 0.7863
58.8645 -6.0092 6.3538 0.7882
57.8573 -3.5673 6.2246 0.7920
57.5067 -2.3880 6.1806 0.7933
56.9346 -1.2200 6.1151 0.7952
56.4974 1.0583 6.0679 0.7967
56.3461 4.4583 6.0694 0.7966
18.9958 2.6613 2.0597 0.9257
53.1021 8.5297 5.7753 0.8054
52.6995 9.5541 5.7512 0.8062
52.3342 10.5772 5.7334 0.8067
51.9033 11.5793 5.7105 0.8074
51.1171 13.5793 5.6794 0.8083
54.0548 16.7098 6.0755 0.7964
49.3979 17.4718 5.6264 0.8099
48.6346 19.4318 5.6239 0.8100
44.6823 24.4437 5.4691 0.8147
43.9239 26.3732 5.5015 0.8137
41.8390 32.5517 5.6924 0.8079
41.2751 34.8609 5.8015 0.8046
40.8531 35.9343 5.8424 0.8034
40.4251 37.0234 5.8864 0.8021
39.9903 38.1294 5.9333 0.8007
40.0765 41.4078 6.1880 0.7931
39.6101 42.6053 6.2468 0.7913
38.8178 45.2690 6.4035 0.7867
19.8850 67.3211 7.5378 0.7540
18.2478 66.6776 7.4232 0.7572
15.1154 65.4464 7.2127 0.7632
12.1510 64.2812 7.0249 0.7686
7.9722 62.6387 6.7805 0.7757
6.6414 62.1156 6.7081 0.7778
2.8072 60.6085 6.5152 0.7834
1.5760 60.1246 6.4585 0.7851
-0.8255 59.1807 6.3555 0.7881
-1.9987 58.7195 6.3091 0.7895
-8.7321 56.0728 6.0938 0.7959
-14.0632 53.9772 5.9897 0.7990
-16.1537 53.1555 5.9657 0.7997
-17.1936 52.7467 5.9573 0.8000
-36.7792 88.1156 10.2532 0.6810
-26.3464 59.7190 7.0091 0.7691
-27.5682 59.2387 7.0163 0.7688
-30.0220 58.2741 7.0392 0.7682
-31.2558 57.7891 7.0550 0.7677
-33.7427 56.8115 7.0954 0.7666
-36.2624 55.8210 7.1479 0.7651
-37.5373 55.3199 7.1788 0.7642
-38.8238 54.8141 7.2129 0.7632
-40.1231 54.3034 7.2502 0.7621
-44.1105 52.7359 7.3827 0.7584
-46.8572 51.6561 7.4890 0.7554
-48.2616 51.1040 7.5480 0.7537
-51.1408 49.9722 7.6781 0.7500
-52.6191 49.3910 7.7495 0.7480
-54.1258 48.7987 7.8256 0.7459
-55.6630 48.1944 7.9063 0.7436
-57.2329 47.5773 7.9920 0.7413
-60.4803 46.3006 8.1791 0.7361
-62.1631 45.6391 8.2811 0.7333
-63.8891 44.9606 8.3890 0.7303
-97.3032 18.8753 10.6434 0.6712
-96.4514 16.7083 10.5114 0.6745
-61.2389 6.8439 6.6169 0.7804
-60.7324 5.5553 6.5488 0.7824
-59.4749 3.0397 6.3948 0.7870
-59.2708 1.8372 6.3677 0.7878
-57.8920 -0.5307 6.2168 0.7922
-62.9676 -3.1081 6.7698 0.7760
-62.4822 -4.3431 6.7256 0.7773
-61.0605 -7.9598 6.6123 0.7806
-59.2285 -12.6202 6.5028 0.7838
-57.8876 -16.0314 6.4500 0.7853
-57.3831 -17.1392 6.4309 0.7859
-57.0037 -18.2801 6.4282 0.7860
-56.0639 -20.4953 6.4099 0.7865
-55.2465 -22.7502 6.4158 0.7863
-54.3092 -24.9590 6.4182 0.7863
-53.0410 -28.3608 6.4587 0.7851
-52.1468 -30.6358 6.4945 0.7840
-51.6955 -31.7837 6.5164 0.7834
-47.5087 -33.3096 6.2306 0.7918
-49.3824 -37.6682 6.6694 0.7789
-39.9181 -34.4404 5.6614 0.8089
-38.4563 -37.4466 5.7638 0.8058
-36.6822 -41.9597 5.9847 0.7991
-35.8870 -42.7526 5.9938 0.7989
-44.4999 -55.2280 7.6160 0.7518
-41.9230 -54.2230 7.3599 0.7590
-39.6318 -53.4433 7.1446 0.7652
-35.9773 -50.6080 6.6676 0.7790
-33.1524 -50.8393 6.5174 0.7834
14.1791 -31.3250 2.9108 0.8711
15.2416 -30.3648 2.8761 0.8725
17.1318 -30.9638 2.9956 0.8676
65.4301 -60.2496 7.5294 0.6997
66.6010 -58.9014 7.5265 0.6998
67.8956 -57.6590 7.5405 0.6994
52.2519 -31.5655 5.1677 0.7827
53.9554 -31.1335 5.2733 0.7787
53.6429 -29.5339 5.1838 0.7821
54.7238 -28.7127 5.2315 0.7803
55.3709 -26.2738 5.1882 0.7819
56.3618 -25.3705 5.2323 0.7803
64.7436 -18.7876 5.7068 0.7629
65.8606 -17.6862 5.7728 0.7605
66.2298 -16.3672 5.7752 0.7604
92.1179 -15.0517 7.9015 0.6875
59.2807 -7.2569 5.0557 0.7868
58.7871 -6.0013 5.0024 0.7888
58.3316 -4.7738 4.9544 0.7906
56.9346 -1.2200 4.8208 0.7956
57.9595 -0.0781 4.9064 0.7924
58.3206 1.0924 4.9379 0.7912
57.8668 2.2467 4.9023 0.7926
54.5963 4.3199 4.6362 0.8026
54.2525 5.3906 4.6152 0.8034
53.8376 6.4433 4.5900 0.8044
53.0322 8.5185 4.5469 0.8060
52.6477 9.5447 4.5294 0.8067
65.5622 18.8336 5.7745 0.7605
68.5600 21.1937 6.0748 0.7497
49.0161 18.4520 4.4336 0.8104
48.2529 20.4120 4.4352 0.8103
47.8707 21.3933 4.4386 0.8102
47.4878 22.3766 4.4439 0.8100
47.1039 23.3625 4.4510 0.8097
44.1259 24.1393 4.2578 0.8172
42.6207 24.4402 4.1591 0.8210
42.2548 25.3710 4.1722 0.8205
41.8865 26.3081 4.1872 0.8199
41.5153 27.2523 4.2039 0.8193
41.1410 28.2044 4.2225 0.8185
40.3816 30.1362 4.2654 0.8169
39.9958 31.1177 4.2898 0.8159
39.4681 33.3348 4.3733 0.8127
38.6553 35.4026 4.4373 0.8102
38.2396 36.4601 4.4727 0.8089
37.8170 37.5352 4.5105 0.8074
40.0764 41.4078 4.8782 0.7935
5.3936 16.9963 1.5095 0.9309
19.8853 67.3221 5.9424 0.7544
18.2481 66.6786 5.8521 0.7577
15.1156 65.4473 5.6861 0.7637
13.6138 64.8570 5.6100 0.7664
12.1511 64.2821 5.5380 0.7690
10.7249 63.7215 5.4701 0.7715
7.9723 62.6395 5.3454 0.7761
6.6414 62.1164 5.2883 0.7782
2.8072 60.6093 5.1362 0.7838
0.3656 59.6496 5.0496 0.7871
-1.9987 58.7202 4.9737 0.7899
-3.1553 58.2656 4.9396 0.7912
-4.2967 57.8169 4.9079 0.7924
-5.4239 57.3738 4.8785 0.7935
-6.5382 56.9359 4.8515 0.7945
-10.8872 55.2264 4.7650 0.7977
-13.0109 54.3916 4.7343 0.7989
-15.1107 53.5661 4.7115 0.7998
-17.1938 52.7473 4.6964 0.8003
-20.3982 58.5608 5.2495 0.7796
-36.7796 88.1166 8.0830 0.6816
-26.3467 59.7196 5.5256 0.7695
-27.5686 59.2393 5.5312 0.7693
-31.2562 57.7898 5.5618 0.7682
-32.4961 57.3024 5.5765 0.7676
-34.9983 56.3187 5.6131 0.7663
-36.2628 55.8217 5.6350 0.7655
-41.4369 53.7877 5.7477 0.7614
-46.8578 51.6567 5.9039 0.7558
-48.2622 51.1046 5.9504 0.7541
-49.6895 50.5435 6.0000 0.7524
-51.1414 49.9728 6.0530 0.7505
-54.1265 48.7993 6.1692 0.7464
-55.6637 48.1950 6.2329 0.7441
-57.2336 47.5779 6.3004 0.7417
-60.4811 46.3012 6.4479 0.7366
-62.1640 45.6397 6.5283 0.7338
-63.8899 44.9612 6.6134 0.7308
-97.6044 16.9080 8.3855 0.6719
-59.2008 3.0258 5.0181 0.7882
-58.7270 1.8204 4.9738 0.7899
-57.8939 -0.5307 4.9011 0.7926
-62.9676 -3.1082 5.3369 0.7764
-56.7205 -3.9426 4.8131 0.7959
-55.9635 -6.1555 4.7660 0.7977
-60.6163 -9.1430 5.1894 0.7819
-59.7004 -11.4730 5.1463 0.7835
-59.2478 -12.6244 5.1281 0.7841
-58.7982 -13.7681 5.1121 0.7847
-58.4299 -14.9253 5.1051 0.7850
-57.9846 -16.0582 5.0933 0.7854
-57.0991 -18.3108 5.0760 0.7861
-55.3390 -22.7883 5.0662 0.7864
-54.8992 -23.9072 5.0689 0.7863
-54.4587 -25.0277 5.0736 0.7862
-53.5022 -27.2406 5.0824 0.7858
-53.0582 -28.3700 5.0933 0.7854
-52.1636 -30.6457 5.1215 0.7844
-51.7122 -31.7940 5.1388 0.7837
-51.3269 -32.9950 5.1653 0.7827
-45.7106 -30.6987 4.6612 0.8017
-45.3751 -31.8136 4.6912 0.8005
-49.4651 -37.7313 5.2665 0.7790
-46.6438 -37.0839 5.0444 0.7873
-42.9511 -35.5785 4.7213 0.7994
-39.9166 -34.4392 4.4629 0.8093
-38.9404 -34.9849 4.4314 0.8105
-38.5268 -36.0370 4.4658 0.8092
-38.1065 -37.1061 4.5025 0.8077
-37.2441 -39.3000 4.5835 0.8046
-36.8008 -40.4278 4.6279 0.8030
-35.8870 -42.7526 4.7252 0.7993
-40.3088 -52.1352 5.5787 0.7676
-34.7874 -51.0754 5.2313 0.7803
-31.9233 -48.9545 4.9474 0.7909
13.1925 -32.5657 2.1788 0.8686
14.0103 -32.6832 2.2051 0.8672
14.4861 -32.0031 2.1784 0.8687
15.1441 -31.7445 2.1810 0.8685
17.8004 -30.7007 2.2006 0.8674
65.6430 -60.4456 5.5334 0.6993
65.5196 -57.9450 5.4238 0.7043
70.5697 -57.5319 5.6460 0.6943
83.5875 -52.8145 6.1313 0.6728
53.9764 -29.7175 3.8209 0.7812
54.3822 -28.5335 3.8083 0.7818
55.0640 -27.4958 3.8166 0.7814
55.8901 -26.5201 3.8361 0.7804
78.2702 -33.3591 5.2760 0.7111
65.6988 -21.9603 4.2956 0.7576
66.9226 -17.9714 4.2969 0.7575
69.1649 -17.0926 4.4180 0.7516
92.9899 -15.1942 5.8428 0.6855
59.8136 -8.5442 3.7467 0.7849
58.3314 -4.7738 3.6292 0.7909
57.5389 -2.3893 3.5711 0.7939
56.0422 1.0497 3.4758 0.7988
55.3238 3.2614 3.4366 0.8008
52.3337 10.5771 3.3108 0.8074
51.9021 11.5791 3.2976 0.8081
49.0161 18.4520 3.2477 0.8107
48.6346 19.4318 3.2477 0.8107
47.8707 21.3933 3.2514 0.8105
47.4878 22.3765 3.2553 0.8103
47.1038 23.3625 3.2605 0.8100
44.1299 24.1415 3.1192 0.8174
40.3076 24.2018 2.9154 0.8283
39.9562 25.0957 2.9259 0.8277
39.8754 26.1758 2.9578 0.8260
39.5159 27.0903 2.9709 0.8253
35.5399 28.8147 2.8372 0.8325
37.6612 31.8087 3.0569 0.8207
36.3330 36.0623 3.1744 0.8145
40.0764 41.4078 3.5734 0.7938
19.8856 67.3231 4.3530 0.7548
7.9724 62.6403 3.9157 0.7764
6.6415 62.1172 3.8739 0.7785
5.3383 61.6049 3.8345 0.7805
-1.9987 58.7209 3.6434 0.7902
-3.1554 58.2662 3.6184 0.7915
-4.2967 57.8176 3.5952 0.7927
-7.6407 56.5032 3.5357 0.7957
-9.8142 55.6488 3.5041 0.7973
-10.8873 55.2270 3.4906 0.7980
-13.0110 54.3922 3.4680 0.7992
-14.0635 53.9785 3.4590 0.7997
-15.1109 53.5667 3.4513 0.8001
-16.1541 53.1567 3.4451 0.8004
-17.1940 52.7479 3.4403 0.8006
-27.5689 59.2400 4.0518 0.7696
-33.7435 56.8128 4.0975 0.7673
-41.4374 53.7883 4.2104 0.7618
-42.7661 53.2660 4.2359 0.7605
-44.1115 52.7371 4.2634 0.7592
-57.2344 47.5785 4.6153 0.7421
-63.8908 44.9617 4.8446 0.7312
-71.9519 13.9576 4.5449 0.7455
-71.2965 12.3507 4.4870 0.7483
-60.9579 6.8125 3.8035 0.7821
-60.4537 5.5298 3.7644 0.7840
-59.7385 4.2571 3.7138 0.7866
-58.8008 0.6416 3.6465 0.7900
-51.9743 -2.5655 3.2269 0.8118
-51.5505 -3.5833 3.2044 0.8129
-61.0605 -7.9598 3.8184 0.7813
-60.5966 -9.1400 3.8001 0.7822
-60.1369 -10.3095 3.7835 0.7831
-59.2285 -12.6203 3.7552 0.7845
-57.4449 -17.1577 3.7177 0.7864
-57.0037 -18.2801 3.7121 0.7867
-55.6854 -21.6338 3.7045 0.7871
-55.2466 -22.7502 3.7050 0.7871
-54.8075 -23.8673 3.7069 0.7870
-53.9270 -26.1071 3.7153 0.7865
-52.5952 -29.4952 3.7393 0.7853
-52.1468 -30.6358 3.7504 0.7848
-47.9701 -30.8370 3.5367 0.7957
-41.4328 -29.0496 3.1378 0.8164
-38.9404 -34.9849 3.2461 0.8108
-37.1385 -40.7988 3.4212 0.8016
-36.6822 -41.9596 3.4560 0.7998
-35.8869 -42.7526 3.4613 0.7996
-40.3231 -52.1537 4.0880 0.7678
-34.8497 -51.1669 3.8389 0.7803
13.4326 -33.1583 1.4107 0.8666
14.4786 -31.9866 1.3845 0.8689
15.8038 -31.4847 1.3891 0.8685
18.1248 -31.2602 1.4248 0.8653
18.4731 -30.4358 1.4039 0.8672
65.9517 -58.3271 3.4716 0.7030
67.0819 -56.9680 3.4702 0.7031
69.2275 -56.4376 3.5219 0.6994
85.0664 -51.3888 3.9188 0.6718
81.2719 -46.8958 3.6999 0.6869
83.3562 -45.8929 3.7520 0.6832
81.4567 -40.6748 3.5901 0.6946
66.5539 -22.2462 2.7670 0.7551
65.8052 -20.5366 2.7182 0.7588
66.2115 -19.2135 2.7185 0.7588
67.7321 -18.1888 2.7654 0.7552
97.0631 -15.8598 3.8781 0.6746
59.8136 -8.5442 2.3825 0.7852
59.3089 -7.2604 2.3561 0.7873
58.8151 -6.0042 2.3312 0.7893
57.8572 -3.5673 2.2857 0.7929
35.1541 -0.7533 1.3865 0.8687
56.4848 -0.0761 2.2273 0.7976
56.0422 1.0497 2.2102 0.7990
55.3238 3.2614 2.1853 0.8010
54.3782 5.4031 2.1547 0.8035
18.9916 2.6607 0.7562 0.9261
53.1009 8.5295 2.1207 0.8063
51.9021 11.5791 2.0969 0.8083
51.6457 12.6154 2.0963 0.8083
51.1159 13.5790 2.0855 0.8092
48.6345 19.4318 2.0651 0.8109
48.2528 20.4120 2.0659 0.8108
47.8707 21.3933 2.0675 0.8107
47.4878 22.3765 2.0700 0.8105
47.1038 23.3625 2.0733 0.8102
30.6943 15.9994 1.3649 0.8706
44.1338 24.1437 1.9836 0.8176
38.5774 24.2297 1.7963 0.8333
37.8908 25.9763 1.8115 0.8320
37.1915 27.7555 1.8299 0.8305
36.8361 28.6594 1.8403 0.8296
35.5399 28.8147 1.8041 0.8326
36.1124 30.5005 1.8639 0.8276
35.7432 31.4397 1.8770 0.8265
35.3687 32.3925 1.8911 0.8253
34.9883 33.3602 1.9062 0.8241
34.6016 34.3438 1.9223 0.8227
39.6101 42.6053 2.2938 0.7923
19.8859 67.3240 2.7680 0.7550
18.2486 66.6805 2.7260 0.7582
15.1160 65.4491 2.6487 0.7642
10.7252 63.7232 2.5480 0.7721
7.9725 62.6411 2.4899 0.7766
6.6416 62.1180 2.4633 0.7787
5.3384 61.6057 2.4383 0.7807
-1.9987 58.7216 2.3168 0.7904
-3.1554 58.2669 2.3009 0.7917
-4.2968 57.8183 2.2861 0.7929
-5.4240 57.3752 2.2725 0.7940
-8.7324 56.0747 2.2377 0.7968
-9.8143 55.6494 2.2282 0.7976
-13.0112 54.3928 2.2053 0.7994
-14.0637 53.9791 2.1995 0.7999
-16.1543 53.1573 2.1907 0.8006
-17.1942 52.7485 2.1876 0.8008
-36.7804 88.1187 3.7651 0.6823
-26.3473 59.7210 2.5738 0.7700
-27.5692 59.2407 2.5765 0.7698
-30.0230 58.2761 2.5849 0.7692
-31.2569 57.7911 2.5907 0.7687
-44.1120 52.7377 2.7111 0.7594
-45.4757 52.2017 2.7299 0.7579
-48.2634 51.1059 2.7717 0.7547
-49.6907 50.5448 2.7949 0.7530
-51.1427 49.9740 2.8195 0.7511
-55.6651 48.1962 2.9033 0.7447
-62.1656 45.6409 3.0410 0.7344
-79.7185 29.3004 3.3490 0.7118
-78.8617 27.2012 3.2894 0.7161
-74.9822 17.6958 3.0378 0.7346
-74.2745 15.9617 2.9956 0.7378
-72.1606 11.0131 2.8783 0.7466
-61.2463 8.0928 2.4360 0.7809
-61.2389 6.8439 2.4297 0.7814
-59.7385 4.2571 2.3615 0.7868
-57.8975 -0.5307 2.2830 0.7931
-50.8986 -1.4889 2.0078 0.8156
-49.7931 -2.4578 1.9658 0.8191
-49.9847 -3.4744 1.9757 0.8183
-67.7787 -8.8355 2.6952 0.7606
-68.1511 -11.6833 2.7265 0.7582
-66.5596 -15.5855 2.6955 0.7606
-65.7579 -18.2110 2.6905 0.7610
-67.0160 -20.0163 2.7579 0.7558
-66.4841 -21.3204 2.7530 0.7562
-64.8968 -25.2125 2.7453 0.7568
-63.8410 -27.8011 2.7456 0.7567
-63.3126 -29.0967 2.7475 0.7566
-62.7833 -30.3946 2.7505 0.7564
-46.1054 -30.9639 2.1899 0.8007
-40.1273 -28.1342 1.9324 0.8219
-39.3252 -28.7665 1.9212 0.8228
-47.3909 -37.6779 2.3873 0.7848
-43.0714 -35.6781 2.2053 0.7994
-39.9139 -34.4369 2.0787 0.8098
-38.8803 -36.3677 2.0992 0.8081
-38.4562 -37.4466 2.1165 0.8066
-37.3201 -39.3802 2.1393 0.8048
-37.1385 -40.7988 2.1754 0.8018
-35.8870 -42.7526 2.2010 0.7998
-44.4969 -55.2242 2.7965 0.7528
-40.2775 -52.0947 2.5965 0.7683
-39.1823 -52.8372 2.5938 0.7685
-33.1507 -50.8366 2.3931 0.7843
16.4659 -31.2241 0.5963 0.8683
17.4229 -31.4900 0.6079 0.8659
18.4729 -30.4355 0.6014 0.8672
83.3550 -45.8922 1.6073 0.6834
77.2418 -34.7694 1.4306 0.7126
75.6811 -28.7233 1.3674 0.7234
80.7789 -28.8164 1.4487 0.7096
88.8198 -23.8517 1.5535 0.6922
92.5111 -22.8621 1.6097 0.6830
59.3089 -7.2604 1.0093 0.7874
58.9724 -6.0202 1.0013 0.7889
58.3314 -4.7737 0.9886 0.7913
57.8572 -3.5673 0.9792 0.7930
57.5356 -2.3892 0.9727 0.7942
54.4780 5.4130 0.9248 0.8033
53.9172 6.4529 0.9173 0.8047
53.1009 8.5295 0.9085 0.8064
52.6982 9.5539 0.9047 0.8071
52.3270 10.5758 0.9016 0.8077
51.9021 11.5790 0.8983 0.8084
51.1159 13.5790 0.8934 0.8093
73.1067 22.5992 1.2926 0.7363
49.7801 16.4903 0.8858 0.8108
49.0161 18.4520 0.8847 0.8110
48.6345 19.4318 0.8847 0.8110
47.4878 22.3765 0.8867 0.8106
37.1986 23.3637 0.7420 0.8388
36.8690 24.2022 0.7450 0.8383
36.5366 25.0478 0.7483 0.8376
36.2011 25.9013 0.7519 0.8369
35.5196 27.6351 0.7602 0.8352
34.8217 29.4104 0.7699 0.8333
34.4657 30.3160 0.7754 0.8322
33.3649 33.1164 0.7941 0.8286
32.9856 34.0814 0.8012 0.8272
32.5992 35.0643 0.8087 0.8257
16.6600 66.0568 1.1508 0.7614
15.1162 65.4500 1.1347 0.7643
13.6143 64.8596 1.1195 0.7671
10.7253 63.7240 1.0916 0.7722
9.3331 63.1767 1.0788 0.7745
6.6417 62.1188 1.0553 0.7789
4.0609 61.1043 1.0344 0.7827
2.8073 60.6115 1.0249 0.7845
0.3656 59.6517 1.0076 0.7877
-1.9988 58.7223 0.9925 0.7905
-4.2968 57.8190 0.9794 0.7930
-5.4241 57.3759 0.9735 0.7941
-8.7325 56.0754 0.9586 0.7969
-9.8144 55.6501 0.9545 0.7977
-11.9529 54.8095 0.9476 0.7990
-13.0114 54.3934 0.9447 0.7995
-14.0638 53.9797 0.9423 0.8000
-15.1113 53.5679 0.9402 0.8004
-16.1545 53.1579 0.9385 0.8007
-17.1943 52.7491 0.9372 0.8010
-27.5695 59.2414 1.1037 0.7700
-28.7944 58.7599 1.1053 0.7697
-31.2572 57.7917 1.1098 0.7689
-32.4972 57.3043 1.1128 0.7683
-37.5390 55.3224 1.1293 0.7653
-40.1249 54.3059 1.1406 0.7633
-41.4383 53.7896 1.1470 0.7621
-42.7671 53.2673 1.1539 0.7609
-46.8595 51.6586 1.1781 0.7565
-48.2640 51.1065 1.1874 0.7549
-54.1285 48.8012 1.2311 0.7471
-55.6658 48.1969 1.2438 0.7449
-57.2358 47.5797 1.2573 0.7425
-58.8409 46.9488 1.2715 0.7400
-60.4835 46.3031 1.2867 0.7373
-84.8601 47.7840 1.6451 0.6773
-82.7668 42.3226 1.5703 0.6894
-81.6560 39.7072 1.5338 0.6954
-78.6127 32.5327 1.4371 0.7115
-80.7997 27.8696 1.4438 0.7104
-82.2778 26.5435 1.4604 0.7076
-88.1528 24.5787 1.5459 0.6934
-97.3033 18.8754 1.6743 0.6727
-96.4515 16.7083 1.6535 0.6760
-47.0119 -1.3752 0.7945 0.8285
-73.2712 -6.5735 1.2427 0.7450
-84.4015 -11.0025 1.4378 0.7114
-86.7116 -18.4762 1.4976 0.7014
-75.9109 -42.5706 1.4701 0.7060
-83.9162 -51.5937 1.6640 0.6743
-74.6232 -47.9708 1.4985 0.7012
-38.9503 -27.3090 0.8035 0.8267
-38.1490 -27.9061 0.7984 0.8277
-37.9959 -28.9828 0.8072 0.8260
-46.6384 -37.0796 1.0065 0.7879
-39.9126 -34.4357 0.8904 0.8099
-38.9404 -34.9849 0.8843 0.8111
-38.5268 -36.0370 0.8911 0.8097
-37.6792 -38.1933 0.9063 0.8068
-37.2441 -39.3000 0.9146 0.8052
-41.8713 -54.1561 1.1563 0.7604
-37.2763 -52.4353 1.0867 0.7731
11.9751 -29.5607 -0.1796 0.8802
12.6058 -29.4069 -0.1801 0.8799
13.8059 -28.9395 -0.1805 0.8796
15.0132 -28.4694 -0.1812 0.8792
15.6207 -28.2328 -0.1817 0.8789
16.2316 -27.9949 -0.1822 0.8786
16.8463 -27.7555 -0.1828 0.8782
60.0767 -62.4085 -0.4877 0.7072
50.2256 -26.3525 -0.3193 0.7970
76.8435 -34.5901 -0.4744 0.7138
75.6799 -28.7228 -0.4557 0.7234
80.7789 -28.8164 -0.4829 0.7096
82.9184 -25.8774 -0.4890 0.7065
59.8135 -8.5442 -0.3402 0.7853
58.9723 -6.0203 -0.3338 0.7889
58.3314 -4.7737 -0.3295 0.7913
57.8572 -3.5673 -0.3264 0.7930
57.5341 -2.3892 -0.3242 0.7943
56.4906 -1.2105 -0.3181 0.7977
56.1921 1.0525 -0.3164 0.7987
55.3238 3.2614 -0.3120 0.8012
54.7519 4.3322 -0.3092 0.8028
54.3781 5.4031 -0.3077 0.8037
18.9870 2.6600 -0.1079 0.9262
53.0707 8.5247 -0.3026 0.8065
52.6161 9.5390 -0.3011 0.8074
51.9021 11.5791 -0.2994 0.8084
51.6457 12.6154 -0.2993 0.8084
51.1159 13.5790 -0.2978 0.8093
73.3306 22.6684 -0.4321 0.7356
49.7801 16.4903 -0.2953 0.8108
49.0161 18.4520 -0.2949 0.8110
47.8707 21.3933 -0.2952 0.8108
47.4878 22.3765 -0.2956 0.8106
31.1713 16.2480 -0.1979 0.8688
35.5024 23.3052 -0.2391 0.8438
35.1823 24.1194 -0.2402 0.8431
34.8593 24.9413 -0.2413 0.8424
34.5330 25.7715 -0.2426 0.8417
33.8692 27.4601 -0.2455 0.8400
33.5310 28.3203 -0.2471 0.8390
33.1883 29.1923 -0.2489 0.8379
32.8405 30.0771 -0.2507 0.8368
32.1283 31.8889 -0.2549 0.8344
31.3909 33.7646 -0.2596 0.8316
31.0116 34.7295 -0.2621 0.8301
15.1164 65.4509 -0.3782 0.7644
13.6145 64.8605 -0.3731 0.7671
12.1518 64.2855 -0.3683 0.7697
9.3332 63.1775 -0.3596 0.7746
2.8073 60.6123 -0.3416 0.7845
0.3656 59.6525 -0.3358 0.7877
-1.9988 58.7230 -0.3308 0.7905
-3.1555 58.2683 -0.3285 0.7918
-6.5385 56.9385 -0.3227 0.7951
-8.7326 56.0760 -0.3195 0.7969
-10.8877 55.2289 -0.3169 0.7984
-11.9531 54.8101 -0.3158 0.7990
-14.0640 53.9803 -0.3141 0.8000
-20.3978 58.5598 -0.3491 0.7803
-36.7812 88.1206 -0.5376 0.6825
-26.3479 59.7223 -0.3675 0.7702
-32.4975 57.3050 -0.3709 0.7683
-33.7447 56.8147 -0.3720 0.7677
-34.9999 56.3213 -0.3733 0.7670
-36.2645 55.8242 -0.3748 0.7662
-37.5394 55.3230 -0.3764 0.7653
-38.8260 54.8173 -0.3782 0.7644
-41.4388 53.7902 -0.3823 0.7622
-42.7676 53.2679 -0.3846 0.7609
-46.8600 51.6592 -0.3927 0.7565
-54.1292 48.8018 -0.4103 0.7471
-57.2366 47.5803 -0.4191 0.7425
-58.8416 46.9494 -0.4238 0.7400
-63.8934 44.9636 -0.4399 0.7316
-97.3033 18.8753 -0.5580 0.6727
-95.6202 14.5935 -0.5446 0.6791
-27.8449 3.6793 -0.1581 0.8937
-27.6116 3.0858 -0.1564 0.8948
-30.9856 2.8343 -0.1752 0.8830
-59.4748 3.0397 -0.3353 0.7880
-59.2708 1.8373 -0.3339 0.7888
-50.9862 -2.5167 -0.2874 0.8153
-49.3575 -3.4308 -0.2786 0.8204
-75.3399 -6.7591 -0.4260 0.7389
-79.9655 -8.7956 -0.4529 0.7248
-84.8759 -11.0644 -0.4819 0.7101
-74.6140 -37.9897 -0.4714 0.7154
-74.6242 -47.9715 -0.4995 0.7013
-67.3098 -45.2046 -0.4565 0.7230
-40.7457 -28.5678 -0.2802 0.8195
-40.3678 -29.5292 -0.2816 0.8187
-21.1427 -17.5135 -0.1546 0.8960
-19.6932 -16.9908 -0.1464 0.9012
-18.0503 -16.2168 -0.1366 0.9075
-37.7560 -38.2712 -0.3027 0.8065
-44.4953 -55.2223 -0.3993 0.7530
-38.9216 -52.4857 -0.3679 0.7700
11.9750 -29.5604 -0.8981 0.8802
13.8058 -28.9392 -0.9028 0.8796
15.0130 -28.4691 -0.9063 0.8792
15.6206 -28.2325 -0.9085 0.8789
16.2314 -27.9946 -0.9112 0.8785
16.8461 -27.7552 -0.9142 0.8782
17.4184 -27.4405 -0.9152 0.8780
49.9771 -75.3458 -2.5459 0.6964
51.4761 -74.3222 -2.5457 0.6964
52.9535 -73.2678 -2.5455 0.6965
54.4090 -72.1837 -2.5453 0.6965
57.2520 -69.9281 -2.5448 0.6965
58.6380 -68.7573 -2.5445 0.6966
59.9673 -67.5221 -2.5428 0.6967
58.8120 -63.6023 -2.4392 0.7071
61.2208 -58.6881 -2.3880 0.7122
61.0519 -53.9938 -2.2949 0.7217
58.7367 -47.8850 -2.1339 0.7384
55.7549 -40.1195 -1.9341 0.7597
54.4138 -37.5196 -1.8611 0.7676
51.3318 -29.6197 -1.6688 0.7889
50.1326 -26.3038 -1.5941 0.7973
51.4758 -25.7041 -1.6201 0.7943
53.4431 -25.3590 -1.6657 0.7892
56.0353 -23.8825 -1.7152 0.7837
59.3872 -22.5393 -1.7886 0.7756
65.0274 -20.2940 -1.9181 0.7614
67.1448 -19.4844 -1.9687 0.7560
74.3041 -16.7874 -2.1450 0.7372
63.0156 -12.9130 -1.8113 0.7731
79.5125 -14.6367 -2.2765 0.7236
82.5267 -13.4846 -2.3546 0.7156
58.7543 -5.9980 -1.6630 0.7895
58.2589 -4.7678 -1.6459 0.7914
57.2985 -2.3794 -1.6148 0.7949
56.4906 -1.2105 -1.5910 0.7976
56.3063 -0.0759 -1.5855 0.7983
56.1920 1.0525 -1.5825 0.7986
55.0448 3.2450 -1.5526 0.8020
54.6149 4.3214 -1.5426 0.8031
54.1937 5.3848 -1.5335 0.8042
53.7792 6.4363 -1.5251 0.8051
18.9848 2.6597 -0.5398 0.9262
52.1649 10.5430 -1.4986 0.8082
51.7693 11.5494 -1.4936 0.8088
50.9851 13.5443 -1.4854 0.8097
73.3306 22.6684 -2.1612 0.7355
49.3978 17.4717 -1.4754 0.8109
48.6345 19.4318 -1.4747 0.8109
48.2528 20.4120 -1.4753 0.8109
47.8706 21.3933 -1.4764 0.8107
47.4877 22.3765 -1.4782 0.8105
37.6879 21.6115 -1.2233 0.8404
34.7439 20.8613 -1.1411 0.8503
34.4411 21.6317 -1.1452 0.8498
33.8281 23.1910 -1.1549 0.8486
33.2037 24.7795 -1.1666 0.8472
32.5655 26.4031 -1.1805 0.8456
32.2403 27.2302 -1.1883 0.8446
31.5764 28.9193 -1.2057 0.8425
31.2368 29.7832 -1.2153 0.8414
30.8916 30.6614 -1.2256 0.8402
29.8179 33.3927 -1.2606 0.8360
55.8116 67.7951 -2.4726 0.7037
50.2141 72.0842 -2.4737 0.7036
48.7614 73.0846 -2.4739 0.7036
44.2855 75.9075 -2.4746 0.7035
39.6151 78.3945 -2.4732 0.7036
31.5189 81.8650 -2.4701 0.7040
28.1937 83.0248 -2.4689 0.7041
19.8867 67.3269 -1.9767 0.7551
16.6605 66.0587 -1.9183 0.7614
13.6147 64.8614 -1.8662 0.7670
7.9728 62.6435 -1.7781 0.7767
6.6419 62.1204 -1.7591 0.7788
5.3386 61.6080 -1.7413 0.7808
4.0610 61.1058 -1.7244 0.7827
2.8074 60.6130 -1.7086 0.7844
0.3656 59.6532 -1.6797 0.7876
-0.8255 59.1849 -1.6667 0.7891
-1.9988 58.7237 -1.6545 0.7905
-3.1555 58.2690 -1.6431 0.7917
-4.2970 57.8203 -1.6326 0.7929
-6.5386 56.9391 -1.6138 0.7951
-8.7327 56.0767 -1.5980 0.7968
-9.8146 55.6514 -1.5912 0.7976
-10.8878 55.2295 -1.5851 0.7983
-13.0116 54.3946 -1.5748 0.7995
-14.0641 53.9809 -1.5707 0.7999
-17.1947 52.7503 -1.5623 0.8009
-32.0024 81.2213 -2.4581 0.7052
-26.3482 59.7230 -1.8381 0.7701
-28.7951 58.7612 -1.8426 0.7696
-33.7450 56.8154 -1.8607 0.7676
-36.2649 55.8249 -1.8745 0.7661
-38.8265 54.8179 -1.8915 0.7643
-42.7681 53.2685 -1.9235 0.7608
-33.0298 32.2751 -1.3003 0.8313
-32.2378 30.2600 -1.2450 0.8378
-32.9135 29.6741 -1.2478 0.8375
-55.6672 48.1981 -2.0734 0.7448
-58.8424 46.9500 -2.1197 0.7399
-70.5438 51.7921 -2.4642 0.7045
-71.5825 50.3746 -2.4647 0.7045
-34.0265 20.0702 -1.1124 0.8538
-33.8210 19.0443 -1.0929 0.8561
-78.0457 39.9085 -2.4682 0.7041
-78.8493 38.3424 -2.4688 0.7041
-80.3629 35.1629 -2.4700 0.7040
-81.0723 33.5505 -2.4706 0.7039
-81.7500 31.9242 -2.4712 0.7039
-82.7547 28.5440 -2.4649 0.7045
-83.1513 26.8253 -2.4602 0.7050
-84.3647 19.9100 -2.4408 0.7069
-84.5749 18.1753 -2.4358 0.7074
-84.9851 12.9704 -2.4207 0.7089
-27.6662 3.0919 -0.7839 0.8946
-31.0111 2.8367 -0.8768 0.8828
-59.2556 3.0285 -1.6707 0.7887
-58.7813 1.8221 -1.6559 0.7903
-58.3152 0.6363 -1.6421 0.7919
-48.4958 -0.4446 -1.3656 0.8236
-49.3393 -2.4354 -1.3910 0.8206
-79.1686 -8.7079 -2.2427 0.7271
-82.6495 -10.7742 -2.3469 0.7164
-81.9038 -14.0410 -2.3399 0.7171
-61.7799 -11.8725 -1.7714 0.7774
-61.2784 -13.0570 -1.7642 0.7782
-68.5255 -16.0458 -1.9817 0.7546
-85.4288 -23.6586 -2.4960 0.7014
-83.3727 -30.4785 -2.4996 0.7010
-82.7735 -32.1576 -2.5004 0.7009
-80.7738 -37.1214 -2.5031 0.7007
-80.0407 -38.7493 -2.5040 0.7006
-74.4451 -37.9037 -2.3523 0.7158
-73.6954 -39.4046 -2.3531 0.7158
-48.1168 -26.9837 -1.5534 0.8019
-71.2650 -43.8155 -2.3556 0.7155
-70.3959 -45.2533 -2.3564 0.7154
-67.3064 -45.2023 -2.2829 0.7229
-38.8904 -27.2670 -1.3374 0.8269
-39.0639 -28.5754 -1.3628 0.8239
-38.6943 -29.5155 -1.3703 0.8230
-21.3078 -16.9407 -0.7665 0.8968
-21.1427 -17.5135 -0.7731 0.8960
-18.2294 -15.7279 -0.6779 0.9082
-18.0243 -16.1934 -0.6823 0.9076
-38.6839 -36.1840 -1.4915 0.8090
-38.2620 -37.2574 -1.5038 0.8076
-36.4969 -41.7477 -1.5614 0.8010
-35.8870 -42.7526 -1.5717 0.7998
-38.5581 -49.8709 -1.7750 0.7770
-37.9034 -51.1125 -1.7918 0.7752
-34.8926 -49.0823 -1.6957 0.7859
-30.4871 -46.7520 -1.5716 0.7998
11.9749 -29.5600 -1.6174 0.8801
15.6204 -28.2321 -1.6363 0.8788
16.8459 -27.7549 -1.6465 0.8781
17.4182 -27.4402 -1.6483 0.8779
25.8547 -38.9788 -2.3721 0.8292
26.6310 -38.4504 -2.3720 0.8292
27.3963 -37.9063 -2.3719 0.8292
29.9767 -39.7698 -2.5257 0.8192
32.3110 -37.8870 -2.5253 0.8192
33.8016 -36.5547 -2.5249 0.8192
34.5262 -35.8662 -2.5248 0.8192
35.2366 -35.1633 -2.5246 0.8192
35.9327 -34.4462 -2.5244 0.8193
36.6141 -33.7151 -2.5242 0.8193
37.2803 -32.9704 -2.5240 0.8193
38.5669 -31.4416 -2.5235 0.8193
39.7903 -29.8623 -2.5230 0.8193
40.3776 -29.0544 -2.5228 0.8194
40.9485 -28.2351 -2.5225 0.8194
41.5025 -27.4043 -2.5222 0.8194
42.0396 -26.5626 -2.5219 0.8194
42.5693 -23.4372 -2.4644 0.8231
42.1588 -20.0046 -2.3665 0.8295
42.5462 -19.1516 -2.3662 0.8296
43.2688 -17.4234 -2.3656 0.8296
43.6035 -16.5489 -2.3652 0.8296
32.3335 -11.5344 -1.7410 0.8715
31.3930 -10.4933 -1.6786 0.8758
30.6035 -9.5508 -1.6259 0.8795
27.3157 -6.1714 -1.4202 0.8939
27.2863 -5.0229 -1.4071 0.8948
47.6671 -6.8092 -2.4419 0.8246
47.9993 -5.8761 -2.4524 0.8239
41.3242 -3.3819 -2.1028 0.8470
48.3347 -2.0071 -2.4534 0.8239
48.3859 -0.0653 -2.4539 0.8238
48.3165 2.8483 -2.4546 0.8238
48.2543 3.8181 -2.4548 0.8238
48.0721 5.7531 -2.4553 0.8237
18.9825 2.6594 -0.9721 0.9261
47.8121 7.6800 -2.4558 0.8237
47.4750 9.5951 -2.4563 0.8237
47.2777 10.5474 -2.4566 0.8237
46.8259 12.4394 -2.4571 0.8236
46.2984 14.3121 -2.4576 0.8236
45.6959 16.1624 -2.4581 0.8236
44.6539 18.8896 -2.4589 0.8235
31.1713 16.2480 -1.7827 0.8687
37.6908 21.6132 -2.2034 0.8403
33.3380 20.9390 -1.9965 0.8541
32.7447 22.4483 -2.0134 0.8530
32.4440 23.2132 -2.0232 0.8523
32.1403 23.9858 -2.0338 0.8516
29.3177 30.2917 -2.1379 0.8446
28.6242 32.0558 -2.1795 0.8419
28.2670 32.9646 -2.2022 0.8404
27.4211 39.3640 -2.4329 0.8252
25.0172 40.9684 -2.4344 0.8251
23.3295 41.8983 -2.4320 0.8253
22.4939 42.3777 -2.4331 0.8252
13.2582 26.2367 -1.4908 0.8889
20.7686 43.2340 -2.4324 0.8252
16.3402 45.1225 -2.4338 0.8251
15.4382 45.4625 -2.4349 0.8251
11.7450 46.5687 -2.4357 0.8250
10.8029 46.7745 -2.4346 0.8251
7.9705 47.3566 -2.4354 0.8250
7.0214 47.5283 -2.4365 0.8250
6.0684 47.6804 -2.4376 0.8249
5.1077 47.7718 -2.4365 0.8250
4.1491 47.8810 -2.4373 0.8249
2.2244 48.0264 -2.4382 0.8248
1.2603 48.0799 -2.4392 0.8248
0.2948 48.0970 -2.4392 0.8248
-0.6708 48.0874 -2.4390 0.8248
-2.6014 48.0368 -2.4397 0.8247
-3.5664 47.9893 -2.4405 0.8247
-7.4067 47.5617 -2.4411 0.8247
-9.3121 47.2365 -2.4417 0.8246
-11.2014 46.8268 -2.4418 0.8246
-13.0657 46.3168 -2.4406 0.8247
-14.9158 45.7590 -2.4408 0.8247
-15.8297 45.4452 -2.4405 0.8247
-17.6412 44.7729 -2.4405 0.8247
-18.5357 44.4080 -2.4404 0.8247
-19.4165 44.0109 -2.4395 0.8248
-20.2942 43.6082 -2.4393 0.8248
-22.0224 42.7466 -2.4386 0.8248
-22.8696 42.2837 -2.4379 0.8249
-25.3528 40.7973 -2.4360 0.8250
-27.7342 39.1571 -2.4335 0.8252
-29.2613 37.9830 -2.4316 0.8253
-30.0029 37.3692 -2.4304 0.8254
-31.4494 36.1008 -2.4281 0.8255
-32.1517 35.4445 -2.4269 0.8256
-32.8394 34.7735 -2.4256 0.8257
-32.2378 30.2601 -2.2423 0.8377
-37.2267 29.7029 -2.4152 0.8263
-38.8610 27.3476 -2.4099 0.8267
-39.8653 25.7255 -2.4061 0.8269
-40.3406 24.8995 -2.4042 0.8271
-33.8215 19.0446 -1.9685 0.8560
-41.6583 22.3680 -2.3980 0.8275
-42.4462 20.6403 -2.3936 0.8278
-42.8124 19.7659 -2.3914 0.8279
-43.1597 18.8846 -2.3892 0.8280
-43.7963 17.1029 -2.3844 0.8284
-44.0863 16.2039 -2.3820 0.8285
-44.3576 15.2999 -2.3796 0.8287
-44.6097 14.3915 -2.3772 0.8288
-45.0558 12.5625 -2.3721 0.8292
-45.2494 11.6426 -2.3695 0.8293
-45.4243 10.7201 -2.3669 0.8295
-45.7161 8.8682 -2.3617 0.8298
-45.9303 7.0099 -2.3563 0.8302
-27.8999 3.6866 -1.4272 0.8934
-32.5047 1.6613 -1.6506 0.8778
-46.1104 1.4293 -2.3396 0.8313
-46.1401 0.5034 -2.3401 0.8313
-46.1399 -1.3497 -2.3409 0.8312
-46.1120 -2.2761 -2.3414 0.8312
-45.9171 -5.0505 -2.3427 0.8311
-48.6589 -7.3394 -2.4956 0.8211
-48.5112 -8.3164 -2.4961 0.8211
-48.1566 -10.2612 -2.4971 0.8210
-47.9503 -11.2280 -2.4975 0.8210
-47.7245 -12.1907 -2.4980 0.8210
-46.3079 -16.9288 -2.5005 0.8208
-45.9678 -17.8585 -2.5010 0.8208
-45.2316 -19.6972 -2.5020 0.8207
-42.9944 -24.1111 -2.4999 0.8208
-39.0324 -25.0916 -2.3532 0.8304
-38.5283 -25.8752 -2.3537 0.8304
-36.8768 -26.9755 -2.3171 0.8328
-36.4196 -27.7805 -2.3230 0.8324
-21.3078 -16.9407 -1.3805 0.8967
-18.2294 -15.7279 -1.2210 0.9081
-33.9457 -31.7521 -2.3573 0.8301
-33.3077 -32.4334 -2.3577 0.8301
-32.6559 -33.1014 -2.3581 0.8301
-31.9906 -33.7565 -2.3586 0.8301
-30.6207 -35.0261 -2.3594 0.8300
-29.9166 -35.6400 -2.3598 0.8300
-29.2001 -36.2398 -2.3602 0.8299
-26.9796 -37.9513 -2.3615 0.8299
-26.2167 -38.4917 -2.3619 0.8298
11.9747 -29.5597 -2.3385 0.8799
12.6054 -29.4059 -2.3459 0.8796
13.2048 -29.1725 -2.3479 0.8795
14.4079 -28.7039 -2.3549 0.8791
16.1799 -27.9057 -2.3652 0.8786
16.7365 -27.5748 -2.3651 0.8786
17.2864 -27.2326 -2.3651 0.8786
19.4131 -25.7552 -2.3648 0.8787
19.9256 -25.3594 -2.3647 0.8787
22.8025 -25.6752 -2.5178 0.8713
23.8125 -24.7368 -2.5176 0.8713
24.3032 -24.2526 -2.5174 0.8714
24.7838 -23.7585 -2.5173 0.8714
25.2544 -23.2549 -2.5172 0.8714
26.1644 -22.2197 -2.5169 0.8714
26.6036 -21.6885 -2.5167 0.8714
28.6331 -18.9066 -2.5158 0.8714
29.0046 -18.3265 -2.5156 0.8714
29.3644 -17.7391 -2.5154 0.8715
29.7121 -17.1446 -2.5152 0.8715
30.0478 -16.5433 -2.5150 0.8715
30.3712 -15.9353 -2.5148 0.8715
31.5402 -13.4426 -2.5139 0.8715
32.0482 -12.1632 -2.5134 0.8715
32.8751 -9.5398 -2.5099 0.8717
31.9166 -8.5709 -2.4231 0.8759
25.9801 -5.3238 -1.9445 0.8991
32.1048 -1.3332 -2.3560 0.8791
32.1211 -0.6883 -2.3557 0.8791
32.1244 -0.0433 -2.3554 0.8791
32.1240 1.8937 -2.3595 0.8789
32.1009 2.5400 -2.3611 0.8788
18.9802 2.6591 -1.4053 0.9260
31.5621 7.0412 -2.3711 0.8784
17.3876 4.6190 -1.3191 0.9304
30.9574 9.5696 -2.3758 0.8781
15.4329 5.1123 -1.1920 0.9369
30.3639 11.4303 -2.3789 0.8780
29.9027 12.6494 -2.3806 0.8779
29.1146 14.4402 -2.3829 0.8778
28.5266 15.6057 -2.3842 0.8777
27.2207 17.8685 -2.3875 0.8776
26.8685 18.4196 -2.3886 0.8775
26.5051 18.9640 -2.3896 0.8775
24.4833 21.5355 -2.3908 0.8774
23.6013 22.5031 -2.3910 0.8774
22.6973 23.4513 -2.3930 0.8773
19.7205 26.0167 -2.3937 0.8773
18.6741 26.8073 -2.3955 0.8772
18.1370 27.1842 -2.3961 0.8772
17.5857 27.5398 -2.3959 0.8772
16.4624 28.2174 -2.3953 0.8772
15.8908 28.5389 -2.3950 0.8772
15.3197 28.8618 -2.3959 0.8772
13.5586 29.7403 -2.3965 0.8771
12.3508 30.2532 -2.3960 0.8772
11.7459 30.5078 -2.3970 0.8771
11.1346 30.7473 -2.3977 0.8771
10.5132 30.9593 -2.3973 0.8771
9.8878 31.1588 -2.3969 0.8771
9.2588 31.3458 -2.3965 0.8771
8.6293 31.5317 -2.3970 0.8771
7.3587 31.8615 -2.3977 0.8771
6.7168 31.9993 -2.3974 0.8771
6.0752 32.1393 -2.3983 0.8771
4.7798 32.3547 -2.3981 0.8771
4.1284 32.4376 -2.3976 0.8771
3.4757 32.5078 -2.3971 0.8771
2.1688 32.6355 -2.3982 0.8771
1.5129 32.6650 -2.3976 0.8771
0.8569 32.6930 -2.3979 0.8771
-0.4562 32.7012 -2.3980 0.8771
-1.7677 32.6413 -2.3968 0.8771
-3.0773 32.5516 -2.3974 0.8771
-7.6022 31.7807 -2.3960 0.8772
-9.4934 31.2390 -2.3939 0.8773
-10.1160 31.0339 -2.3933 0.8773
-10.7350 30.8188 -2.3929 0.8773
-11.3516 30.5973 -2.3929 0.8773
-11.9606 30.3557 -2.3923 0.8773
-13.1650 29.8408 -2.3915 0.8774
-13.7605 29.5685 -2.3913 0.8774
-14.3494 29.2824 -2.3910 0.8774
-15.5030 28.6636 -2.3894 0.8775
-16.0699 28.3370 -2.3886 0.8775
-16.6323 28.0032 -2.3881 0.8775
-17.1881 27.6588 -2.3877 0.8776
-17.7360 27.3021 -2.3872 0.8776
-18.2736 26.9304 -2.3863 0.8776
-19.3253 26.1552 -2.3844 0.8777
-20.3469 25.3425 -2.3830 0.8778
-21.8103 24.0440 -2.3802 0.8779
-23.1909 22.6609 -2.3774 0.8781
-23.6300 22.1804 -2.3763 0.8781
-24.4783 21.1940 -2.3741 0.8782
-24.8870 20.6883 -2.3729 0.8783
-26.4137 18.5880 -2.3682 0.8785
-26.7677 18.0447 -2.3670 0.8786
-28.6428 14.6464 -2.3588 0.8790
-29.4165 12.8712 -2.3543 0.8792
-29.6493 12.2699 -2.3528 0.8792
-29.8696 11.6644 -2.3512 0.8793
-30.4537 9.8246 -2.3463 0.8796
-30.7789 8.5817 -2.3429 0.8797
-31.0590 7.3299 -2.3399 0.8799
-31.2033 6.7056 -2.3401 0.8798
-31.5612 4.8168 -2.3409 0.8798
-31.6552 4.1828 -2.3412 0.8798
-31.7365 3.5468 -2.3415 0.8798
-31.0739 2.8424 -2.2879 0.8824
-31.9040 1.6306 -2.3423 0.8797
-31.9343 0.9899 -2.3426 0.8797
-33.8728 -0.3105 -2.4837 0.8730
-33.9979 -1.6782 -2.4958 0.8724
-33.9120 -3.0424 -2.4965 0.8724
-33.8484 -3.7231 -2.4968 0.8723
-33.7713 -4.4024 -2.4971 0.8723
-33.6805 -5.0802 -2.4975 0.8723
-33.5763 -5.7561 -2.4978 0.8723
-33.1821 -7.7699 -2.4988 0.8722
-33.0239 -8.4356 -2.4991 0.8722
-32.4694 -10.4124 -2.5001 0.8722
-32.2582 -11.0637 -2.5005 0.8722
-31.5466 -12.9907 -2.5015 0.8721
-31.0081 -14.2505 -2.5022 0.8721
-30.7200 -14.8722 -2.5025 0.8721
-30.4194 -15.4880 -2.5029 0.8721
-30.1064 -16.0978 -2.5032 0.8720
-29.7812 -16.7012 -2.5036 0.8720
-29.0946 -17.8881 -2.5042 0.8720
-26.2720 -18.4200 -2.3526 0.8792
-25.5182 -19.4650 -2.3532 0.8792
-25.1256 -19.9760 -2.3536 0.8792
-19.9260 -16.5056 -1.8972 0.9014
-18.2129 -15.7137 -1.7637 0.9080
-18.0243 -16.1934 -1.7766 0.9074
-23.4543 -21.9386 -2.3548 0.8791
-21.6297 -23.7615 -2.3560 0.8791
-20.1675 -25.0296 -2.3568 0.8790
-19.6633 -25.4324 -2.3571 0.8790
-18.6309 -26.2074 -2.3577 0.8790
-17.5679 -26.9404 -2.3582 0.8790
9.2355 -22.7978 -2.3615 0.9059
9.6913 -22.6078 -2.3615 0.9059
10.1432 -22.4087 -2.3615 0.9059
10.5910 -22.2004 -2.3615 0.9059
11.0345 -21.9832 -2.3614 0.9059
11.4735 -21.7570 -2.3614 0.9059
11.9078 -21.5221 -2.3614 0.9059
13.1812 -20.7654 -2.3613 0.9059
13.5952 -20.4962 -2.3613 0.9059
15.1942 -19.3377 -2.3610 0.9059
17.3884 -19.5791 -2.5140 0.9001
17.7774 -19.2254 -2.5139 0.9001
18.9002 -18.1183 -2.5136 0.9001
19.2593 -17.7345 -2.5135 0.9001
19.6106 -17.3435 -2.5134 0.9001
19.9539 -16.9455 -2.5133 0.9001
20.6160 -16.1292 -2.5130 0.9002
20.9346 -15.7113 -2.5129 0.9002
21.2447 -15.2870 -2.5127 0.9002
21.8388 -14.4202 -2.5125 0.9002
22.3973 -13.5303 -2.5122 0.9002
22.9195 -12.6187 -2.5118 0.9002
24.0605 -10.2547 -2.5110 0.9002
24.2597 -9.7689 -2.5108 0.9002
24.4491 -9.2792 -2.5106 0.9002
24.6286 -8.7858 -2.5104 0.9003
25.4935 -5.7597 -2.5092 0.9003
25.6017 -5.2462 -2.5090 0.9003
25.6997 -4.7308 -2.5088 0.9003
25.7872 -4.2135 -2.5085 0.9003
25.8643 -3.6946 -2.5083 0.9003
25.1661 -2.0596 -2.4241 0.9035
24.4797 -1.5093 -2.3546 0.9061
24.5159 -0.5253 -2.3542 0.9062
24.5191 -0.0331 -2.3540 0.9062
24.4960 0.9511 -2.3535 0.9062
24.4696 1.4425 -2.3533 0.9062
24.3871 2.4231 -2.3528 0.9062
18.8572 2.6418 -1.8281 0.9263
24.1044 4.3700 -2.3519 0.9063
16.6764 4.0735 -1.6481 0.9333
23.2708 7.7087 -2.3535 0.9062
22.6128 9.5657 -2.3572 0.9060
22.0189 10.9209 -2.3596 0.9060
21.3414 12.2379 -2.3618 0.9059
20.3571 12.2230 -2.2796 0.9090
20.8443 13.0919 -2.3631 0.9058
20.5825 13.5111 -2.3637 0.9058
19.7456 14.7359 -2.3654 0.9057
19.4498 15.1324 -2.3659 0.9057
18.1948 16.6637 -2.3687 0.9056
17.5165 17.3860 -2.3694 0.9056
17.1662 17.7365 -2.3697 0.9056
16.4444 18.4158 -2.3703 0.9056
16.0731 18.7442 -2.3705 0.9055
15.3104 19.3778 -2.3710 0.9055
14.9228 19.6873 -2.3717 0.9055
14.1268 20.2796 -2.3728 0.9055
13.7176 20.5602 -2.3729 0.9055
12.4565 21.3510 -2.3731 0.9054
11.1512 22.0671 -2.3737 0.9054
10.7097 22.2947 -2.3745 0.9054
9.3480 22.8979 -2.3744 0.9054
7.9562 23.4295 -2.3755 0.9054
7.4838 23.5832 -2.3754 0.9054
6.5303 23.8618 -2.3751 0.9054
5.0828 24.2148 -2.3754 0.9054
4.5960 24.3138 -2.3756 0.9054
4.1066 24.3990 -2.3754 0.9054
3.6155 24.4740 -2.3751 0.9054
2.6309 24.6059 -2.3758 0.9053
2.1361 24.6511 -2.3755 0.9054
1.6406 24.6859 -2.3752 0.9054
1.1445 24.7106 -2.3749 0.9054
0.1516 24.7303 -2.3743 0.9054
-0.3449 24.7278 -2.3742 0.9054
-0.8414 24.7194 -2.3746 0.9054
-2.3269 24.6139 -2.3736 0.9054
-2.8210 24.5657 -2.3739 0.9054
-3.3130 24.4999 -2.3735 0.9054
-4.2923 24.3383 -2.3727 0.9055
-6.2278 23.9035 -2.3715 0.9055
-6.7050 23.7687 -2.3710 0.9055
-7.6504 23.4699 -2.3699 0.9056
-8.1183 23.3065 -2.3694 0.9056
-9.0431 22.9513 -2.3683 0.9056
-9.5011 22.7626 -2.3681 0.9056
-9.9545 22.5636 -2.3677 0.9057
-11.2864 21.9075 -2.3659 0.9057
-11.7229 21.6746 -2.3657 0.9057
-12.1535 21.4310 -2.3653 0.9057
-12.9963 20.9133 -2.3639 0.9058
-13.4094 20.6419 -2.3632 0.9058
-14.6144 19.7794 -2.3610 0.9059
-15.0055 19.4781 -2.3606 0.9059
-15.3888 19.1671 -2.3598 0.9059
-16.1344 18.5207 -2.3582 0.9060
-16.8527 17.8453 -2.3565 0.9061
-17.5423 17.1414 -2.3547 0.9061
-17.8772 16.7804 -2.3539 0.9062
-18.5221 16.0369 -2.3521 0.9062
-19.1350 15.2677 -2.3502 0.9063
-19.9944 14.0706 -2.3472 0.9064
-20.5245 13.2446 -2.3451 0.9065
-21.9205 10.6594 -2.3401 0.9067
-22.1316 10.2179 -2.3403 0.9067
-22.3339 9.7722 -2.3404 0.9067
-17.0227 7.0446 -1.7687 0.9286
-22.7115 8.8691 -2.3408 0.9067
-22.8867 8.4119 -2.3409 0.9067
-23.3570 7.0207 -2.3415 0.9066
-23.7431 5.6034 -2.3421 0.9066
-23.8528 5.1260 -2.3423 0.9066
-24.0435 4.1651 -2.3427 0.9066
-24.1244 3.6819 -2.3429 0.9066
-25.7604 2.8789 -2.4885 0.9011
-25.8859 2.3678 -2.4955 0.9008
-25.9306 1.8479 -2.4958 0.9008
-25.9649 1.3270 -2.4960 0.9008
-26.0021 0.2837 -2.4965 0.9008
-26.0051 -0.2384 -2.4967 0.9008
-25.9976 -0.7605 -2.4970 0.9008
-25.9796 -1.2824 -2.4972 0.9008
-25.9511 -1.8039 -2.4974 0.9007
-25.9123 -2.3247 -2.4977 0.9007
-25.8629 -2.8447 -2.4979 0.9007
-25.7331 -3.8814 -2.4984 0.9007
-25.6526 -4.3977 -2.4987 0.9007
-25.5617 -4.9123 -2.4990 0.9007
-25.4605 -5.4251 -2.4992 0.9007
-25.3491 -5.9357 -2.4995 0.9007
-25.2274 -6.4441 -2.4997 0.9007
-25.0955 -6.9500 -2.5000 0.9006
-24.8014 -7.9534 -2.5005 0.9006
-24.4673 -8.9445 -2.5010 0.9006
-23.8919 -10.4043 -2.5018 0.9006
-23.2295 -11.8273 -2.5026 0.9006
-22.7408 -12.7529 -2.5031 0.9005
-22.4825 -13.2083 -2.5034 0.9005
-22.2151 -13.6584 -2.5036 0.9005
-21.9387 -14.1031 -2.5039 0.9005
-21.3592 -14.9755 -2.5044 0.9005
-19.1809 -15.2497 -2.3525 0.9062
-18.5570 -16.0106 -2.3530 0.9062
-18.2336 -16.3815 -2.3532 0.9062
-17.5648 -17.1036 -2.3537 0.9062
-16.8673 -17.7983 -2.3541 0.9062
-16.5081 -18.1351 -2.3544 0.9062
-14.6143 -19.7073 -2.3555 0.9061
-14.2170 -19.9985 -2.3557 0.9061
7.4568 -18.4072 -2.3591 0.9231
9.2638 -17.5669 -2.3591 0.9231
9.9614 -17.1806 -2.3590 0.9231
8.6237 -14.2082 -1.9743 0.9352
11.9994 -15.9194 -2.3680 0.9228
13.0262 -16.5785 -2.5045 0.9186
13.3920 -16.3572 -2.5111 0.9184
15.2615 -14.6301 -2.5113 0.9184
15.8354 -14.0047 -2.5111 0.9184
16.9051 -12.6872 -2.5107 0.9184
17.6358 -11.6450 -2.5104 0.9184
17.8652 -11.2881 -2.5103 0.9184
18.3021 -10.5608 -2.5100 0.9184
18.7093 -9.8165 -2.5097 0.9184
18.9016 -9.4384 -2.5096 0.9184
19.4322 -8.2821 -2.5092 0.9184
19.8918 -7.0961 -2.5087 0.9184
20.0290 -6.6949 -2.5086 0.9185
20.1581 -6.2910 -2.5084 0.9185
20.5923 -4.6524 -2.5077 0.9185
20.6801 -4.2377 -2.5076 0.9185
20.8932 -2.9846 -2.5070 0.9185
20.9475 -2.5643 -2.5068 0.9185
21.0304 -1.7211 -2.5065 0.9185
21.0591 -1.2985 -2.5063 0.9185
21.0793 -0.8754 -2.5061 0.9185
21.0911 -0.4520 -2.5059 0.9185
21.0680 0.3946 -2.5030 0.9186
20.3808 1.2015 -2.4252 0.9211
19.7043 1.9578 -2.3521 0.9233
18.8270 2.6376 -2.2582 0.9263
18.7798 6.2210 -2.3500 0.9234
13.6519 4.8286 -1.7201 0.9433
18.3666 7.3383 -2.3494 0.9234
17.7127 8.7851 -2.3486 0.9234
16.9505 10.1775 -2.3485 0.9234
16.7474 10.5187 -2.3492 0.9234
16.3200 11.1883 -2.3504 0.9234
16.0960 11.5164 -2.3510 0.9234
14.8768 13.0856 -2.3535 0.9233
14.6139 13.3842 -2.3540 0.9233
14.3449 13.6774 -2.3544 0.9233
13.7889 14.2470 -2.3552 0.9232
13.5021 14.5231 -2.3555 0.9232
13.2097 14.7933 -2.3559 0.9232
12.9136 15.0597 -2.3565 0.9232
11.6703 16.0560 -2.3578 0.9232
11.0185 16.5147 -2.3583 0.9231
10.6869 16.7361 -2.3588 0.9231
9.3137 17.5466 -2.3597 0.9231
8.6026 17.9079 -2.3599 0.9231
8.2417 18.0779 -2.3600 0.9231
6.3907 18.8193 -2.3608 0.9231
4.0835 19.4540 -2.3612 0.9231
3.2989 19.6005 -2.3610 0.9231
2.5092 19.7148 -2.3607 0.9231
2.1127 19.7601 -2.3606 0.9231
1.7155 19.7973 -2.3604 0.9231
1.3176 19.8262 -2.3603 0.9231
0.5207 19.8641 -2.3604 0.9231
-1.0741 19.8338 -2.3594 0.9231
-1.8694 19.7742 -2.3594 0.9231
-2.2657 19.7302 -2.3591 0.9231
-2.6610 19.6780 -2.3587 0.9231
-3.0550 19.6177 -2.3584 0.9231
-3.4484 19.5531 -2.3585 0.9231
-5.3862 19.0935 -2.3566 0.9232
-6.1461 18.8551 -2.3557 0.9232
-6.5221 18.7243 -2.3552 0.9232
-9.4177 17.4125 -2.3515 0.9234
-10.4417 16.8026 -2.3499 0.9234
-10.7748 16.5863 -2.3494 0.9234
-11.7440 15.8945 -2.3475 0.9235
-12.3655 15.4015 -2.3462 0.9235
-13.5450 14.3428 -2.3434 0.9236
-14.3698 13.4882 -2.3411 0.9237
-14.6326 13.1925 -2.3403 0.9237
-16.7721 10.3522 -2.3412 0.9237
-16.9774 10.0139 -2.3414 0.9237
-17.3675 9.3253 -2.3416 0.9237
-17.5521 8.9752 -2.3417 0.9237
-17.7297 8.6215 -2.3418 0.9237
-18.3685 7.1731 -2.3424 0.9236
-18.6439 6.4307 -2.3427 0.9236
-18.7705 6.0555 -2.3428 0.9236
-18.8895 5.6778 -2.3430 0.9236
-20.4151 4.8180 -2.4916 0.9190
-20.5406 4.4142 -2.4956 0.9189
-20.6265 4.0012 -2.4958 0.9188
-20.7041 3.5866 -2.4960 0.9188
-20.7734 3.1704 -2.4962 0.9188
-20.8344 2.7529 -2.4963 0.9188
