ply
format ascii 1.0
element vertex 1535
property float32 x
property float32 y
property float32 z
property float32 I
end_header
64.4932 50.6052 14.4548 0.7168
61.9130 50.6213 14.1015 0.7227
57.1090 50.6513 13.4599 0.7334
50.6542 50.6917 12.6360 0.7475
44.9244 50.7275 11.9480 0.7594
42.2180 51.7133 11.7712 0.7625
42.2465 56.2112 12.3988 0.7516
42.2619 58.6469 12.7463 0.7456
42.2955 63.9582 13.5205 0.7324
36.6768 60.6174 12.4927 0.7499
35.0401 60.6276 12.3473 0.7524
33.4404 60.6376 12.2102 0.7548
30.3421 60.6570 11.9590 0.7592
28.8392 60.6664 11.8443 0.7612
27.3641 60.6756 11.7364 0.7631
23.0881 60.7024 11.4515 0.7681
21.7067 60.7111 11.3687 0.7696
20.3446 60.7196 11.2915 0.7710
13.7741 60.7607 10.9856 0.7764
9.9780 60.7845 10.8614 0.7787
8.7298 60.7923 10.8293 0.7792
7.4886 60.8001 10.8017 0.7797
5.0226 60.8155 10.7599 0.7805
3.7958 60.8232 10.7456 0.7807
1.3494 60.8386 10.7301 0.7810
-1.0939 60.8539 10.7319 0.7810
-2.3169 60.8615 10.7393 0.7808
-23.3609 -0.2973 3.5790 0.9098
-23.3579 -0.7664 3.5802 0.9098
-23.3489 -2.1783 3.5925 0.9095
-23.3460 -2.6518 3.5995 0.9093
-23.3430 -3.1272 3.6080 0.9091
-23.3370 -4.0859 3.6295 0.9086
-23.3340 -4.5699 3.6425 0.9083
-23.3310 -5.0577 3.6572 0.9079
-23.0025 -6.4579 3.6601 0.9078
-22.5717 -7.8305 3.6600 0.9078
-22.0962 -8.6741 3.6365 0.9084
-21.8699 -9.6154 3.6599 0.9078
-21.4657 -10.4852 3.6598 0.9079
-21.2506 -10.9138 3.6597 0.9079
-20.8921 -11.2654 3.6362 0.9084
-20.3465 -12.0495 3.6226 0.9087
-20.3695 -12.6222 3.6710 0.9076
-20.3730 -13.1977 3.7187 0.9064
-20.3844 -15.0209 3.8790 0.9026
-20.3884 -15.6649 3.9388 0.9012
-20.4930 -16.4099 4.0219 0.8992
-20.4973 -17.0998 4.0893 0.8976
-16.3726 -15.4219 3.4456 0.9130
-17.0802 -16.7479 3.6646 0.9077
-16.8226 -17.8753 3.7604 0.9054
-14.9340 -17.9170 3.5732 0.9099
-17.3722 -21.7140 4.2601 0.8936
-9.8387 -15.2023 2.7741 0.9293
-11.4157 -22.2514 3.8312 0.9038
-10.6156 -21.7564 3.7085 0.9067
-10.1277 -21.8595 3.6907 0.9071
-9.8305 -22.3854 3.7454 0.9058
-10.1127 -24.3439 4.0383 0.8988
-9.9491 -25.3764 4.1756 0.8956
-9.7556 -26.4324 4.3163 0.8922
-9.7665 -28.1917 4.5706 0.8863
-9.7279 -30.0151 4.8336 0.8801
-11.7653 -38.9506 6.2333 0.8482
-9.3601 -39.4218 6.2071 0.8488
-7.4573 -38.1642 5.9571 0.8544
-6.8067 -38.9767 6.0614 0.8520
-6.0794 -39.4719 6.1182 0.8508
-5.2713 -39.4771 6.1013 0.8511
-1.2784 -39.4838 6.0519 0.8523
1.0716 -38.4546 5.8933 0.8558
3.4956 -39.5819 6.0873 0.8515
4.2984 -39.5870 6.1001 0.8512
5.1050 -39.5921 6.1155 0.8508
5.9027 -39.5078 6.1196 0.8507
6.7169 -39.5129 6.1400 0.8503
7.5370 -39.5181 6.1631 0.8498
9.1858 -39.4786 6.2095 0.8487
12.5866 -39.4409 6.3423 0.8457
13.4539 -39.4092 6.3794 0.8449
14.3661 -39.4713 6.4348 0.8437
18.1692 -39.6841 6.6863 0.8381
20.1952 -39.8053 6.8379 0.8347
20.7887 -39.0138 6.7722 0.8362
22.4572 -38.3516 6.8084 0.8354
25.8703 -38.6414 7.1238 0.8285
30.1527 -39.6488 7.6309 0.8174
35.2161 -40.9376 8.2727 0.8037
35.4455 -39.5689 8.1382 0.8066
35.9972 -38.5970 8.0853 0.8077
37.3259 -38.4446 8.2087 0.8051
41.2433 -40.8074 8.8883 0.7907
41.8709 -39.7972 8.8495 0.7915
91.7899 -30.2512 14.8057 0.6763
91.8569 -16.5097 14.2974 0.6855
91.8688 -14.6146 14.2507 0.6863
91.8805 -12.7311 14.2101 0.6870
97.9246 -9.5814 15.0731 0.6716
97.9370 -7.6014 15.0485 0.6720
97.9617 -3.6565 15.0176 0.6725
97.8997 -1.6874 14.9999 0.6729
97.9864 0.2784 15.0110 0.6727
97.9987 2.2461 15.0168 0.6726
97.7109 4.2033 14.9826 0.6732
79.6867 50.5100 14.4533 0.6826
73.0890 50.5513 13.6140 0.6979
67.2066 50.5880 12.8865 0.7115
64.4929 50.6050 12.5584 0.7177
61.9128 50.6211 12.2514 0.7235
59.4549 50.6365 11.9638 0.7290
54.8654 50.6652 11.4406 0.7392
44.9242 50.7274 10.3805 0.7602
42.2311 53.9029 10.4902 0.7580
42.2774 61.2232 11.3980 0.7400
42.2947 63.9570 11.7465 0.7332
36.6767 60.6172 10.8537 0.7507
31.8751 60.6473 10.4959 0.7579
30.3420 60.6569 10.3900 0.7600
27.3640 60.6755 10.1967 0.7639
24.4903 60.6935 10.0263 0.7673
23.0880 60.7023 9.9492 0.7689
20.3445 60.7195 9.8101 0.7717
19.0003 60.7279 9.7479 0.7730
16.3596 60.7444 9.6373 0.7752
13.7741 60.7606 9.5444 0.7772
12.4990 60.7686 9.5043 0.7780
9.9779 60.7844 9.4364 0.7794
3.7958 60.8231 9.3359 0.7814
-1.0939 60.8537 9.3239 0.7817
-2.3169 60.8614 9.3304 0.7816
-23.3464 -1.7062 3.0483 0.9099
-23.3405 -2.6511 3.0590 0.9096
-23.3345 -3.6043 3.0747 0.9092
-23.3285 -4.5688 3.0956 0.9086
-23.3224 -5.5482 3.1218 0.9078
-23.3163 -6.5460 3.1537 0.9069
-23.3038 -8.6124 3.2352 0.9046
-23.2941 -10.2416 3.3136 0.9024
-23.2908 -10.8031 3.3433 0.9016
-23.2840 -11.9582 3.4086 0.8998
-23.2806 -12.5532 3.4443 0.8988
-23.2770 -13.1612 3.4821 0.8977
-23.2698 -14.4194 3.5648 0.8955
-22.2921 -17.1276 3.6608 0.8928
-21.2186 -18.4364 3.6604 0.8928
-20.5902 -18.6288 3.6158 0.8940
-15.1199 -15.4333 2.8134 0.9165
-14.5316 -15.4409 2.7611 0.9180
-16.1043 -17.8154 3.1273 0.9077
-15.5193 -17.8769 3.0828 0.9089
-14.9022 -17.8788 3.0309 0.9104
-16.9775 -22.1166 3.6307 0.8936
-15.4030 -21.8264 3.4787 0.8978
-14.6911 -21.7309 3.4158 0.8996
-8.7502 -16.2445 2.4027 0.9283
-8.5309 -16.6284 2.4337 0.9274
-10.6156 -21.7565 3.1524 0.9070
-10.1277 -21.8595 3.1372 0.9074
-9.7664 -26.4618 3.6731 0.8925
-9.9695 -30.7606 4.2108 0.8777
-11.8278 -39.1576 5.3267 0.8479
-11.0684 -39.4905 5.3407 0.8475
-10.2194 -39.4958 5.3126 0.8483
-9.3045 -39.1875 5.2449 0.8500
-8.2965 -38.3522 5.1098 0.8536
-7.4538 -38.1463 5.0614 0.8549
-6.8509 -39.2295 5.1858 0.8516
-5.2712 -39.4767 5.1863 0.8516
-4.4652 -39.4635 5.1718 0.8520
-0.4854 -39.4888 5.1427 0.8527
0.3079 -39.5621 5.1520 0.8525
1.0706 -38.4199 5.0050 0.8564
1.8438 -38.4357 5.0109 0.8562
4.2984 -39.5867 5.1853 0.8516
5.1050 -39.5920 5.1984 0.8513
7.5370 -39.5182 5.2389 0.8502
9.1856 -39.4780 5.2782 0.8492
10.7718 -39.1101 5.2826 0.8491
11.3582 -38.2247 5.1928 0.8514
13.4976 -39.5371 5.4403 0.8449
15.2904 -39.5236 5.5185 0.8429
16.2111 -39.5267 5.5633 0.8417
20.0675 -39.5536 5.7757 0.8362
20.7609 -38.9617 5.7490 0.8369
24.3068 -39.6623 6.0576 0.8289
28.9095 -39.6410 6.3890 0.8204
30.1412 -39.6337 6.4841 0.8180
31.4866 -39.7218 6.6006 0.8151
32.8871 -39.8198 6.7252 0.8119
35.4452 -39.5686 6.9177 0.8071
36.0077 -38.6082 6.8748 0.8082
37.3260 -38.4447 6.9777 0.8056
40.5557 -40.1271 7.4294 0.7944
41.9531 -39.8752 7.5372 0.7918
43.6881 -39.8861 7.7035 0.7877
79.2905 -51.8734 12.3386 0.6824
83.7918 -50.1346 12.7154 0.6744
91.7333 -34.3728 12.7567 0.6736
91.7368 -32.2892 12.6644 0.6755
91.6803 -28.1878 12.4902 0.6792
91.7893 -26.2167 12.4309 0.6804
93.9840 -24.8142 12.6581 0.6756
93.9004 -22.7860 12.5827 0.6772
91.8308 -16.5050 12.1499 0.6864
91.8678 -14.6145 12.1135 0.6871
91.8545 -12.7275 12.0756 0.6879
97.9607 -3.6565 12.7654 0.6734
97.8987 -1.6873 12.7503 0.6737
97.9977 2.2461 12.7647 0.6734
97.7099 4.2032 12.7356 0.6740
79.6864 50.5098 12.2858 0.6835
76.2889 50.5310 11.9160 0.6913
73.0888 50.5511 11.5724 0.6987
64.4927 50.6048 10.6751 0.7184
59.4547 50.6363 10.1697 0.7298
52.7162 50.6785 9.5224 0.7446
50.6539 50.6914 9.3319 0.7490
48.6718 50.7038 9.1524 0.7531
44.9241 50.7272 8.8238 0.7608
43.1480 50.7384 8.6733 0.7644
42.2450 56.2093 9.1564 0.7530
42.2604 58.6448 9.4130 0.7471
42.3123 66.8630 10.3039 0.7267
36.6766 60.6171 9.2260 0.7514
35.0399 60.6273 9.1187 0.7539
33.4402 60.6373 9.0174 0.7563
31.8750 60.6471 8.9219 0.7585
30.3419 60.6567 8.8319 0.7607
28.8390 60.6661 8.7472 0.7626
27.3639 60.6754 8.6675 0.7645
25.9150 60.6844 8.5928 0.7663
24.4903 60.6934 8.5227 0.7680
21.7066 60.7108 8.3959 0.7710
20.3445 60.7193 8.3390 0.7724
17.6724 60.7360 8.2371 0.7748
15.0606 60.7524 8.1507 0.7769
13.7741 60.7604 8.1130 0.7778
11.2338 60.7763 8.0484 0.7793
8.7298 60.7920 7.9976 0.7806
1.3494 60.8383 7.9244 0.7823
-1.0939 60.8536 7.9257 0.7823
-25.1881 0.1852 2.7048 0.9036
-25.1872 -0.3205 2.7049 0.9036
-25.0817 -2.3400 2.7050 0.9036
-25.0299 -2.8430 2.7050 0.9036
-24.8809 -4.8729 2.7225 0.9030
-24.8776 -5.3929 2.7334 0.9027
-24.8673 -6.9814 2.7735 0.9013
-24.8603 -8.0691 2.8066 0.9002
-24.8567 -8.6232 2.8252 0.8996
-23.4479 -9.2047 2.7049 0.9036
-23.2026 -10.2014 2.7217 0.9031
-23.1990 -10.7605 2.7461 0.9022
-23.1953 -11.3300 2.7720 0.9014
-23.1877 -12.5032 2.8288 0.8994
-23.1838 -13.1085 2.8599 0.8984
-23.1798 -13.7274 2.8928 0.8973
-23.2634 -14.4155 2.9388 0.8957
-23.2596 -15.0676 2.9759 0.8945
-23.2517 -16.4239 3.0569 0.8918
-23.2476 -17.1307 3.1009 0.8903
-23.2433 -17.8584 3.1475 0.8888
-23.2300 -20.1840 3.3045 0.8836
-23.2252 -21.0127 3.3632 0.8816
-23.2203 -21.8718 3.4254 0.8796
-14.5247 -15.4336 2.2758 0.9183
-15.2062 -16.8218 2.4350 0.9128
-15.4873 -17.8401 2.5369 0.9093
-17.0157 -22.1664 3.0007 0.8937
-12.0893 -17.8823 2.3179 0.9168
-9.9590 -15.3882 1.9682 0.9289
-13.1288 -22.1908 2.7687 0.9015
-8.5861 -15.2008 1.8747 0.9322
-8.2098 -16.0025 1.9313 0.9302
-7.9890 -16.3734 1.9563 0.9293
-10.1278 -21.8596 2.5870 0.9076
-9.8310 -22.3866 2.6255 0.9063
-10.1944 -24.5408 2.8536 0.8986
-10.0407 -25.6102 2.9539 0.8952
-9.7665 -26.4619 3.0289 0.8927
-10.2254 -29.5162 3.3543 0.8819
-9.9695 -30.7606 3.4723 0.8780
-11.8602 -39.2648 4.4045 0.8479
-11.1049 -39.6210 4.4185 0.8474
-10.2636 -39.6669 4.3998 0.8480
-9.2995 -39.1667 4.3227 0.8505
-7.4573 -38.1644 4.1757 0.8552
-6.8528 -39.2405 4.2775 0.8519
-5.3010 -39.7000 4.3009 0.8512
2.6072 -38.2775 4.1198 0.8570
5.1050 -39.5921 4.2867 0.8516
5.9001 -39.4903 4.2876 0.8516
7.5370 -39.5183 4.3200 0.8506
9.2425 -39.7224 4.3794 0.8487
10.8127 -39.2587 4.3726 0.8489
12.2715 -38.4537 4.3344 0.8501
13.4976 -39.5372 4.4862 0.8453
17.1497 -39.5356 4.6276 0.8408
20.8227 -39.0777 4.7548 0.8368
21.4317 -38.3454 4.7171 0.8380
22.4573 -38.3518 4.7724 0.8363
25.3624 -39.5788 5.0478 0.8277
25.9729 -38.7946 5.0132 0.8288
26.9264 -38.5229 5.0470 0.8277
30.1529 -39.6491 5.3489 0.8184
35.4307 -39.5524 5.7021 0.8077
37.3261 -38.4448 5.7539 0.8061
77.4110 -55.2043 10.2097 0.6822
77.9492 -53.2605 10.1376 0.6840
81.5519 -51.0450 10.3312 0.6791
84.4967 -50.5563 10.5735 0.6729
43.4697 -20.4015 5.1564 0.8243
91.7806 -34.3905 10.5247 0.6742
91.8064 -30.2566 10.3799 0.6778
91.8234 -28.2318 10.3157 0.6795
93.9828 -24.8139 10.4379 0.6763
93.9954 -22.8091 10.3863 0.6777
94.0078 -20.8232 10.3394 0.6788
91.8804 -18.4252 10.0627 0.6859
91.8924 -16.5161 10.0257 0.6869
91.9042 -14.6202 9.9929 0.6877
97.6304 -7.5776 10.5153 0.6744
97.6428 -5.6093 10.5023 0.6747
97.6551 -3.6451 10.4937 0.6749
97.6674 -1.6833 10.4892 0.6750
97.6919 2.2391 10.4931 0.6749
97.7043 4.2030 10.5014 0.6747
26.0619 8.1753 2.9330 0.8959
83.3027 50.4870 10.4598 0.6758
76.2886 50.5308 9.8261 0.6920
67.2061 50.5877 9.0327 0.7129
64.4924 50.6046 8.8027 0.7191
61.9123 50.6208 8.5876 0.7249
54.8651 50.6649 8.0193 0.7405
52.7160 50.6783 7.8523 0.7451
50.6537 50.6912 7.6952 0.7495
48.6717 50.7037 7.5472 0.7537
46.7635 50.7156 7.4077 0.7577
44.9240 50.7271 7.2762 0.7614
42.2443 56.2082 7.5503 0.7536
42.2596 58.6437 7.7620 0.7477
42.2759 61.2210 7.9891 0.7413
42.2931 63.9545 8.2334 0.7346
42.3114 66.8618 8.4966 0.7274
35.0398 60.6272 7.5194 0.7545
33.4401 60.6372 7.4358 0.7569
30.3419 60.6566 7.2829 0.7612
28.8390 60.6660 7.2130 0.7632
27.3639 60.6752 7.1474 0.7651
25.9149 60.6843 7.0857 0.7669
23.0879 60.7020 6.9738 0.7701
21.7065 60.7106 6.9234 0.7715
20.3444 60.7192 6.8764 0.7729
19.0002 60.7276 6.8328 0.7742
15.0605 60.7522 6.7211 0.7774
13.7740 60.7603 6.6901 0.7783
11.2338 60.7762 6.6368 0.7799
9.9779 60.7841 6.6145 0.7805
8.7298 60.7919 6.5949 0.7811
7.4886 60.7997 6.5781 0.7816
3.7958 60.8228 6.5440 0.7826
2.5717 60.8305 6.5379 0.7828
1.3494 60.8381 6.5345 0.7829
0.1278 60.8458 6.5337 0.7829
-1.0939 60.8534 6.5356 0.7828
-31.9002 0.2345 2.7005 0.8798
-31.8992 -0.4059 2.7006 0.8798
-31.8854 -1.0462 2.7006 0.8798
-31.8585 -1.6861 2.7007 0.8798
-31.8188 -2.3253 2.7007 0.8798
-31.8126 -2.9679 2.7047 0.8796
-31.8085 -3.6130 2.7100 0.8794
-31.8043 -4.2608 2.7164 0.8791
-31.7959 -5.5669 2.7325 0.8785
-31.7916 -6.2263 2.7424 0.8781
-31.7873 -6.8908 2.7534 0.8776
-31.7742 -8.9205 2.7938 0.8759
-31.7698 -9.6113 2.8098 0.8753
-30.1553 -10.4614 2.7020 0.8797
-30.1464 -11.8343 2.7416 0.8781
-28.0247 -15.8456 2.7253 0.8788
-28.0149 -17.3598 2.7899 0.8761
-26.4133 -17.8735 2.6998 0.8798
-26.3976 -18.6460 2.7359 0.8783
-26.3924 -19.4481 2.7753 0.8767
-26.3871 -20.2739 2.8169 0.8750
-24.9580 -19.9853 2.7067 0.8795
-24.7791 -20.6718 2.7317 0.8785
-24.7736 -21.5252 2.7782 0.8766
-23.9549 -21.6729 2.7346 0.8784
-23.2695 -21.9182 2.7061 0.8796
-22.5707 -22.1316 2.6759 0.8808
-21.6877 -22.1372 2.6234 0.8830
-12.8828 -15.4560 1.7033 0.9224
-12.3681 -15.4592 1.6759 0.9236
-11.3858 -15.4654 1.6257 0.9258
-15.4031 -21.8266 2.2614 0.8983
-13.5810 -21.9380 2.1842 0.9016
-13.1288 -22.1908 2.1827 0.9017
-7.6979 -15.7767 1.4860 0.9320
-7.4831 -16.1514 1.5069 0.9310
-11.7596 -38.9317 3.4427 0.8494
-11.0516 -39.4305 3.4665 0.8484
-9.2575 -38.9895 3.3923 0.8514
-8.2549 -38.1595 3.3050 0.8549
-7.4573 -38.1645 3.2918 0.8555
-6.8070 -38.9784 3.3496 0.8531
-4.4652 -39.4637 3.3620 0.8526
-0.4854 -39.4890 3.3431 0.8534
1.0715 -38.4529 3.2564 0.8569
1.8383 -38.3228 3.2479 0.8573
4.2984 -39.5870 3.3708 0.8523
6.7499 -39.7069 3.4095 0.8507
9.2495 -39.7525 3.4551 0.8489
10.0394 -39.5344 3.4529 0.8490
10.7082 -38.8793 3.4138 0.8505
11.3583 -38.2249 3.3757 0.8521
12.2002 -38.2302 3.3971 0.8512
13.4769 -39.4767 3.5312 0.8458
14.3920 -39.5426 3.5622 0.8446
17.1420 -39.5177 3.6465 0.8412
19.1841 -39.7716 3.7380 0.8376
20.0676 -39.5538 3.7546 0.8369
20.8837 -39.1921 3.7593 0.8367
21.4216 -38.3273 3.7169 0.8384
25.3731 -39.5956 3.9810 0.8280
26.9475 -38.5531 3.9818 0.8279
29.0731 -39.8654 4.1768 0.8203
30.1530 -39.6491 4.2167 0.8188
32.7420 -39.6441 4.3526 0.8135
34.2782 -39.8472 4.4495 0.8098
35.4422 -39.5653 4.4966 0.8080
35.9942 -38.5938 4.4674 0.8091
37.3262 -38.4450 4.5360 0.8065
41.0111 -38.9799 4.7897 0.7968
42.3005 -38.6192 4.8487 0.7946
78.7232 -53.7893 8.0712 0.6820
91.7926 -32.3089 8.2378 0.6766
91.8054 -30.2563 8.1828 0.6784
93.9944 -22.8089 8.1878 0.6782
91.8794 -18.4250 7.9327 0.6865
91.8914 -16.5159 7.9035 0.6874
91.9033 -14.6201 7.8777 0.6883
97.7384 -7.5859 8.2987 0.6747
97.6418 -5.6092 8.2793 0.6753
97.8210 -3.6513 8.2866 0.6751
83.3023 50.4868 8.2458 0.6764
67.2059 50.5875 7.1208 0.7134
61.9121 50.6206 6.7699 0.7254
59.4543 50.6360 6.6109 0.7309
46.7634 50.7154 5.8397 0.7581
42.2751 61.2198 6.2980 0.7418
42.3106 66.8604 6.6980 0.7279
33.4400 60.6370 5.8619 0.7573
31.8748 60.6468 5.7998 0.7595
28.8389 60.6658 5.6863 0.7636
27.3638 60.6751 5.6345 0.7655
25.9149 60.6841 5.5859 0.7673
24.4901 60.6930 5.5403 0.7690
23.0879 60.7018 5.4977 0.7705
21.7065 60.7105 5.4579 0.7720
20.3444 60.7190 5.4209 0.7733
17.6723 60.7357 5.3547 0.7758
16.3595 60.7440 5.3254 0.7768
12.4989 60.7681 5.2519 0.7795
6.2532 60.8073 5.1746 0.7824
5.0226 60.8150 5.1657 0.7827
3.7958 60.8227 5.1588 0.7830
1.3494 60.8380 5.1514 0.7833
0.1278 60.8456 5.1508 0.7833
-1.0939 60.8533 5.1522 0.7832
-47.1837 -15.3148 3.0761 0.8197
-44.6711 -15.4972 2.9320 0.8274
-34.8651 -21.6046 2.5434 0.8484
-32.6133 -22.0687 2.4419 0.8540
-29.4271 -21.6843 2.2667 0.8637
-28.5788 -21.9579 2.2349 0.8655
-27.5991 -22.1002 2.1925 0.8679
-23.2264 -21.8776 1.9786 0.8800
-22.3174 -21.8833 1.9382 0.8823
-19.6159 -21.7002 1.8139 0.8894
-13.4148 -15.4527 1.2689 0.9213
-12.3681 -15.4593 1.2277 0.9237
-11.3858 -15.4654 1.1909 0.9259
-10.9076 -15.4564 1.1731 0.9270
-10.4512 -15.4592 1.1571 0.9279
-9.9591 -15.3883 1.1366 0.9292
-11.7157 -21.7497 1.5319 0.9057
-11.1601 -21.7532 1.5161 0.9067
-7.5118 -15.3953 1.0622 0.9337
-7.2112 -15.5646 1.0637 0.9336
-7.0159 -15.9762 1.0820 0.9325
-6.7864 -16.3368 1.0970 0.9316
-9.7568 -26.4357 1.7474 0.8932
-9.7678 -28.1953 1.8503 0.8873
-9.9696 -30.7608 2.0052 0.8785
-11.8181 -39.1253 2.5344 0.8489
-8.3040 -38.3866 2.4354 0.8544
-7.5041 -38.4040 2.4265 0.8549
-6.8545 -39.2503 2.4708 0.8524
-6.0795 -39.4723 2.4765 0.8521
-5.2713 -39.4774 2.4697 0.8525
-4.4652 -39.4642 2.4628 0.8529
-2.0723 -39.4791 2.4515 0.8535
-0.4854 -39.4891 2.4489 0.8536
1.0847 -38.9263 2.4148 0.8555
1.8533 -38.6352 2.3985 0.8564
3.4956 -39.5823 2.4641 0.8528
4.2985 -39.5873 2.4692 0.8525
5.9028 -39.5086 2.4771 0.8521
8.3637 -39.5240 2.5052 0.8505
10.0394 -39.5345 2.5294 0.8492
10.7671 -39.0931 2.5144 0.8500
11.4020 -38.3719 2.4823 0.8518
13.4918 -39.5202 2.5895 0.8459
15.2712 -39.4739 2.6246 0.8440
16.1918 -39.4797 2.6460 0.8428
17.1280 -39.4855 2.6689 0.8416
19.0324 -39.4571 2.7165 0.8390
20.0676 -39.5538 2.7504 0.8371
20.7174 -38.8800 2.7319 0.8381
21.3938 -38.2776 2.7192 0.8388
24.3069 -39.6624 2.8846 0.8299
26.8261 -38.3794 2.9037 0.8289
28.9097 -39.6413 3.0424 0.8215
31.4186 -39.6361 3.1364 0.8165
32.7421 -39.6442 3.1884 0.8138
34.1112 -39.6531 3.2435 0.8109
35.4443 -39.5676 3.2941 0.8082
36.0068 -38.6073 3.2737 0.8093
40.8856 -38.8606 3.4978 0.7977
80.3478 -50.2913 5.8779 0.6839
81.0716 -48.5070 5.8584 0.6848
91.7786 -34.3897 6.0776 0.6752
91.8044 -30.2560 5.9940 0.6788
91.8248 -28.2323 5.9571 0.6804
91.8785 -18.4248 5.8108 0.6869
91.8905 -16.5158 5.7895 0.6879
91.9023 -14.6200 5.7706 0.6887
91.9141 -12.7357 5.7541 0.6894
96.8573 -9.4770 6.0348 0.6770
91.7895 -5.2730 5.7013 0.6918
90.3241 3.8855 5.6062 0.6961
90.3355 5.7046 5.6129 0.6958
90.3469 7.5290 5.6219 0.6954
90.3931 14.9070 5.6810 0.6927
92.0187 18.9974 5.8264 0.6862
83.3019 50.4865 6.0402 0.6768
76.2880 50.5304 5.6743 0.6930
70.0660 50.5694 5.3582 0.7073
64.4920 50.6043 5.0833 0.7200
61.9119 50.6204 4.9591 0.7258
59.4541 50.6358 4.8427 0.7313
57.1081 50.6505 4.7335 0.7364
52.7157 50.6780 4.5345 0.7460
48.6714 50.7033 4.3583 0.7545
42.2283 53.8993 4.2459 0.7600
42.3098 66.8591 4.9064 0.7283
36.6763 60.6166 4.3933 0.7528
35.0396 60.6269 4.3422 0.7553
31.8747 60.6467 4.2485 0.7599
30.3417 60.6563 4.2057 0.7620
28.8388 60.6657 4.1653 0.7640
27.3637 60.6749 4.1274 0.7659
25.9148 60.6840 4.0918 0.7676
24.4901 60.6929 4.0584 0.7693
23.0878 60.7017 4.0272 0.7708
21.7065 60.7103 3.9981 0.7723
20.3443 60.7189 3.9709 0.7736
15.0605 60.7520 3.8813 0.7781
7.4886 60.7994 3.7987 0.7823
5.0226 60.8148 3.7840 0.7831
0.1278 60.8455 3.7731 0.7836
-1.0939 60.8532 3.7741 0.7836
-52.2683 -15.8128 2.1532 0.8036
-47.1840 -15.3150 1.9561 0.8199
-46.2502 -16.0450 1.9303 0.8220
-51.3978 -21.3771 2.1950 0.8002
-44.3134 -21.6455 1.9445 0.8208
-41.9802 -21.5601 1.8609 0.8279
-40.0071 -21.5725 1.7923 0.8336
-38.1736 -21.5840 1.7292 0.8390
-36.4641 -21.5947 1.6710 0.8440
-30.6239 -21.6313 1.4784 0.8606
-29.3659 -21.6392 1.4383 0.8641
-28.1092 -21.5970 1.3978 0.8677
-26.9797 -21.6041 1.3629 0.8708
-23.9550 -21.6731 1.2738 0.8787
-21.2497 -21.6900 1.1973 0.8855
-20.4176 -21.6952 1.1747 0.8876
-19.6160 -21.7003 1.1534 0.8895
-18.8426 -21.7051 1.1334 0.8913
-18.0954 -21.7098 1.1144 0.8930
-17.3724 -21.7143 1.0965 0.8947
-9.9591 -15.3884 0.7228 0.9293
-6.7471 -15.3642 0.6617 0.9350
-5.6314 -16.2553 0.6783 0.9335
-5.2691 -16.2576 0.6739 0.9339
-10.3848 -40.1352 1.6347 0.8471
-7.7108 -39.4619 1.5854 0.8513
-5.3567 -40.1167 1.5959 0.8504
-4.4652 -39.4642 1.5660 0.8530
-3.6602 -39.4173 1.5610 0.8534
-2.0723 -39.4792 1.5588 0.8536
1.9061 -39.7355 1.5686 0.8528
2.6957 -39.5772 1.5642 0.8532
3.4956 -39.5823 1.5668 0.8529
4.3680 -40.2276 1.5955 0.8505
5.1051 -39.5926 1.5741 0.8523
5.9028 -39.5087 1.5752 0.8522
9.1854 -39.4772 1.5982 0.8502
11.8025 -39.7201 1.6339 0.8472
12.6156 -39.5319 1.6362 0.8470
14.6256 -40.1844 1.6862 0.8427
15.2907 -39.5243 1.6710 0.8440
18.1041 -39.5420 1.7148 0.8402
19.0763 -39.5480 1.7314 0.8388
20.0678 -39.5543 1.7489 0.8373
22.1602 -39.6489 1.7910 0.8337
26.4957 -39.5756 1.8779 0.8264
27.7029 -39.6339 1.9067 0.8240
28.9099 -39.6416 1.9346 0.8217
30.1532 -39.6494 1.9642 0.8192
31.4189 -39.6364 1.9944 0.8167
34.1114 -39.6533 2.0625 0.8111
38.5954 -39.7522 2.1847 0.8011
40.2824 -39.8567 2.2345 0.7970
41.7919 -39.7220 2.2735 0.7939
43.5205 -39.7331 2.3237 0.7899
76.8839 -52.5326 3.6717 0.6888
78.8521 -51.5866 3.7155 0.6858
81.0096 -50.7056 3.7684 0.6821
83.5995 -50.0195 3.8414 0.6771
91.9155 -26.2527 3.7693 0.6820
91.8532 -22.2893 3.7270 0.6850
91.8653 -20.3486 3.7101 0.6861
91.8764 -18.4244 3.6949 0.6872
91.8883 -16.5154 3.6813 0.6882
91.9002 -14.6196 3.6693 0.6890
91.9120 -12.7354 3.6588 0.6897
92.1510 -10.8881 3.6589 0.6897
91.7711 -7.1228 3.6295 0.6918
91.7886 -5.2730 3.6253 0.6921
91.8234 -1.5826 3.6212 0.6924
91.8408 0.2609 3.6214 0.6924
86.8020 3.7340 3.4259 0.7062
86.8130 5.4822 3.4299 0.7059
86.8240 7.2354 3.4354 0.7056
86.8461 10.7620 3.4506 0.7045
86.8572 12.5385 3.4604 0.7038
26.0555 8.1733 1.0768 0.8964
73.0876 50.5503 3.5041 0.7007
67.2054 50.5871 3.3168 0.7141
57.1079 50.6503 3.0099 0.7367
54.8645 50.6644 2.9447 0.7416
52.7155 50.6778 2.8834 0.7462
50.6533 50.6908 2.8257 0.7506
48.6712 50.7032 2.7713 0.7548
46.7631 50.7151 2.7201 0.7587
44.9236 50.7266 2.6718 0.7624
42.2138 51.7082 2.6321 0.7655
42.2276 53.8984 2.6999 0.7603
42.2735 61.2176 2.9335 0.7424
42.2907 63.9509 3.0232 0.7357
42.3090 66.8578 3.1198 0.7285
36.6762 60.6164 2.7936 0.7531
35.0395 60.6267 2.7611 0.7555
33.4398 60.6367 2.7304 0.7579
31.8746 60.6465 2.7015 0.7601
28.8387 60.6655 2.6486 0.7642
25.9148 60.6838 2.6019 0.7679
24.4900 60.6928 2.5807 0.7695
21.7064 60.7102 2.5423 0.7725
12.4988 60.7679 2.4463 0.7801
9.9778 60.7836 2.4288 0.7815
7.4885 60.7993 2.4155 0.7825
6.2532 60.8070 2.4103 0.7829
5.0226 60.8147 2.4062 0.7833
3.7958 60.8224 2.4030 0.7835
1.3494 60.8377 2.3995 0.7838
0.1278 60.8454 2.3992 0.7838
-1.0939 60.8530 2.3999 0.7838
-19.3634 67.6053 2.7729 0.7546
-50.2492 -17.4323 0.8984 0.8083
-57.6764 -21.3154 1.0387 0.7819
-54.4079 -21.3584 0.9873 0.7915
-47.7048 -22.1272 0.8883 0.8103
-41.9803 -21.5602 0.7972 0.8280
-33.3655 -21.6142 0.6715 0.8530
-31.9547 -21.6230 0.6517 0.8570
-29.3660 -21.6392 0.6162 0.8642
-28.1739 -21.6467 0.6002 0.8675
-27.0417 -21.6538 0.5852 0.8706
-23.9551 -21.6731 0.5457 0.8788
-22.1148 -21.6847 0.5232 0.8835
-17.5317 -21.9134 0.4740 0.8938
-15.4032 -21.8267 0.4513 0.8986
-14.6913 -21.7312 0.4431 0.9004
-9.9553 -15.3824 0.3095 0.9293
-9.5616 -15.4449 0.3070 0.9299
-8.7423 -15.4774 0.3003 0.9314
-8.3361 -15.4763 0.2967 0.9321
-11.4158 -22.2517 0.4225 0.9048
-8.7327 -17.8975 0.3364 0.9234
-9.8320 -22.3889 0.4131 0.9068
-6.4116 -15.4346 0.2823 0.9353
-5.9976 -15.2976 0.2776 0.9364
-5.6449 -15.2946 0.2754 0.9369
-5.2976 -15.2919 0.2734 0.9373
-4.9554 -15.2896 0.2715 0.9377
-5.4240 -17.9569 0.3169 0.9277
-10.3739 -40.0930 0.6996 0.8473
-9.3672 -39.4515 0.6849 0.8503
-5.3510 -40.0744 0.6829 0.8507
-3.6602 -39.4174 0.6687 0.8535
-2.8828 -39.6843 0.6721 0.8528
-2.0723 -39.4793 0.6678 0.8537
-1.2852 -39.6942 0.6709 0.8531
-0.4854 -39.4893 0.6671 0.8539
1.1021 -39.5494 0.6683 0.8536
1.8974 -39.5544 0.6689 0.8535
2.6957 -39.5772 0.6701 0.8533
5.9028 -39.5087 0.6748 0.8523
6.7528 -39.7241 0.6806 0.8511
7.5371 -39.5190 0.6796 0.8513
8.4082 -39.7344 0.6860 0.8500
9.1855 -39.4773 0.6847 0.8503
16.2125 -39.5302 0.7217 0.8429
18.0803 -39.4899 0.7337 0.8405
22.1504 -39.6313 0.7669 0.8339
25.6055 -36.6330 0.7549 0.8363
29.3476 -40.2418 0.8413 0.8193
30.1534 -39.6497 0.8414 0.8193
31.5448 -39.7952 0.8578 0.8162
32.7426 -39.6448 0.8685 0.8141
34.0943 -39.6334 0.8831 0.8113
38.5955 -39.7523 0.9359 0.8012
40.2818 -39.8561 0.9572 0.7972
14.9547 -13.1126 0.3360 0.9235
15.7065 -12.6937 0.3411 0.9224
16.8250 -11.4960 0.3442 0.9217
91.7895 -32.3078 1.6437 0.6775
91.8922 -28.2530 1.6239 0.6807
91.8522 -22.2890 1.5966 0.6851
91.8644 -20.3484 1.5894 0.6863
91.8992 -14.6195 1.5719 0.6892
91.9110 -12.7353 1.5674 0.6899
92.1528 -10.8883 1.5675 0.6899
91.7702 -7.1227 1.5548 0.6920
91.8050 -3.4267 1.5518 0.6924
91.8224 -1.5826 1.5513 0.6925
91.8399 0.2609 1.5513 0.6925
83.6426 10.3650 1.4237 0.7138
83.6533 12.0759 1.4277 0.7131
83.6641 13.7973 1.4323 0.7123
83.6750 15.5305 1.4376 0.7114
92.0350 20.9355 1.5944 0.6855
26.0516 8.1721 0.4612 0.8965
79.6847 50.5088 1.5936 0.6856
11.4419 8.2581 0.2384 0.9451
11.6021 9.4861 0.2531 0.9418
59.4537 50.6355 1.3192 0.7317
57.1077 50.6502 1.2894 0.7368
44.9234 50.7265 1.1446 0.7626
42.2413 56.2044 1.1876 0.7548
42.3081 66.8565 1.3365 0.7287
36.6761 60.6163 1.1968 0.7532
33.4398 60.6366 1.1697 0.7580
30.3415 60.6560 1.1456 0.7624
28.8387 60.6654 1.1346 0.7644
21.7063 60.7100 1.0891 0.7726
20.3442 60.7186 1.0817 0.7740
17.6721 60.7353 1.0685 0.7764
16.3594 60.7435 1.0626 0.7775
15.0604 60.7517 1.0573 0.7785
13.7739 60.7597 1.0524 0.7794
12.4988 60.7677 1.0480 0.7802
9.9778 60.7835 1.0405 0.7816
8.7297 60.7913 1.0374 0.7822
6.2532 60.8069 1.0326 0.7831
5.0226 60.8146 1.0308 0.7834
3.7957 60.8223 1.0294 0.7836
2.5716 60.8299 1.0285 0.7838
-1.0939 60.8529 1.0281 0.7839
-15.0806 94.3481 1.6139 0.6823
-19.8057 81.3555 1.4144 0.7154
-21.2403 74.1583 1.3030 0.7345
-21.6147 70.1165 1.2394 0.7456
-51.8012 -15.6714 -0.3047 0.8053
-42.8462 -22.0049 -0.2712 0.8248
-38.5793 -21.8133 -0.2495 0.8375
-37.2164 -22.0401 -0.2435 0.8411
-34.8655 -21.6049 -0.2309 0.8487
-34.1298 -23.0949 -0.2320 0.8480
-30.9749 -21.8792 -0.2135 0.8593
-28.4967 -21.8948 -0.2023 0.8661
-14.0570 -11.7270 -0.1031 0.9294
-24.0285 -21.7395 -0.1824 0.8784
-23.2998 -21.9467 -0.1802 0.8798
-20.4177 -21.6954 -0.1677 0.8877
-18.4686 -22.1576 -0.1624 0.8910
-17.0159 -22.1667 -0.1573 0.8942
-16.3226 -22.1710 -0.1550 0.8957
-15.4032 -21.8268 -0.1504 0.8987
-14.6914 -21.7312 -0.1477 0.9004
-14.1311 -21.8348 -0.1464 0.9012
-9.1511 -15.4675 -0.1012 0.9306
-8.7382 -15.4701 -0.1000 0.9314
-8.3402 -15.4833 -0.0990 0.9321
-9.1730 -17.8800 -0.1131 0.9228
-10.1279 -21.8598 -0.1356 0.9081
-9.7666 -26.4622 -0.1588 0.8933
-10.2269 -29.5208 -0.1759 0.8825
-9.9697 -30.7610 -0.1821 0.8787
-11.9269 -39.4857 -0.2322 0.8479
-10.3739 -40.0931 -0.2332 0.8473
-8.5355 -39.4568 -0.2273 0.8509
-7.7108 -39.4620 -0.2264 0.8514
-6.8924 -39.4672 -0.2256 0.8519
-6.1666 -40.0379 -0.2281 0.8504
-4.4653 -39.4644 -0.2236 0.8531
-0.4854 -39.4893 -0.2223 0.8539
1.1026 -39.5672 -0.2229 0.8536
1.8983 -39.5722 -0.2231 0.8534
3.4956 -39.5825 -0.2237 0.8530
4.3634 -40.1854 -0.2276 0.8507
5.0089 -38.8466 -0.2205 0.8550
5.9028 -39.5088 -0.2249 0.8523
6.7171 -39.5139 -0.2257 0.8519
9.1976 -39.5295 -0.2285 0.8501
13.4837 -39.4966 -0.2350 0.8462
15.0067 -38.7902 -0.2342 0.8467
16.2126 -39.5303 -0.2406 0.8429
17.1500 -39.5362 -0.2426 0.8417
16.6596 -36.3870 -0.2253 0.8521
17.5556 -36.3955 -0.2275 0.8508
20.3566 -36.4219 -0.2349 0.8463
21.3326 -36.4311 -0.2377 0.8446
22.2796 -36.3545 -0.2401 0.8432
25.4917 -36.4704 -0.2505 0.8370
26.6049 -36.4809 -0.2542 0.8348
27.6862 -36.4055 -0.2575 0.8328
31.4215 -36.5263 -0.2713 0.8247
32.7311 -36.5387 -0.2762 0.8218
13.2595 -13.1194 -0.1050 0.9281
14.3533 -13.1042 -0.1094 0.9252
91.9792 -24.2849 -0.5356 0.6835
91.8634 -20.3482 -0.5297 0.6864
58.0628 -9.2367 -0.3310 0.7904
91.9101 -12.7352 -0.5224 0.6899
92.1547 -10.8885 -0.5225 0.6899
91.8389 0.2609 -0.5171 0.6926
80.7595 10.0077 -0.4582 0.7222
80.7802 13.3217 -0.4609 0.7207
92.0341 20.9353 -0.5314 0.6855
26.0477 8.1709 -0.1537 0.8966
76.2871 50.5298 -0.5152 0.6935
13.7153 9.4860 -0.0939 0.9355
13.1983 9.5258 -0.0916 0.9370
11.4974 8.6544 -0.0810 0.9441
12.1484 9.5323 -0.0869 0.9401
59.4535 50.6353 -0.4397 0.7317
57.1075 50.6500 -0.4298 0.7369
52.7152 50.6775 -0.4117 0.7464
44.9233 50.7263 -0.3815 0.7626
43.1473 50.7375 -0.3750 0.7661
42.2124 51.7065 -0.3758 0.7657
42.2406 56.2034 -0.3958 0.7549
42.2559 58.6386 -0.4069 0.7489
42.3073 66.8553 -0.4454 0.7287
35.0394 60.6264 -0.3942 0.7557
31.8745 60.6462 -0.3857 0.7603
24.4899 60.6925 -0.3685 0.7697
23.0877 60.7012 -0.3656 0.7712
21.7063 60.7099 -0.3630 0.7727
20.3442 60.7184 -0.3605 0.7740
15.0604 60.7515 -0.3524 0.7785
13.7739 60.7596 -0.3508 0.7794
12.4987 60.7676 -0.3493 0.7802
7.4885 60.7990 -0.3449 0.7827
6.2531 60.8067 -0.3442 0.7831
1.3494 60.8374 -0.3426 0.7839
0.1278 60.8451 -0.3426 0.7840
-2.3168 60.8604 -0.3429 0.7838
-87.4346 0.6427 -2.4620 0.7048
-87.4245 -1.1126 -2.4619 0.7048
-87.3794 -2.8671 -2.4617 0.7048
-87.1848 -6.3715 -2.4615 0.7048
-86.6346 -11.6063 -2.4612 0.7048
-59.0820 -9.1259 -1.6833 0.7872
-52.5834 -9.2065 -1.5032 0.8077
-52.3224 -10.2473 -1.5013 0.8079
-43.4011 -9.4085 -1.2505 0.8372
-41.9731 -9.9851 -1.2149 0.8414
-79.4557 -20.5956 -2.3113 0.7200
-54.7328 -15.3661 -1.6007 0.7965
-53.6879 -17.4259 -1.5894 0.7978
-54.0053 -19.9587 -1.6212 0.7942
-51.3986 -21.3775 -1.5675 0.8003
-48.6612 -21.3946 -1.4968 0.8084
-47.7059 -22.1277 -1.4808 0.8102
-42.8464 -22.0050 -1.3563 0.8247
-40.0075 -21.5728 -1.2799 0.8337
-38.5797 -21.8136 -1.2479 0.8375
-37.2165 -22.0402 -1.2179 0.8411
-34.1302 -23.0952 -1.1604 0.8480
-29.3662 -21.6394 -1.0271 0.8642
-29.1316 -23.3273 -1.0509 0.8613
-23.3001 -21.9470 -0.9013 0.8798
-24.1396 -24.6399 -0.9713 0.8711
-20.4178 -21.6954 -0.8389 0.8876
-19.6162 -21.7005 -0.8237 0.8895
-18.4686 -22.1576 -0.8122 0.8910
-17.7308 -22.1623 -0.7992 0.8926
-16.3226 -22.1711 -0.7752 0.8957
-15.4033 -21.8268 -0.7522 0.8986
-14.6914 -21.7313 -0.7386 0.9004
-8.7382 -15.4701 -0.5003 0.9314
-8.3441 -15.4904 -0.4954 0.9320
-8.7187 -16.9945 -0.5378 0.9264
-8.7242 -17.8802 -0.5602 0.9235
-6.0349 -15.3929 -0.4656 0.9360
-10.2273 -29.5217 -0.8797 0.8825
-9.9697 -30.7611 -0.9105 0.8786
-11.3593 -37.6063 -1.1062 0.8545
-10.8161 -38.5905 -1.1285 0.8518
-9.7487 -37.6770 -1.0957 0.8558
-9.3673 -39.4521 -1.1418 0.8502
-8.5356 -39.4573 -1.1367 0.8508
-7.7109 -39.4623 -1.1322 0.8514
-5.9758 -38.7995 -1.1054 0.8546
-5.1883 -38.8558 -1.1038 0.8548
-4.4653 -39.4645 -1.1183 0.8531
-2.8676 -39.4745 -1.1144 0.8535
-2.0723 -39.4795 -1.1132 0.8537
0.3079 -39.5627 -1.1140 0.8536
1.1026 -39.5676 -1.1146 0.8535
2.6958 -39.5773 -1.1170 0.8532
4.2309 -38.9648 -1.1036 0.8548
5.9028 -39.5089 -1.1248 0.8523
6.7171 -39.5140 -1.1286 0.8518
7.5372 -39.5192 -1.1328 0.8513
10.8851 -39.5215 -1.1543 0.8487
11.7451 -39.5269 -1.1611 0.8479
12.6158 -39.5323 -1.1685 0.8470
16.2126 -39.5304 -1.2031 0.8428
17.5557 -36.3956 -1.1378 0.8507
18.4696 -36.4042 -1.1494 0.8493
20.3567 -36.4220 -1.1749 0.8462
21.3327 -36.4312 -1.1888 0.8446
24.4100 -36.4603 -1.2355 0.8390
26.6049 -36.4810 -1.2714 0.8347
28.9351 -36.5030 -1.3116 0.8299
32.7312 -36.5388 -1.3813 0.8218
34.0091 -36.4653 -1.4040 0.8191
35.5009 -36.5649 -1.4350 0.8155
13.2594 -13.1192 -0.5252 0.9281
13.3089 -12.1507 -0.5074 0.9304
16.1927 -13.0867 -0.5862 0.9201
16.5994 -12.3477 -0.5825 0.9205
70.3583 -50.1748 -2.4333 0.7077
70.3634 -48.0773 -2.3996 0.7110
71.5784 -44.8024 -2.3778 0.7133
74.1955 -40.4403 -2.3794 0.7131
75.0087 -38.9512 -2.3799 0.7130
75.7914 -37.4455 -2.3804 0.7130
76.9117 -36.0968 -2.3923 0.7118
79.0711 -35.1909 -2.4370 0.7073
65.4362 -27.5627 -1.9993 0.7527
64.5163 -25.6629 -1.9551 0.7574
64.1634 -24.0422 -1.9294 0.7602
63.3756 -22.3067 -1.8918 0.7643
62.3727 -20.5562 -1.8492 0.7689
61.4754 -18.9011 -1.8110 0.7731
85.7012 -20.7964 -2.4832 0.7027
86.1592 -19.0847 -2.4849 0.7025
86.9724 -15.6318 -2.4882 0.7022
57.1436 -6.7518 -1.6202 0.7943
88.7071 -3.3111 -2.4995 0.7010
88.8114 -1.5311 -2.5011 0.7009
77.8369 3.3483 -2.1937 0.7322
77.8467 4.9160 -2.1964 0.7319
77.8566 6.4881 -2.1999 0.7315
77.8664 8.0658 -2.2043 0.7311
77.8764 9.6504 -2.2096 0.7305
77.8964 12.8461 -2.2230 0.7291
77.9065 14.4598 -2.2311 0.7283
77.9167 16.0861 -2.2402 0.7273
87.2174 19.8396 -2.5186 0.6991
86.4407 23.3481 -2.5212 0.6989
85.9983 25.0920 -2.5225 0.6987
85.0056 28.5518 -2.5250 0.6985
84.4555 30.2667 -2.5262 0.6984
83.0229 33.5718 -2.5216 0.6988
81.4480 36.8048 -2.5167 0.6993
80.6848 38.4285 -2.5164 0.6993
14.8527 9.0017 -0.4890 0.9329
75.0199 49.6905 -2.5338 0.6976
11.4972 8.6542 -0.4052 0.9440
11.5259 9.4239 -0.4192 0.9422
59.4533 50.6351 -2.1989 0.7316
57.1073 50.6498 -2.1494 0.7368
54.8640 50.6639 -2.1028 0.7417
50.6528 50.6903 -2.0178 0.7507
48.6708 50.7027 -1.9790 0.7548
44.9232 50.7262 -1.9079 0.7625
43.1471 50.7373 -1.8754 0.7660
42.2117 51.7057 -1.8795 0.7656
42.2255 53.8957 -1.9279 0.7603
42.2399 56.2025 -1.9797 0.7548
42.2551 58.6375 -2.0351 0.7488
42.2712 61.2143 -2.0947 0.7425
42.2883 63.9473 -2.1587 0.7358
42.3065 66.8539 -2.2277 0.7286
36.6760 60.6160 -1.9949 0.7531
14.8429 25.6818 -0.8352 0.8881
14.3037 25.9369 -0.8340 0.8882
14.3118 27.2304 -0.8662 0.8842
28.8385 60.6651 -1.8914 0.7643
27.3635 60.6743 -1.8742 0.7662
25.9146 60.6834 -1.8580 0.7679
24.4898 60.6923 -1.8428 0.7696
23.0876 60.7011 -1.8287 0.7711
20.3441 60.7183 -1.8031 0.7740
19.0000 60.7267 -1.7917 0.7752
16.3593 60.7433 -1.7713 0.7775
13.7739 60.7595 -1.7543 0.7793
6.2531 60.8066 -1.7212 0.7830
3.7957 60.8220 -1.7159 0.7836
1.3494 60.8373 -1.7135 0.7839
0.1278 60.8450 -1.7133 0.7839
-2.3168 60.8603 -1.7149 0.7837
-10.5060 88.3567 -2.5055 0.7004
-17.5363 87.1133 -2.5021 0.7008
-22.7251 85.8146 -2.4996 0.7010
-24.4351 85.3125 -2.4988 0.7011
-48.8918 0.3594 -2.4796 0.8222
-48.8874 -0.6221 -2.4795 0.8222
-48.8634 -1.6033 -2.4794 0.8222
-48.8198 -2.5838 -2.4793 0.8222
-48.6745 -4.5411 -2.4792 0.8222
-48.3107 -7.4622 -2.4791 0.8222
-47.9716 -9.3952 -2.4791 0.8222
-47.7734 -10.3563 -2.4791 0.8222
-42.1614 -10.0299 -2.1979 0.8407
-43.9401 -13.2932 -2.3281 0.8320
-43.3727 -15.0468 -2.3282 0.8320
-43.0631 -15.9148 -2.3283 0.8320
-42.7362 -16.7765 -2.3283 0.8320
-40.8479 -20.9786 -2.3288 0.8320
-38.0868 -21.5349 -2.2189 0.8393
-36.3812 -21.5456 -2.1443 0.8442
-34.7060 -21.5060 -2.0706 0.8491
-31.8853 -21.5761 -1.9525 0.8571
-30.4840 -21.5325 -1.8928 0.8612
-29.2318 -21.5403 -1.8415 0.8647
-28.2576 -21.7111 -1.8072 0.8670
-14.0471 -11.7187 -0.9277 0.9294
-23.3004 -21.9473 -1.6233 0.8797
-20.4178 -21.6955 -1.5109 0.8875
-18.8428 -21.7054 -1.4577 0.8913
-18.2614 -21.9090 -1.4465 0.8920
-14.1312 -21.8349 -1.3190 0.9011
-13.5812 -21.9383 -1.3085 0.9018
-13.1290 -22.1912 -1.3076 0.9019
-11.9574 -22.1985 -1.2787 0.9039
-7.9392 -15.4752 -0.8821 0.9327
-8.0969 -17.4762 -0.9768 0.9258
-7.8556 -17.8883 -0.9908 0.9247
-7.4351 -17.8984 -0.9829 0.9253
-6.0349 -15.3929 -0.8385 0.9359
-9.9730 -28.7877 -1.5451 0.8851
-9.7817 -30.1812 -1.6090 0.8807
-9.3673 -39.4522 -2.0564 0.8501
-8.5788 -39.6571 -2.0577 0.8500
-6.4084 -36.6956 -1.8892 0.8614
-4.9011 -36.7051 -1.8780 0.8622
-2.0723 -39.4796 -2.0049 0.8536
-1.2846 -39.6755 -2.0132 0.8530
-0.4878 -39.6805 -2.0125 0.8530
1.1081 -39.7678 -2.0176 0.8527
1.9079 -39.7728 -2.0194 0.8526
3.4502 -39.0688 -1.9891 0.8546
4.8275 -37.4393 -1.9144 0.8597
6.7171 -39.5141 -2.0327 0.8517
7.0556 -36.9940 -1.9099 0.8600
8.4042 -39.7157 -2.0587 0.8499
8.6099 -37.0038 -1.9267 0.8588
10.0395 -39.5349 -2.0686 0.8493
11.8047 -39.7273 -2.1018 0.8471
12.6158 -39.5324 -2.1045 0.8469
16.6597 -36.3872 -2.0296 0.8519
17.5557 -36.3957 -2.0493 0.8506
18.4697 -36.4043 -2.0702 0.8492
19.4029 -36.4131 -2.0925 0.8477
20.3567 -36.4221 -2.1160 0.8461
25.4919 -36.4706 -2.2566 0.8368
31.0532 -34.6656 -2.3603 0.8299
32.4299 -33.4018 -2.3610 0.8299
13.3707 -11.7238 -0.9019 0.9313
16.1928 -13.0867 -1.0559 0.9200
16.5909 -12.8666 -1.0648 0.9193
16.5993 -12.3476 -1.0492 0.9205
37.9543 -27.0665 -2.3641 0.8297
38.4950 -26.3026 -2.3644 0.8297
40.0240 -23.9472 -2.3654 0.8296
40.5016 -23.1419 -2.3657 0.8296
41.4080 -21.5027 -2.3662 0.8295
41.8361 -20.6696 -2.3665 0.8295
45.4076 -20.2089 -2.5206 0.8195
46.1919 -18.3739 -2.5211 0.8195
47.2279 -15.5649 -2.5218 0.8194
47.5352 -14.6151 -2.5221 0.8194
47.8232 -13.6591 -2.5223 0.8194
48.0919 -12.6975 -2.5225 0.8194
48.3409 -11.7305 -2.5227 0.8194
48.5705 -10.7586 -2.5229 0.8193
48.9704 -8.8016 -2.5233 0.8193
49.4208 -5.8393 -2.5238 0.8193
49.5309 -4.8464 -2.5239 0.8193
49.6907 -2.8546 -2.5242 0.8193
49.6181 -1.8521 -2.5181 0.8197
46.6584 2.9465 -2.3710 0.8292
46.1321 7.6078 -2.3712 0.8292
46.0120 8.5400 -2.3733 0.8291
45.8846 9.4729 -2.3761 0.8289
45.7372 10.4040 -2.3788 0.8287
45.5699 11.3326 -2.3814 0.8286
45.1846 13.1837 -2.3871 0.8282
44.1689 16.8371 -2.3972 0.8275
43.8773 17.7426 -2.4002 0.8273
43.5586 18.6396 -2.4028 0.8272
42.4827 21.2902 -2.4099 0.8267
42.0870 22.1599 -2.4122 0.8265
14.8004 8.1764 -0.8575 0.9345
39.8505 26.3953 -2.4241 0.8258
13.7149 9.4858 -0.8457 0.9354
11.4971 8.6541 -0.7298 0.9440
11.5258 9.4237 -0.7550 0.9421
36.6048 31.1756 -2.4384 0.8248
36.0013 31.9304 -2.4404 0.8247
35.3864 32.6774 -2.4427 0.8246
34.1145 34.1397 -2.4476 0.8242
31.3713 36.8900 -2.4559 0.8237
30.6513 37.5451 -2.4580 0.8236
29.9167 38.1850 -2.4601 0.8234
28.4026 39.4144 -2.4638 0.8232
27.6269 40.0073 -2.4657 0.8231
26.8380 40.5838 -2.4675 0.8229
25.2202 41.6825 -2.4707 0.8227
14.8117 25.6278 -1.5011 0.8882
14.3034 25.9364 -1.5021 0.8881
21.8481 43.6768 -2.4767 0.8223
18.3096 45.3762 -2.4815 0.8220
16.4867 46.1113 -2.4835 0.8219
15.5629 46.4483 -2.4843 0.8219
14.6318 46.7654 -2.4850 0.8218
13.6937 47.0623 -2.4857 0.8218
9.8819 48.0448 -2.4876 0.8216
7.9470 48.4119 -2.4880 0.8216
6.9737 48.5634 -2.4881 0.8216
5.0187 48.8025 -2.4880 0.8216
2.0716 49.0019 -2.4873 0.8217
1.0874 49.0255 -2.4869 0.8217
0.1030 49.0281 -2.4864 0.8217
-0.8810 49.0089 -2.4859 0.8217
-1.8641 48.9684 -2.4852 0.8218
-2.8459 48.9067 -2.4845 0.8218
-4.8034 48.7202 -2.4828 0.8219
-5.7781 48.5948 -2.4818 0.8220
-6.7497 48.4485 -2.4808 0.8221
-7.7173 48.2812 -2.4796 0.8222
-8.6808 48.0935 -2.4784 0.8222
-10.5929 47.6555 -2.4758 0.8224
-11.5407 47.4058 -2.4744 0.8225
-13.4178 46.8468 -2.4713 0.8227
-14.3458 46.5369 -2.4697 0.8228
-33.9096 0.2492 -2.4864 0.8728
-33.8607 -1.7921 -2.4862 0.8728
-33.6899 -3.8267 -2.4861 0.8729
-33.6060 -4.5022 -2.4861 0.8729
-33.5085 -5.1758 -2.4861 0.8729
-33.3977 -5.8473 -2.4860 0.8729
-32.9852 -7.8469 -2.4860 0.8729
-32.8211 -8.5075 -2.4861 0.8729
-32.6440 -9.1647 -2.4861 0.8729
-32.4538 -9.8182 -2.4861 0.8729
-32.2506 -10.4678 -2.4861 0.8729
-31.9709 -11.0913 -2.4812 0.8731
-30.4385 -11.2491 -2.3794 0.8780
-29.6410 -11.6358 -2.3348 0.8801
-29.4021 -12.2288 -2.3349 0.8801
-28.8890 -13.3998 -2.3350 0.8801
-28.6151 -13.9775 -2.3350 0.8801
-28.0329 -15.1158 -2.3352 0.8801
-27.7248 -15.6760 -2.3353 0.8801
-26.0202 -18.3795 -2.3358 0.8801
-23.6313 -21.3802 -2.3366 0.8800
-22.7571 -22.3145 -2.3369 0.8800
-20.3244 -21.5962 -2.1744 0.8879
-18.0541 -21.6604 -2.0675 0.8931
-15.9929 -21.7233 -1.9779 0.8975
-13.4579 -21.7391 -1.8747 0.9025
-12.8638 -21.7429 -1.8524 0.9036
-12.2834 -21.7465 -1.8313 0.9047
-7.4175 -16.0099 -1.2937 0.9317
-6.6105 -17.9110 -1.3999 0.9263
-9.7187 -28.0536 -2.1769 0.8877
-9.7821 -30.1821 -2.3264 0.8805
-9.2371 -30.5806 -2.3423 0.8797
-7.3822 -31.0917 -2.3431 0.8797
-6.1297 -31.3702 -2.3436 0.8797
-5.4994 -31.4906 -2.3439 0.8797
-4.2320 -31.6935 -2.3445 0.8796
-3.5953 -31.7760 -2.3447 0.8796
-2.9571 -31.8456 -2.3450 0.8796
-1.0354 -31.9775 -2.3459 0.8796
-0.3933 -31.9959 -2.3462 0.8796
0.2491 -32.0013 -2.3465 0.8795
0.8915 -31.9939 -2.3468 0.8795
1.5338 -31.9735 -2.3471 0.8795
3.4568 -31.8354 -2.3480 0.8795
4.0956 -31.7635 -2.3483 0.8795
4.7330 -31.6789 -2.3486 0.8794
6.6337 -31.3487 -2.3494 0.8794
7.2626 -31.2131 -2.3497 0.8794
7.8887 -31.0650 -2.3500 0.8794
8.5118 -30.9044 -2.3503 0.8794
9.7478 -30.5455 -2.3509 0.8793
10.3603 -30.3475 -2.3512 0.8793
11.5731 -29.9148 -2.3518 0.8793
12.7677 -29.4335 -2.3524 0.8793
13.3576 -29.1749 -2.3527 0.8792
13.9423 -28.9045 -2.3530 0.8792
14.5215 -28.6223 -2.3533 0.8792
15.6625 -28.0233 -2.3539 0.8792
17.3271 -27.0395 -2.3547 0.8791
17.8685 -26.6895 -2.3550 0.8791
18.4028 -26.3285 -2.3553 0.8791
18.9299 -25.9568 -2.3556 0.8791
19.9611 -25.1818 -2.3561 0.8791
20.4649 -24.7789 -2.3564 0.8791
20.9605 -24.3658 -2.3566 0.8791
22.3964 -23.0677 -2.3574 0.8790
13.2590 -13.1188 -1.3677 0.9279
13.3054 -12.6465 -1.3460 0.9290
13.3086 -12.1504 -1.3213 0.9303
15.4796 -13.0326 -1.4837 0.9220
16.6112 -12.8823 -1.5413 0.9191
16.5992 -12.3475 -1.5169 0.9204
26.2009 -18.6847 -2.3596 0.8789
26.5732 -18.1567 -2.3598 0.8789
26.9348 -17.6213 -2.3600 0.8789
27.6253 -16.5288 -2.3604 0.8789
27.9539 -15.9723 -2.3606 0.8789
28.2713 -15.4093 -2.3608 0.8789
28.8717 -14.2644 -2.3612 0.8788
29.6847 -12.5036 -2.3617 0.8788
32.1237 -12.0369 -2.5153 0.8715
32.7964 -10.0835 -2.5158 0.8714
32.9942 -9.4237 -2.5159 0.8714
33.5072 -7.4220 -2.5164 0.8714
33.6512 -6.7482 -2.5165 0.8714
33.7815 -6.0717 -2.5166 0.8714
34.0012 -4.7112 -2.5169 0.8714
34.3085 -1.2806 -2.5173 0.8714
34.3283 -0.5917 -2.5174 0.8714
34.3343 0.0975 -2.5175 0.8714
34.3262 0.7867 -2.5175 0.8714
34.2186 2.8516 -2.5177 0.8713
34.1550 3.5379 -2.5177 0.8713
34.0774 4.2229 -2.5177 0.8713
33.8800 5.5873 -2.5177 0.8713
31.8443 6.5743 -2.3841 0.8777
31.2937 7.7823 -2.3644 0.8787
31.1310 8.4089 -2.3644 0.8787
30.9557 9.0321 -2.3644 0.8787
25.9642 8.1447 -1.9952 0.8966
30.5674 10.2670 -2.3643 0.8787
30.3547 10.8784 -2.3643 0.8787
30.1297 11.4853 -2.3642 0.8787
29.6430 12.6849 -2.3641 0.8787
29.3809 13.2766 -2.3640 0.8787
29.1333 13.8756 -2.3660 0.8786
28.8734 14.4699 -2.3680 0.8785
28.6018 15.0596 -2.3701 0.8784
14.8002 8.1763 -1.2398 0.9344
11.5233 9.0418 -1.0740 0.9429
11.5256 9.4236 -1.0916 0.9420
24.8227 21.1410 -2.3907 0.8774
23.5553 22.6448 -2.3958 0.8772
22.1943 24.0700 -2.4006 0.8769
21.7205 24.5264 -2.4022 0.8769
20.7444 25.4100 -2.4051 0.8767
19.7307 26.2527 -2.4079 0.8766
17.5976 27.8083 -2.4129 0.8764
17.0439 28.1692 -2.4141 0.8763
15.3376 29.1821 -2.4172 0.8761
13.5679 30.0848 -2.4198 0.8760
12.9654 30.3607 -2.4206 0.8760
12.3571 30.6242 -2.4213 0.8759
11.1239 31.1123 -2.4226 0.8759
10.4995 31.3363 -2.4232 0.8759
9.2369 31.7450 -2.4241 0.8758
8.5993 31.9296 -2.4246 0.8758
7.9578 32.1007 -2.4249 0.8758
6.0131 32.5314 -2.4257 0.8757
4.7028 32.7487 -2.4258 0.8757
2.7231 32.9714 -2.4258 0.8757
1.3972 33.0490 -2.4254 0.8758
-0.5943 33.0610 -2.4245 0.8758
-1.9201 32.9980 -2.4236 0.8758
-2.5816 32.9457 -2.4231 0.8759
-3.2417 32.8798 -2.4225 0.8759
-3.9000 32.7998 -2.4219 0.8759
-6.5104 32.3409 -2.4189 0.8761
-7.1556 32.1916 -2.4180 0.8761
-7.7974 32.0294 -2.4171 0.8762
-8.4354 31.8536 -2.4161 0.8762
-9.0693 31.6644 -2.4151 0.8762
-25.9356 0.1906 -2.4900 0.9010
-25.8656 -1.8903 -2.4899 0.9010
-25.8222 -2.4091 -2.4898 0.9010
-25.2295 -6.0019 -2.4897 0.9010
-24.9684 -7.0098 -2.4898 0.9010
-24.6674 -8.0065 -2.4898 0.9010
-24.3267 -8.9904 -2.4899 0.9010
-23.7427 -10.4388 -2.4900 0.9010
-23.5051 -10.9025 -2.4875 0.9011
-22.9471 -11.2088 -2.4518 0.9025
-21.4403 -11.5609 -2.3385 0.9068
-20.7074 -12.8316 -2.3388 0.9067
-15.5816 -11.4818 -1.8582 0.9252
-14.8312 -11.8762 -1.8241 0.9265
-13.9558 -11.6425 -1.7448 0.9296
-18.0713 -16.3498 -2.3396 0.9067
-17.7403 -16.7101 -2.3397 0.9067
-17.0571 -17.4105 -2.3400 0.9067
-16.3463 -18.0832 -2.3402 0.9067
-15.6091 -18.7269 -2.3405 0.9067
-15.2310 -19.0376 -2.3407 0.9067
-14.8467 -19.3408 -2.3408 0.9067
-14.4564 -19.6361 -2.3410 0.9067
-13.6584 -20.2032 -2.3413 0.9067
-13.2509 -20.4748 -2.3414 0.9066
-11.9971 -21.2397 -2.3419 0.9066
-11.1366 -21.7074 -2.3423 0.9066
-10.6158 -21.7570 -2.3242 0.9073
-6.7991 -15.4824 -1.6234 0.9343
-6.4325 -15.4847 -1.6098 0.9348
-6.0350 -15.3930 -1.5873 0.9357
-5.1174 -14.7716 -1.5008 0.9391
-7.0597 -23.3721 -2.3440 0.9065
-6.5897 -23.5112 -2.3442 0.9065
-5.1640 -23.8715 -2.3448 0.9065
-3.7189 -24.1455 -2.3454 0.9065
-3.2337 -24.2175 -2.3456 0.9065
-2.7472 -24.2798 -2.3458 0.9065
-2.2594 -24.3322 -2.3461 0.9065
-1.2812 -24.4079 -2.3465 0.9065
-0.7910 -24.4310 -2.3467 0.9064
1.1717 -24.4250 -2.3476 0.9064
1.6619 -24.3989 -2.3478 0.9064
2.1515 -24.3630 -2.3481 0.9064
2.6404 -24.3173 -2.3483 0.9064
3.6151 -24.1964 -2.3488 0.9064
6.0245 -23.7239 -2.3499 0.9063
6.9732 -23.4675 -2.3504 0.9063
7.4436 -23.3250 -2.3506 0.9063
7.9111 -23.1732 -2.3508 0.9063
8.3755 -23.0119 -2.3510 0.9063
8.8366 -22.8414 -2.3513 0.9063
9.2942 -22.6615 -2.3515 0.9063
12.3848 -21.1503 -2.3530 0.9062
12.8081 -20.8994 -2.3533 0.9062
13.2262 -20.6399 -2.3535 0.9062
13.6391 -20.3722 -2.3537 0.9062
14.4484 -19.8118 -2.3541 0.9062
14.8445 -19.5195 -2.3543 0.9062
15.6188 -18.9112 -2.3547 0.9061
16.3681 -18.2722 -2.3551 0.9061
17.0912 -17.6034 -2.3555 0.9061
13.2596 -12.6029 -1.7563 0.9291
15.8776 -12.8320 -1.9599 0.9212
20.8163 -13.0293 -2.3577 0.9060
21.3253 -12.1849 -2.3580 0.9060
22.7966 -11.2629 -2.4411 0.9029
23.6418 -11.0957 -2.5073 0.9004
24.1119 -10.1563 -2.5118 0.9002
24.3122 -9.6708 -2.5120 0.9002
24.5028 -9.1813 -2.5121 0.9002
24.6834 -8.6880 -2.5122 0.9002
24.8540 -8.1912 -2.5124 0.9002
25.0147 -7.6910 -2.5125 0.9002
25.6650 -5.1467 -2.5130 0.9002
25.9310 -3.5930 -2.5133 0.9001
26.1026 -2.0259 -2.5135 0.9001
26.1642 -0.9766 -2.5136 0.9001
26.1772 0.6000 -2.5138 0.9001
26.1328 1.6503 -2.5139 0.9001
26.0948 2.1746 -2.5139 0.9001
26.0462 2.6980 -2.5139 0.9001
25.8371 4.2609 -2.5140 0.9001
25.7464 4.7787 -2.5140 0.9001
25.6454 5.2945 -2.5140 0.9001
25.4121 6.3196 -2.5140 0.9001
25.2800 6.8285 -2.5140 0.9001
23.3105 7.8296 -2.3608 0.9059
22.7960 9.2180 -2.3607 0.9059
22.6059 9.6736 -2.3606 0.9059
22.4067 10.1252 -2.3606 0.9059
22.1985 10.5727 -2.3605 0.9059
21.9812 11.0159 -2.3605 0.9059
14.8496 8.5971 -1.6473 0.9334
14.8521 9.0014 -1.6673 0.9326
11.4968 8.6539 -1.3815 0.9438
11.5438 9.0580 -1.4087 0.9427
18.4604 16.3730 -2.3689 0.9056
18.1381 16.7495 -2.3702 0.9056
17.8078 17.1195 -2.3715 0.9055
17.4698 17.4828 -2.3728 0.9055
17.1242 17.8391 -2.3740 0.9054
16.0430 18.8651 -2.3775 0.9053
15.6683 19.1923 -2.3786 0.9052
15.2867 19.5116 -2.3797 0.9052
14.8984 19.8232 -2.3807 0.9052
14.1023 20.4220 -2.3826 0.9051
13.6947 20.7088 -2.3836 0.9050
13.2811 20.9871 -2.3844 0.9050
12.8617 21.2571 -2.3853 0.9050
12.4367 21.5184 -2.3861 0.9050
10.2327 22.6894 -2.3896 0.9048
9.7775 22.8958 -2.3902 0.9048
8.8546 23.2802 -2.3912 0.9048
7.9160 23.6258 -2.3921 0.9047
6.9635 23.9320 -2.3929 0.9047
6.4825 24.0701 -2.3932 0.9047
5.5123 24.3159 -2.3937 0.9047
5.0234 24.4233 -2.3938 0.9047
4.5324 24.5206 -2.3940 0.9047
3.5448 24.6846 -2.3942 0.9046
3.0486 24.7511 -2.3942 0.9046
2.5511 24.8071 -2.3942 0.9046
2.0525 24.8525 -2.3941 0.9047
1.5532 24.8874 -2.3940 0.9047
1.0532 24.9122 -2.3938 0.9047
-0.4480 24.9237 -2.3932 0.9047
-1.4477 24.8786 -2.3925 0.9047
-1.9465 24.8405 -2.3921 0.9047
-2.4443 24.7922 -2.3917 0.9047
-3.9296 24.5848 -2.3902 0.9048
-5.3981 24.2852 -2.3884 0.9049
-7.3195 23.7440 -2.3854 0.9050
-20.9792 -0.2670 -2.4922 0.9190
-20.9510 -1.1088 -2.4922 0.9190
-20.9242 -1.5291 -2.4921 0.9190
-20.8891 -1.9488 -2.4921 0.9190
-20.8457 -2.3678 -2.4921 0.9190
-20.7336 -3.2026 -2.4921 0.9190
-20.6650 -3.6180 -2.4921 0.9190
-20.4098 -4.8553 -2.4921 0.9190
-20.0808 -6.0750 -2.4921 0.9190
-19.5296 -7.6665 -2.4922 0.9190
-19.2067 -8.4445 -2.4923 0.9190
-18.6646 -9.5857 -2.4924 0.9190
-18.4688 -9.9587 -2.4925 0.9190
-16.5914 -11.2270 -2.3796 0.9225
-16.0970 -11.3702 -2.3410 0.9237
-15.3850 -12.3196 -2.3412 0.9237
-14.8792 -12.9282 -2.3414 0.9237
-14.6172 -13.2248 -2.3415 0.9237
-13.5116 -14.3571 -2.3419 0.9237
-12.9256 -14.8893 -2.3421 0.9236
-12.0078 -15.6425 -2.3425 0.9236
-11.6920 -15.8813 -2.3426 0.9236
-10.7166 -16.5589 -2.3430 0.9236
-10.0445 -16.9776 -2.3432 0.9236
-9.0060 -17.5545 -2.3436 0.9236
-8.6524 -17.7329 -2.3438 0.9236
-7.9346 -18.0681 -2.3441 0.9236
-6.0272 -15.3731 -1.9614 0.9357
-5.1174 -14.7717 -1.8569 0.9390
-6.0861 -18.7785 -2.3449 0.9236
-5.3282 -19.0103 -2.3452 0.9236
-4.9459 -19.1147 -2.3453 0.9235
-3.7872 -19.3819 -2.3458 0.9235
-3.0066 -19.5212 -2.3462 0.9235
-2.6143 -19.5790 -2.3464 0.9235
-1.4315 -19.7053 -2.3469 0.9235
-1.0357 -19.7316 -2.3471 0.9235
-0.6395 -19.7499 -2.3472 0.9235
-0.2429 -19.7602 -2.3474 0.9235
0.9471 -19.7436 -2.3480 0.9235
1.3433 -19.7222 -2.3481 0.9235
2.5285 -19.6102 -2.3487 0.9234
2.9219 -19.5570 -2.3489 0.9234
3.3142 -19.4959 -2.3491 0.9234
3.7052 -19.4270 -2.3493 0.9234
4.0947 -19.3502 -2.3494 0.9234
4.8689 -19.1733 -2.3498 0.9234
5.2532 -19.0732 -2.3500 0.9234
6.3932 -18.7268 -2.3505 0.9234
6.7683 -18.5962 -2.3507 0.9234
7.1408 -18.4580 -2.3509 0.9234
8.6010 -17.8312 -2.3516 0.9234
8.9579 -17.6563 -2.3518 0.9233
9.3112 -17.4743 -2.3520 0.9233
10.0067 -17.0890 -2.3523 0.9233
12.9229 -15.0225 -2.3539 0.9233
13.5174 -14.4936 -2.3542 0.9233
13.8065 -14.2203 -2.3544 0.9233
14.3681 -13.6565 -2.3547 0.9233
15.6691 -12.1517 -2.3554 0.9232
15.9108 -11.8354 -2.3555 0.9232
16.1462 -11.5143 -2.3557 0.9232
16.4706 -11.2539 -2.3696 0.9228
18.3407 -10.4795 -2.5092 0.9184
19.1260 -8.9764 -2.5097 0.9184
19.7880 -7.4146 -2.5101 0.9184
19.9336 -7.0162 -2.5102 0.9184
20.2008 -6.2109 -2.5104 0.9184
20.6368 -4.5712 -2.5108 0.9184
20.7251 -4.1561 -2.5109 0.9184
20.8050 -3.7393 -2.5109 0.9184
20.8764 -3.3210 -2.5110 0.9184
21.0401 -2.0587 -2.5112 0.9184
21.1272 -0.7886 -2.5114 0.9184
21.1392 -0.3643 -2.5114 0.9184
21.1015 1.3326 -2.5116 0.9184
20.9836 2.6003 -2.5116 0.9184
20.7893 3.8586 -2.5117 0.9184
20.7077 4.2752 -2.5117 0.9184
20.6177 4.6900 -2.5117 0.9184
20.5193 5.1029 -2.5117 0.9184
