ply
format ascii 1.0
element vertex 1571
property float32 x
property float32 y
property float32 z
property float32 I
end_header
-10.7920 9.5231 -2.3711 0.9433
-10.9825 9.3055 -2.3714 0.9433
-11.1687 9.0840 -2.3717 0.9433
-11.3503 8.8588 -2.3719 0.9433
-11.6997 8.3975 -2.3725 0.9433
-11.8674 8.1616 -2.3727 0.9433
-12.0302 7.9224 -2.3730 0.9433
-12.1882 7.6798 -2.3732 0.9433
-12.3412 7.4340 -2.3734 0.9433
-13.0913 6.1902 -2.3856 0.9430
-13.4966 6.0530 -2.4368 0.9418
-14.4677 5.1375 -2.5292 0.9397
-14.8360 3.9600 -2.5296 0.9396
-14.9840 3.3609 -2.5298 0.9396
-15.1601 2.4521 -2.5299 0.9396
-15.2065 2.1470 -2.5299 0.9396
-15.2466 1.8411 -2.5300 0.9396
-15.2805 1.5343 -2.5300 0.9396
-15.3082 1.2270 -2.5300 0.9396
-15.3297 0.9191 -2.5299 0.9396
-15.3448 0.6109 -2.5299 0.9396
-15.3564 -0.0062 -2.5298 0.9396
-15.2407 -1.8527 -2.5292 0.9397
-15.0988 -2.7671 -2.5288 0.9397
-15.0392 -3.0697 -2.5286 0.9397
-14.9016 -3.6710 -2.5283 0.9397
-14.8236 -3.9694 -2.5281 0.9397
-14.6497 -4.5610 -2.5276 0.9397
-14.4519 -5.1450 -2.5272 0.9397
-13.9863 -6.2861 -2.5261 0.9397
-13.8556 -6.5651 -2.5258 0.9397
-13.7192 -6.8414 -2.5255 0.9397
-13.5773 -7.1148 -2.5252 0.9398
-13.4300 -7.3853 -2.5249 0.9398
-13.2771 -7.6527 -2.5246 0.9398
-12.7867 -8.4352 -2.5235 0.9398
-12.4339 -8.9396 -2.5228 0.9398
-12.2499 -9.1863 -2.5224 0.9398
-12.0610 -9.4291 -2.5220 0.9398
-11.8672 -9.6680 -2.5217 0.9398
-11.2577 -10.3604 -2.5204 0.9399
-10.8287 -10.8007 -2.5196 0.9399
-10.3823 -11.2231 -2.5187 0.9399
-9.6820 -11.8218 -2.5173 0.9399
-9.4407 -12.0117 -2.5168 0.9399
-9.1828 -12.1796 -2.5128 0.9400
-8.4499 -12.1978 -2.4445 0.9416
-7.6821 -12.1009 -2.3613 0.9435
-7.4360 -12.2503 -2.3608 0.9436
-7.1869 -12.3948 -2.3603 0.9436
-6.4231 -12.7974 -2.3589 0.9436
-6.1634 -12.9212 -2.3584 0.9436
-5.9013 -13.0397 -2.3579 0.9436
-5.6369 -13.1529 -2.3574 0.9436
-5.3703 -13.2607 -2.3569 0.9437
-4.8311 -13.4600 -2.3559 0.9437
-4.5587 -13.5514 -2.3554 0.9437
-4.0088 -13.7177 -2.3544 0.9437
-2.6097 -14.0353 -2.3518 0.9438
-1.8608 -11.2622 -1.8805 0.9548
-1.7582 -14.1577 -2.3502 0.9438
-1.1874 -14.2107 -2.3492 0.9438
-0.9015 -14.2285 -2.3487 0.9438
-0.0425 -14.2476 -2.3471 0.9439
0.8154 -14.2150 -2.3456 0.9439
1.1006 -14.1927 -2.3451 0.9439
1.3853 -14.1646 -2.3446 0.9439
1.6693 -14.1309 -2.3441 0.9439
2.5160 -13.9958 -2.3426 0.9440
2.7961 -13.9395 -2.3421 0.9440
3.6286 -13.7371 -2.3407 0.9440
4.1760 -13.5747 -2.3397 0.9441
4.7161 -13.3907 -2.3388 0.9441
4.9833 -13.2906 -2.3383 0.9441
5.2483 -13.1852 -2.3379 0.9441
5.5111 -13.0746 -2.3374 0.9441
5.7716 -12.9587 -2.3370 0.9441
6.0297 -12.8377 -2.3365 0.9441
6.5382 -12.5804 -2.3357 0.9441
7.5219 -12.0063 -2.3340 0.9442
7.7603 -11.8508 -2.3336 0.9442
7.9955 -11.6904 -2.3332 0.9442
8.3146 -11.6476 -2.3576 0.9436
8.7349 -11.7306 -2.4094 0.9424
9.1742 -11.8172 -2.4645 0.9412
9.4627 -11.6958 -2.4784 0.9408
9.7092 -11.5192 -2.4818 0.9408
9.9402 -11.3236 -2.4822 0.9407
10.3842 -10.9119 -2.4815 0.9408
10.5999 -10.6995 -2.4812 0.9408
10.8113 -10.4830 -2.4808 0.9408
11.0183 -10.2622 -2.4805 0.9408
11.2208 -10.0375 -2.4802 0.9408
11.4188 -9.8088 -2.4799 0.9408
11.6122 -9.5762 -2.4796 0.9408
11.8008 -9.3398 -2.4793 0.9408
11.9848 -9.0998 -2.4790 0.9408
12.3380 -8.6090 -2.4784 0.9408
12.5073 -8.3585 -2.4782 0.9408
12.8305 -7.8477 -2.4777 0.9408
13.7964 -5.9680 -2.4763 0.9409
13.9127 -5.6893 -2.4762 0.9409
14.0234 -5.4082 -2.4761 0.9409
14.1285 -5.1251 -2.4759 0.9409
14.2279 -4.8399 -2.4758 0.9409
14.4096 -4.2640 -2.4756 0.9409
14.5683 -3.6813 -2.4754 0.9409
14.6389 -3.3877 -2.4753 0.9409
14.7037 -3.0929 -2.4753 0.9409
14.9038 -1.9021 -2.4752 0.9409
14.9915 -1.0008 -2.4752 0.9409
15.0200 -0.3976 -2.4752 0.9409
15.0252 -0.0957 -2.4753 0.9409
15.0245 0.2062 -2.4754 0.9409
14.9862 1.1111 -2.4756 0.9409
14.9615 1.4121 -2.4757 0.9409
14.9308 1.7125 -2.4758 0.9409
14.8941 2.0123 -2.4759 0.9409
14.8515 2.3113 -2.4761 0.9409
14.6217 3.4972 -2.4767 0.9409
14.5496 3.7906 -2.4769 0.9409
14.4717 4.0825 -2.4771 0.9409
14.2032 4.9483 -2.4778 0.9408
14.1022 5.2332 -2.4780 0.9408
11.6590 5.1455 -2.0994 0.9496
10.7076 5.2494 -1.9645 0.9528
0.2040 12.5112 -2.3519 0.9503
-1.0530 12.4805 -2.3542 0.9503
-1.5542 12.4329 -2.3551 0.9503
-2.0532 12.3650 -2.3560 0.9503
-2.7960 12.2256 -2.3573 0.9502
-2.3338 8.5990 -1.6747 0.9644
-3.9828 10.4073 -2.0945 0.9557
-4.1502 9.6625 -1.9766 0.9581
-4.2630 9.3996 -1.9400 0.9589
-4.4356 9.2798 -1.9332 0.9590
-4.7191 9.3836 -1.9742 0.9582
-4.7056 8.9063 -1.8933 0.9598
-4.9760 8.9765 -1.9291 0.9591
-4.9792 8.5715 -1.8632 0.9605
-5.7613 9.0591 -2.0179 0.9572
-5.8871 8.8586 -1.9992 0.9576
-6.2234 8.2406 -1.9410 0.9588
-6.3505 8.0666 -1.9297 0.9591
-7.5225 8.1187 -2.0804 0.9560
-7.7059 7.9885 -2.0862 0.9558
-9.2776 8.5244 -2.3682 0.9500
-9.6148 8.1466 -2.3687 0.9500
-10.0913 7.5549 -2.3694 0.9500
-10.2421 7.3513 -2.3697 0.9500
-10.3887 7.1447 -2.3699 0.9500
-10.7846 6.7954 -2.3959 0.9494
-11.7456 6.4468 -2.5184 0.9469
-11.8884 6.2177 -2.5217 0.9469
-12.0266 5.9853 -2.5250 0.9468
-12.1452 5.7428 -2.5252 0.9468
-12.2589 5.4980 -2.5253 0.9468
-12.3676 5.2508 -2.5255 0.9468
-12.5699 4.7502 -2.5257 0.9468
-12.7518 4.2417 -2.5260 0.9468
-12.9129 3.7262 -2.5261 0.9468
-12.9856 3.4660 -2.5262 0.9468
-13.0529 3.2045 -2.5263 0.9468
-13.1150 2.9416 -2.5264 0.9468
-13.2231 2.4124 -2.5264 0.9468
-13.4174 0.8044 -2.5265 0.9468
-13.4409 -0.0054 -2.5264 0.9468
-13.4378 -0.2755 -2.5263 0.9468
-13.4151 -0.8151 -2.5262 0.9468
-13.3401 -1.6217 -2.5259 0.9468
-13.3042 -1.8893 -2.5257 0.9468
-13.2629 -2.1562 -2.5256 0.9468
-13.1640 -2.6870 -2.5253 0.9468
-13.1066 -2.9508 -2.5252 0.9468
-12.9757 -3.4745 -2.5248 0.9468
-12.9024 -3.7343 -2.5247 0.9468
-12.7399 -4.2490 -2.5243 0.9468
-12.3532 -5.2564 -2.5234 0.9468
-12.2439 -5.5030 -2.5231 0.9468
-12.1297 -5.7474 -2.5229 0.9468
-11.4857 -6.9312 -2.5215 0.9469
-11.3428 -7.1598 -2.5212 0.9469
-10.7258 -8.0433 -2.5199 0.9469
-10.5606 -8.2561 -2.5196 0.9469
-10.3912 -8.4655 -2.5192 0.9469
-10.0398 -8.8737 -2.5185 0.9469
-9.6723 -9.2672 -2.5178 0.9469
-9.4827 -9.4582 -2.5174 0.9469
-9.2894 -9.6454 -2.5170 0.9470
-9.0923 -9.8286 -2.5166 0.9470
-8.6873 -10.1828 -2.5158 0.9470
-8.2684 -10.5202 -2.5150 0.9470
-7.6158 -10.9937 -2.5138 0.9470
-7.3920 -11.1426 -2.5133 0.9470
-6.9295 -11.4159 -2.5101 0.9471
-6.6895 -11.5370 -2.5067 0.9472
-6.4265 -11.6153 -2.4951 0.9474
-5.7593 -11.4749 -2.4132 0.9491
-4.9385 -11.5233 -2.3565 0.9503
-4.4699 -11.7081 -2.3556 0.9503
-4.2329 -11.7933 -2.3551 0.9503
-3.7542 -11.9494 -2.3543 0.9503
-3.5127 -12.0201 -2.3538 0.9503
-3.2698 -12.0860 -2.3534 0.9503
-2.7805 -12.2029 -2.3525 0.9503
-2.5343 -12.2540 -2.3520 0.9503
-0.7901 -12.4714 -2.3488 0.9504
-0.5393 -12.4824 -2.3484 0.9504
-0.2883 -12.4883 -2.3479 0.9504
0.2136 -12.4850 -2.3470 0.9504
0.4643 -12.4758 -2.3466 0.9505
1.4635 -12.3889 -2.3448 0.9505
1.7118 -12.3546 -2.3444 0.9505
1.9593 -12.3154 -2.3439 0.9505
2.2060 -12.2713 -2.3435 0.9505
2.4517 -12.2223 -2.3431 0.9505
2.6963 -12.1683 -2.3426 0.9505
3.1819 -12.0458 -2.3418 0.9506
3.4227 -11.9773 -2.3414 0.9506
3.6620 -11.9040 -2.3410 0.9506
3.8998 -11.8259 -2.3406 0.9506
4.1359 -11.7432 -2.3401 0.9506
4.8334 -11.4668 -2.3389 0.9506
5.0620 -11.3654 -2.3386 0.9506
5.2885 -11.2596 -2.3382 0.9506
5.8360 -11.2292 -2.3787 0.9498
6.1469 -11.2682 -2.4126 0.9491
6.4669 -11.3081 -2.4485 0.9484
6.7808 -11.3228 -2.4807 0.9477
7.2445 -11.0630 -2.4856 0.9476
7.4688 -10.9202 -2.4867 0.9476
7.6856 -10.7664 -2.4864 0.9476
7.8992 -10.6083 -2.4860 0.9476
8.1097 -10.4460 -2.4857 0.9476
8.3168 -10.2795 -2.4853 0.9476
8.7208 -9.9344 -2.4847 0.9476
9.1106 -9.5736 -2.4840 0.9476
9.3000 -9.3874 -2.4837 0.9476
9.6674 -9.0041 -2.4832 0.9477
10.0191 -8.6065 -2.4826 0.9477
10.1890 -8.4025 -2.4823 0.9477
10.3547 -8.1952 -2.4821 0.9477
10.5162 -7.9847 -2.4818 0.9477
10.6735 -7.7710 -2.4816 0.9477
10.9751 -7.3346 -2.4811 0.9477
11.1193 -7.1119 -2.4809 0.9477
11.3942 -6.6583 -2.4805 0.9477
11.5248 -6.4275 -2.4803 0.9477
11.8887 -5.7203 -2.4798 0.9477
12.0005 -5.4800 -2.4797 0.9477
12.3991 -4.4978 -2.4791 0.9477
12.5688 -3.9956 -2.4789 0.9477
12.6460 -3.7421 -2.4788 0.9477
13.0439 -1.9319 -2.4785 0.9477
13.0800 -1.6694 -2.4785 0.9477
13.1109 -1.4062 -2.4785 0.9477
13.1569 -0.8783 -2.4785 0.9477
13.1819 -0.3490 -2.4785 0.9477
13.1865 -0.0840 -2.4786 0.9477
13.1798 0.4459 -2.4787 0.9477
13.1521 0.9752 -2.4789 0.9477
13.0335 2.0284 -2.4793 0.9477
12.9908 2.2900 -2.4794 0.9477
12.8898 2.8104 -2.4797 0.9477
12.8315 3.0690 -2.4798 0.9477
12.6259 3.8373 -2.4804 0.9477
12.5472 4.0906 -2.4806 0.9477
12.3748 4.5921 -2.4810 0.9477
12.1824 5.0866 -2.4814 0.9477
12.0789 5.3308 -2.4816 0.9477
0.6280 11.1039 -2.3509 0.9555
0.1814 11.1240 -2.3517 0.9555
-0.4894 11.1204 -2.3529 0.9555
-0.9361 11.0955 -2.3537 0.9555
-1.1591 11.0763 -2.3541 0.9555
-1.3816 11.0527 -2.3545 0.9555
-1.6037 11.0245 -2.3549 0.9555
-2.0460 10.9548 -2.3557 0.9555
-2.1192 8.4784 -1.8473 0.9649
-2.2979 8.4667 -1.8544 0.9648
-3.1371 10.7030 -2.3576 0.9554
-3.7780 10.4995 -2.3587 0.9554
-3.9888 10.4230 -2.3590 0.9554
-4.4057 10.2575 -2.3598 0.9554
-4.6117 10.1684 -2.3601 0.9554
-4.4248 9.2573 -2.1688 0.9589
-4.7218 8.9368 -2.1365 0.9595
-4.8494 8.7482 -2.1143 0.9599
-4.9444 8.5116 -2.0807 0.9606
-5.8528 9.2030 -2.3054 0.9564
-6.3734 9.1846 -2.3631 0.9553
-6.4116 8.1442 -2.1910 0.9585
-7.0939 8.6475 -2.3643 0.9553
-7.2671 8.5043 -2.3646 0.9553
-7.6046 8.2073 -2.3651 0.9553
-7.7545 7.7221 -2.3133 0.9562
-8.0880 7.7368 -2.3659 0.9553
-8.2427 7.5735 -2.3661 0.9553
-8.3940 7.4071 -2.3664 0.9553
-9.1526 7.1435 -2.4542 0.9536
-9.4538 7.0776 -2.4963 0.9529
-9.6656 6.9375 -2.5149 0.9525
-9.9586 6.5581 -2.5205 0.9524
-10.0928 6.3595 -2.5216 0.9524
-10.2193 6.1559 -2.5218 0.9524
-10.4598 5.7411 -2.5221 0.9524
-10.5737 5.5301 -2.5223 0.9524
-10.9861 4.6643 -2.5229 0.9524
-11.1657 4.2195 -2.5231 0.9524
-11.4009 3.5395 -2.5234 0.9524
-11.4701 3.3098 -2.5235 0.9524
-11.5944 2.8465 -2.5236 0.9524
-11.6495 2.6129 -2.5237 0.9524
-11.6999 2.3784 -2.5237 0.9524
-11.8799 1.1929 -2.5238 0.9524
-11.9014 0.9539 -2.5238 0.9524
-11.9181 0.7146 -2.5238 0.9524
-11.9299 0.4749 -2.5237 0.9524
-11.9390 -0.0048 -2.5237 0.9524
-11.9287 -0.4845 -2.5236 0.9524
-11.8989 -0.9633 -2.5234 0.9524
-11.8497 -1.4405 -2.5232 0.9524
-11.8179 -1.6782 -2.5231 0.9524
-11.7813 -1.9153 -2.5230 0.9524
-11.5870 -2.8545 -2.5225 0.9524
-10.5602 -5.5338 -2.5201 0.9524
-9.9467 -6.5617 -2.5188 0.9525
-9.0788 -7.7050 -2.5170 0.9525
-8.9210 -7.8849 -2.5167 0.9525
-8.7597 -8.0615 -2.5164 0.9525
-8.4265 -8.4047 -2.5157 0.9525
-8.2548 -8.5712 -2.5154 0.9525
-8.0798 -8.7341 -2.5150 0.9525
-7.9015 -8.8934 -2.5147 0.9525
-7.7201 -9.0492 -2.5143 0.9525
-7.1578 -9.4937 -2.5132 0.9526
-6.9646 -9.6342 -2.5129 0.9526
-6.5698 -9.9032 -2.5121 0.9526
-6.1647 -10.1561 -2.5113 0.9526
-5.9585 -10.2763 -2.5109 0.9526
-5.5390 -10.5041 -2.5101 0.9526
-5.3260 -10.6115 -2.5097 0.9526
-4.8937 -10.8135 -2.5089 0.9526
-4.6714 -10.9000 -2.5067 0.9527
-3.9952 -11.1312 -2.4999 0.9528
-3.4819 -11.0828 -2.4556 0.9536
-2.7424 -11.0095 -2.3983 0.9547
-2.5043 -10.9907 -2.3828 0.9550
-1.8130 -10.9732 -2.3510 0.9555
-1.5919 -11.0055 -2.3506 0.9556
-1.1480 -11.0568 -2.3498 0.9556
-0.4796 -11.1002 -2.3485 0.9556
-0.0332 -11.1067 -2.3477 0.9556
0.1900 -11.1033 -2.3473 0.9556
0.4130 -11.0953 -2.3469 0.9556
0.6357 -11.0829 -2.3466 0.9556
0.8581 -11.0660 -2.3462 0.9556
1.3017 -11.0189 -2.3454 0.9557
1.5225 -10.9887 -2.3450 0.9557
1.7428 -10.9541 -2.3446 0.9557
1.9622 -10.9150 -2.3442 0.9557
2.1886 -10.9108 -2.3523 0.9555
2.8890 -10.9369 -2.3911 0.9548
3.3733 -10.9657 -2.4251 0.9542
3.6208 -10.9801 -2.4439 0.9538
3.8722 -10.9946 -2.4640 0.9535
4.3503 -10.9291 -2.4865 0.9530
4.7915 -10.7582 -2.4894 0.9530
5.4333 -10.4544 -2.4905 0.9530
6.6458 -9.7171 -2.4884 0.9530
6.8389 -9.5803 -2.4881 0.9530
7.0291 -9.4398 -2.4878 0.9530
7.2165 -9.2955 -2.4875 0.9530
7.5823 -8.9959 -2.4869 0.9530
7.9358 -8.6820 -2.4863 0.9530
8.1078 -8.5198 -2.4861 0.9531
8.4417 -8.1854 -2.4855 0.9531
8.6036 -8.0133 -2.4853 0.9531
8.7620 -7.8380 -2.4850 0.9531
8.9168 -7.6596 -2.4848 0.9531
9.0681 -7.4782 -2.4845 0.9531
9.2157 -7.2938 -2.4843 0.9531
9.4996 -6.9164 -2.4839 0.9531
9.7683 -6.5280 -2.4835 0.9531
9.8967 -6.3300 -2.4833 0.9531
10.0212 -6.1294 -2.4831 0.9531
10.1416 -5.9263 -2.4829 0.9531
10.2579 -5.7210 -2.4827 0.9531
10.3701 -5.5134 -2.4826 0.9531
10.4782 -5.3035 -2.4824 0.9531
10.6816 -4.8777 -2.4821 0.9531
10.8679 -4.4442 -2.4819 0.9531
11.0367 -4.0035 -2.4817 0.9531
11.2567 -3.3310 -2.4814 0.9531
11.4867 -2.4162 -2.4812 0.9531
11.5327 -2.1848 -2.4811 0.9531
11.5742 -1.9526 -2.4811 0.9531
11.6431 -1.4860 -2.4811 0.9531
11.6706 -1.2517 -2.4811 0.9531
11.6934 -1.0170 -2.4811 0.9531
11.7116 -0.7818 -2.4811 0.9531
11.7338 -0.3106 -2.4812 0.9531
11.7378 -0.0748 -2.4812 0.9531
11.7372 0.1611 -2.4812 0.9531
11.7318 0.3969 -2.4813 0.9531
11.7218 0.6326 -2.4814 0.9531
11.6876 1.1031 -2.4815 0.9531
11.5205 2.2704 -2.4820 0.9531
11.4731 2.5015 -2.4822 0.9531
11.2380 3.4155 -2.4828 0.9531
11.1678 3.6409 -2.4829 0.9531
11.0932 3.8648 -2.4831 0.9531
10.9306 4.3081 -2.4835 0.9531
10.7505 4.7445 -2.4839 0.9531
0.3641 9.9973 -2.3512 0.9597
-0.0379 10.0070 -2.3519 0.9597
-0.4401 10.0004 -2.3526 0.9597
-0.6410 9.9911 -2.3530 0.9597
-1.0423 9.9603 -2.3537 0.9597
-1.2424 9.9388 -2.3540 0.9597
-1.6412 9.8838 -2.3547 0.9597
-2.0376 9.8128 -2.3554 0.9597
-2.2347 9.7713 -2.3558 0.9596
-3.0138 9.5658 -2.3571 0.9596
-3.2058 9.5047 -2.3575 0.9596
-3.3967 9.4397 -2.3578 0.9596
-3.5861 9.3708 -2.3581 0.9596
-3.7742 9.2981 -2.3584 0.9596
-4.3293 9.0575 -2.3594 0.9596
-4.6910 8.8785 -2.3600 0.9596
-5.2193 8.5830 -2.3609 0.9596
-5.3914 8.4774 -2.3612 0.9596
-5.5613 8.3684 -2.3615 0.9596
-5.7290 8.2559 -2.3617 0.9595
-5.8944 8.1401 -2.3620 0.9595
-6.2181 7.8985 -2.3626 0.9595
-6.3763 7.7728 -2.3628 0.9595
-6.5319 7.6439 -2.3631 0.9595
-7.7181 7.3830 -2.5102 0.9571
-7.8723 7.2332 -2.5126 0.9570
-8.3133 6.7616 -2.5185 0.9569
-8.4482 6.5938 -2.5187 0.9569
-8.7077 6.2500 -2.5191 0.9569
-9.0704 5.7153 -2.5196 0.9569
-9.1840 5.5322 -2.5198 0.9569
-9.2939 5.3469 -2.5200 0.9569
-9.4000 5.1594 -2.5201 0.9569
-9.6954 4.5844 -2.5205 0.9569
-9.7861 4.3889 -2.5207 0.9569
-9.8727 4.1916 -2.5208 0.9569
-10.3074 2.9743 -2.5213 0.9569
-10.3654 2.7667 -2.5214 0.9569
-10.4191 2.5579 -2.5214 0.9569
-10.5915 1.7132 -2.5216 0.9569
-10.6238 1.5000 -2.5216 0.9569
-10.7287 -0.0043 -2.5215 0.9569
-10.7195 -0.4353 -2.5214 0.9569
-10.7083 -0.6506 -2.5213 0.9569
-10.6729 -1.0803 -2.5212 0.9569
-10.6487 -1.2945 -2.5211 0.9569
-10.6201 -1.5081 -2.5210 0.9569
-10.4629 -2.3556 -2.5206 0.9569
-10.3002 -2.9812 -2.5201 0.9569
-10.0250 -3.7976 -2.5195 0.9569
-9.8629 -4.1968 -2.5191 0.9569
-9.7758 -4.3937 -2.5189 0.9569
-9.6848 -4.5889 -2.5187 0.9569
-9.1716 -5.5348 -2.5176 0.9569
-9.0577 -5.7174 -2.5174 0.9569
-8.9401 -5.8977 -2.5171 0.9569
-8.8189 -6.0755 -2.5169 0.9570
-8.6942 -6.2509 -2.5166 0.9570
-8.4342 -6.5937 -2.5161 0.9570
-8.2991 -6.7611 -2.5158 0.9570
-8.0189 -7.0875 -2.5153 0.9570
-7.8740 -7.2464 -2.5150 0.9570
-7.7259 -7.4023 -2.5147 0.9570
-7.4204 -7.7049 -2.5141 0.9570
-7.2632 -7.8514 -2.5137 0.9570
-7.1031 -7.9948 -2.5134 0.9570
-6.6060 -8.4050 -2.5125 0.9570
-6.0851 -8.7842 -2.5115 0.9570
-5.7257 -9.0191 -2.5108 0.9571
-5.1697 -9.3437 -2.5097 0.9571
-4.7887 -9.5412 -2.5090 0.9571
-4.4003 -9.7230 -2.5082 0.9571
-4.2034 -9.8080 -2.5079 0.9571
-4.0048 -9.8890 -2.5075 0.9571
-2.7838 -10.2896 -2.5052 0.9571
-2.5761 -10.3419 -2.5049 0.9572
-2.3674 -10.3900 -2.5045 0.9572
-2.1579 -10.4339 -2.5041 0.9572
-1.9475 -10.4735 -2.5037 0.9572
-1.7358 -10.5058 -2.5026 0.9572
-1.5237 -10.5340 -2.5015 0.9572
-0.8854 -10.5957 -2.4989 0.9573
-0.6721 -10.6083 -2.4982 0.9573
-0.4587 -10.6168 -2.4975 0.9573
-0.0317 -10.6223 -2.4965 0.9573
0.1817 -10.6194 -2.4962 0.9573
0.3950 -10.6125 -2.4959 0.9573
0.6081 -10.6016 -2.4957 0.9573
1.2457 -10.5449 -2.4955 0.9573
1.4574 -10.5186 -2.4957 0.9573
1.6687 -10.4883 -2.4960 0.9573
2.2976 -10.3692 -2.4961 0.9573
2.9169 -10.2075 -2.4950 0.9573
3.1210 -10.1454 -2.4947 0.9573
3.3237 -10.0792 -2.4943 0.9573
3.5251 -10.0090 -2.4940 0.9573
3.7250 -9.9348 -2.4936 0.9573
3.9233 -9.8566 -2.4933 0.9573
4.1201 -9.7744 -2.4930 0.9574
4.5083 -9.5985 -2.4923 0.9574
4.6996 -9.5047 -2.4920 0.9574
4.8890 -9.4071 -2.4917 0.9574
5.0764 -9.3058 -2.4913 0.9574
5.2617 -9.2008 -2.4910 0.9574
5.4449 -9.0921 -2.4907 0.9574
5.6258 -8.9797 -2.4904 0.9574
5.8044 -8.8638 -2.4901 0.9574
6.1544 -8.6214 -2.4895 0.9574
6.4944 -8.3653 -2.4890 0.9574
6.8238 -8.0959 -2.4884 0.9574
6.9843 -7.9563 -2.4882 0.9574
7.4488 -7.5188 -2.4874 0.9574
7.5976 -7.3669 -2.4872 0.9574
7.7434 -7.2121 -2.4870 0.9575
8.0255 -6.8939 -2.4865 0.9575
8.2946 -6.5648 -2.4861 0.9575
8.4241 -6.3963 -2.4859 0.9575
8.6730 -6.0517 -2.4855 0.9575
9.1284 -5.3343 -2.4848 0.9575
9.2332 -5.1495 -2.4847 0.9575
9.3343 -4.9626 -2.4845 0.9575
9.4316 -4.7738 -2.4844 0.9575
9.6148 -4.3906 -2.4842 0.9575
9.7006 -4.1963 -2.4840 0.9575
9.7826 -4.0004 -2.4839 0.9575
9.8606 -3.8029 -2.4838 0.9575
9.9346 -3.6038 -2.4837 0.9575
10.1327 -2.9984 -2.4835 0.9575
10.1906 -2.7941 -2.4834 0.9575
10.2445 -2.5887 -2.4834 0.9575
10.2943 -2.3823 -2.4833 0.9575
10.4187 -1.7577 -2.4832 0.9575
10.4807 -1.3376 -2.4832 0.9575
10.5260 -0.9154 -2.4832 0.9575
10.5545 -0.4918 -2.4832 0.9575
10.5660 -0.0673 -2.4833 0.9575
10.5382 0.7813 -2.4835 0.9575
10.5206 0.9930 -2.4836 0.9575
10.4989 1.2042 -2.4837 0.9575
10.4730 1.4150 -2.4838 0.9575
10.4428 1.6252 -2.4838 0.9575
10.4085 1.8348 -2.4840 0.9575
10.3700 2.0436 -2.4841 0.9575
10.3273 2.2517 -2.4842 0.9575
10.2805 2.4589 -2.4843 0.9575
10.1154 3.0743 -2.4847 0.9575
9.9137 3.6789 -2.4852 0.9575
9.8384 3.8776 -2.4854 0.9575
9.6761 4.2704 -2.4857 0.9575
9.4982 4.6565 -2.4861 0.9575
0.5126 9.0645 -2.3507 0.9632
0.3304 9.0743 -2.3510 0.9632
-0.3994 9.0765 -2.3523 0.9632
-0.5818 9.0679 -2.3527 0.9632
-0.7640 9.0557 -2.3530 0.9631
-1.3087 8.9968 -2.3540 0.9631
-1.4894 8.9699 -2.3543 0.9631
-1.6696 8.9394 -2.3546 0.9631
-1.8492 8.9052 -2.3549 0.9631
-2.0280 8.8675 -2.3552 0.9631
-2.2932 8.4493 -2.2668 0.9645
-2.5596 8.7326 -2.3562 0.9631
-2.9091 8.6250 -2.3568 0.9631
-3.7619 8.2948 -2.3582 0.9631
-3.9283 8.2185 -2.3585 0.9631
-4.0931 8.1389 -2.3588 0.9631
-4.2564 8.0559 -2.3591 0.9631
-4.4179 7.9697 -2.3593 0.9630
-4.9577 7.7955 -2.3920 0.9625
-5.1624 7.7682 -2.4150 0.9622
-5.3711 7.7401 -2.4393 0.9618
-5.5839 7.7113 -2.4651 0.9614
-5.8012 7.6816 -2.4924 0.9610
-5.9910 7.6100 -2.5077 0.9608
-6.1474 7.4938 -2.5096 0.9607
-6.3014 7.3742 -2.5115 0.9607
-6.4532 7.2516 -2.5134 0.9607
-6.6028 7.1260 -2.5153 0.9607
-6.7457 6.9930 -2.5157 0.9606
-7.1566 6.5756 -2.5164 0.9606
-7.2879 6.4310 -2.5166 0.9606
-7.4162 6.2838 -2.5168 0.9606
-7.5416 6.1340 -2.5170 0.9606
-8.1217 5.3484 -2.5179 0.9606
-8.2280 5.1845 -2.5180 0.9606
-8.3311 5.0184 -2.5182 0.9606
-8.6197 4.5081 -2.5186 0.9606
-8.7947 4.1585 -2.5188 0.9606
-8.8769 3.9812 -2.5190 0.9606
-8.9555 3.8022 -2.5191 0.9606
-9.0304 3.6216 -2.5192 0.9606
-9.1017 3.4395 -2.5193 0.9606
-9.2933 2.8852 -2.5195 0.9606
-9.3496 2.6979 -2.5196 0.9606
-9.4021 2.5096 -2.5196 0.9606
-9.4509 2.3202 -2.5197 0.9606
-9.5368 1.9387 -2.5197 0.9606
-9.6365 1.3606 -2.5198 0.9606
-9.6619 1.1667 -2.5198 0.9606
-9.7010 0.7775 -2.5198 0.9606
-9.7146 0.5825 -2.5198 0.9606
-9.7242 0.3871 -2.5198 0.9606
-9.7300 0.1917 -2.5197 0.9606
-9.7317 -0.0039 -2.5197 0.9606
-9.7233 -0.3949 -2.5196 0.9606
-9.7132 -0.5902 -2.5196 0.9606
-9.6592 -1.1742 -2.5194 0.9606
-9.6036 -1.5613 -2.5192 0.9606
-9.5699 -1.7538 -2.5191 0.9606
-9.4909 -2.1368 -2.5189 0.9606
-9.3435 -2.7043 -2.5185 0.9606
-9.2868 -2.8913 -2.5183 0.9606
-9.0941 -3.4449 -2.5179 0.9606
-9.0224 -3.6268 -2.5177 0.9606
-8.8682 -3.9858 -2.5174 0.9606
-8.7857 -4.1629 -2.5172 0.9606
-8.6100 -4.5119 -2.5168 0.9606
-8.5169 -4.6836 -2.5166 0.9606
-8.3205 -5.0211 -2.5162 0.9606
-8.2172 -5.1869 -2.5160 0.9606
-8.1106 -5.3504 -2.5158 0.9606
-7.6519 -5.9821 -2.5148 0.9607
-7.4039 -6.2835 -2.5143 0.9607
-7.2754 -6.4304 -2.5140 0.9607
-6.7327 -6.9907 -2.5130 0.9607
-6.5901 -7.1238 -2.5127 0.9607
-6.4449 -7.2540 -2.5124 0.9607
-6.2971 -7.3812 -2.5121 0.9607
-5.9941 -7.6264 -2.5115 0.9607
-5.8389 -7.7444 -2.5112 0.9607
-5.5217 -7.9708 -2.5106 0.9607
-5.3597 -8.0791 -2.5103 0.9607
-5.1957 -8.1842 -2.5100 0.9607
-4.5194 -8.5705 -2.5087 0.9608
-3.8147 -8.9010 -2.5074 0.9608
-3.6346 -8.9747 -2.5070 0.9608
-3.0860 -9.1736 -2.5060 0.9608
-2.9006 -9.2325 -2.5057 0.9608
-2.7142 -9.2876 -2.5053 0.9608
-2.3382 -9.3866 -2.5046 0.9608
-2.1488 -9.4304 -2.5043 0.9608
-1.9586 -9.4703 -2.5039 0.9608
-1.7676 -9.5064 -2.5036 0.9608
-1.3839 -9.5671 -2.5029 0.9608
-1.1912 -9.5916 -2.5025 0.9609
-0.8046 -9.6290 -2.5018 0.9609
-0.2229 -9.6560 -2.5008 0.9609
0.1652 -9.6544 -2.5001 0.9609
0.5528 -9.6374 -2.4994 0.9609
0.7462 -9.6230 -2.4990 0.9609
0.9393 -9.6047 -2.4987 0.9609
1.1320 -9.5826 -2.4984 0.9609
1.3241 -9.5566 -2.4980 0.9609
1.7066 -9.4931 -2.4973 0.9609
1.8967 -9.4557 -2.4970 0.9609
2.0861 -9.4144 -2.4967 0.9609
2.4620 -9.3205 -2.4960 0.9610
2.6484 -9.2680 -2.4957 0.9610
3.3823 -9.0208 -2.4944 0.9610
3.7411 -8.8754 -2.4938 0.9610
4.2675 -8.6308 -2.4929 0.9610
4.6098 -8.4504 -2.4923 0.9610
4.7781 -8.3551 -2.4921 0.9610
5.1088 -8.1546 -2.4915 0.9610
5.2711 -8.0494 -2.4912 0.9610
5.5890 -7.8295 -2.4907 0.9610
5.7447 -7.7148 -2.4904 0.9610
6.0488 -7.4762 -2.4899 0.9610
6.4864 -7.0962 -2.4892 0.9611
6.6270 -6.9638 -2.4890 0.9611
6.7650 -6.8286 -2.4888 0.9611
6.9003 -6.6907 -2.4886 0.9611
7.0327 -6.5502 -2.4884 0.9611
7.2891 -6.2613 -2.4880 0.9611
7.4128 -6.1131 -2.4878 0.9611
7.6513 -5.8095 -2.4874 0.9611
7.9858 -5.3369 -2.4869 0.9611
8.0909 -5.1750 -2.4867 0.9611
8.1928 -5.0111 -2.4866 0.9611
8.2913 -4.8451 -2.4864 0.9611
8.3865 -4.6773 -2.4863 0.9611
8.4784 -4.5076 -2.4862 0.9611
8.5668 -4.3361 -2.4860 0.9611
8.8113 -3.8116 -2.4857 0.9611
8.8858 -3.6336 -2.4856 0.9611
8.9567 -3.4542 -2.4855 0.9611
9.1476 -2.9080 -2.4853 0.9611
9.2566 -2.5380 -2.4852 0.9611
9.3056 -2.3515 -2.4851 0.9611
9.3508 -2.1640 -2.4851 0.9611
9.4939 -1.4061 -2.4850 0.9611
9.5202 -1.2150 -2.4849 0.9611
9.5427 -1.0235 -2.4849 0.9611
9.5871 -0.4467 -2.4850 0.9611
9.5926 0.3245 -2.4851 0.9611
9.5843 0.5172 -2.4852 0.9611
9.5723 0.7097 -2.4852 0.9611
9.5563 0.9019 -2.4853 0.9611
9.5365 1.0938 -2.4854 0.9611
9.5129 1.2853 -2.4854 0.9611
9.4855 1.4762 -2.4855 0.9611
9.4193 1.8563 -2.4857 0.9611
9.3805 2.0453 -2.4858 0.9611
9.2916 2.4207 -2.4861 0.9611
9.2415 2.6071 -2.4862 0.9611
9.1878 2.7924 -2.4863 0.9611
9.1303 2.9766 -2.4865 0.9611
9.0044 3.3415 -2.4868 0.9611
8.7885 3.8787 -2.4873 0.9611
8.7094 4.0548 -2.4874 0.9611
0.1354 8.3044 -2.3512 0.9661
-0.1984 8.3053 -2.3518 0.9661
-0.6987 8.2814 -2.3527 0.9660
-1.0311 8.2487 -2.3533 0.9660
-1.3620 8.2026 -2.3539 0.9660
-2.0173 8.0707 -2.3551 0.9660
-2.3465 8.0057 -2.3617 0.9659
-2.5192 7.9961 -2.3733 0.9657
-2.8679 7.9701 -2.3979 0.9654
-3.2225 7.9388 -2.4255 0.9650
-3.4029 7.9226 -2.4410 0.9648
-3.5856 7.9061 -2.4576 0.9646
-4.4483 7.6576 -2.5071 0.9639
-4.9103 7.3888 -2.5115 0.9638
-5.2063 7.1899 -2.5130 0.9638
-5.6316 6.8650 -2.5137 0.9638
-5.7689 6.7511 -2.5139 0.9638
-6.0366 6.5150 -2.5144 0.9638
-6.4197 6.1410 -2.5150 0.9637
-6.6623 5.8790 -2.5154 0.9637
-6.7796 5.7443 -2.5155 0.9637
-7.0059 5.4680 -2.5159 0.9637
-7.1148 5.3265 -2.5161 0.9637
-7.2209 5.1828 -2.5162 0.9637
-7.3240 5.0370 -2.5164 0.9637
-7.6155 4.5874 -2.5168 0.9637
-7.7944 4.2781 -2.5171 0.9637
-7.8792 4.1208 -2.5172 0.9637
-8.0391 3.8012 -2.5174 0.9637
-8.2545 3.3104 -2.5177 0.9637
-8.3196 3.1440 -2.5178 0.9637
-8.3814 2.9762 -2.5179 0.9637
-8.5942 2.2939 -2.5181 0.9637
-8.6387 2.1208 -2.5182 0.9637
-8.7171 1.7720 -2.5182 0.9637
-8.8083 1.2437 -2.5183 0.9637
-8.8315 1.0664 -2.5183 0.9637
-8.8512 0.8887 -2.5183 0.9637
-8.8797 0.5324 -2.5183 0.9637
-8.8885 0.3538 -2.5183 0.9637
-8.8933 -0.1823 -2.5182 0.9637
-8.8877 -0.3610 -2.5181 0.9637
-8.8785 -0.5395 -2.5181 0.9637
-8.8657 -0.7177 -2.5180 0.9637
-8.8292 -1.0733 -2.5179 0.9637
-8.7784 -1.4271 -2.5177 0.9637
-8.7476 -1.6032 -2.5176 0.9637
-8.6755 -1.9532 -2.5174 0.9637
-8.6341 -2.1270 -2.5173 0.9637
-8.5892 -2.3000 -2.5172 0.9637
-8.5409 -2.4720 -2.5171 0.9637
-8.4891 -2.6430 -2.5170 0.9637
-8.3130 -3.1491 -2.5166 0.9637
-8.1788 -3.4801 -2.5162 0.9637
-8.0313 -3.8054 -2.5159 0.9637
-7.7858 -4.2815 -2.5154 0.9637
-7.5120 -4.7417 -2.5148 0.9637
-7.4146 -4.8913 -2.5146 0.9637
-7.3142 -5.0389 -2.5144 0.9637
-7.2108 -5.1844 -2.5142 0.9638
-6.7689 -5.7446 -2.5133 0.9638
-6.4086 -6.1402 -2.5126 0.9638
-6.1555 -6.3914 -2.5120 0.9638
-5.6201 -6.8621 -2.5110 0.9638
-5.4805 -6.9729 -2.5107 0.9638
-5.0487 -7.2881 -2.5099 0.9638
-4.7507 -7.4833 -2.5093 0.9638
-4.5989 -7.5764 -2.5090 0.9638
-4.4452 -7.6664 -2.5087 0.9638
-4.2897 -7.7532 -2.5084 0.9638
-3.9738 -7.9174 -2.5078 0.9638
-3.8135 -7.9947 -2.5075 0.9638
-3.4883 -8.1395 -2.5069 0.9639
-2.6526 -8.4431 -2.5054 0.9639
-2.3107 -8.5407 -2.5047 0.9639
-1.6166 -8.6942 -2.5035 0.9639
-1.0895 -8.7725 -2.5025 0.9639
-0.9128 -8.7915 -2.5022 0.9639
-0.5587 -8.8188 -2.5015 0.9639
-0.3814 -8.8271 -2.5012 0.9639
-0.2039 -8.8318 -2.5009 0.9639
0.1511 -8.8306 -2.5003 0.9639
0.3284 -8.8247 -2.4999 0.9640
0.5056 -8.8152 -2.4996 0.9640
0.6826 -8.8022 -2.4993 0.9640
0.8592 -8.7856 -2.4990 0.9640
1.0355 -8.7654 -2.4987 0.9640
1.3865 -8.7146 -2.4981 0.9640
1.7350 -8.6497 -2.4975 0.9640
2.0807 -8.5710 -2.4969 0.9640
2.2522 -8.5264 -2.4966 0.9640
2.7609 -8.3723 -2.4957 0.9640
2.9282 -8.3141 -2.4954 0.9640
3.0943 -8.2527 -2.4951 0.9640
3.2591 -8.1879 -2.4948 0.9640
3.7453 -7.9740 -2.4940 0.9640
4.0618 -7.8154 -2.4934 0.9640
4.2176 -7.7314 -2.4932 0.9640
4.3716 -7.6443 -2.4929 0.9641
4.5239 -7.5541 -2.4927 0.9641
4.6743 -7.4609 -2.4924 0.9641
5.6704 -6.7275 -2.4908 0.9641
6.0638 -6.3720 -2.4901 0.9641
6.1902 -6.2484 -2.4899 0.9641
6.7831 -5.5938 -2.4890 0.9641
7.1064 -5.1740 -2.4885 0.9641
7.2085 -5.0298 -2.4883 0.9641
7.4039 -4.7356 -2.4881 0.9641
7.4971 -4.5856 -2.4879 0.9641
7.5874 -4.4338 -2.4878 0.9641
7.6745 -4.2802 -2.4877 0.9641
7.8396 -3.9680 -2.4874 0.9641
7.9174 -3.8095 -2.4873 0.9641
7.9920 -3.6495 -2.4872 0.9641
8.1965 -3.1610 -2.4869 0.9641
8.2581 -2.9956 -2.4869 0.9641
8.3163 -2.8290 -2.4868 0.9641
8.3713 -2.6612 -2.4867 0.9641
8.4711 -2.3226 -2.4866 0.9641
8.5572 -1.9803 -2.4865 0.9641
8.6607 -1.4611 -2.4864 0.9641
8.6883 -1.2868 -2.4864 0.9641
8.7500 -0.7610 -2.4864 0.9641
8.7736 -0.4088 -2.4864 0.9641
8.7831 -0.0560 -2.4865 0.9641
8.7785 0.2970 -2.4866 0.9641
8.7599 0.6495 -2.4867 0.9641
8.7453 0.8254 -2.4867 0.9641
8.7272 1.0010 -2.4868 0.9641
8.7056 1.1762 -2.4869 0.9641
8.6804 1.3509 -2.4870 0.9641
8.6519 1.5251 -2.4870 0.9641
8.5452 2.0438 -2.4873 0.9641
8.5028 2.2152 -2.4874 0.9641
8.4570 2.3858 -2.4876 0.9641
8.3551 2.7239 -2.4878 0.9641
8.0421 3.5493 -2.4885 0.9641
0.2931 8.0483 -2.4771 0.9669
0.1313 8.0486 -2.4759 0.9669
-0.0305 8.0487 -2.4756 0.9669
-0.1923 8.0486 -2.4763 0.9669
-0.5164 8.0479 -2.4805 0.9668
-1.0037 8.0291 -2.4888 0.9667
-1.3307 8.0138 -2.4986 0.9666
-1.4918 7.9875 -2.4993 0.9666
-1.6525 7.9580 -2.4999 0.9666
-2.4464 7.7651 -2.5041 0.9665
-2.6030 7.7174 -2.5051 0.9665
-2.9132 7.6124 -2.5070 0.9665
-3.0668 7.5555 -2.5081 0.9665
-3.2195 7.4956 -2.5091 0.9664
-3.5192 7.3627 -2.5100 0.9664
-3.9576 7.1394 -2.5108 0.9664
-4.1007 7.0591 -2.5110 0.9664
-4.2421 6.9760 -2.5112 0.9664
-4.3818 6.8900 -2.5115 0.9664
-4.5198 6.8012 -2.5117 0.9664
-4.7902 6.6152 -2.5121 0.9664
-5.0530 6.4185 -2.5126 0.9664
-5.3077 6.2114 -2.5130 0.9664
-5.4319 6.1039 -2.5132 0.9664
-5.6736 5.8817 -2.5136 0.9664
-5.9063 5.6498 -2.5140 0.9664
-6.0190 5.5304 -2.5141 0.9664
-6.3426 5.1587 -2.5146 0.9664
-6.5455 4.9003 -2.5150 0.9664
-6.6431 4.7681 -2.5151 0.9664
-6.7379 4.6339 -2.5152 0.9664
-6.9194 4.3599 -2.5155 0.9664
-7.0060 4.2202 -2.5156 0.9664
-7.1706 3.9357 -2.5159 0.9663
-7.2485 3.7910 -2.5160 0.9663
-7.3236 3.6447 -2.5161 0.9663
-7.5307 3.1972 -2.5164 0.9663
-7.5937 3.0454 -2.5165 0.9663
-7.8619 2.2686 -2.5168 0.9663
-8.0191 1.6301 -2.5170 0.9663
-8.1029 1.1441 -2.5170 0.9663
-8.1243 0.9810 -2.5170 0.9663
-8.1424 0.8176 -2.5170 0.9663
-8.1768 0.3255 -2.5170 0.9663
-8.1812 -0.1677 -2.5169 0.9663
-8.1558 -0.6603 -2.5168 0.9663
-8.1407 -0.8240 -2.5167 0.9663
-8.1223 -0.9874 -2.5166 0.9663
-8.0158 -1.6362 -2.5163 0.9663
-7.9810 -1.7968 -2.5162 0.9663
-7.9429 -1.9567 -2.5161 0.9663
-7.9017 -2.1159 -2.5160 0.9663
-7.7588 -2.5877 -2.5157 0.9664
-7.6478 -2.8971 -2.5154 0.9664
-7.5243 -3.2017 -2.5151 0.9664
-7.3888 -3.5010 -2.5148 0.9664
-7.3164 -3.6485 -2.5147 0.9664
-6.9980 -4.2230 -2.5140 0.9664
-6.8216 -4.5001 -2.5136 0.9664
-6.5366 -4.9018 -2.5130 0.9664
-6.3333 -5.1596 -2.5126 0.9664
-6.2278 -5.2854 -2.5124 0.9664
-6.1198 -5.4090 -2.5122 0.9664
-6.0094 -5.5304 -2.5120 0.9664
-5.8965 -5.6495 -2.5117 0.9664
-5.7813 -5.7663 -2.5115 0.9664
-5.5439 -5.9929 -2.5110 0.9664
-5.4218 -6.1024 -2.5108 0.9664
-5.2976 -6.2096 -2.5105 0.9664
-5.0428 -6.4161 -2.5100 0.9664
-4.9124 -6.5155 -2.5098 0.9664
-4.7800 -6.6122 -2.5095 0.9664
-4.6457 -6.7062 -2.5093 0.9664
-4.3716 -6.8860 -2.5088 0.9664
-4.2319 -6.9717 -2.5085 0.9664
-3.9475 -7.1346 -2.5079 0.9665
-3.5093 -7.3570 -2.5071 0.9665
-3.3604 -7.4253 -2.5068 0.9665
-3.2101 -7.4904 -2.5066 0.9665
-3.0586 -7.5526 -2.5063 0.9665
-2.9059 -7.6116 -2.5060 0.9665
-2.7521 -7.6676 -2.5057 0.9665
-2.4412 -7.7702 -2.5051 0.9665
-2.2843 -7.8168 -2.5048 0.9665
-1.4879 -8.0018 -2.5034 0.9665
-1.3266 -8.0291 -2.5031 0.9665
-1.1649 -8.0532 -2.5028 0.9665
-1.0027 -8.0741 -2.5025 0.9665
-0.8402 -8.0916 -2.5022 0.9665
-0.1877 -8.1291 -2.5010 0.9665
-0.0243 -8.1303 -2.5007 0.9665
0.1391 -8.1282 -2.5004 0.9666
0.3023 -8.1228 -2.5001 0.9666
0.9531 -8.0686 -2.4990 0.9666
1.2763 -8.0219 -2.4984 0.9666
1.7566 -7.9278 -2.4976 0.9666
1.9154 -7.8900 -2.4973 0.9666
2.0733 -7.8491 -2.4970 0.9666
2.2304 -7.8050 -2.4967 0.9666
2.3865 -7.7577 -2.4965 0.9666
2.5416 -7.7074 -2.4962 0.9666
2.6957 -7.6540 -2.4959 0.9666
2.8486 -7.5974 -2.4957 0.9666
3.0004 -7.5379 -2.4954 0.9666
3.3002 -7.4097 -2.4949 0.9666
4.5752 -6.6895 -2.4927 0.9667
4.8394 -6.4991 -2.4923 0.9667
4.9686 -6.4000 -2.4921 0.9667
5.2209 -6.1942 -2.4917 0.9667
5.3439 -6.0875 -2.4915 0.9667
5.4647 -5.9785 -2.4913 0.9667
5.5833 -5.8670 -2.4911 0.9667
5.6996 -5.7532 -2.4909 0.9667
5.8136 -5.6371 -2.4907 0.9667
5.9253 -5.5188 -2.4906 0.9667
6.2458 -5.1507 -2.4901 0.9667
6.3476 -5.0238 -2.4899 0.9667
6.6376 -4.6315 -2.4894 0.9667
6.9035 -4.2225 -2.4891 0.9667
7.1443 -3.7983 -2.4887 0.9667
7.3593 -3.3606 -2.4884 0.9667
7.4879 -3.0620 -2.4882 0.9667
7.6044 -2.7585 -2.4881 0.9667
7.6581 -2.6051 -2.4880 0.9667
7.8800 -1.8236 -2.4878 0.9667
7.9467 -1.5055 -2.4877 0.9667
8.0007 -1.1850 -2.4877 0.9667
8.0228 -1.0239 -2.4877 0.9667
8.0418 -0.8625 -2.4877 0.9667
8.0880 -0.0516 -2.4877 0.9667
8.0875 0.1110 -2.4878 0.9667
8.0838 0.2735 -2.4878 0.9667
8.0665 0.5981 -2.4879 0.9667
8.0364 0.9217 -2.4880 0.9667
8.0165 1.0831 -2.4881 0.9667
7.9933 1.2440 -2.4882 0.9667
7.9374 1.5642 -2.4883 0.9667
7.8687 1.8820 -2.4885 0.9667
7.6936 2.5082 -2.4890 0.9667
7.5873 2.8156 -2.4892 0.9667
7.5296 2.9676 -2.4893 0.9667
7.4689 3.1185 -2.4895 0.9667
7.4051 3.2681 -2.4896 0.9667
7.2687 3.5635 -2.4899 0.9667
0.1228 7.5305 -2.5035 0.9688
-0.0285 7.5323 -2.5038 0.9687
-0.1799 7.5310 -2.5041 0.9687
-0.3312 7.5266 -2.5043 0.9687
-0.4824 7.5193 -2.5046 0.9687
-0.6335 7.5089 -2.5049 0.9687
-1.3842 7.4114 -2.5062 0.9687
-1.9757 7.2793 -2.5072 0.9687
-2.1217 7.2389 -2.5075 0.9687
-2.8386 6.9930 -2.5087 0.9687
-3.6611 6.6045 -2.5101 0.9687
-3.9242 6.4532 -2.5106 0.9687
-4.0534 6.3736 -2.5108 0.9687
-4.4312 6.1193 -2.5114 0.9687
-4.5536 6.0296 -2.5116 0.9687
-4.6742 5.9373 -2.5118 0.9687
-4.7929 5.8427 -2.5120 0.9686
-4.9097 5.7456 -2.5122 0.9686
-5.0246 5.6462 -2.5124 0.9686
-5.1374 5.5445 -2.5126 0.9686
-5.2481 5.4405 -2.5127 0.9686
-5.5675 5.1155 -2.5132 0.9686
-5.6695 5.0029 -2.5134 0.9686
-6.0544 4.5326 -2.5140 0.9686
-6.1446 4.4103 -2.5141 0.9686
-6.2323 4.2862 -2.5143 0.9686
-6.3174 4.1603 -2.5144 0.9686
-6.6323 3.6403 -2.5149 0.9686
-6.7044 3.5064 -2.5150 0.9686
-6.7738 3.3711 -2.5151 0.9686
-6.8404 3.2344 -2.5152 0.9686
-6.9653 2.9572 -2.5153 0.9686
-7.0235 2.8167 -2.5154 0.9686
-7.0789 2.6751 -2.5155 0.9686
-7.3123 1.9518 -2.5158 0.9686
-7.3502 1.8045 -2.5158 0.9686
-7.3851 1.6564 -2.5158 0.9686
-7.4169 1.5077 -2.5159 0.9686
-7.4458 1.3584 -2.5159 0.9686
-7.4945 1.0582 -2.5159 0.9686
-7.5309 0.7562 -2.5159 0.9686
-7.5446 0.6047 -2.5159 0.9686
-7.5552 0.4530 -2.5159 0.9686
-7.5686 -0.0030 -2.5158 0.9686
-7.5543 -0.4590 -2.5157 0.9686
-7.5434 -0.6107 -2.5157 0.9686
-7.5294 -0.7621 -2.5156 0.9686
-7.4924 -1.0640 -2.5155 0.9686
-7.4431 -1.3641 -2.5153 0.9686
-7.3818 -1.6619 -2.5152 0.9686
-7.3467 -1.8099 -2.5151 0.9686
-7.3085 -1.9571 -2.5150 0.9686
-7.2674 -2.1034 -2.5149 0.9686
-7.2234 -2.2489 -2.5148 0.9686
-7.1764 -2.3935 -2.5147 0.9686
-7.1265 -2.5371 -2.5145 0.9686
-7.0738 -2.6796 -2.5144 0.9686
-7.0182 -2.8211 -2.5143 0.9686
-6.9597 -2.9614 -2.5142 0.9686
-6.8343 -3.2383 -2.5139 0.9686
-6.7675 -3.3747 -2.5137 0.9686
-6.6979 -3.5099 -2.5136 0.9686
-6.5506 -3.7757 -2.5133 0.9686
-6.4730 -3.9063 -2.5131 0.9686
-6.3928 -4.0353 -2.5129 0.9686
-6.0464 -4.5342 -2.5122 0.9686
-5.8585 -4.7728 -2.5118 0.9686
-5.6611 -5.0035 -2.5114 0.9687
-5.5589 -5.1158 -2.5112 0.9687
-5.4546 -5.2261 -2.5110 0.9687
-5.3480 -5.3342 -2.5108 0.9687
-5.2393 -5.4401 -2.5106 0.9687
-5.1285 -5.5438 -2.5104 0.9687
-4.7839 -5.8411 -2.5097 0.9687
-4.6651 -5.9355 -2.5095 0.9687
-4.5445 -6.0275 -2.5092 0.9687
-4.2978 -6.2041 -2.5088 0.9687
-4.0443 -6.3705 -2.5083 0.9687
-3.9150 -6.4498 -2.5080 0.9687
-3.7843 -6.5265 -2.5078 0.9687
-3.3832 -6.7406 -2.5070 0.9687
-3.1090 -6.8697 -2.5065 0.9687
-2.9700 -6.9301 -2.5062 0.9687
-2.6886 -7.0423 -2.5057 0.9687
-2.4029 -7.1432 -2.5052 0.9687
-2.1136 -7.2324 -2.5046 0.9687
-1.9676 -7.2726 -2.5044 0.9687
-1.6734 -7.3442 -2.5038 0.9687
-1.5254 -7.3755 -2.5036 0.9688
-1.3767 -7.4039 -2.5033 0.9688
-1.0779 -7.4516 -2.5027 0.9688
-0.9278 -7.4710 -2.5025 0.9688
-0.4758 -7.5108 -2.5016 0.9688
-0.3248 -7.5180 -2.5014 0.9688
-0.1737 -7.5222 -2.5011 0.9688
-0.0225 -7.5234 -2.5008 0.9688
0.1287 -7.5215 -2.5006 0.9688
0.5814 -7.4977 -2.4997 0.9688
0.7319 -7.4837 -2.4995 0.9688
0.8820 -7.4667 -2.4992 0.9688
1.0318 -7.4466 -2.4990 0.9688
1.1811 -7.4236 -2.4987 0.9688
1.6257 -7.3367 -2.4979 0.9688
1.7726 -7.3018 -2.4977 0.9688
1.9188 -7.2639 -2.4974 0.9688
2.3522 -7.1330 -2.4966 0.9688
2.6364 -7.0314 -2.4962 0.9688
2.7769 -6.9763 -2.4959 0.9688
2.9162 -6.9184 -2.4957 0.9688
3.0543 -6.8578 -2.4954 0.9689
3.3268 -6.7283 -2.4950 0.9689
3.4610 -6.6595 -2.4947 0.9689
3.5938 -6.5880 -2.4945 0.9689
3.8549 -6.4371 -2.4941 0.9689
3.9832 -6.3578 -2.4939 0.9689
4.1098 -6.2760 -2.4937 0.9689
4.2347 -6.1916 -2.4935 0.9689
4.9463 -5.6347 -2.4923 0.9689
5.0582 -5.5338 -2.4921 0.9689
5.4847 -5.1084 -2.4914 0.9689
5.5859 -4.9968 -2.4913 0.9689
5.6848 -4.8832 -2.4911 0.9689
5.7814 -4.7677 -2.4910 0.9689
5.9676 -4.5311 -2.4907 0.9689
6.1442 -4.2872 -2.4904 0.9689
6.2288 -4.1626 -2.4903 0.9689
6.7488 -3.2473 -2.4895 0.9689
6.8125 -3.1109 -2.4894 0.9689
6.8734 -2.9733 -2.4894 0.9689
7.0891 -2.4115 -2.4891 0.9689
7.1800 -2.1247 -2.4890 0.9689
7.3564 -1.3936 -2.4888 0.9689
7.4063 -1.0969 -2.4888 0.9689
7.4589 -0.6487 -2.4888 0.9689
7.4705 -0.4987 -2.4888 0.9689
7.4871 -0.0477 -2.4888 0.9689
7.4867 0.1027 -2.4889 0.9689
7.4767 0.4035 -2.4889 0.9689
7.4673 0.5537 -2.4890 0.9689
7.3173 1.5954 -2.4894 0.9689
7.2840 1.7422 -2.4895 0.9689
7.1667 2.1781 -2.4898 0.9689
7.1218 2.3218 -2.4899 0.9689
7.0234 2.6063 -2.4902 0.9689
6.9137 2.8867 -2.4904 0.9689
6.8546 3.0252 -2.4906 0.9689
6.7928 3.1625 -2.4907 0.9689
0.2547 6.9951 -2.5032 0.9707
0.1142 6.9996 -2.5034 0.9707
-0.3079 6.9958 -2.5042 0.9707
-0.5888 6.9792 -2.5047 0.9707
-0.8689 6.9513 -2.5052 0.9707
-1.2865 6.8883 -2.5059 0.9707
-1.4248 6.8617 -2.5062 0.9707
-1.5626 6.8324 -2.5064 0.9707
-1.8362 6.7654 -2.5069 0.9707
-1.9719 6.7278 -2.5071 0.9707
-2.1069 6.6874 -2.5073 0.9707
-2.3743 6.5986 -2.5078 0.9706
-2.5067 6.5501 -2.5080 0.9706
-2.6380 6.4990 -2.5083 0.9706
-2.8975 6.3889 -2.5087 0.9706
-3.1524 6.2684 -2.5091 0.9706
-3.2780 6.2043 -2.5093 0.9706
-3.4023 6.1377 -2.5096 0.9706
-3.7669 5.9230 -2.5102 0.9706
-4.6691 5.2468 -2.5117 0.9706
-5.2683 4.6489 -2.5126 0.9706
-5.6258 4.2118 -2.5132 0.9706
-5.7096 4.0982 -2.5133 0.9706
-5.9470 3.7472 -2.5137 0.9706
-6.0213 3.6271 -2.5138 0.9706
-6.1627 3.3825 -2.5140 0.9706
-6.2297 3.2581 -2.5141 0.9706
-6.2941 3.1324 -2.5142 0.9706
-6.3560 3.0054 -2.5142 0.9706
-6.4153 2.8772 -2.5143 0.9706
-6.4721 2.7478 -2.5144 0.9706
-6.6725 2.2195 -2.5147 0.9706
-6.7565 1.9496 -2.5148 0.9706
-6.8916 1.4009 -2.5149 0.9706
-6.9184 1.2622 -2.5149 0.9706
-6.9424 1.1229 -2.5149 0.9706
-6.9975 0.7026 -2.5149 0.9706
-7.0102 0.5619 -2.5149 0.9706
-7.0201 0.4209 -2.5149 0.9706
-7.0312 0.1385 -2.5149 0.9706
-7.0325 -0.0028 -2.5149 0.9706
-7.0265 -0.2854 -2.5148 0.9706
-7.0193 -0.4265 -2.5148 0.9706
-6.9962 -0.7082 -2.5147 0.9706
-6.9804 -0.8486 -2.5146 0.9706
-6.9403 -1.1283 -2.5145 0.9706
-6.9160 -1.2675 -2.5144 0.9706
-6.8591 -1.5443 -2.5143 0.9706
-6.8265 -1.6817 -2.5142 0.9706
-6.7910 -1.8185 -2.5141 0.9706
-6.6684 -2.2240 -2.5138 0.9706
-6.6220 -2.3575 -2.5137 0.9706
-6.5214 -2.6214 -2.5134 0.9706
-6.4670 -2.7518 -2.5133 0.9706
-6.3506 -3.0091 -2.5131 0.9706
-6.2885 -3.1359 -2.5129 0.9706
-6.2239 -3.2614 -2.5128 0.9706
-6.0150 -3.6299 -2.5123 0.9706
-5.9405 -3.7498 -2.5122 0.9706
-5.7843 -3.9849 -2.5119 0.9706
-5.3535 -4.5434 -2.5110 0.9706
-5.2608 -4.6497 -2.5108 0.9706
-5.1659 -4.7541 -2.5106 0.9706
-5.0689 -4.8566 -2.5104 0.9706
-4.9699 -4.9571 -2.5102 0.9706
-4.7660 -5.1519 -2.5098 0.9706
-4.5543 -5.3384 -2.5094 0.9706
-4.3354 -5.5161 -2.5090 0.9706
-4.2234 -5.6016 -2.5087 0.9706
-3.9942 -5.7658 -2.5083 0.9706
-3.8772 -5.8443 -2.5081 0.9706
-3.7586 -5.9205 -2.5078 0.9706
-3.6385 -5.9943 -2.5076 0.9707
-3.3941 -6.1345 -2.5071 0.9707
-3.2699 -6.2009 -2.5069 0.9707
-3.1443 -6.2648 -2.5067 0.9707
-3.0175 -6.3261 -2.5064 0.9707
-2.8895 -6.3848 -2.5062 0.9707
-2.7604 -6.4410 -2.5059 0.9707
-2.6301 -6.4945 -2.5057 0.9707
-2.4989 -6.5454 -2.5055 0.9707
-2.2334 -6.6392 -2.5050 0.9707
-1.9645 -6.7222 -2.5045 0.9707
-1.2796 -6.8819 -2.5032 0.9707
-0.7226 -6.9596 -2.5022 0.9707
-0.5826 -6.9720 -2.5019 0.9707
-0.3019 -6.9884 -2.5014 0.9707
0.1196 -6.9918 -2.5007 0.9707
0.5405 -6.9698 -2.4999 0.9707
0.6804 -6.9568 -2.4997 0.9707
0.9591 -6.9225 -2.4992 0.9707
1.0979 -6.9011 -2.4989 0.9708
1.2363 -6.8770 -2.4987 0.9708
1.9189 -6.7151 -2.4975 0.9708
2.0533 -6.6746 -2.4973 0.9708
2.1868 -6.6314 -2.4970 0.9708
2.4510 -6.5370 -2.4966 0.9708
2.5816 -6.4858 -2.4964 0.9708
2.7112 -6.4321 -2.4961 0.9708
2.8397 -6.3757 -2.4959 0.9708
2.9669 -6.3168 -2.4957 0.9708
3.2178 -6.1914 -2.4953 0.9708
3.5841 -5.9849 -2.4947 0.9708
3.8210 -5.8351 -2.4943 0.9708
4.3854 -5.4204 -2.4933 0.9708
4.4931 -5.3308 -2.4932 0.9708
4.5990 -5.2390 -2.4930 0.9708
4.7031 -5.1452 -2.4928 0.9708
4.9054 -4.9515 -2.4925 0.9708
5.0035 -4.8516 -2.4923 0.9708
5.0997 -4.7498 -2.4922 0.9708
5.2858 -4.5405 -2.4919 0.9708
5.3757 -4.4332 -2.4918 0.9708
5.4634 -4.3240 -2.4916 0.9708
5.5489 -4.2131 -2.4915 0.9708
5.7131 -3.9864 -2.4912 0.9708
5.7918 -3.8706 -2.4911 0.9708
5.8681 -3.7533 -2.4910 0.9708
5.9421 -3.6344 -2.4909 0.9708
6.0136 -3.5142 -2.4908 0.9708
6.1495 -3.2694 -2.4906 0.9708
6.2137 -3.1451 -2.4905 0.9708
6.2754 -3.0195 -2.4904 0.9708
6.3913 -2.7647 -2.4903 0.9709
6.5457 -2.3745 -2.4901 0.9709
6.6765 -1.9757 -2.4899 0.9709
6.7147 -1.8411 -2.4899 0.9709
6.7503 -1.7057 -2.4898 0.9709
6.7831 -1.5697 -2.4898 0.9709
6.9359 -0.6032 -2.4897 0.9709
6.9467 -0.4637 -2.4897 0.9709
6.9598 -0.1842 -2.4897 0.9709
6.9617 0.0955 -2.4898 0.9709
6.9585 0.2354 -2.4898 0.9709
6.9436 0.5148 -2.4899 0.9709
6.9320 0.6543 -2.4900 0.9709
6.8805 1.0708 -2.4901 0.9709
6.8578 1.2089 -2.4902 0.9709
6.8323 1.3464 -2.4903 0.9709
6.8041 1.4835 -2.4903 0.9709
6.7731 1.6200 -2.4904 0.9708
6.7394 1.7558 -2.4905 0.9708
6.7030 1.8909 -2.4906 0.9708
6.6639 2.0253 -2.4907 0.9708
6.6222 2.1589 -2.4908 0.9708
6.5777 2.2916 -2.4909 0.9708
6.5306 2.4235 -2.4910 0.9708
6.4809 2.5543 -2.4911 0.9708
6.4286 2.6841 -2.4913 0.9708
6.3737 2.8129 -2.4914 0.9708
6.2562 3.0671 -2.4916 0.9708
0.2377 6.5275 -2.5031 0.9724
-0.4184 6.5215 -2.5043 0.9724
-0.8108 6.4862 -2.5050 0.9724
-1.0710 6.4496 -2.5054 0.9724
-1.2004 6.4274 -2.5057 0.9724
-1.4580 6.3751 -2.5061 0.9724
-1.5859 6.3451 -2.5063 0.9724
-1.8399 6.2773 -2.5068 0.9724
-2.0910 6.1994 -2.5072 0.9724
-2.2153 6.1567 -2.5074 0.9724
-2.4613 6.0637 -2.5079 0.9724
-3.0584 5.7886 -2.5089 0.9723
-3.1743 5.7264 -2.5091 0.9723
-3.6250 5.4547 -2.5098 0.9723
-3.8418 5.3054 -2.5102 0.9723
-3.9479 5.2275 -2.5104 0.9723
-4.0524 5.1474 -2.5105 0.9723
-4.4538 4.8067 -2.5112 0.9723
-4.5497 4.7165 -2.5113 0.9723
-4.6439 4.6244 -2.5115 0.9723
-4.7361 4.5305 -2.5116 0.9723
-4.8265 4.4346 -2.5118 0.9723
-5.1681 4.0337 -2.5123 0.9723
-5.3265 3.8231 -2.5126 0.9723
-5.4763 3.6063 -2.5128 0.9723
-5.5479 3.4957 -2.5129 0.9723
-5.6172 3.3837 -2.5130 0.9723
-5.8115 3.0394 -2.5133 0.9723
-5.9294 2.8037 -2.5134 0.9723
-6.0376 2.5633 -2.5136 0.9723
-6.2245 2.0704 -2.5138 0.9723
-6.2649 1.9450 -2.5139 0.9723
-6.3029 1.8187 -2.5139 0.9723
-6.3710 1.5641 -2.5140 0.9723
-6.4289 1.3069 -2.5140 0.9723
-6.4539 1.1774 -2.5141 0.9723
-6.4960 0.9172 -2.5141 0.9723
-6.5487 0.3926 -2.5141 0.9723
-6.5552 0.2610 -2.5141 0.9723
-6.5547 -0.2662 -2.5140 0.9723
-6.5385 -0.5294 -2.5139 0.9723
-6.5265 -0.6606 -2.5138 0.9723
-6.5117 -0.7916 -2.5138 0.9723
-6.4744 -1.0526 -2.5137 0.9723
-6.3682 -1.5688 -2.5134 0.9723
-6.2996 -1.8233 -2.5132 0.9723
-6.2208 -2.0748 -2.5130 0.9723
-6.0837 -2.4455 -2.5127 0.9723
-6.0331 -2.5671 -2.5126 0.9723
-5.9800 -2.6877 -2.5125 0.9723
-5.9245 -2.8072 -2.5123 0.9723
-5.7437 -3.1585 -2.5119 0.9723
-5.6115 -3.3864 -2.5117 0.9723
-5.4703 -3.6087 -2.5114 0.9723
-5.3963 -3.7176 -2.5112 0.9723
-5.3202 -3.8251 -2.5111 0.9723
-5.2419 -3.9310 -2.5109 0.9723
-5.0791 -4.1379 -2.5106 0.9723
-4.9946 -4.2388 -2.5104 0.9723
-4.9081 -4.3380 -2.5102 0.9723
-4.8196 -4.4354 -2.5100 0.9723
-4.6368 -4.6248 -2.5097 0.9723
-4.5426 -4.7167 -2.5095 0.9723
-3.9404 -5.2264 -2.5083 0.9724
-3.7267 -5.3796 -2.5079 0.9724
-3.1669 -5.7238 -2.5068 0.9724
-3.0510 -5.7858 -2.5066 0.9724
-2.9338 -5.8454 -2.5064 0.9724
-2.4541 -6.0599 -2.5055 0.9724
-2.2083 -6.1525 -2.5050 0.9724
-2.0840 -6.1950 -2.5048 0.9724
-1.5793 -6.3400 -2.5039 0.9724
-1.4514 -6.3699 -2.5036 0.9724
-1.0647 -6.4439 -2.5029 0.9724
-0.9349 -6.4634 -2.5027 0.9724
-0.6743 -6.4945 -2.5022 0.9724
-0.5437 -6.5061 -2.5020 0.9724
-0.2817 -6.5215 -2.5015 0.9724
-0.1506 -6.5252 -2.5013 0.9724
-0.0195 -6.5263 -2.5010 0.9724
0.1116 -6.5248 -2.5008 0.9724
0.2427 -6.5206 -2.5005 0.9724
0.5044 -6.5044 -2.5001 0.9724
0.7652 -6.4777 -2.4996 0.9724
0.8951 -6.4604 -2.4994 0.9724
1.0246 -6.4405 -2.4992 0.9725
1.1538 -6.4180 -2.4989 0.9725
1.4104 -6.3654 -2.4985 0.9725
1.5379 -6.3352 -2.4983 0.9725
2.0409 -6.1890 -2.4974 0.9725
2.1647 -6.1463 -2.4972 0.9725
2.2876 -6.1010 -2.4970 0.9725
2.4095 -6.0533 -2.4968 0.9725
2.7691 -5.8957 -2.4961 0.9725
3.2326 -5.6525 -2.4954 0.9725
3.3452 -5.5860 -2.4952 0.9725
3.7819 -5.2979 -2.4944 0.9725
3.9911 -5.1409 -2.4941 0.9725
4.0933 -5.0593 -2.4939 0.9725
4.3899 -4.8026 -2.4934 0.9725
4.4852 -4.7131 -2.4933 0.9725
4.5787 -4.6218 -2.4931 0.9725
4.7602 -4.4336 -2.4929 0.9725
4.9339 -4.2383 -2.4926 0.9725
5.0997 -4.0362 -2.4923 0.9725
5.1795 -3.9327 -2.4922 0.9725
5.2572 -3.8276 -2.4921 0.9725
5.3328 -3.7211 -2.4920 0.9725
5.4063 -3.6130 -2.4919 0.9725
5.5466 -3.3926 -2.4916 0.9725
5.6135 -3.2803 -2.4915 0.9725
5.7403 -3.0519 -2.4914 0.9725
5.8003 -2.9358 -2.4913 0.9725
5.9132 -2.7002 -2.4911 0.9725
5.9661 -2.5808 -2.4911 0.9725
6.0166 -2.4603 -2.4910 0.9725
6.1103 -2.2165 -2.4909 0.9725
6.2323 -1.8442 -2.4907 0.9725
6.3012 -1.5923 -2.4906 0.9725
6.3855 -1.2097 -2.4906 0.9725
6.4085 -1.0811 -2.4906 0.9725
6.4289 -0.9522 -2.4905 0.9725
6.4619 -0.6931 -2.4905 0.9725
6.4746 -0.5631 -2.4905 0.9725
6.4846 -0.4329 -2.4905 0.9725
6.4986 0.0892 -2.4906 0.9725
6.4900 0.3502 -2.4907 0.9725
6.4817 0.4806 -2.4907 0.9725
6.4709 0.6107 -2.4908 0.9725
6.4574 0.7407 -2.4908 0.9725
6.4414 0.8703 -2.4909 0.9725
6.2910 1.6390 -2.4913 0.9725
6.2205 1.8905 -2.4915 0.9725
6.1815 2.0153 -2.4916 0.9725
6.1400 2.1391 -2.4917 0.9725
6.0007 2.5055 -2.4920 0.9725
5.8397 2.8629 -2.4923 0.9725
0.2226 6.1118 -2.5031 0.9739
-0.0232 6.1169 -2.5035 0.9739
-0.1461 6.1157 -2.5037 0.9739
-0.2690 6.1121 -2.5039 0.9739
-0.5144 6.0974 -2.5044 0.9739
-0.8811 6.0569 -2.5050 0.9739
-1.0027 6.0385 -2.5052 0.9739
-1.1239 6.0176 -2.5055 0.9739
-1.3650 5.9686 -2.5059 0.9739
-1.7226 5.8770 -2.5065 0.9739
-1.9576 5.8040 -2.5069 0.9739
-2.3043 5.6768 -2.5075 0.9739
-2.4181 5.6298 -2.5077 0.9739
-2.5309 5.5805 -2.5079 0.9739
-2.6428 5.5290 -2.5081 0.9739
-2.7535 5.4752 -2.5083 0.9739
-2.8632 5.4191 -2.5085 0.9739
-3.4957 5.0375 -2.5095 0.9738
-3.6957 4.8937 -2.5098 0.9738
-3.7936 4.8187 -2.5100 0.9738
-3.8899 4.7418 -2.5102 0.9738
-3.9846 4.6630 -2.5103 0.9738
-4.0778 4.5823 -2.5105 0.9738
-4.2591 4.4152 -2.5108 0.9738
-4.3472 4.3290 -2.5109 0.9738
-4.4335 4.2410 -2.5110 0.9738
-4.5181 4.1513 -2.5112 0.9738
-4.6817 3.9668 -2.5114 0.9738
-4.7607 3.8721 -2.5116 0.9738
-4.8378 3.7759 -2.5117 0.9738
-4.9129 3.6781 -2.5118 0.9738
-4.9860 3.5788 -2.5119 0.9738
-5.1262 3.3758 -2.5121 0.9738
-5.1932 3.2723 -2.5122 0.9738
-5.2581 3.1674 -2.5123 0.9738
-5.4400 2.8451 -2.5126 0.9738
-5.4962 2.7353 -2.5126 0.9738
-5.5503 2.6244 -2.5127 0.9738
-5.6020 2.5124 -2.5128 0.9738
-5.7436 2.1705 -2.5130 0.9738
-5.8265 1.9381 -2.5131 0.9738
-5.9329 1.5836 -2.5132 0.9738
-5.9636 1.4641 -2.5132 0.9738
-6.1213 0.4906 -2.5133 0.9738
-6.1397 0.1209 -2.5133 0.9738
-6.1394 -0.1258 -2.5132 0.9738
-6.1356 -0.2492 -2.5132 0.9738
-6.1293 -0.3724 -2.5132 0.9738
-6.1204 -0.4955 -2.5131 0.9738
-6.0604 -0.9852 -2.5129 0.9738
-5.9611 -1.4685 -2.5127 0.9738
-5.8231 -1.9421 -2.5123 0.9738
-5.6475 -2.4031 -2.5119 0.9738
-5.5978 -2.5159 -2.5118 0.9738
-5.4353 -2.8482 -2.5114 0.9738
-5.3159 -3.0640 -2.5112 0.9738
-5.2530 -3.1700 -2.5111 0.9738
-5.1208 -3.3781 -2.5108 0.9738
-5.0516 -3.4802 -2.5106 0.9738
-4.8319 -3.7775 -2.5102 0.9738
-4.5118 -4.1522 -2.5095 0.9738
-4.4272 -4.2417 -2.5094 0.9738
-4.3408 -4.3296 -2.5092 0.9739
-4.0712 -4.5822 -2.5087 0.9739
-3.8832 -4.7414 -2.5083 0.9739
-3.5897 -4.9656 -2.5077 0.9739
-3.4889 -5.0364 -2.5075 0.9739
-3.1783 -5.2362 -2.5069 0.9739
-3.0723 -5.2986 -2.5067 0.9739
-2.9649 -5.3587 -2.5065 0.9739
-2.7468 -5.4727 -2.5061 0.9739
-2.4115 -5.6268 -2.5055 0.9739
-2.2977 -5.6736 -2.5053 0.9739
-2.1830 -5.7182 -2.5051 0.9739
-1.3590 -5.9641 -2.5035 0.9739
-1.2387 -5.9897 -2.5033 0.9739
-0.9969 -6.0336 -2.5029 0.9739
-0.7535 -6.0677 -2.5024 0.9739
-0.5090 -6.0920 -2.5020 0.9739
-0.2638 -6.1064 -2.5015 0.9739
-0.1410 -6.1099 -2.5013 0.9739
-0.0182 -6.1110 -2.5011 0.9739
0.3499 -6.0994 -2.5004 0.9739
0.5946 -6.0793 -2.5000 0.9739
0.8382 -6.0495 -2.4996 0.9739
1.0804 -6.0099 -2.4991 0.9740
1.2008 -5.9865 -2.4989 0.9740
1.5589 -5.9018 -2.4983 0.9740
1.6771 -5.8688 -2.4981 0.9740
1.7945 -5.8334 -2.4979 0.9740
1.9112 -5.7957 -2.4977 0.9740
2.0271 -5.7557 -2.4975 0.9740
2.2564 -5.6687 -2.4971 0.9740
2.3697 -5.6218 -2.4969 0.9740
2.4820 -5.5726 -2.4967 0.9740
2.5932 -5.5212 -2.4965 0.9740
2.7034 -5.4676 -2.4963 0.9740
2.9205 -5.3537 -2.4960 0.9740
3.0273 -5.2936 -2.4958 0.9740
3.1328 -5.2313 -2.4956 0.9740
3.2371 -5.1670 -2.4954 0.9740
3.4416 -5.0321 -2.4951 0.9740
3.6405 -4.8890 -2.4948 0.9740
3.7378 -4.8146 -2.4946 0.9740
3.8335 -4.7382 -2.4945 0.9740
3.9277 -4.6600 -2.4943 0.9740
4.0203 -4.5798 -2.4942 0.9740
4.1113 -4.4978 -2.4940 0.9740
4.2882 -4.3285 -2.4937 0.9740
4.4582 -4.1523 -2.4935 0.9740
4.5405 -4.0617 -2.4933 0.9740
4.6209 -3.9694 -2.4932 0.9740
4.6995 -3.8756 -2.4931 0.9740
4.7762 -3.7802 -2.4930 0.9740
4.8510 -3.6832 -2.4928 0.9740
4.9238 -3.5849 -2.4927 0.9740
5.1302 -3.2813 -2.4924 0.9740
5.1949 -3.1774 -2.4923 0.9740
5.3180 -2.9659 -2.4921 0.9740
5.4325 -2.7497 -2.4920 0.9740
5.4865 -2.6399 -2.4919 0.9740
5.5878 -2.4172 -2.4918 0.9740
5.6802 -2.1906 -2.4916 0.9740
5.7229 -2.0760 -2.4916 0.9740
5.7634 -1.9605 -2.4915 0.9740
5.8015 -1.8443 -2.4915 0.9740
5.8373 -1.7273 -2.4915 0.9740
5.8707 -1.6097 -2.4914 0.9740
5.9305 -1.3725 -2.4914 0.9740
6.0850 -0.1611 -2.4913 0.9740
6.0871 -0.0388 -2.4913 0.9740
