ply
format ascii 1.0
element vertex 1594
property float32 x
property float32 y
property float32 z
property float32 I
end_header
1.1528 7.6902 -2.3918 0.9680
0.9956 7.6929 -2.3859 0.9681
0.6832 7.6977 -2.3770 0.9682
0.5277 7.6999 -2.3739 0.9682
0.3725 7.7018 -2.3717 0.9682
0.2176 7.7036 -2.3704 0.9683
0.0628 7.7053 -2.3701 0.9683
-0.2471 7.7081 -2.3721 0.9682
-0.5578 7.7102 -2.3777 0.9682
-4.1731 6.2482 -2.4976 0.9688
-4.2977 6.1630 -2.4975 0.9688
-4.4206 6.0754 -2.4975 0.9688
-4.5418 5.9852 -2.4975 0.9688
-4.7785 5.7979 -2.4974 0.9688
-4.8939 5.7006 -2.4974 0.9688
-5.1189 5.4993 -2.4974 0.9688
-5.2284 5.3953 -2.4974 0.9688
-5.3357 5.2892 -2.4974 0.9688
-5.4408 5.1809 -2.4973 0.9688
-5.5438 5.0705 -2.4973 0.9688
-5.6445 4.9581 -2.4973 0.9688
-5.8391 4.7273 -2.4973 0.9688
-6.0243 4.4889 -2.4973 0.9688
-6.1133 4.3669 -2.4973 0.9688
-6.1998 4.2432 -2.4973 0.9688
-6.2838 4.1178 -2.4973 0.9688
-6.4442 3.8621 -2.4973 0.9688
-6.5942 3.6001 -2.4973 0.9688
-6.6652 3.4669 -2.4974 0.9688
-6.7336 3.3323 -2.4974 0.9688
-6.7992 3.1963 -2.4974 0.9688
-7.0341 2.6403 -2.4975 0.9688
-7.1347 2.3556 -2.4975 0.9688
-7.1806 2.2118 -2.4976 0.9688
-7.2237 2.0671 -2.4976 0.9688
-7.2639 1.9216 -2.4976 0.9688
-7.3011 1.7753 -2.4976 0.9688
-7.3354 1.6282 -2.4977 0.9688
-7.3951 1.3323 -2.4978 0.9688
-7.4429 1.0341 -2.4978 0.9688
-7.5137 -0.1704 -2.4982 0.9688
-7.3910 -1.3711 -2.4987 0.9688
-7.3622 -1.5193 -2.4988 0.9688
-7.2579 -1.9603 -2.4990 0.9688
-7.2172 -2.1057 -2.4991 0.9688
-7.1737 -2.2504 -2.4991 0.9688
-7.0257 -2.6787 -2.4994 0.9688
-6.9707 -2.8194 -2.4994 0.9688
-6.7888 -3.2345 -2.4997 0.9688
-6.6538 -3.5048 -2.4998 0.9688
-6.5823 -3.6379 -2.4999 0.9688
-6.5081 -3.7696 -2.5000 0.9688
-6.3518 -4.0283 -2.5002 0.9688
-6.1853 -4.2805 -2.5003 0.9688
-6.0982 -4.4040 -2.5004 0.9688
-6.0087 -4.5258 -2.5005 0.9688
-5.8225 -4.7639 -2.5007 0.9688
-5.7258 -4.8801 -2.5008 0.9688
-5.5255 -5.1065 -2.5010 0.9688
-5.3163 -5.3248 -2.5011 0.9688
-4.9864 -5.6360 -2.5014 0.9688
-4.5185 -6.0190 -2.5018 0.9688
-4.2733 -6.1961 -2.5020 0.9688
-4.1481 -6.2809 -2.5020 0.9688
-4.0212 -6.3632 -2.5021 0.9688
-3.8927 -6.4430 -2.5022 0.9688
-3.7626 -6.5201 -2.5023 0.9688
-3.4979 -6.6665 -2.5025 0.9688
-3.0903 -6.8658 -2.5028 0.9688
-2.9518 -6.9268 -2.5029 0.9688
-2.8122 -6.9850 -2.5029 0.9688
-2.5295 -7.0928 -2.5031 0.9688
-2.3865 -7.1424 -2.5032 0.9688
-2.0978 -7.2330 -2.5034 0.9688
-1.9521 -7.2740 -2.5035 0.9688
-1.6584 -7.3470 -2.5036 0.9688
-1.3620 -7.4082 -2.5038 0.9687
-1.0634 -7.4574 -2.5040 0.9687
-0.9133 -7.4775 -2.5040 0.9687
-0.7630 -7.4946 -2.5041 0.9687
-0.4613 -7.5197 -2.5043 0.9687
-0.3101 -7.5276 -2.5044 0.9687
-0.1588 -7.5326 -2.5044 0.9687
-0.0075 -7.5345 -2.5045 0.9687
0.4465 -7.5219 -2.5047 0.9687
0.5975 -7.5116 -2.5048 0.9687
0.7483 -7.4983 -2.5049 0.9687
1.1988 -7.4402 -2.5051 0.9687
1.3481 -7.4148 -2.5051 0.9687
1.4968 -7.3864 -2.5052 0.9687
1.7924 -7.3206 -2.5053 0.9687
2.0852 -7.2431 -2.5054 0.9687
2.3746 -7.1537 -2.5055 0.9687
2.5179 -7.1047 -2.5056 0.9687
2.6602 -7.0529 -2.5056 0.9687
2.8014 -6.9981 -2.5057 0.9687
2.9415 -6.9406 -2.5057 0.9687
3.2180 -6.8171 -2.5058 0.9687
3.4894 -6.6825 -2.5059 0.9687
3.6231 -6.6111 -2.5059 0.9687
4.1423 -6.2993 -2.5061 0.9687
4.2681 -6.2149 -2.5061 0.9687
4.5145 -6.0385 -2.5062 0.9687
4.6349 -5.9467 -2.5062 0.9687
4.7535 -5.8524 -2.5062 0.9687
4.9849 -5.6568 -2.5063 0.9687
5.0975 -5.5555 -2.5063 0.9687
5.3167 -5.3463 -2.5063 0.9687
5.4231 -5.2384 -2.5063 0.9687
5.6292 -5.0164 -2.5063 0.9687
5.9212 -4.6682 -2.5064 0.9687
6.1040 -4.4266 -2.5064 0.9687
6.1917 -4.3030 -2.5064 0.9687
6.3595 -4.0508 -2.5064 0.9687
6.5171 -3.7920 -2.5063 0.9687
6.6641 -3.5271 -2.5063 0.9687
6.8643 -3.1192 -2.5063 0.9687
7.0396 -2.6999 -2.5062 0.9687
7.0923 -2.5579 -2.5062 0.9687
7.1892 -2.2709 -2.5061 0.9687
7.2333 -2.1260 -2.5061 0.9687
7.2745 -1.9802 -2.5061 0.9687
7.4794 -0.9408 -2.5058 0.9687
7.4967 -0.7903 -2.5057 0.9687
7.5221 -0.4885 -2.5057 0.9687
7.5353 -0.1859 -2.5055 0.9687
7.5374 -0.0344 -2.5055 0.9687
7.5253 0.4197 -2.5053 0.9687
7.5151 0.5708 -2.5053 0.9687
7.4666 1.0224 -2.5051 0.9687
7.4443 1.1721 -2.5050 0.9687
7.3254 1.7658 -2.5048 0.9687
7.2481 2.0586 -2.5046 0.9687
7.2051 2.2037 -2.5045 0.9687
7.1592 2.3480 -2.5045 0.9687
7.1103 2.4913 -2.5044 0.9687
7.0586 2.6335 -2.5043 0.9687
6.9467 2.9148 -2.5042 0.9687
6.8865 3.0537 -2.5041 0.9687
6.8236 3.1913 -2.5040 0.9687
6.7579 3.3277 -2.5039 0.9687
6.6894 3.4627 -2.5038 0.9687
6.6183 3.5962 -2.5038 0.9687
6.3890 3.9880 -2.5035 0.9688
6.3073 4.1154 -2.5034 0.9688
6.1365 4.3652 -2.5032 0.9688
5.8618 4.7264 -2.5030 0.9688
5.7654 4.8431 -2.5029 0.9688
5.6668 4.9578 -2.5028 0.9688
5.4626 5.1811 -2.5026 0.9688
4.9146 5.7018 -2.5022 0.9688
4.7988 5.7991 -2.5021 0.9688
4.6812 5.8942 -2.5020 0.9688
4.5617 5.9868 -2.5019 0.9688
4.3171 6.1648 -2.5017 0.9688
4.1923 6.2500 -2.5016 0.9688
3.9375 6.4130 -2.5015 0.9688
3.6764 6.5655 -2.5013 0.9688
3.5437 6.6378 -2.5012 0.9688
3.2739 6.7743 -2.5010 0.9688
3.1370 6.8385 -2.5009 0.9688
2.9989 6.8999 -2.5008 0.9688
2.4349 7.1174 -2.5005 0.9688
2.2913 7.1646 -2.5004 0.9688
2.1469 7.2090 -2.5003 0.9688
2.0010 7.2486 -2.4996 0.9688
1.8545 7.2854 -2.4989 0.9688
1.5596 7.3504 -2.4977 0.9688
1.4113 7.3787 -2.4972 0.9688
1.2625 7.4041 -2.4967 0.9688
0.9637 7.4464 -2.4959 0.9688
0.5132 7.4883 -2.4950 0.9689
0.2119 7.5019 -2.4947 0.9689
0.0611 7.5044 -2.4946 0.9689
-0.0897 7.5040 -2.4945 0.9689
-0.3911 7.4945 -2.4946 0.9689
-0.6919 7.4736 -2.4949 0.9689
-0.9918 7.4411 -2.4954 0.9689
-1.4389 7.3711 -2.4964 0.9688
-3.7620 5.8854 -2.4979 0.9708
-3.8795 5.8086 -2.4979 0.9708
-3.9953 5.7294 -2.4978 0.9708
-4.4423 5.3899 -2.4977 0.9708
-4.5496 5.2995 -2.4977 0.9708
-5.2474 4.6093 -2.4976 0.9708
-5.3389 4.5029 -2.4976 0.9708
-5.5155 4.2847 -2.4976 0.9708
-5.6005 4.1731 -2.4976 0.9708
-5.7636 3.9447 -2.4976 0.9708
-5.9175 3.7100 -2.4976 0.9708
-6.1963 3.2230 -2.4977 0.9708
-6.2598 3.0978 -2.4977 0.9708
-6.5392 2.4545 -2.4978 0.9708
-6.6327 2.1899 -2.4978 0.9708
-6.7154 1.9217 -2.4979 0.9708
-6.7528 1.7864 -2.4979 0.9708
-6.8193 1.5137 -2.4980 0.9708
-6.8484 1.3764 -2.4980 0.9708
-6.8984 1.1002 -2.4981 0.9708
-6.9192 0.9614 -2.4981 0.9708
-6.9372 0.8222 -2.4982 0.9708
-6.9525 0.6826 -2.4982 0.9708
-6.9649 0.5428 -2.4982 0.9708
-6.9853 0.1223 -2.4984 0.9708
-6.9849 -0.1585 -2.4985 0.9708
-6.9804 -0.2988 -2.4985 0.9708
-6.9732 -0.4390 -2.4986 0.9708
-6.9161 -0.9975 -2.4988 0.9708
-6.8948 -1.1362 -2.4989 0.9708
-6.8707 -1.2746 -2.4989 0.9708
-6.5310 -2.4901 -2.4995 0.9707
-6.4799 -2.6209 -2.4996 0.9707
-6.4261 -2.7506 -2.4997 0.9707
-6.1187 -3.3817 -2.5001 0.9707
-6.0497 -3.5041 -2.5001 0.9707
-5.5855 -4.2070 -2.5006 0.9707
-5.5000 -4.3185 -2.5007 0.9707
-5.4123 -4.4283 -2.5008 0.9707
-5.3224 -4.5363 -2.5009 0.9707
-5.1362 -4.7468 -2.5010 0.9707
-5.0400 -4.8492 -2.5011 0.9707
-4.7392 -5.1445 -2.5014 0.9707
-4.5290 -5.3311 -2.5015 0.9707
-4.4211 -5.4212 -2.5016 0.9707
-4.3115 -5.5091 -2.5017 0.9707
-3.6183 -5.9889 -2.5022 0.9707
-3.3751 -6.1298 -2.5024 0.9707
-3.2513 -6.1966 -2.5025 0.9707
-3.0000 -6.3226 -2.5026 0.9707
-2.8724 -6.3818 -2.5027 0.9707
-2.4830 -6.5439 -2.5029 0.9707
-1.5415 -6.8289 -2.5035 0.9707
-0.8489 -6.9501 -2.5039 0.9707
-0.5691 -6.9790 -2.5040 0.9707
-0.0069 -7.0030 -2.5043 0.9707
0.5554 -6.9817 -2.5046 0.9707
0.6956 -6.9693 -2.5046 0.9707
0.9750 -6.9361 -2.5048 0.9707
1.2529 -6.8916 -2.5049 0.9707
1.5289 -6.8360 -2.5050 0.9707
1.6659 -6.8041 -2.5051 0.9707
1.8024 -6.7694 -2.5051 0.9707
1.9380 -6.7319 -2.5052 0.9707
2.0729 -6.6918 -2.5052 0.9707
2.3402 -6.6033 -2.5053 0.9707
2.6037 -6.5042 -2.5054 0.9707
2.8630 -6.3946 -2.5055 0.9707
3.1177 -6.2746 -2.5056 0.9707
3.2432 -6.2108 -2.5056 0.9707
3.3673 -6.1445 -2.5056 0.9707
3.4902 -6.0757 -2.5057 0.9707
4.3078 -5.5269 -2.5059 0.9707
5.2318 -4.6623 -2.5060 0.9707
5.3244 -4.5562 -2.5060 0.9707
5.4149 -4.4483 -2.5060 0.9707
5.5032 -4.3387 -2.5060 0.9707
5.5893 -4.2272 -2.5060 0.9707
5.6731 -4.1141 -2.5060 0.9707
5.8338 -3.8829 -2.5060 0.9707
5.9106 -3.7648 -2.5060 0.9707
6.2583 -3.1530 -2.5060 0.9707
6.3203 -3.0266 -2.5060 0.9707
6.4367 -2.7702 -2.5059 0.9707
6.4910 -2.6403 -2.5059 0.9707
6.5917 -2.3774 -2.5059 0.9707
6.6818 -2.1106 -2.5058 0.9707
6.7965 -1.7042 -2.5057 0.9707
6.9110 -1.1530 -2.5056 0.9707
6.9327 -1.0139 -2.5056 0.9707
6.9516 -0.8744 -2.5055 0.9707
6.9676 -0.7345 -2.5055 0.9707
6.9988 -0.3134 -2.5053 0.9707
7.0036 -0.1727 -2.5053 0.9707
7.0055 -0.0320 -2.5052 0.9707
6.9942 0.3900 -2.5051 0.9707
6.9397 0.9503 -2.5049 0.9707
6.8404 1.5042 -2.5046 0.9707
6.6968 2.0483 -2.5043 0.9707
6.6541 2.1823 -2.5043 0.9707
6.4567 2.7092 -2.5040 0.9707
6.3423 2.9662 -2.5038 0.9707
6.2176 3.2185 -2.5037 0.9707
6.1515 3.3426 -2.5036 0.9707
6.0829 3.4654 -2.5035 0.9707
5.9384 3.7068 -2.5034 0.9707
5.7844 3.9421 -2.5032 0.9707
5.7038 4.0574 -2.5031 0.9707
5.6210 4.1711 -2.5031 0.9707
5.5358 4.2830 -2.5030 0.9707
5.4485 4.3932 -2.5029 0.9707
5.3590 4.5016 -2.5028 0.9707
5.2673 4.6082 -2.5027 0.9707
5.0775 4.8158 -2.5026 0.9707
4.9796 4.9167 -2.5025 0.9707
4.7777 5.1124 -2.5023 0.9707
4.4606 5.3904 -2.5021 0.9707
4.3513 5.4788 -2.5020 0.9707
4.1274 5.6488 -2.5018 0.9707
4.0129 5.7304 -2.5017 0.9707
3.6601 5.9611 -2.5015 0.9707
3.4174 6.1029 -2.5013 0.9707
3.0432 6.2971 -2.5011 0.9707
2.6581 6.4683 -2.5008 0.9707
2.5275 6.5202 -2.5007 0.9707
2.1299 6.6600 -2.5005 0.9707
1.8605 6.7397 -2.5003 0.9707
1.5882 6.8086 -2.5002 0.9707
1.4510 6.8389 -2.5001 0.9707
1.1750 6.8913 -2.4999 0.9707
1.0363 6.9133 -2.4999 0.9707
0.7577 6.9489 -2.4997 0.9707
0.6179 6.9626 -2.4996 0.9707
0.4779 6.9734 -2.4996 0.9707
0.0569 6.9889 -2.4994 0.9707
-0.0835 6.9884 -2.4993 0.9707
-0.2239 6.9852 -2.4992 0.9707
-0.5043 6.9702 -2.4991 0.9707
-0.6442 6.9585 -2.4990 0.9707
-0.7839 6.9439 -2.4990 0.9708
-1.0621 6.9065 -2.4988 0.9708
-1.4762 6.8295 -2.4987 0.9708
-1.6131 6.7983 -2.4986 0.9708
-3.5110 5.4926 -2.4982 0.9725
-3.7287 5.3471 -2.4981 0.9725
-3.9405 5.1928 -2.4981 0.9725
-4.0440 5.1126 -2.4980 0.9725
-4.2460 4.9459 -2.4980 0.9725
-4.4412 4.7713 -2.4980 0.9725
-4.6293 4.5889 -2.4979 0.9725
-4.8973 4.3017 -2.4979 0.9725
-5.0661 4.1014 -2.4979 0.9725
-5.3040 3.7888 -2.4979 0.9725
-5.3790 3.6815 -2.4979 0.9725
-5.4519 3.5727 -2.4979 0.9725
-5.5911 3.3508 -2.4979 0.9725
-5.6573 3.2378 -2.4979 0.9725
-5.7212 3.1235 -2.4979 0.9725
-5.8421 2.8912 -2.4980 0.9725
-6.0058 2.5340 -2.4980 0.9725
-6.0555 2.4128 -2.4980 0.9725
-6.1029 2.2907 -2.4980 0.9725
-6.1477 2.1677 -2.4981 0.9725
-6.1901 2.0437 -2.4981 0.9725
-6.2299 1.9190 -2.4981 0.9725
-6.3344 1.5402 -2.4982 0.9725
-6.3642 1.4127 -2.4982 0.9725
-6.3914 1.2845 -2.4983 0.9725
-6.4160 1.1559 -2.4983 0.9725
-6.4380 1.0268 -2.4983 0.9725
-6.4574 0.8972 -2.4984 0.9725
-6.5000 0.5066 -2.4985 0.9725
-6.5090 0.3759 -2.4985 0.9725
-6.5154 0.2451 -2.4986 0.9725
-6.5202 -0.0169 -2.4987 0.9725
-6.5077 -0.4097 -2.4988 0.9725
-6.4983 -0.5404 -2.4989 0.9725
-6.4716 -0.8010 -2.4990 0.9725
-6.4345 -1.0604 -2.4991 0.9725
-6.4121 -1.1895 -2.4991 0.9725
-6.3870 -1.3181 -2.4992 0.9725
-6.3594 -1.4462 -2.4993 0.9724
-6.3292 -1.5737 -2.4993 0.9724
-6.2964 -1.7006 -2.4994 0.9724
-6.2612 -1.8268 -2.4994 0.9724
-6.1830 -2.0769 -2.4996 0.9724
-6.1402 -2.2008 -2.4996 0.9724
-5.8893 -2.8059 -2.5000 0.9724
-5.8319 -2.9238 -2.5000 0.9724
-5.7722 -3.0404 -2.5001 0.9724
-5.7101 -3.1559 -2.5002 0.9724
-5.5790 -3.3829 -2.5003 0.9724
-5.5101 -3.4945 -2.5004 0.9724
-5.3656 -3.7132 -2.5005 0.9724
-5.2900 -3.8204 -2.5006 0.9724
-5.2124 -3.9260 -2.5007 0.9724
-4.9669 -4.2332 -2.5009 0.9724
-4.8809 -4.3323 -2.5010 0.9724
-4.5179 -4.7108 -2.5013 0.9724
-4.3253 -4.8888 -2.5015 0.9724
-4.2263 -4.9749 -2.5015 0.9724
-4.1257 -5.0589 -2.5016 0.9724
-4.0233 -5.1409 -2.5017 0.9724
-3.9194 -5.2209 -2.5018 0.9724
-3.5981 -5.4481 -2.5020 0.9724
-3.4880 -5.5194 -2.5021 0.9724
-3.3765 -5.5885 -2.5022 0.9724
-3.2636 -5.6554 -2.5023 0.9724
-3.0340 -5.7824 -2.5024 0.9724
-2.9173 -5.8423 -2.5025 0.9724
-2.6804 -5.9552 -2.5026 0.9724
-2.4391 -6.0584 -2.5028 0.9724
-1.9451 -6.2355 -2.5031 0.9724
-1.6931 -6.3089 -2.5032 0.9724
-1.1813 -6.4252 -2.5035 0.9724
-0.9223 -6.4679 -2.5037 0.9724
-0.7922 -6.4853 -2.5037 0.9724
-0.6617 -6.5001 -2.5038 0.9724
-0.4001 -6.5218 -2.5040 0.9724
-0.1377 -6.5329 -2.5041 0.9724
0.1248 -6.5335 -2.5042 0.9724
0.5182 -6.5146 -2.5044 0.9724
0.7796 -6.4888 -2.5045 0.9724
0.9098 -6.4720 -2.5046 0.9724
1.0397 -6.4526 -2.5046 0.9724
1.1691 -6.4305 -2.5047 0.9724
1.2981 -6.4058 -2.5047 0.9724
1.5545 -6.3488 -2.5048 0.9724
1.6817 -6.3164 -2.5049 0.9724
1.8084 -6.2815 -2.5049 0.9724
1.9342 -6.2440 -2.5050 0.9724
2.0593 -6.2040 -2.5050 0.9724
2.1836 -6.1615 -2.5051 0.9724
2.3070 -6.1165 -2.5051 0.9724
2.5509 -6.0191 -2.5052 0.9724
3.2566 -5.6691 -2.5054 0.9724
3.3699 -5.6026 -2.5055 0.9724
3.4818 -5.5338 -2.5055 0.9724
3.5923 -5.4628 -2.5055 0.9724
3.7014 -5.3896 -2.5055 0.9724
3.9150 -5.2366 -2.5056 0.9724
4.0194 -5.1570 -2.5056 0.9724
4.1223 -5.0752 -2.5056 0.9724
4.2234 -4.9914 -2.5057 0.9724
4.6106 -4.6363 -2.5057 0.9724
4.7029 -4.5428 -2.5057 0.9724
4.7932 -4.4474 -2.5057 0.9724
5.0525 -4.1506 -2.5058 0.9724
5.2151 -3.9443 -2.5058 0.9724
5.4433 -3.6229 -2.5058 0.9724
5.5149 -3.5129 -2.5058 0.9724
5.7165 -3.1742 -2.5057 0.9724
5.8394 -2.9420 -2.5057 0.9724
5.9528 -2.7050 -2.5057 0.9724
6.0565 -2.4636 -2.5056 0.9724
6.1048 -2.3414 -2.5056 0.9724
6.1505 -2.2183 -2.5056 0.9724
6.1938 -2.0942 -2.5056 0.9724
6.2346 -1.9693 -2.5056 0.9724
6.3085 -1.7172 -2.5055 0.9724
6.3417 -1.5901 -2.5055 0.9724
6.4257 -1.2052 -2.5054 0.9724
6.4863 -0.8158 -2.5053 0.9724
6.5137 -0.5546 -2.5052 0.9724
6.5305 -0.2925 -2.5051 0.9724
6.5367 -0.0299 -2.5050 0.9724
6.5061 0.6258 -2.5048 0.9724
6.4754 0.8867 -2.5047 0.9724
6.4561 1.0166 -2.5046 0.9724
6.4343 1.1460 -2.5045 0.9724
6.2861 1.7854 -2.5042 0.9724
6.2090 2.0364 -2.5041 0.9724
6.1667 2.1606 -2.5040 0.9724
6.1219 2.2840 -2.5040 0.9724
6.0746 2.4065 -2.5039 0.9724
5.9727 2.6485 -2.5038 0.9724
5.8018 3.0032 -2.5036 0.9724
5.6762 3.2337 -2.5034 0.9724
5.6099 3.3470 -2.5034 0.9724
5.3976 3.6785 -2.5031 0.9724
5.0007 4.2007 -2.5028 0.9724
4.8276 4.3979 -2.5026 0.9724
4.7381 4.4939 -2.5025 0.9724
4.6467 4.5880 -2.5024 0.9724
4.5535 4.6803 -2.5024 0.9724
4.3615 4.8592 -2.5022 0.9724
4.2628 4.9457 -2.5021 0.9724
4.1625 5.0301 -2.5021 0.9724
4.0605 5.1126 -2.5020 0.9724
3.7447 5.3474 -2.5017 0.9724
3.6364 5.4214 -2.5017 0.9724
3.5267 5.4932 -2.5016 0.9724
2.9575 5.8183 -2.5012 0.9724
2.7212 5.9320 -2.5010 0.9724
2.6014 5.9853 -2.5010 0.9724
2.3587 6.0846 -2.5008 0.9724
2.2359 6.1306 -2.5007 0.9724
1.8623 6.2536 -2.5005 0.9724
1.7363 6.2896 -2.5004 0.9724
1.6095 6.3230 -2.5004 0.9724
1.2256 6.4079 -2.5001 0.9724
0.5766 6.4976 -2.4998 0.9724
0.3151 6.5152 -2.4997 0.9724
0.0531 6.5223 -2.4995 0.9724
-0.2089 6.5188 -2.4994 0.9724
-0.4706 6.5048 -2.4993 0.9724
-0.6012 6.4939 -2.4992 0.9725
-0.8616 6.4642 -2.4991 0.9725
-1.1205 6.4241 -2.4990 0.9725
-1.2493 6.4001 -2.4989 0.9725
-1.5054 6.3445 -2.4988 0.9725
-3.1838 5.2085 -2.4984 0.9740
-3.3904 5.0763 -2.4984 0.9740
-3.4917 5.0071 -2.4983 0.9740
-3.5915 4.9359 -2.4983 0.9740
-3.6899 4.8627 -2.4983 0.9740
-3.9761 4.6315 -2.4982 0.9740
-4.0683 4.5506 -2.4982 0.9740
-4.1589 4.4679 -2.4982 0.9740
-4.3350 4.2972 -2.4982 0.9740
-4.5041 4.1196 -2.4982 0.9740
-4.7440 3.8407 -2.4982 0.9740
-4.8945 3.6470 -2.4981 0.9740
-4.9668 3.5479 -2.4981 0.9740
-5.1715 3.2423 -2.4982 0.9740
-5.2356 3.1377 -2.4982 0.9740
-5.2976 3.0319 -2.4982 0.9740
-5.3575 2.9249 -2.4982 0.9740
-5.4707 2.7073 -2.4982 0.9740
-5.5240 2.5969 -2.4982 0.9740
-5.6240 2.3729 -2.4982 0.9740
-5.7149 2.1451 -2.4983 0.9740
-5.7568 2.0298 -2.4983 0.9740
-5.7965 1.9138 -2.4983 0.9740
-5.9015 1.5612 -2.4984 0.9740
-5.9850 1.2029 -2.4985 0.9740
-6.0080 1.0824 -2.4985 0.9740
-6.0626 0.7185 -2.4986 0.9740
-6.0867 0.4744 -2.4987 0.9740
-6.0951 0.3520 -2.4987 0.9740
-6.1046 0.1069 -2.4988 0.9740
-6.1056 -0.0158 -2.4989 0.9740
-6.1002 -0.2611 -2.4990 0.9740
-6.0939 -0.3836 -2.4990 0.9740
-6.0850 -0.5060 -2.4990 0.9740
-6.0738 -0.6281 -2.4991 0.9740
-6.0600 -0.7500 -2.4991 0.9740
-6.0042 -1.1138 -2.4993 0.9740
-5.9808 -1.2343 -2.4994 0.9740
-5.9549 -1.3542 -2.4994 0.9740
-5.9266 -1.4736 -2.4995 0.9740
-5.8960 -1.5924 -2.4995 0.9739
-5.8629 -1.7106 -2.4996 0.9739
-5.8275 -1.8281 -2.4996 0.9739
-5.6155 -2.4036 -2.5000 0.9739
-5.5146 -2.6274 -2.5001 0.9739
-5.4609 -2.7377 -2.5001 0.9739
-5.4049 -2.8470 -2.5002 0.9739
-5.3468 -2.9551 -2.5003 0.9739
-5.0928 -3.3752 -2.5006 0.9739
-4.9534 -3.5772 -2.5007 0.9739
-4.8807 -3.6761 -2.5008 0.9739
-4.8060 -3.7736 -2.5008 0.9739
-4.7293 -3.8695 -2.5009 0.9739
-4.3180 -4.3249 -2.5013 0.9739
-4.2304 -4.4109 -2.5013 0.9739
-4.1410 -4.4952 -2.5014 0.9739
-3.9573 -4.6582 -2.5016 0.9739
-3.8630 -4.7369 -2.5016 0.9739
-3.7672 -4.8137 -2.5017 0.9739
-3.6698 -4.8885 -2.5018 0.9739
-3.5710 -4.9614 -2.5019 0.9739
-3.1615 -5.2327 -2.5022 0.9739
-3.0558 -5.2953 -2.5022 0.9739
-2.9489 -5.3558 -2.5023 0.9739
-2.8408 -5.4141 -2.5024 0.9739
-2.7315 -5.4703 -2.5024 0.9739
-2.6211 -5.5242 -2.5025 0.9739
-2.5097 -5.5759 -2.5026 0.9739
-2.3972 -5.6254 -2.5027 0.9739
-1.7036 -5.8738 -2.5031 0.9739
-1.5853 -5.9071 -2.5032 0.9739
-1.3468 -5.9663 -2.5033 0.9739
-1.2267 -5.9923 -2.5034 0.9739
-1.1060 -6.0159 -2.5034 0.9739
-0.7417 -6.0721 -2.5036 0.9739
-0.6196 -6.0859 -2.5037 0.9739
-0.4972 -6.0973 -2.5038 0.9739
-0.3746 -6.1062 -2.5038 0.9739
-0.2518 -6.1127 -2.5039 0.9739
-0.1290 -6.1166 -2.5039 0.9739
0.1169 -6.1172 -2.5041 0.9739
0.2398 -6.1137 -2.5041 0.9739
0.3625 -6.1078 -2.5042 0.9739
0.6077 -6.0886 -2.5043 0.9739
0.8518 -6.0595 -2.5044 0.9739
1.2154 -5.9976 -2.5045 0.9739
1.5746 -5.9138 -2.5047 0.9739
1.6931 -5.8811 -2.5047 0.9739
1.8109 -5.8460 -2.5048 0.9739
2.0444 -5.7687 -2.5049 0.9739
2.7236 -5.4815 -2.5051 0.9739
3.4654 -5.0460 -2.5053 0.9739
3.5661 -4.9754 -2.5053 0.9739
3.6654 -4.9028 -2.5053 0.9739
3.7632 -4.8282 -2.5054 0.9739
4.0473 -4.5928 -2.5054 0.9739
4.1388 -4.5106 -2.5054 0.9739
4.4876 -4.1638 -2.5055 0.9739
4.6513 -3.9802 -2.5055 0.9739
4.8074 -3.7901 -2.5055 0.9739
4.8826 -3.6928 -2.5055 0.9739
5.0270 -3.4937 -2.5055 0.9739
5.0962 -3.3920 -2.5055 0.9739
5.2912 -3.0788 -2.5055 0.9739
5.3520 -2.9718 -2.5055 0.9739
5.7155 -2.1921 -2.5054 0.9739
5.7989 -1.9607 -2.5053 0.9739
5.8371 -1.8438 -2.5053 0.9739
5.8729 -1.7261 -2.5053 0.9739
5.9063 -1.6078 -2.5053 0.9739
5.9374 -1.4888 -2.5052 0.9739
5.9922 -1.2490 -2.5052 0.9739
6.0564 -0.8857 -2.5051 0.9739
6.0728 -0.7638 -2.5050 0.9739
6.1075 -0.3966 -2.5049 0.9739
6.1142 -0.2738 -2.5049 0.9739
6.1183 -0.1509 -2.5048 0.9739
6.1193 0.0950 -2.5048 0.9739
6.1160 0.2179 -2.5047 0.9739
6.1103 0.3407 -2.5047 0.9739
6.1021 0.4634 -2.5046 0.9739
6.0914 0.5859 -2.5046 0.9739
6.0783 0.7082 -2.5045 0.9739
5.9760 1.3141 -2.5043 0.9739
5.9482 1.4339 -2.5042 0.9739
5.8856 1.6716 -2.5041 0.9739
5.8134 1.9066 -2.5040 0.9739
5.7738 2.0229 -2.5039 0.9739
5.7318 2.1385 -2.5038 0.9739
5.5922 2.4797 -2.5037 0.9739
5.5411 2.5915 -2.5036 0.9739
5.4322 2.8119 -2.5035 0.9739
5.3745 2.9204 -2.5034 0.9739
5.3146 3.0277 -2.5033 0.9739
5.1883 3.2386 -2.5032 0.9739
4.9111 3.6442 -2.5029 0.9739
4.8367 3.7421 -2.5028 0.9739
4.7604 3.8384 -2.5028 0.9739
4.6822 3.9331 -2.5027 0.9739
4.6021 4.0263 -2.5026 0.9739
4.5201 4.1178 -2.5026 0.9739
4.3508 4.2958 -2.5024 0.9739
4.2635 4.3823 -2.5023 0.9739
4.0838 4.5497 -2.5022 0.9739
3.9914 4.6307 -2.5021 0.9739
3.3022 5.1435 -2.5016 0.9739
2.9861 5.3326 -2.5014 0.9739
2.8782 5.3914 -2.5013 0.9739
2.7692 5.4479 -2.5012 0.9739
2.2086 5.6974 -2.5009 0.9739
2.0936 5.7404 -2.5008 0.9739
1.9778 5.7812 -2.5007 0.9739
1.8612 5.8196 -2.5007 0.9739
1.7438 5.8556 -2.5006 0.9739
1.6258 5.8893 -2.5005 0.9739
1.3878 5.9496 -2.5004 0.9739
1.2680 5.9761 -2.5003 0.9739
1.0268 6.0219 -2.5002 0.9739
0.9056 6.0411 -2.5001 0.9739
0.7840 6.0580 -2.5000 0.9739
0.5400 6.0842 -2.4999 0.9739
0.4176 6.0937 -2.4999 0.9739
0.1724 6.1053 -2.4997 0.9739
-0.0730 6.1070 -2.4996 0.9739
-0.1956 6.1042 -2.4996 0.9739
-0.4407 6.0911 -2.4994 0.9740
-0.5630 6.0808 -2.4994 0.9740
-0.6850 6.0682 -2.4993 0.9740
-0.8068 6.0531 -2.4993 0.9740
-0.9282 6.0355 -2.4992 0.9740
-1.1699 5.9931 -2.4991 0.9740
-2.9901 4.8917 -2.4986 0.9753
-3.1842 4.7675 -2.4986 0.9753
-3.8209 4.2738 -2.4984 0.9753
-3.9059 4.1962 -2.4984 0.9753
-3.9894 4.1169 -2.4984 0.9753
-4.0713 4.0359 -2.4984 0.9753
-4.2302 3.8690 -2.4984 0.9753
-4.3070 3.7832 -2.4984 0.9753
-4.4555 3.6071 -2.4984 0.9753
-4.7307 3.2378 -2.4984 0.9753
-4.7948 3.1421 -2.4984 0.9753
-4.8570 3.0451 -2.4984 0.9753
-5.0317 2.7470 -2.4984 0.9753
-5.1380 2.5427 -2.4984 0.9753
-5.1881 2.4389 -2.4984 0.9753
-5.2819 2.2286 -2.4985 0.9753
-5.3257 2.1220 -2.4985 0.9753
-5.4790 1.6877 -2.4986 0.9753
-5.5119 1.5773 -2.4986 0.9753
-5.7063 0.5603 -2.4989 0.9753
-5.7165 0.4455 -2.4989 0.9753
-5.7244 0.3306 -2.4989 0.9753
-5.7299 0.2155 -2.4990 0.9753
-5.7328 -0.1301 -2.4991 0.9753
-5.7231 -0.3603 -2.4992 0.9753
-5.7148 -0.4752 -2.4992 0.9753
-5.6761 -0.8186 -2.4994 0.9753
-5.6169 -1.1592 -2.4995 0.9753
-5.5926 -1.2718 -2.4996 0.9753
-5.5660 -1.3839 -2.4996 0.9753
-5.5061 -1.6065 -2.4997 0.9753
-5.4729 -1.7168 -2.4998 0.9753
-5.4374 -1.8265 -2.4998 0.9753
-5.3599 -2.0435 -2.4999 0.9753
-5.3179 -2.1509 -2.5000 0.9753
-5.2737 -2.2573 -2.5001 0.9753
-5.2274 -2.3629 -2.5001 0.9753
-5.1285 -2.5711 -2.5002 0.9753
-5.0760 -2.6737 -2.5003 0.9753
-4.9060 -2.9749 -2.5005 0.9753
-4.7828 -3.1697 -2.5006 0.9753
-4.6519 -3.3595 -2.5008 0.9753
-4.5134 -3.5438 -2.5009 0.9753
-4.2148 -3.8952 -2.5012 0.9753
-4.1357 -3.9792 -2.5012 0.9753
-4.0551 -4.0616 -2.5013 0.9753
-3.8889 -4.2214 -2.5014 0.9753
-3.8034 -4.2988 -2.5015 0.9753
-3.7163 -4.3745 -2.5016 0.9753
-3.5378 -4.5205 -2.5017 0.9753
-3.4463 -4.5908 -2.5018 0.9753
-3.3535 -4.6592 -2.5019 0.9753
-3.2593 -4.7258 -2.5019 0.9753
-3.1638 -4.7905 -2.5020 0.9753
-3.0670 -4.8532 -2.5021 0.9753
-2.9689 -4.9140 -2.5021 0.9753
-2.8697 -4.9728 -2.5022 0.9753
-2.6677 -5.0843 -2.5023 0.9753
-2.5651 -5.1371 -2.5024 0.9753
-2.4615 -5.1877 -2.5025 0.9753
-2.2512 -5.2827 -2.5026 0.9753
-2.1447 -5.3270 -2.5027 0.9753
-2.0372 -5.3692 -2.5027 0.9753
-1.5998 -5.5159 -2.5030 0.9753
-0.9250 -5.6692 -2.5034 0.9752
-0.8109 -5.6868 -2.5035 0.9752
-0.6965 -5.7021 -2.5035 0.9752
-0.5818 -5.7150 -2.5036 0.9752
-0.4669 -5.7257 -2.5036 0.9752
-0.1211 -5.7438 -2.5038 0.9752
-0.0057 -5.7452 -2.5039 0.9752
0.1098 -5.7443 -2.5039 0.9752
0.2251 -5.7411 -2.5040 0.9752
0.4556 -5.7276 -2.5041 0.9752
0.5706 -5.7175 -2.5041 0.9752
0.6854 -5.7049 -2.5042 0.9752
1.2542 -5.6080 -2.5044 0.9752
1.7005 -5.4896 -2.5046 0.9752
1.8105 -5.4544 -2.5046 0.9752
1.9197 -5.4170 -2.5047 0.9752
2.0282 -5.3774 -2.5047 0.9752
2.1359 -5.3357 -2.5048 0.9752
2.2427 -5.2917 -2.5048 0.9752
2.3486 -5.2457 -2.5048 0.9752
2.4535 -5.1975 -2.5049 0.9752
2.5575 -5.1473 -2.5049 0.9752
2.6604 -5.0949 -2.5049 0.9752
2.7623 -5.0404 -2.5050 0.9752
2.9626 -4.9255 -2.5050 0.9752
3.0610 -4.8651 -2.5050 0.9752
3.1582 -4.8026 -2.5051 0.9752
3.2541 -4.7383 -2.5051 0.9752
3.3486 -4.6720 -2.5051 0.9752
3.6241 -4.4619 -2.5052 0.9752
3.7130 -4.3882 -2.5052 0.9752
4.2916 -3.8245 -2.5053 0.9752
4.6536 -3.3748 -2.5053 0.9752
4.7205 -3.2806 -2.5053 0.9752
4.8484 -3.0883 -2.5053 0.9752
4.9095 -2.9903 -2.5053 0.9752
4.9686 -2.8910 -2.5053 0.9752
5.1336 -2.5864 -2.5052 0.9752
5.2333 -2.3781 -2.5052 0.9752
5.3246 -2.1659 -2.5052 0.9752
5.3670 -2.0584 -2.5052 0.9752
5.5753 -1.3980 -2.5050 0.9752
5.6022 -1.2857 -2.5050 0.9752
5.6268 -1.1728 -2.5050 0.9752
5.6492 -1.0595 -2.5049 0.9752
5.6871 -0.8317 -2.5049 0.9752
5.7026 -0.7173 -2.5048 0.9752
5.7157 -0.6025 -2.5048 0.9752
5.7266 -0.4876 -2.5048 0.9752
5.7453 -0.1417 -2.5047 0.9752
5.7469 -0.0262 -2.5046 0.9752
5.7431 0.2046 -2.5045 0.9752
5.7378 0.3200 -2.5045 0.9752
5.7201 0.5502 -2.5044 0.9752
5.7077 0.6650 -2.5044 0.9752
5.6570 1.0076 -2.5042 0.9752
5.6355 1.1210 -2.5042 0.9752
5.6117 1.2340 -2.5041 0.9752
5.5574 1.4584 -2.5040 0.9752
5.5268 1.5697 -2.5039 0.9752
5.4591 1.7904 -2.5038 0.9752
5.4219 1.8997 -2.5038 0.9752
5.3825 2.0082 -2.5037 0.9752
5.2972 2.2227 -2.5036 0.9752
5.2034 2.4336 -2.5035 0.9752
5.1012 2.6405 -2.5034 0.9752
5.0470 2.7424 -2.5033 0.9752
4.8100 3.1384 -2.5030 0.9753
4.7459 3.2344 -2.5030 0.9753
4.6118 3.4222 -2.5028 0.9753
4.5420 3.5141 -2.5028 0.9753
4.0038 4.1153 -2.5023 0.9753
3.9202 4.1948 -2.5022 0.9753
3.8350 4.2726 -2.5022 0.9753
3.7483 4.3487 -2.5021 0.9753
3.4792 4.5662 -2.5019 0.9753
3.3867 4.6351 -2.5018 0.9753
3.2928 4.7021 -2.5017 0.9753
3.1976 4.7671 -2.5017 0.9753
3.0033 4.8915 -2.5015 0.9753
2.9044 4.9507 -2.5015 0.9753
2.8042 5.0079 -2.5014 0.9753
2.7030 5.0631 -2.5013 0.9753
2.4972 5.1673 -2.5012 0.9753
2.2875 5.2632 -2.5011 0.9753
2.1813 5.3079 -2.5010 0.9753
2.0741 5.3505 -2.5009 0.9753
1.9661 5.3910 -2.5009 0.9753
1.7479 5.4653 -2.5007 0.9753
1.5268 5.5308 -2.5006 0.9753
1.4154 5.5603 -2.5005 0.9753
1.3033 5.5874 -2.5005 0.9753
1.1908 5.6123 -2.5004 0.9753
1.0778 5.6350 -2.5003 0.9753
0.8505 5.6735 -2.5002 0.9753
0.7363 5.6893 -2.5002 0.9753
0.3922 5.7229 -2.5000 0.9753
0.2771 5.7295 -2.4999 0.9753
0.0467 5.7357 -2.4998 0.9753
-0.2989 5.7277 -2.4996 0.9753
-0.4139 5.7204 -2.4996 0.9753
-0.6433 5.6990 -2.4995 0.9753
-0.7577 5.6848 -2.4994 0.9753
-0.8717 5.6683 -2.4994 0.9753
-1.3239 5.5796 -2.4992 0.9753
-2.8155 4.6060 -2.4988 0.9765
-2.9074 4.5484 -2.4988 0.9765
-3.1761 4.3649 -2.4987 0.9765
-3.2631 4.3002 -2.4987 0.9765
-3.3488 4.2337 -2.4987 0.9765
-3.5162 4.0957 -2.4987 0.9765
-3.7565 3.8764 -2.4986 0.9765
-3.8336 3.8002 -2.4986 0.9765
-3.9831 3.6431 -2.4986 0.9765
-4.0555 3.5623 -2.4986 0.9765
-4.1953 3.3965 -2.4986 0.9765
-4.3284 3.2252 -2.4986 0.9765
-4.3923 3.1376 -2.4986 0.9765
-4.4544 3.0487 -2.4986 0.9765
-4.5148 2.9586 -2.4986 0.9765
-4.5733 2.8673 -2.4986 0.9765
-4.6300 2.7748 -2.4986 0.9765
-4.6849 2.6812 -2.4986 0.9765
-4.7378 2.5866 -2.4986 0.9765
-4.8379 2.3942 -2.4986 0.9765
-5.0146 1.9981 -2.4987 0.9765
-5.0538 1.8969 -2.4987 0.9765
-5.0909 1.7950 -2.4987 0.9765
-5.1260 1.6924 -2.4987 0.9765
-5.1900 1.4851 -2.4988 0.9765
-5.2701 1.1698 -2.4988 0.9765
-5.3473 0.7430 -2.4990 0.9765
-5.3612 0.6354 -2.4990 0.9765
-5.3730 0.5276 -2.4990 0.9765
-5.3952 0.2029 -2.4991 0.9765
-5.3992 -0.0140 -2.4992 0.9765
-5.3979 -0.1225 -2.4992 0.9765
-5.3944 -0.2309 -2.4993 0.9765
-5.3810 -0.4474 -2.4994 0.9765
-5.3589 -0.6632 -2.4995 0.9765
-5.3281 -0.8781 -2.4995 0.9765
-5.3095 -0.9849 -2.4996 0.9765
-5.2658 -1.1975 -2.4997 0.9765
-5.2137 -1.4081 -2.4998 0.9765
-5.1197 -1.7198 -2.5000 0.9765
-5.0842 -1.8223 -2.5000 0.9765
-5.0467 -1.9241 -2.5001 0.9765
-4.9655 -2.1254 -2.5002 0.9765
-4.8763 -2.3233 -2.5003 0.9765
-4.7279 -2.6130 -2.5005 0.9765
-4.6193 -2.8010 -2.5006 0.9765
-4.5622 -2.8933 -2.5006 0.9765
-4.4425 -3.0744 -2.5008 0.9765
-4.3799 -3.1631 -2.5008 0.9765
-4.3156 -3.2505 -2.5009 0.9765
-4.2495 -3.3367 -2.5009 0.9765
-3.8940 -3.7465 -2.5013 0.9765
-3.8180 -3.8241 -2.5013 0.9765
-3.7405 -3.9001 -2.5014 0.9765
-3.6615 -3.9746 -2.5015 0.9765
-3.5810 -4.0475 -2.5015 0.9765
-3.4990 -4.1187 -2.5016 0.9765
-3.3309 -4.2562 -2.5017 0.9765
-3.2448 -4.3224 -2.5018 0.9765
-3.1574 -4.3868 -2.5019 0.9765
-3.0687 -4.4495 -2.5019 0.9765
-2.9788 -4.5103 -2.5020 0.9765
-2.8876 -4.5694 -2.5020 0.9765
-2.7953 -4.6266 -2.5021 0.9765
-2.7019 -4.6820 -2.5022 0.9765
-2.6073 -4.7354 -2.5022 0.9765
-2.4151 -4.8366 -2.5024 0.9765
-2.3175 -4.8842 -2.5024 0.9765
-2.2189 -4.9300 -2.5025 0.9765
-2.0192 -5.0154 -2.5026 0.9765
-1.8162 -5.0927 -2.5028 0.9764
-1.7135 -5.1283 -2.5028 0.9764
-1.5062 -5.1933 -2.5029 0.9764
-1.4016 -5.2226 -2.5030 0.9764
-1.1907 -5.2749 -2.5031 0.9764
-1.0845 -5.2979 -2.5032 0.9764
-0.9779 -5.3188 -2.5032 0.9764
-0.7634 -5.3540 -2.5034 0.9764
-0.5478 -5.3806 -2.5035 0.9764
-0.4396 -5.3907 -2.5035 0.9764
-0.3312 -5.3985 -2.5036 0.9764
-0.1140 -5.4077 -2.5037 0.9764
0.1033 -5.4081 -2.5038 0.9764
0.6453 -5.3710 -2.5040 0.9764
0.7531 -5.3571 -2.5041 0.9764
0.8606 -5.3410 -2.5041 0.9764
0.9677 -5.3227 -2.5042 0.9764
1.0745 -5.3023 -2.5042 0.9764
1.2867 -5.2550 -2.5043 0.9764
1.8074 -5.0999 -2.5045 0.9764
2.0109 -5.0233 -2.5046 0.9764
2.2111 -4.9386 -2.5047 0.9764
2.3099 -4.8932 -2.5047 0.9764
2.4078 -4.8459 -2.5047 0.9764
2.6006 -4.7454 -2.5048 0.9764
2.6954 -4.6922 -2.5048 0.9764
2.9733 -4.5214 -2.5049 0.9764
3.1526 -4.3984 -2.5049 0.9764
3.4119 -4.2006 -2.5050 0.9764
3.4956 -4.1312 -2.5050 0.9764
3.8924 -3.7599 -2.5051 0.9764
3.9672 -3.6810 -2.5051 0.9764
4.1119 -3.5186 -2.5051 0.9764
4.1818 -3.4353 -2.5051 0.9764
4.2499 -3.3506 -2.5051 0.9764
4.3164 -3.2646 -2.5051 0.9764
4.3811 -3.1772 -2.5051 0.9764
4.5052 -2.9986 -2.5051 0.9764
4.6220 -2.8152 -2.5051 0.9764
4.6776 -2.7217 -2.5051 0.9764
4.7314 -2.6272 -2.5051 0.9764
4.8810 -2.3374 -2.5050 0.9764
4.9709 -2.1394 -2.5050 0.9764
5.0128 -2.0391 -2.5050 0.9764
5.0528 -1.9379 -2.5050 0.9764
5.1265 -1.7333 -2.5049 0.9764
5.1602 -1.6300 -2.5049 0.9764
5.2214 -1.4213 -2.5049 0.9764
5.2489 -1.3161 -2.5048 0.9764
5.3185 -0.9975 -2.5048 0.9764
5.3374 -0.8904 -2.5047 0.9764
5.3541 -0.7830 -2.5047 0.9764
5.3687 -0.6753 -2.5047 0.9764
5.3914 -0.4590 -2.5046 0.9764
5.4105 -0.0247 -2.5045 0.9764
5.4098 0.0840 -2.5044 0.9764
5.3852 0.5180 -2.5043 0.9764
5.3737 0.6261 -2.5042 0.9764
5.3440 0.8415 -2.5041 0.9764
5.2321 1.3730 -2.5039 0.9764
5.2034 1.4778 -2.5038 0.9764
5.0675 1.8907 -2.5036 0.9764
5.0284 1.9920 -2.5036 0.9764
4.9872 2.0926 -2.5035 0.9764
4.9441 2.1924 -2.5034 0.9764
4.7517 2.5820 -2.5032 0.9764
4.6987 2.6768 -2.5032 0.9764
4.5872 2.8633 -2.5030 0.9764
4.4682 3.0451 -2.5029 0.9764
4.4060 3.1342 -2.5028 0.9764
4.3421 3.2220 -2.5028 0.9764
4.2763 3.3085 -2.5027 0.9765
4.2089 3.3937 -2.5027 0.9765
4.0690 3.5599 -2.5025 0.9765
3.9225 3.7203 -2.5024 0.9765
3.5291 4.0944 -2.5021 0.9765
3.4460 4.1643 -2.5020 0.9765
3.3616 4.2326 -2.5019 0.9765
3.2758 4.2992 -2.5019 0.9765
3.1887 4.3640 -2.5018 0.9765
3.1003 4.4271 -2.5018 0.9765
3.0106 4.4884 -2.5017 0.9765
2.9198 4.5478 -2.5016 0.9765
2.8277 4.6055 -2.5016 0.9765
2.7345 4.6612 -2.5015 0.9765
2.6403 4.7151 -2.5014 0.9765
1.4376 5.2075 -2.5007 0.9765
1.1212 5.2843 -2.5005 0.9765
1.0148 5.3057 -2.5004 0.9765
0.9079 5.3249 -2.5004 0.9765
0.8008 5.3419 -2.5003 0.9765
0.5855 5.3695 -2.5002 0.9765
0.4775 5.3801 -2.5001 0.9765
0.2609 5.3947 -2.5000 0.9765
0.1525 5.3987 -2.5000 0.9765
-0.0645 5.4002 -2.4999 0.9765
-0.1730 5.3977 -2.4998 0.9765
-0.3897 5.3862 -2.4997 0.9765
-0.4978 5.3772 -2.4997 0.9765
-0.6057 5.3660 -2.4996 0.9765
-0.8208 5.3371 -2.4995 0.9765
-0.9279 5.3195 -2.4995 0.9765
-1.0345 5.2997 -2.4994 0.9765
-1.1408 5.2777 -2.4994 0.9765
-1.2466 5.2536 -2.4993 0.9765
-2.6570 4.3468 -2.4990 0.9776
-2.7438 4.2925 -2.4990 0.9776
-2.8295 4.2364 -2.4989 0.9776
-2.9140 4.1787 -2.4989 0.9776
-2.9973 4.1193 -2.4989 0.9776
-3.3183 3.8652 -2.4988 0.9776
-3.3953 3.7978 -2.4988 0.9776
-3.4708 3.7288 -2.4988 0.9776
-3.5451 3.6583 -2.4988 0.9776
-3.6178 3.5863 -2.4988 0.9776
-3.7590 3.4380 -2.4988 0.9776
-3.8273 3.3618 -2.4988 0.9776
-3.9592 3.2053 -2.4988 0.9776
-4.0228 3.1251 -2.4988 0.9776
-4.0848 3.0437 -2.4988 0.9776
-4.1451 2.9610 -2.4988 0.9776
-4.3160 2.7059 -2.4988 0.9776
-4.4212 2.5304 -2.4988 0.9776
-4.4712 2.4410 -2.4988 0.9776
-4.5657 2.2594 -2.4988 0.9776
-4.6102 2.1673 -2.4988 0.9776
-4.7324 1.8856 -2.4989 0.9776
-4.8044 1.6940 -2.4989 0.9776
-4.8375 1.5971 -2.4989 0.9776
-4.8687 1.4997 -2.4989 0.9776
-4.8979 1.4016 -2.4989 0.9776
-4.9251 1.3029 -2.4990 0.9776
-4.9735 1.1040 -2.4990 0.9776
-4.9948 1.0039 -2.4990 0.9776
-5.0140 0.9033 -2.4991 0.9776
-5.0463 0.7012 -2.4991 0.9776
-5.0705 0.4979 -2.4992 0.9776
-5.0796 0.3959 -2.4992 0.9776
-5.0866 0.2938 -2.4992 0.9776
-5.0915 0.1915 -2.4993 0.9776
-5.0944 0.0892 -2.4993 0.9776
-5.0940 -0.1156 -2.4994 0.9776
-5.0854 -0.3201 -2.4995 0.9776
-5.0437 -0.7274 -2.4996 0.9776
-5.0281 -0.8286 -2.4997 0.9776
-5.0105 -0.9295 -2.4997 0.9776
-4.9457 -1.2297 -2.4999 0.9776
-4.8925 -1.4275 -2.5000 0.9775
-4.8314 -1.6229 -2.5001 0.9775
-4.7979 -1.7197 -2.5001 0.9775
-4.7625 -1.8158 -2.5002 0.9775
-4.6859 -2.0057 -2.5003 0.9775
-4.5569 -2.2845 -2.5004 0.9775
-4.4113 -2.5551 -2.5006 0.9775
-4.3053 -2.7303 -2.5007 0.9775
-4.1923 -2.9012 -2.5008 0.9775
-4.1332 -2.9849 -2.5009 0.9775
-4.0102 -3.1487 -2.5010 0.9775
-3.8806 -3.3075 -2.5011 0.9775
-3.7448 -3.4608 -2.5012 0.9775
-3.6746 -3.5355 -2.5013 0.9775
-3.6029 -3.6087 -2.5014 0.9775
-3.3019 -3.8867 -2.5016 0.9775
-2.9795 -4.1396 -2.5019 0.9775
-2.6378 -4.3659 -2.5021 0.9775
-2.4604 -4.4686 -2.5022 0.9775
-2.3702 -4.5172 -2.5023 0.9775
-2.2790 -4.5640 -2.5023 0.9775
-2.0939 -4.6521 -2.5025 0.9775
-2.0000 -4.6934 -2.5025 0.9775
-1.8100 -4.7701 -2.5026 0.9775
-1.7138 -4.8057 -2.5027 0.9775
-1.3226 -4.9282 -2.5029 0.9775
-1.2233 -4.9539 -2.5030 0.9775
-1.1236 -4.9776 -2.5031 0.9775
-1.0234 -4.9993 -2.5031 0.9775
-0.8217 -5.0366 -2.5032 0.9775
-0.6188 -5.0657 -2.5033 0.9775
-0.4148 -5.0867 -2.5034 0.9775
-0.3125 -5.0941 -2.5035 0.9775
-0.2101 -5.0995 -2.5035 0.9775
-0.1076 -5.1028 -2.5036 0.9775
0.0975 -5.1032 -2.5037 0.9775
0.6089 -5.0681 -2.5039 0.9775
0.7106 -5.0550 -2.5040 0.9775
0.8120 -5.0398 -2.5040 0.9775
1.0139 -5.0033 -2.5041 0.9775
1.3135 -4.9333 -2.5042 0.9775
1.4124 -4.9060 -2.5043 0.9775
1.5107 -4.8767 -2.5043 0.9775
1.7054 -4.8122 -2.5044 0.9775
2.0864 -4.6600 -2.5045 0.9775
2.1796 -4.6172 -2.5045 0.9775
2.4539 -4.4777 -2.5046 0.9775
2.6318 -4.3756 -2.5047 0.9775
2.7192 -4.3219 -2.5047 0.9775
2.8056 -4.2664 -2.5047 0.9775
2.8907 -4.2092 -2.5047 0.9775
3.0575 -4.0897 -2.5048 0.9775
3.1391 -4.0275 -2.5048 0.9775
3.2984 -3.8982 -2.5048 0.9775
3.4524 -3.7626 -2.5048 0.9775
3.6728 -3.5478 -2.5049 0.9775
3.8799 -3.3201 -2.5049 0.9775
3.9458 -3.2415 -2.5049 0.9775
4.2511 -2.8294 -2.5049 0.9775
4.3613 -2.6563 -2.5049 0.9775
4.4138 -2.5682 -2.5049 0.9775
4.5133 -2.3888 -2.5049 0.9775
4.6056 -2.2055 -2.5048 0.9775
4.6490 -2.1125 -2.5048 0.9775
4.6905 -2.0187 -2.5048 0.9775
4.7301 -1.9240 -2.5048 0.9775
4.8035 -1.7324 -2.5048 0.9775
4.8691 -1.5380 -2.5047 0.9775
4.8990 -1.4399 -2.5047 0.9775
4.9528 -1.2419 -2.5047 0.9775
4.9986 -1.0419 -2.5046 0.9775
5.0185 -0.9412 -2.5046 0.9775
5.0363 -0.8402 -2.5046 0.9775
5.0521 -0.7388 -2.5045 0.9775
5.0659 -0.6372 -2.5045 0.9775
5.0873 -0.4331 -2.5044 0.9775
5.1053 -0.0233 -2.5043 0.9775
5.1020 0.1818 -2.5042 0.9775
5.0815 0.4888 -2.5041 0.9775
5.0576 0.6925 -2.5040 0.9775
5.0426 0.7940 -2.5040 0.9775
5.0065 0.9959 -2.5039 0.9775
4.9854 1.0962 -2.5039 0.9775
4.9100 1.3945 -2.5037 0.9775
4.8809 1.4928 -2.5037 0.9775
4.7449 1.8797 -2.5035 0.9775
4.7060 1.9746 -2.5034 0.9775
4.6227 2.1620 -2.5033 0.9775
4.5319 2.3459 -2.5032 0.9775
4.4838 2.4364 -2.5031 0.9775
4.4338 2.5259 -2.5031 0.9775
4.3821 2.6144 -2.5030 0.9775
4.3286 2.7019 -2.5030 0.9775
4.1577 2.9575 -2.5028 0.9775
3.9717 3.2024 -2.5026 0.9775
3.8396 3.3592 -2.5025 0.9775
3.7713 3.4356 -2.5024 0.9775
3.7014 3.5106 -2.5024 0.9775
3.6300 3.5842 -2.5023 0.9775
3.2519 3.9297 -2.5020 0.9775
2.9256 4.1777 -2.5018 0.9775
2.6684 4.3460 -2.5016 0.9775
2.5805 4.3986 -2.5015 0.9775
2.4915 4.4495 -2.5014 0.9775
2.3106 4.5457 -2.5013 0.9775
2.2188 4.5911 -2.5013 0.9775
1.6503 4.8240 -2.5009 0.9775
1.5530 4.8560 -2.5008 0.9775
1.4551 4.8861 -2.5008 0.9775
1.2576 4.9404 -2.5007 0.9775
1.1580 4.9646 -2.5006 0.9775
1.0580 4.9867 -2.5006 0.9775
0.9576 5.0069 -2.5005 0.9775
0.8568 5.0250 -2.5005 0.9775
0.6542 5.0551 -2.5003 0.9775
0.3485 5.0850 -2.5002 0.9775
0.0415 5.0965 -2.5000 0.9775
-0.4698 5.0745 -2.4998 0.9776
-0.5717 5.0639 -2.4997 0.9776
-0.6733 5.0513 -2.4997 0.9776
-1.1764 4.9579 -2.4995 0.9776
-2.5945 4.0589 -2.4991 0.9785
-2.6755 4.0059 -2.4991 0.9785
-2.7554 3.9513 -2.4991 0.9785
-2.8343 3.8952 -2.4991 0.9785
-2.9119 3.8374 -2.4990 0.9785
-3.0637 3.7173 -2.4990 0.9785
-3.2105 3.5912 -2.4990 0.9785
-3.2820 3.5259 -2.4990 0.9785
-3.3522 3.4592 -2.4990 0.9785
-3.4884 3.3218 -2.4989 0.9785
-3.9196 2.7999 -2.4989 0.9785
-3.9751 2.7206 -2.4989 0.9785
-4.0289 2.6402 -2.4989 0.9785
-4.0812 2.5587 -2.4989 0.9785
-4.1807 2.3927 -2.4989 0.9785
-4.2735 2.2228 -2.4990 0.9785
-4.4382 1.8726 -2.4990 0.9785
-4.5099 1.6928 -2.4990 0.9785
-4.5743 1.5103 -2.4991 0.9785
-4.6038 1.4181 -2.4991 0.9785
-4.6314 1.3253 -2.4991 0.9785
-4.6571 1.2320 -2.4991 0.9785
-4.6810 1.1382 -2.4991 0.9785
-4.7230 0.9492 -2.4992 0.9785
-4.7718 0.6630 -2.4993 0.9785
-4.8032 0.3744 -2.4994 0.9785
-4.8098 0.2778 -2.4994 0.9785
-4.8180 -0.0125 -2.4995 0.9785
-4.8168 -0.1092 -2.4995 0.9785
-4.8137 -0.2060 -2.4996 0.9785
-4.8087 -0.3027 -2.4996 0.9785
-4.7820 -0.5919 -2.4997 0.9785
-4.7193 -0.9739 -2.4999 0.9785
-4.6989 -1.0686 -2.4999 0.9785
-4.6766 -1.1628 -2.5000 0.9785
-4.6262 -1.3498 -2.5001 0.9785
-4.5684 -1.5346 -2.5002 0.9785
-4.5368 -1.6261 -2.5002 0.9785
-4.5033 -1.7170 -2.5002 0.9785
-4.4680 -1.8071 -2.5003 0.9785
-4.3512 -2.0731 -2.5004 0.9785
-4.1711 -2.4160 -2.5007 0.9785
-4.0709 -2.5817 -2.5008 0.9785
-4.0183 -2.6630 -2.5008 0.9785
-3.8508 -2.9004 -2.5010 0.9785
-3.7918 -2.9773 -2.5010 0.9785
-3.7313 -3.0529 -2.5011 0.9785
-3.6693 -3.1274 -2.5012 0.9785
-3.6058 -3.2005 -2.5012 0.9785
-3.4067 -3.4122 -2.5014 0.9785
-3.3375 -3.4800 -2.5014 0.9785
-2.9720 -3.7976 -2.5017 0.9785
-2.8172 -3.9141 -2.5018 0.9785
-2.4941 -4.1281 -2.5021 0.9785
-2.3264 -4.2251 -2.5022 0.9785
-2.2410 -4.2711 -2.5023 0.9785
-2.1548 -4.3154 -2.5023 0.9785
-1.9798 -4.3987 -2.5024 0.9785
-1.8911 -4.4377 -2.5025 0.9785
-1.2505 -4.6597 -2.5029 0.9785
-0.9676 -4.7268 -2.5030 0.9785
-0.8725 -4.7454 -2.5031 0.9785
-0.7770 -4.7621 -2.5031 0.9785
-0.1017 -4.8247 -2.5035 0.9785
0.1891 -4.8223 -2.5036 0.9785
0.2860 -4.8176 -2.5037 0.9785
0.4793 -4.8024 -2.5038 0.9785
0.9586 -4.7305 -2.5040 0.9785
1.0535 -4.7104 -2.5040 0.9785
1.1479 -4.6883 -2.5041 0.9785
1.3354 -4.6386 -2.5041 0.9785
1.4283 -4.6109 -2.5042 0.9785
1.5207 -4.5813 -2.5042 0.9785
1.6124 -4.5499 -2.5042 0.9785
1.8837 -4.4446 -2.5043 0.9785
2.0608 -4.3655 -2.5044 0.9785
2.2345 -4.2793 -2.5044 0.9785
2.4047 -4.1861 -2.5045 0.9785
2.4883 -4.1370 -2.5045 0.9785
2.6526 -4.0338 -2.5045 0.9785
2.7331 -3.9797 -2.5046 0.9785
2.8125 -3.9240 -2.5046 0.9785
3.1186 -3.6856 -2.5047 0.9785
3.2641 -3.5574 -2.5047 0.9785
3.4045 -3.4234 -2.5047 0.9785
3.4726 -3.3544 -2.5047 0.9785
3.7915 -2.9892 -2.5047 0.9785
4.0192 -2.6751 -2.5047 0.9785
4.1235 -2.5115 -2.5047 0.9785
4.1731 -2.4281 -2.5047 0.9785
4.2210 -2.3438 -2.5047 0.9785
4.2672 -2.2585 -2.5047 0.9785
4.3117 -2.1723 -2.5047 0.9785
4.3545 -2.0852 -2.5047 0.9785
4.3955 -1.9973 -2.5047 0.9785
4.5735 -1.5464 -2.5046 0.9785
4.6319 -1.3614 -2.5046 0.9785
4.6583 -1.2680 -2.5045 0.9785
4.7448 -0.8899 -2.5044 0.9785
4.7767 -0.6986 -2.5044 0.9785
4.7897 -0.6025 -2.5044 0.9785
4.8008 -0.5061 -2.5043 0.9785
4.8099 -0.4095 -2.5043 0.9785
4.8224 -0.2160 -2.5042 0.9785
4.8239 0.1719 -2.5041 0.9785
4.8129 0.3655 -2.5040 0.9785
4.7942 0.5586 -2.5040 0.9785
4.7819 0.6548 -2.5039 0.9785
4.7516 0.8463 -2.5038 0.9785
4.7336 0.9416 -2.5038 0.9785
4.7136 1.0365 -2.5037 0.9785
4.6148 1.4115 -2.5036 0.9785
4.5542 1.5957 -2.5035 0.9785
4.4111 1.9560 -2.5033 0.9785
4.3288 2.1315 -2.5032 0.9785
4.2850 2.2180 -2.5031 0.9785
4.2395 2.3036 -2.5031 0.9785
4.0405 2.6363 -2.5028 0.9785
3.9866 2.7169 -2.5028 0.9785
3.8741 2.8748 -2.5027 0.9785
3.8154 2.9519 -2.5026 0.9785
3.6936 3.1027 -2.5025 0.9785
3.5658 3.2484 -2.5024 0.9785
3.1488 3.6532 -2.5021 0.9785
2.9994 3.7766 -2.5019 0.9785
2.9228 3.8360 -2.5019 0.9785
2.8451 3.8939 -2.5018 0.9785
2.6863 4.0048 -2.5017 0.9785
2.1848 4.2982 -2.5014 0.9785
2.0103 4.3823 -2.5012 0.9785
1.8325 4.4593 -2.5011 0.9785
1.7425 4.4951 -2.5011 0.9785
1.6518 4.5292 -2.5010 0.9785
1.4685 4.5917 -2.5009 0.9785
1.3759 4.6201 -2.5008 0.9785
1.1891 4.6715 -2.5007 0.9785
1.0950 4.6943 -2.5007 0.9785
0.9055 4.7343 -2.5006 0.9785
0.8102 4.7514 -2.5005 0.9785
0.7145 4.7667 -2.5005 0.9785
0.4261 4.8008 -2.5003 0.9785
0.2328 4.8138 -2.5002 0.9785
-0.1544 4.8166 -2.5000 0.9785
-0.2511 4.8124 -2.5000 0.9785
-0.4442 4.7983 -2.4999 0.9785
-0.5405 4.7883 -2.4999 0.9785
-0.8280 4.7468 -2.4997 0.9785
-2.3799 3.8934 -2.4993 0.9794
-2.4576 3.8448 -2.4993 0.9794
-2.6101 3.7429 -2.4992 0.9794
-2.7583 3.6350 -2.4992 0.9794
-2.8308 3.5788 -2.4992 0.9794
-2.9021 3.5212 -2.4992 0.9794
-2.9722 3.4621 -2.4991 0.9794
-3.0412 3.4017 -2.4991 0.9794
-3.1089 3.3399 -2.4991 0.9794
-3.1754 3.2768 -2.4991 0.9794
-3.3044 3.1465 -2.4991 0.9794
-3.4879 2.9417 -2.4991 0.9794
-3.5463 2.8711 -2.4991 0.9794
-3.6033 2.7992 -2.4991 0.9794
-3.6588 2.7263 -2.4991 0.9794
-3.7128 2.6522 -2.4991 0.9794
-3.7654 2.5771 -2.4991 0.9794
-3.9138 2.3456 -2.4991 0.9794
-3.9602 2.2665 -2.4991 0.9794
-4.0895 2.0238 -2.4991 0.9794
-4.1676 1.8579 -2.4991 0.9794
-4.3330 1.4306 -2.4992 0.9794
-4.3609 1.3433 -2.4992 0.9794
-4.4114 1.1670 -2.4993 0.9794
-4.4340 1.0781 -2.4993 0.9794
-4.4548 0.9889 -2.4993 0.9794
-4.5560 0.2631 -2.4995 0.9794
-4.5627 -0.1035 -2.4996 0.9794
-4.5597 -0.1952 -2.4997 0.9794
-4.5399 -0.4695 -2.4998 0.9794
-4.5296 -0.5606 -2.4998 0.9794
-4.5175 -0.6515 -2.4999 0.9794
-4.5036 -0.7422 -2.4999 0.9794
-4.4878 -0.8325 -2.4999 0.9794
-4.4703 -0.9225 -2.5000 0.9794
-4.4509 -1.0122 -2.5000 0.9794
-4.4298 -1.1014 -2.5001 0.9794
-4.4068 -1.1902 -2.5001 0.9794
-4.3556 -1.3663 -2.5002 0.9794
-4.3273 -1.4536 -2.5002 0.9794
-4.2973 -1.5403 -2.5003 0.9794
-4.2321 -1.7117 -2.5004 0.9794
-4.0814 -2.0461 -2.5006 0.9794
-4.0395 -2.1278 -2.5006 0.9794
-3.9509 -2.2884 -2.5007 0.9794
-3.9042 -2.3674 -2.5008 0.9794
-3.8560 -2.4454 -2.5008 0.9794
-3.8061 -2.5224 -2.5009 0.9794
-3.7548 -2.5984 -2.5009 0.9794
-3.7019 -2.6734 -2.5010 0.9794
-3.5916 -2.8201 -2.5011 0.9794
-3.5343 -2.8917 -2.5011 0.9794
-3.4756 -2.9622 -2.5012 0.9794
-3.4155 -3.0315 -2.5012 0.9794
-3.2268 -3.2320 -2.5014 0.9794
-2.9572 -3.4809 -2.5016 0.9794
-2.8867 -3.5397 -2.5017 0.9794
-2.8151 -3.5971 -2.5017 0.9794
-2.5935 -3.7604 -2.5019 0.9794
-2.5174 -3.8118 -2.5020 0.9794
-2.4404 -3.8617 -2.5020 0.9794
-2.2035 -4.0020 -2.5022 0.9794
-2.0410 -4.0875 -2.5023 0.9794
-1.9585 -4.1277 -2.5023 0.9794
-1.7912 -4.2033 -2.5025 0.9794
-1.5348 -4.3038 -2.5026 0.9794
-1.4481 -4.3339 -2.5027 0.9794
-1.3607 -4.3621 -2.5027 0.9794
-1.1844 -4.4135 -2.5028 0.9794
-1.0062 -4.4577 -2.5029 0.9794
-0.9165 -4.4771 -2.5030 0.9794
-0.8264 -4.4947 -2.5030 0.9794
-0.7359 -4.5105 -2.5031 0.9794
-0.6451 -4.5244 -2.5031 0.9794
-0.4629 -4.5469 -2.5032 0.9794
0.0873 -4.5701 -2.5035 0.9794
0.1791 -4.5675 -2.5035 0.9794
0.4540 -4.5486 -2.5037 0.9794
0.5453 -4.5386 -2.5037 0.9794
0.8177 -4.4978 -2.5038 0.9794
0.9978 -4.4614 -2.5039 0.9794
1.3528 -4.3671 -2.5040 0.9794
1.5272 -4.3094 -2.5041 0.9794
1.6992 -4.2446 -2.5042 0.9794
1.7841 -4.2097 -2.5042 0.9794
1.9518 -4.1347 -2.5042 0.9794
2.0345 -4.0947 -2.5043 0.9794
2.1164 -4.0531 -2.5043 0.9794
2.5123 -3.8205 -2.5044 0.9794
2.5886 -3.7693 -2.5044 0.9794
2.7380 -3.6623 -2.5045 0.9794
2.8110 -3.6066 -2.5045 0.9794
2.9537 -3.4908 -2.5045 0.9794
3.0232 -3.4307 -2.5045 0.9794
3.1587 -3.3066 -2.5045 0.9794
3.2245 -3.2424 -2.5045 0.9794
3.2890 -3.1770 -2.5046 0.9794
3.4744 -2.9731 -2.5046 0.9794
3.5334 -2.9027 -2.5046 0.9794
3.5911 -2.8312 -2.5046 0.9794
3.6472 -2.7584 -2.5046 0.9794
3.7551 -2.6097 -2.5046 0.9794
3.8068 -2.5337 -2.5046 0.9794
3.8569 -2.4567 -2.5046 0.9794
3.9979 -2.2199 -2.5046 0.9794
4.0416 -2.1391 -2.5045 0.9794
4.0838 -2.0575 -2.5045 0.9794
4.1631 -1.8917 -2.5045 0.9794
4.2002 -1.8077 -2.5045 0.9794
4.3015 -1.5514 -2.5045 0.9794
4.3317 -1.4646 -2.5044 0.9794
4.3870 -1.2894 -2.5044 0.9794
4.4120 -1.2010 -2.5044 0.9794
4.4762 -0.9330 -2.5043 0.9794
4.5100 -0.7524 -2.5043 0.9794
4.5365 -0.5706 -2.5042 0.9794
4.5556 -0.3879 -2.5042 0.9794
4.5713 0.0710 -2.5040 0.9794
4.5689 0.1628 -2.5040 0.9794
4.5646 0.2546 -2.5039 0.9794
4.5506 0.4377 -2.5039 0.9794
4.5157 0.7110 -2.5038 0.9794
4.4834 0.8918 -2.5037 0.9794
4.4438 1.0712 -2.5036 0.9794
4.2823 1.5977 -2.5033 0.9794
4.2492 1.6834 -2.5033 0.9794
4.2145 1.7684 -2.5032 0.9794
4.1399 1.9362 -2.5031 0.9794
3.8765 2.4197 -2.5028 0.9794
3.7235 2.6487 -2.5027 0.9794
3.5569 2.8680 -2.5025 0.9794
3.3149 3.1440 -2.5023 0.9794
3.2510 3.2099 -2.5023 0.9794
3.1858 3.2745 -2.5022 0.9794
3.1193 3.3378 -2.5022 0.9794
3.0515 3.3997 -2.5021 0.9794
2.9825 3.4603 -2.5020 0.9794
2.7685 3.6334 -2.5019 0.9794
2.6202 3.7415 -2.5018 0.9794
2.5444 3.7933 -2.5017 0.9794
2.3111 3.9395 -2.5015 0.9794
2.2314 3.9850 -2.5015 0.9794
2.1509 4.0289 -2.5014 0.9794
1.9872 4.1119 -2.5013 0.9794
1.9041 4.1509 -2.5013 0.9794
1.8203 4.1882 -2.5012 0.9794
1.3033 4.3762 -2.5009 0.9794
1.1263 4.4249 -2.5008 0.9794
1.0372 4.4465 -2.5007 0.9794
0.8577 4.4844 -2.5006 0.9794
0.7674 4.5006 -2.5006 0.9794
0.5860 4.5277 -2.5005 0.9794
0.4949 4.5384 -2.5004 0.9794
0.4036 4.5474 -2.5004 0.9794
-0.1462 4.5624 -2.5001 0.9794
-0.2379 4.5585 -2.5001 0.9794
-0.4208 4.5451 -2.5000 0.9794
-0.6030 4.5244 -2.4999 0.9794
-0.6938 4.5113 -2.4999 0.9794
-0.7843 4.4963 -2.4998 0.9794
-0.8744 4.4796 -2.4998 0.9794
-1.0537 4.4407 -2.4997 0.9794
-2.2578 3.6937 -2.4994 0.9802
-2.3316 3.6476 -2.4994 0.9802
-2.4044 3.6000 -2.4994 0.9802
-2.4762 3.5509 -2.4994 0.9802
-2.5470 3.5004 -2.4993 0.9802
-2.6856 3.3952 -2.4993 0.9802
-2.9494 3.1686 -2.4993 0.9802
-3.0125 3.1087 -2.4993 0.9802
-3.1942 2.9215 -2.4992 0.9802
-3.4185 2.6556 -2.4992 0.9802
-3.5224 2.5162 -2.4992 0.9802
-3.5722 2.4449 -2.4992 0.9802
-3.6206 2.3726 -2.4992 0.9802
-3.6676 2.2994 -2.4992 0.9802
-3.7130 2.2253 -2.4992 0.9802
-3.7570 2.1502 -2.4992 0.9802
-3.7995 2.0743 -2.4992 0.9802
-3.8798 1.9200 -2.4993 0.9802
-3.9176 1.8417 -2.4993 0.9802
-3.9884 1.6828 -2.4993 0.9802
-4.0826 1.4395 -2.4993 0.9802
-4.1851 1.1071 -2.4994 0.9802
-4.2066 1.0228 -2.4994 0.9802
-4.2606 0.7676 -2.4995 0.9802
-4.2752 0.6818 -2.4995 0.9802
-4.3289 0.0758 -2.4997 0.9802
-4.3296 -0.0112 -2.4997 0.9802
-4.3213 -0.2720 -2.4998 0.9802
-4.3070 -0.4454 -2.4999 0.9802
-4.2725 -0.7041 -2.5000 0.9802
-4.2576 -0.7898 -2.5000 0.9802
-4.2225 -0.9603 -2.5001 0.9802
-4.2025 -1.0449 -2.5002 0.9802
-4.1572 -1.2129 -2.5002 0.9802
-4.1053 -1.3790 -2.5003 0.9802
-3.9466 -1.7839 -2.5005 0.9802
-3.8322 -2.0186 -2.5007 0.9802
-3.7481 -2.1710 -2.5008 0.9802
-3.7038 -2.2459 -2.5008 0.9802
-3.6580 -2.3199 -2.5009 0.9802
-3.5620 -2.4651 -2.5010 0.9802
-3.5119 -2.5362 -2.5010 0.9802
-3.4603 -2.6063 -2.5011 0.9802
-3.3529 -2.7433 -2.5012 0.9802
-3.2972 -2.8102 -2.5012 0.9802
-3.1221 -3.0039 -2.5014 0.9802
-3.0612 -3.0661 -2.5014 0.9802
-2.9990 -3.1270 -2.5015 0.9802
-2.7385 -3.3580 -2.5017 0.9802
-2.6015 -3.4654 -2.5018 0.9802
-2.5314 -3.5171 -2.5018 0.9802
-2.2411 -3.7092 -2.5021 0.9802
-2.0903 -3.7964 -2.5022 0.9802
-1.9362 -3.8775 -2.5023 0.9802
-1.8579 -3.9157 -2.5023 0.9802
-1.7789 -3.9523 -2.5024 0.9802
-1.6992 -3.9874 -2.5024 0.9802
-1.6188 -4.0208 -2.5025 0.9802
-1.4560 -4.0827 -2.5026 0.9802
-1.2908 -4.1381 -2.5027 0.9802
-1.1236 -4.1868 -2.5028 0.9802
-0.9545 -4.2287 -2.5029 0.9802
-0.7839 -4.2638 -2.5030 0.9802
-0.6981 -4.2788 -2.5030 0.9802
-0.6120 -4.2920 -2.5031 0.9802
-0.4391 -4.3133 -2.5031 0.9802
-0.3524 -4.3213 -2.5032 0.9802
-0.0914 -4.3349 -2.5033 0.9802
-0.0043 -4.3360 -2.5034 0.9802
0.4306 -4.3149 -2.5036 0.9802
0.5173 -4.3054 -2.5036 0.9802
0.6037 -4.2942 -2.5036 0.9802
0.9465 -4.2321 -2.5038 0.9802
1.1158 -4.1908 -2.5039 0.9802
1.1998 -4.1676 -2.5039 0.9802
1.2833 -4.1427 -2.5039 0.9802
1.4487 -4.0879 -2.5040 0.9802
1.6118 -4.0265 -2.5040 0.9802
1.6924 -3.9933 -2.5041 0.9802
1.8515 -3.9222 -2.5041 0.9802
1.9300 -3.8843 -2.5041 0.9802
2.0076 -3.8447 -2.5042 0.9802
2.1605 -3.7610 -2.5042 0.9802
2.4556 -3.5756 -2.5043 0.9802
2.7348 -3.3670 -2.5044 0.9802
2.9963 -3.1366 -2.5044 0.9802
3.0587 -3.0758 -2.5044 0.9802
3.1199 -3.0137 -2.5044 0.9802
3.1798 -2.9504 -2.5044 0.9802
3.4065 -2.6856 -2.5044 0.9802
3.4597 -2.6167 -2.5044 0.9802
3.7047 -2.2565 -2.5044 0.9802
3.7493 -2.1816 -2.5044 0.9802
3.7924 -2.1058 -2.5044 0.9802
3.8339 -2.0292 -2.5044 0.9802
3.9123 -1.8735 -2.5044 0.9802
4.0500 -1.5533 -2.5043 0.9802
4.0804 -1.4716 -2.5043 0.9802
4.1361 -1.3065 -2.5043 0.9802
4.2072 -1.0549 -2.5042 0.9802
4.2275 -0.9702 -2.5042 0.9802
4.2461 -0.8850 -2.5042 0.9802
4.2630 -0.7996 -2.5042 0.9802
4.3033 -0.5413 -2.5041 0.9802
4.3357 -0.1069 -2.5040 0.9802
4.3364 0.0673 -2.5039 0.9802
4.3341 0.1544 -2.5039 0.9802
4.3243 0.3284 -2.5038 0.9802
4.3167 0.4152 -2.5038 0.9802
4.3075 0.5019 -2.5037 0.9802
4.1464 1.2682 -2.5034 0.9802
4.1200 1.3512 -2.5033 0.9802
4.0919 1.4337 -2.5033 0.9802
4.0622 1.5156 -2.5033 0.9802
4.0309 1.5969 -2.5032 0.9802
3.9272 1.8367 -2.5031 0.9802
3.8894 1.9152 -2.5030 0.9802
