ply
format ascii 1.0
element vertex 1565
property float32 x
property float32 y
property float32 z
property float32 I
end_header
-13.4820 -16.8122 -2.0689 0.9170
-12.9388 -16.8166 -2.0371 0.9183
-12.4119 -16.8209 -2.0069 0.9194
-11.4026 -16.8291 -1.9516 0.9216
-10.9181 -16.8331 -1.9262 0.9225
-10.4459 -16.8369 -1.9023 0.9235
-9.9851 -16.8407 -1.8796 0.9243
-9.5350 -16.8444 -1.8583 0.9252
-9.0948 -16.8479 -1.8381 0.9259
-8.6220 -16.7700 -1.8103 0.9270
-8.5347 -17.4545 -1.8653 0.9249
-7.2659 -17.4535 -1.8150 0.9268
-7.8507 -19.9811 -2.0610 0.9173
-6.0640 -17.4657 -1.7750 0.9284
-7.1270 -21.9411 -2.2148 0.9115
-5.7096 -18.8596 -1.8918 0.9239
-5.3308 -18.9756 -1.8923 0.9239
-4.2145 -24.0669 -2.3457 0.9065
-3.2447 -24.2238 -2.3464 0.9065
-2.7575 -24.2878 -2.3467 0.9064
-1.4001 -19.1857 -1.8468 0.9256
-1.1171 -21.1587 -2.0342 0.9184
-0.2654 -21.1580 -2.0314 0.9185
0.5295 -19.1355 -1.8378 0.9260
2.8121 -25.9197 -2.5030 0.9005
3.3331 -25.8617 -2.5034 0.9005
4.3711 -25.7144 -2.5041 0.9005
5.9156 -25.4153 -2.5052 0.9005
7.4398 -25.0233 -2.5063 0.9004
8.9382 -24.5399 -2.5074 0.9004
9.4309 -24.3587 -2.5077 0.9004
9.9200 -24.1675 -2.5081 0.9003
10.8864 -23.7558 -2.5087 0.9003
11.3632 -23.5353 -2.5091 0.9003
11.8356 -23.3053 -2.5094 0.9003
12.7661 -22.8168 -2.5101 0.9003
13.2198 -22.5514 -2.5096 0.9003
13.6258 -22.2085 -2.5014 0.9006
13.6463 -21.2705 -2.4262 0.9034
13.6776 -20.4050 -2.3584 0.9060
14.4740 -19.8213 -2.3563 0.9061
14.7993 -19.4342 -2.3452 0.9065
14.3456 -17.3451 -2.1610 0.9135
16.7843 -17.9685 -2.3606 0.9059
17.8425 -16.9297 -2.3614 0.9059
18.1811 -16.5694 -2.3616 0.9059
18.5123 -16.2022 -2.3618 0.9059
18.8361 -15.8284 -2.3621 0.9059
19.4608 -15.0614 -2.3625 0.9058
20.0541 -14.2696 -2.3630 0.9058
20.3387 -13.8649 -2.3632 0.9058
21.1425 -12.6170 -2.3637 0.9058
21.3936 -12.1904 -2.3639 0.9058
21.6359 -11.7588 -2.3641 0.9058
21.8695 -11.3223 -2.3643 0.9058
24.9305 -8.1763 -2.5189 0.8999
25.0910 -7.6738 -2.5190 0.8999
25.3814 -6.6598 -2.5192 0.8999
25.5111 -6.1485 -2.5193 0.8999
25.7394 -5.1185 -2.5195 0.8999
25.9259 -4.0800 -2.5196 0.8999
26.0702 -3.0348 -2.5198 0.8999
26.1263 -2.5103 -2.5198 0.8999
26.1720 -1.9846 -2.5199 0.8999
26.2448 -0.4037 -2.5199 0.8999
26.2477 0.1240 -2.5199 0.8999
26.2215 1.1788 -2.5199 0.8999
26.1924 1.7057 -2.5199 0.8999
26.1526 2.2318 -2.5199 0.8999
25.9694 3.8038 -2.5198 0.8999
25.7945 4.8443 -2.5197 0.8999
25.6912 5.3617 -2.5196 0.8999
25.4534 6.3896 -2.5195 0.8999
25.1412 7.3972 -2.5160 0.9000
23.3399 7.8996 -2.3656 0.9057
22.8180 9.2905 -2.3653 0.9057
22.4237 10.1990 -2.3650 0.9058
21.9929 11.0907 -2.3647 0.9058
21.0252 12.8178 -2.3641 0.9058
18.0601 13.1095 -2.1425 0.9142
17.5390 13.2776 -2.1119 0.9154
16.9400 13.3681 -2.0717 0.9169
14.3459 13.3244 -1.8797 0.9243
13.6070 13.1574 -1.8172 0.9268
12.8105 13.4247 -1.7815 0.9281
12.5410 13.6826 -1.7819 0.9281
12.0860 13.7304 -1.7561 0.9291
11.1995 13.8047 -1.7066 0.9311
10.4056 13.3665 -1.6263 0.9342
9.4505 13.2019 -1.5587 0.9368
8.7884 13.3825 -1.5371 0.9377
7.9305 13.8263 -1.5302 0.9380
6.6733 13.4536 -1.4418 0.9414
5.9944 13.4139 -1.4105 0.9427
5.6015 13.2430 -1.3804 0.9439
5.2916 13.2464 -1.3694 0.9443
4.7469 13.4257 -1.3671 0.9444
4.4525 13.4473 -1.3599 0.9447
-20.9074 -1.0589 -2.4867 0.9191
-20.8482 -1.8984 -2.4867 0.9191
-20.8060 -2.3171 -2.4867 0.9191
-20.6966 -3.1516 -2.4868 0.9191
-20.5539 -3.9810 -2.4869 0.9191
-20.4702 -4.3935 -2.4869 0.9191
-20.3782 -4.8041 -2.4870 0.9191
-20.2781 -5.2129 -2.4871 0.9191
-20.1698 -5.6196 -2.4871 0.9191
-20.0533 -6.0241 -2.4872 0.9191
-19.9288 -6.4262 -2.4873 0.9191
-19.6559 -7.2225 -2.4875 0.9191
-19.5075 -7.6165 -2.4876 0.9191
-18.8361 -9.1604 -2.4880 0.9191
-18.0434 -10.6460 -2.4886 0.9191
-17.3527 -11.2024 -2.4535 0.9202
-15.8604 -11.6508 -2.3377 0.9238
-14.6166 -13.1883 -2.3385 0.9238
-14.3497 -13.4805 -2.3387 0.9238
-13.5145 -14.3244 -2.3393 0.9237
-13.2250 -14.5944 -2.3395 0.9237
-12.6299 -15.1168 -2.3399 0.9237
-11.0545 -16.3154 -2.3410 0.9237
-10.7254 -16.5359 -2.3412 0.9237
-9.9851 -16.8407 -2.3256 0.9242
-9.5350 -16.8444 -2.2992 0.9250
-9.0948 -16.8479 -2.2743 0.9258
-8.6220 -16.7700 -2.2399 0.9269
-8.5347 -17.4545 -2.3079 0.9247
-8.1058 -17.4580 -2.2864 0.9254
-7.6846 -17.4614 -2.2661 0.9260
-6.8536 -17.4432 -2.2262 0.9273
-6.4531 -17.4464 -2.2096 0.9278
-6.0584 -17.4497 -2.1941 0.9283
-5.3392 -19.0055 -2.3450 0.9236
-4.9566 -19.1112 -2.3453 0.9236
-4.5720 -19.2092 -2.3455 0.9235
-4.1854 -19.2994 -2.3458 0.9235
-3.4071 -19.4566 -2.3463 0.9235
-2.6230 -19.5824 -2.3469 0.9235
-1.4385 -19.7119 -2.3477 0.9235
-0.6452 -19.7585 -2.3483 0.9235
-0.2480 -19.7698 -2.3486 0.9234
0.1467 -19.3968 -2.3041 0.9248
0.5317 -19.2144 -2.2833 0.9255
1.0044 -21.0120 -2.4988 0.9188
1.8508 -20.9852 -2.5024 0.9186
3.5321 -20.7786 -2.5036 0.9186
3.9495 -20.7058 -2.5039 0.9186
4.3654 -20.6247 -2.5042 0.9186
5.1921 -20.4373 -2.5048 0.9186
6.0107 -20.2168 -2.5054 0.9186
6.4166 -20.0942 -2.5057 0.9185
6.8200 -19.9634 -2.5059 0.9185
7.2207 -19.8246 -2.5062 0.9185
8.4052 -19.3598 -2.5071 0.9185
10.3110 -18.4287 -2.5084 0.9185
11.0457 -18.0031 -2.5089 0.9184
11.7627 -17.5482 -2.5095 0.9184
12.4610 -17.0647 -2.5100 0.9184
13.4707 -16.2873 -2.5107 0.9184
13.7967 -16.0148 -2.5109 0.9184
14.1148 -15.7331 -2.5107 0.9184
15.5861 -14.2045 -2.5049 0.9186
15.8693 -13.8891 -2.5051 0.9186
16.4240 -13.2474 -2.5065 0.9185
16.6966 -12.9221 -2.5079 0.9185
17.7216 -11.5660 -2.5137 0.9183
18.1746 -10.8458 -2.5141 0.9183
18.7986 -9.7325 -2.5145 0.9183
18.9915 -9.3532 -2.5147 0.9183
19.6854 -7.7991 -2.5152 0.9182
19.8391 -7.4022 -2.5153 0.9182
20.1223 -6.5994 -2.5155 0.9182
20.2517 -6.1938 -2.5156 0.9182
20.5903 -4.9625 -2.5159 0.9182
20.7743 -4.1312 -2.5160 0.9182
20.8537 -3.7128 -2.5161 0.9182
20.9245 -3.2930 -2.5161 0.9182
21.0408 -2.4494 -2.5162 0.9182
21.1228 -1.6017 -2.5163 0.9182
21.1705 -0.7515 -2.5163 0.9182
21.1815 -0.3258 -2.5164 0.9182
21.1838 0.1000 -2.5164 0.9182
21.1627 0.9514 -2.5164 0.9182
21.1071 1.8012 -2.5163 0.9182
21.0665 2.2251 -2.5163 0.9182
20.9595 3.0700 -2.5163 0.9182
20.8932 3.4906 -2.5162 0.9182
20.8184 3.9098 -2.5162 0.9182
20.7352 4.3274 -2.5161 0.9182
20.6435 4.7432 -2.5161 0.9182
20.5435 5.1570 -2.5160 0.9182
20.4351 5.5688 -2.5159 0.9182
20.0604 6.7896 -2.5157 0.9182
17.9296 8.5940 -2.3618 0.9230
17.7523 8.9522 -2.3617 0.9230
14.5090 8.0639 -1.9718 0.9353
16.9721 10.3469 -2.3612 0.9231
16.5405 11.0193 -2.3609 0.9231
16.3146 11.3488 -2.3607 0.9231
16.0821 11.6737 -2.3606 0.9231
15.5977 12.3089 -2.3602 0.9231
15.3460 12.6190 -2.3600 0.9231
15.0881 12.9240 -2.3599 0.9231
14.8241 13.2236 -2.3597 0.9231
14.3459 13.3244 -2.3257 0.9242
13.2468 13.3346 -2.2327 0.9271
12.4999 13.6378 -2.1975 0.9282
11.4810 13.5841 -2.1127 0.9309
10.8848 13.4168 -2.0523 0.9328
10.4056 13.3665 -2.0121 0.9340
9.8544 13.1974 -1.9565 0.9358
9.4504 13.2019 -1.9286 0.9367
9.1756 13.3782 -1.9270 0.9367
8.7884 13.3825 -1.9018 0.9375
8.4216 13.4036 -1.8803 0.9382
7.6928 13.4118 -1.8366 0.9396
7.4670 13.6467 -1.8478 0.9393
6.6677 13.4422 -1.7824 0.9413
6.3192 13.4102 -1.7609 0.9420
5.6015 13.2430 -1.7080 0.9437
5.0515 13.4223 -1.7036 0.9439
-17.5446 -0.8886 -2.4891 0.9315
-17.4595 -1.9444 -2.4891 0.9315
-17.3676 -2.6446 -2.4892 0.9315
-17.1774 -3.6867 -2.4893 0.9315
-16.9251 -4.7156 -2.4894 0.9315
-16.8273 -5.0550 -2.4895 0.9315
-16.7227 -5.3924 -2.4896 0.9315
-16.6115 -5.7276 -2.4896 0.9315
-16.3689 -6.3910 -2.4898 0.9315
-16.2377 -6.7190 -2.4899 0.9315
-16.1000 -7.0443 -2.4900 0.9315
-15.4847 -8.3161 -2.4904 0.9315
-14.7696 -9.5348 -2.4909 0.9314
-14.3760 -10.1218 -2.4912 0.9314
-14.1704 -10.4094 -2.4913 0.9314
-13.9591 -10.6927 -2.4914 0.9314
-13.4581 -11.1952 -2.4804 0.9317
-12.9335 -11.2063 -2.4247 0.9332
-12.0387 -11.3095 -2.3404 0.9354
-11.0945 -12.2433 -2.3410 0.9354
-10.8470 -12.4647 -2.3412 0.9354
-10.5950 -12.6812 -2.3414 0.9354
-10.3387 -12.8926 -2.3416 0.9354
-8.7166 -14.0496 -2.3427 0.9354
-8.4331 -14.2232 -2.3429 0.9354
-8.1462 -14.3911 -2.3431 0.9354
-7.2660 -14.8598 -2.3437 0.9354
-6.6640 -15.1425 -2.3441 0.9353
-6.3589 -15.2748 -2.3443 0.9353
-4.7964 -15.8431 -2.3454 0.9353
-3.8339 -16.1080 -2.3461 0.9353
-3.5097 -16.1834 -2.3463 0.9353
-3.1840 -16.2523 -2.3465 0.9353
-2.8569 -16.3146 -2.3468 0.9353
-2.5287 -16.3703 -2.3470 0.9353
-1.8690 -16.4620 -2.3475 0.9353
-1.2061 -16.5271 -2.3479 0.9352
-0.8737 -16.5496 -2.3482 0.9352
-0.2079 -16.5747 -2.3486 0.9352
0.4807 -17.3726 -2.4624 0.9322
1.1975 -17.6178 -2.5020 0.9311
1.5516 -17.5919 -2.5023 0.9311
2.2578 -17.5188 -2.5028 0.9311
2.6098 -17.4716 -2.5030 0.9311
2.9607 -17.4174 -2.5033 0.9311
3.3106 -17.3561 -2.5035 0.9311
4.6958 -17.0408 -2.5045 0.9311
5.0378 -16.9445 -2.5047 0.9311
5.3779 -16.8415 -2.5050 0.9311
5.7159 -16.7316 -2.5052 0.9311
6.0517 -16.6149 -2.5054 0.9311
6.3850 -16.4915 -2.5057 0.9310
7.0440 -16.2245 -2.5062 0.9310
7.3694 -16.0812 -2.5064 0.9310
8.0112 -15.7748 -2.5068 0.9310
9.2557 -15.0857 -2.5077 0.9310
9.5579 -14.8979 -2.5079 0.9310
9.8563 -14.7040 -2.5082 0.9310
10.1507 -14.5042 -2.5084 0.9310
10.4410 -14.2984 -2.5086 0.9310
11.2865 -13.6464 -2.5092 0.9310
11.8277 -13.1838 -2.5096 0.9309
12.0912 -12.9443 -2.5098 0.9309
12.3499 -12.6996 -2.5099 0.9309
13.7940 -11.1261 -2.5110 0.9309
14.0157 -10.8472 -2.5111 0.9309
14.2318 -10.5640 -2.5113 0.9309
14.8452 -9.6887 -2.5118 0.9309
15.4047 -8.7778 -2.5122 0.9309
15.5788 -8.4669 -2.5123 0.9309
15.7466 -8.1524 -2.5124 0.9309
15.9080 -7.8346 -2.5125 0.9309
16.0631 -7.5136 -2.5126 0.9309
16.2115 -7.1895 -2.5128 0.9309
16.3535 -6.8625 -2.5129 0.9309
16.6174 -6.2001 -2.5131 0.9309
16.7393 -5.8651 -2.5131 0.9309
17.1584 -4.5022 -2.5135 0.9308
17.2459 -4.1565 -2.5135 0.9308
17.3998 -3.4601 -2.5136 0.9308
17.5777 -2.4053 -2.5138 0.9308
17.6914 -1.3415 -2.5139 0.9308
17.7150 -0.9857 -2.5139 0.9308
17.7405 -0.2729 -2.5139 0.9308
17.7247 0.7969 -2.5139 0.9308
17.6782 1.5086 -2.5139 0.9308
17.6442 1.8636 -2.5139 0.9308
17.6030 2.2179 -2.5139 0.9308
17.5547 2.5712 -2.5138 0.9308
17.4366 3.2746 -2.5138 0.9308
17.2903 3.9727 -2.5137 0.9308
17.2066 4.3194 -2.5136 0.9308
17.0182 5.0072 -2.5135 0.9308
16.8023 5.6869 -2.5134 0.9308
16.6841 6.0233 -2.5133 0.9308
16.5591 6.3572 -2.5132 0.9308
16.4274 6.6885 -2.5131 0.9309
16.2890 7.0171 -2.5130 0.9309
15.2349 7.6827 -2.4176 0.9334
14.7155 7.7957 -2.3595 0.9349
14.4807 8.0481 -2.3474 0.9353
14.3889 8.3801 -2.3593 0.9349
14.0390 8.9507 -2.3591 0.9349
13.2718 10.0472 -2.3585 0.9350
13.0664 10.3113 -2.3584 0.9350
12.8557 10.5712 -2.3583 0.9350
12.1928 11.3246 -2.3578 0.9350
11.9619 11.5666 -2.3576 0.9350
11.7262 11.8039 -2.3575 0.9350
11.2407 12.2640 -2.3571 0.9350
10.9911 12.4865 -2.3570 0.9350
10.7371 12.7040 -2.3568 0.9350
10.2162 13.1233 -2.3564 0.9350
8.0557 13.4125 -2.2168 0.9387
7.8845 13.7460 -2.2453 0.9380
7.4777 13.6662 -2.2073 0.9390
7.0220 13.4694 -2.1522 0.9405
5.9944 13.4138 -2.0817 0.9424
5.2916 13.2464 -2.0211 0.9440
4.5416 13.7163 -2.0472 0.9433
-15.1002 -0.7648 -2.4908 0.9405
-15.0819 -1.0682 -2.4908 0.9405
-15.0574 -1.3711 -2.4908 0.9405
-15.0269 -1.6735 -2.4908 0.9405
-14.9904 -1.9752 -2.4908 0.9405
-14.8446 -2.8752 -2.4909 0.9405
-14.7840 -3.1731 -2.4910 0.9405
-14.7175 -3.4696 -2.4910 0.9405
-14.6451 -3.7649 -2.4911 0.9405
-14.5667 -4.0585 -2.4911 0.9405
-14.4825 -4.3506 -2.4912 0.9405
-14.3925 -4.6410 -2.4912 0.9405
-14.0878 -5.5004 -2.4914 0.9405
-13.9748 -5.7826 -2.4915 0.9405
-13.8562 -6.0625 -2.4916 0.9405
-13.6022 -6.6150 -2.4918 0.9405
-13.3263 -7.1569 -2.4919 0.9405
-13.1803 -7.4237 -2.4920 0.9405
-13.0289 -7.6874 -2.4921 0.9405
-12.8723 -7.9481 -2.4922 0.9405
-12.5436 -8.4598 -2.4925 0.9405
-12.0127 -9.2017 -2.4928 0.9405
-11.6344 -9.6782 -2.4931 0.9405
-11.4381 -9.9106 -2.4932 0.9405
-11.2372 -10.1391 -2.4934 0.9405
-11.0317 -10.3635 -2.4935 0.9405
-10.3717 -10.9932 -2.4898 0.9406
-10.1361 -11.1856 -2.4867 0.9406
-9.7522 -11.2067 -2.4473 0.9416
-8.6719 -11.2710 -2.3428 0.9440
-8.4442 -11.4438 -2.3429 0.9440
-7.7408 -11.9344 -2.3434 0.9440
-7.4998 -12.0884 -2.3436 0.9440
-7.2558 -12.2376 -2.3437 0.9440
-7.0089 -12.3819 -2.3439 0.9440
-6.7591 -12.5212 -2.3441 0.9439
-6.5066 -12.6555 -2.3443 0.9439
-5.4707 -13.1413 -2.3450 0.9439
-4.9389 -13.3526 -2.3454 0.9439
-4.6699 -13.4503 -2.3455 0.9439
-3.8517 -13.7106 -2.3461 0.9439
-3.5756 -13.7864 -2.3463 0.9439
-3.2980 -13.8567 -2.3465 0.9439
-2.7389 -13.9804 -2.3469 0.9439
-1.8918 -14.1236 -2.3475 0.9439
-1.6076 -14.1600 -2.3477 0.9439
-1.0484 -14.3667 -2.3731 0.9433
-0.4932 -15.1031 -2.4894 0.9406
0.1148 -15.1829 -2.5013 0.9403
0.4200 -15.1788 -2.5015 0.9403
0.7251 -15.1686 -2.5017 0.9403
1.0299 -15.1523 -2.5019 0.9403
1.3344 -15.1298 -2.5021 0.9403
1.9418 -15.0665 -2.5026 0.9403
2.8470 -14.9259 -2.5032 0.9403
3.7424 -14.7309 -2.5038 0.9402
4.0381 -14.6539 -2.5041 0.9402
4.6246 -14.4822 -2.5045 0.9402
5.2038 -14.2870 -2.5049 0.9402
5.7747 -14.0686 -2.5053 0.9402
6.0568 -13.9508 -2.5055 0.9402
6.6137 -13.6982 -2.5059 0.9402
7.1600 -13.4234 -2.5063 0.9402
7.6950 -13.1268 -2.5067 0.9402
7.9579 -12.9704 -2.5068 0.9402
8.2176 -12.8088 -2.5070 0.9402
8.9766 -12.2929 -2.5076 0.9402
9.9377 -11.5353 -2.5083 0.9401
10.1682 -11.3340 -2.5084 0.9401
10.3946 -11.1280 -2.5086 0.9401
10.6169 -10.9175 -2.5088 0.9401
11.2577 -10.2597 -2.5092 0.9401
11.4623 -10.0319 -2.5094 0.9401
11.8576 -9.5642 -2.5096 0.9401
12.0481 -9.3245 -2.5098 0.9401
12.4145 -8.8336 -2.5101 0.9401
12.5901 -8.5827 -2.5102 0.9401
12.7608 -8.3283 -2.5103 0.9401
13.2414 -7.5451 -2.5107 0.9401
13.6737 -6.7342 -2.5110 0.9401
13.9344 -6.1797 -2.5112 0.9401
14.0564 -5.8985 -2.5113 0.9401
14.1726 -5.6150 -2.5113 0.9401
14.4865 -4.7511 -2.5116 0.9401
14.5795 -4.4590 -2.5116 0.9401
14.8229 -3.5725 -2.5118 0.9401
14.9551 -2.9740 -2.5119 0.9401
15.0121 -2.6728 -2.5120 0.9401
15.0631 -2.3705 -2.5120 0.9401
15.1079 -2.0673 -2.5121 0.9401
15.1466 -1.7632 -2.5121 0.9401
15.2055 -1.1530 -2.5121 0.9401
15.2398 -0.5409 -2.5122 0.9401
15.2476 -0.2344 -2.5122 0.9401
15.2448 0.3785 -2.5122 0.9401
15.2341 0.6848 -2.5122 0.9401
15.1295 1.9063 -2.5121 0.9401
15.0404 2.5128 -2.5121 0.9401
14.9268 3.1152 -2.5120 0.9401
14.7890 3.7125 -2.5119 0.9401
14.6272 4.3037 -2.5118 0.9401
14.5374 4.5968 -2.5118 0.9401
14.4417 4.8879 -2.5117 0.9401
14.3402 5.1771 -2.5116 0.9401
14.0008 6.0314 -2.5114 0.9401
13.7461 6.5888 -2.5112 0.9401
13.6104 6.8635 -2.5111 0.9401
13.3066 7.3956 -2.5079 0.9402
12.6029 7.6832 -2.4316 0.9419
12.0795 7.7014 -2.3600 0.9436
11.9099 7.9344 -2.3576 0.9436
11.5802 8.4058 -2.3573 0.9436
11.4084 8.6365 -2.3572 0.9436
11.0509 9.0871 -2.3570 0.9436
10.8654 9.3069 -2.3568 0.9437
10.4814 9.7350 -2.3566 0.9437
10.2830 9.9432 -2.3564 0.9437
10.0804 10.1472 -2.3563 0.9437
9.8738 10.3472 -2.3562 0.9437
9.4488 10.7343 -2.3559 0.9437
9.2305 10.9214 -2.3557 0.9437
8.7829 11.2821 -2.3554 0.9437
8.5538 11.4556 -2.3552 0.9437
8.3212 11.6244 -2.3551 0.9437
8.0854 11.7885 -2.3549 0.9437
7.8462 11.9478 -2.3548 0.9437
7.6039 12.1023 -2.3546 0.9437
7.1103 12.3963 -2.3542 0.9437
6.6053 12.6702 -2.3539 0.9437
6.0898 12.9235 -2.3535 0.9437
5.5646 13.1557 -2.3532 0.9437
5.0305 13.3666 -2.3528 0.9437
4.7469 13.4257 -2.3459 0.9439
-13.2255 -0.9367 -2.4921 0.9475
-13.1773 -1.4675 -2.4921 0.9475
-13.1453 -1.7321 -2.4922 0.9475
-13.1079 -1.9960 -2.4922 0.9475
-13.0174 -2.5213 -2.4922 0.9475
-12.9643 -2.7825 -2.4923 0.9475
-12.9059 -3.0425 -2.4923 0.9475
-12.6207 -4.0696 -2.4925 0.9475
-12.5367 -4.3226 -2.4925 0.9475
-12.4475 -4.5738 -2.4926 0.9475
-12.3534 -4.8232 -2.4927 0.9475
-12.2543 -5.0707 -2.4927 0.9475
-11.8088 -6.0393 -2.4930 0.9474
-11.6854 -6.2757 -2.4931 0.9474
-11.4245 -6.7408 -2.4933 0.9474
-11.1452 -7.1951 -2.4935 0.9474
-10.6927 -7.8547 -2.4938 0.9474
-10.3692 -8.2788 -2.4940 0.9474
-10.0290 -8.6897 -2.4942 0.9474
-9.8528 -8.8900 -2.4944 0.9474
-9.6726 -9.0867 -2.4945 0.9474
-9.1088 -9.6546 -2.4949 0.9474
-8.9134 -9.8363 -2.4950 0.9474
-8.5118 -10.1878 -2.4953 0.9474
-8.3057 -10.3574 -2.4954 0.9474
-8.0963 -10.5228 -2.4956 0.9474
-7.6635 -10.8350 -2.4945 0.9474
-7.4375 -10.9771 -2.4923 0.9475
-7.2096 -11.1154 -2.4902 0.9475
-6.9673 -11.2301 -2.4841 0.9476
-6.6708 -11.2508 -2.4585 0.9482
-6.1220 -11.3409 -2.4224 0.9489
-5.8542 -11.3867 -2.4065 0.9492
-5.6004 -11.4535 -2.3964 0.9494
-5.0985 -11.5851 -2.3791 0.9498
-4.8590 -11.6719 -2.3764 0.9498
-4.3818 -11.8464 -2.3741 0.9499
-3.6842 -12.1694 -2.3899 0.9496
-3.4553 -12.2996 -2.4013 0.9493
-3.2247 -12.4335 -2.4143 0.9491
-2.9921 -12.5714 -2.4289 0.9488
-2.2872 -13.0609 -2.4923 0.9475
-2.0261 -13.1169 -2.4947 0.9474
-1.7638 -13.1679 -2.4972 0.9474
-1.2347 -13.2452 -2.5004 0.9473
-0.9683 -13.2683 -2.5006 0.9473
-0.7014 -13.2861 -2.5007 0.9473
-0.1669 -13.3055 -2.5011 0.9473
0.1006 -13.3072 -2.5013 0.9473
0.3681 -13.3035 -2.5015 0.9473
0.6355 -13.2944 -2.5017 0.9473
0.9027 -13.2800 -2.5019 0.9473
1.1695 -13.2601 -2.5021 0.9473
1.7018 -13.2044 -2.5024 0.9473
3.5387 -12.8419 -2.5037 0.9472
4.0526 -12.6911 -2.5041 0.9472
4.8112 -12.4264 -2.5046 0.9472
5.0603 -12.3281 -2.5048 0.9472
5.5525 -12.1164 -2.5052 0.9472
5.7953 -12.0032 -2.5053 0.9472
6.0358 -11.8851 -2.5055 0.9472
6.2739 -11.7622 -2.5057 0.9472
6.7426 -11.5020 -2.5060 0.9472
7.2003 -11.2232 -2.5063 0.9472
7.6466 -10.9261 -2.5067 0.9472
8.2927 -10.4473 -2.5071 0.9472
8.7070 -10.1068 -2.5074 0.9472
8.9089 -9.9303 -2.5076 0.9471
9.1072 -9.7498 -2.5077 0.9471
9.3019 -9.5653 -2.5078 0.9471
9.6799 -9.1847 -2.5081 0.9471
10.2174 -8.5859 -2.5085 0.9471
10.3884 -8.3792 -2.5086 0.9471
10.5553 -8.1691 -2.5088 0.9471
10.8761 -7.7390 -2.5090 0.9471
11.0299 -7.5191 -2.5091 0.9471
11.1793 -7.2962 -2.5092 0.9471
11.4645 -6.8415 -2.5094 0.9471
11.6002 -6.6100 -2.5095 0.9471
11.7312 -6.3757 -2.5096 0.9471
12.0954 -5.6577 -2.5099 0.9471
12.2071 -5.4136 -2.5100 0.9471
12.3138 -5.1673 -2.5100 0.9471
12.9849 -3.1295 -2.5105 0.9471
13.0454 -2.8680 -2.5106 0.9471
13.1506 -2.3414 -2.5107 0.9471
13.2344 -1.8110 -2.5107 0.9471
13.2968 -1.2776 -2.5108 0.9471
13.3568 -0.2054 -2.5108 0.9471
13.3582 0.0631 -2.5109 0.9471
13.2843 1.4031 -2.5108 0.9471
13.2533 1.6699 -2.5108 0.9471
13.2170 1.9359 -2.5108 0.9471
13.1753 2.2012 -2.5108 0.9471
13.1282 2.4655 -2.5107 0.9471
13.0758 2.7289 -2.5107 0.9471
12.9552 3.2521 -2.5106 0.9471
12.7349 4.0268 -2.5105 0.9471
12.6511 4.2819 -2.5104 0.9471
12.5622 4.5352 -2.5104 0.9471
12.3691 5.0362 -2.5102 0.9471
12.2650 5.2836 -2.5102 0.9471
12.1560 5.5289 -2.5101 0.9471
12.0421 5.7720 -2.5100 0.9471
11.2577 7.1774 -2.5095 0.9471
9.5191 8.1537 -2.3559 0.9503
9.1828 8.5289 -2.3556 0.9503
8.6507 9.0655 -2.3553 0.9503
8.2785 9.4048 -2.3550 0.9503
8.0873 9.5688 -2.3549 0.9503
7.6953 9.8850 -2.3546 0.9503
6.8748 10.4686 -2.3540 0.9503
6.0102 10.9841 -2.3534 0.9503
5.7878 11.1020 -2.3533 0.9503
5.1071 11.4283 -2.3528 0.9503
4.8760 11.5279 -2.3527 0.9503
4.6430 11.6228 -2.3525 0.9503
4.4081 11.7129 -2.3523 0.9503
4.1715 11.7983 -2.3522 0.9503
-11.7651 -0.8332 -2.4931 0.9529
-11.7460 -1.0696 -2.4931 0.9529
-11.6937 -1.5408 -2.4932 0.9529
-11.6604 -1.7756 -2.4932 0.9529
-11.6225 -2.0096 -2.4932 0.9529
-11.5799 -2.2429 -2.4932 0.9529
-11.4807 -2.7066 -2.4933 0.9529
-11.3630 -3.1659 -2.4934 0.9529
-11.2269 -3.6202 -2.4935 0.9529
-11.1521 -3.8452 -2.4935 0.9529
-11.0728 -4.0687 -2.4936 0.9529
-10.9890 -4.2905 -2.4936 0.9529
-10.8082 -4.7290 -2.4938 0.9529
-10.7113 -4.9454 -2.4938 0.9529
-10.5044 -5.3722 -2.4940 0.9529
-10.3946 -5.5824 -2.4940 0.9529
-10.2806 -5.7904 -2.4941 0.9529
-10.1625 -5.9961 -2.4942 0.9529
-9.5112 -6.9868 -2.4946 0.9529
-9.3692 -7.1768 -2.4947 0.9529
-9.2234 -7.3640 -2.4948 0.9529
-8.6036 -8.0825 -2.4953 0.9529
-8.4398 -8.2541 -2.4954 0.9529
-8.2726 -8.4225 -2.4955 0.9529
-7.9282 -8.7490 -2.4957 0.9529
-7.2012 -9.3594 -2.4962 0.9529
-6.4276 -9.9097 -2.4968 0.9529
-6.2274 -10.0375 -2.4969 0.9529
-6.0247 -10.1612 -2.4970 0.9529
-5.8196 -10.2809 -2.4972 0.9528
-5.6121 -10.3963 -2.4973 0.9528
-5.1903 -10.6148 -2.4976 0.9528
-4.3220 -11.0000 -2.4982 0.9528
-3.8769 -11.1662 -2.4985 0.9528
-3.6519 -11.2426 -2.4987 0.9528
-3.4254 -11.3145 -2.4989 0.9528
-2.9682 -11.4445 -2.4992 0.9528
-2.2735 -11.6048 -2.4997 0.9528
-2.0399 -11.6489 -2.4998 0.9528
-1.8055 -11.6884 -2.5000 0.9528
-0.3862 -11.8254 -2.5010 0.9528
0.0895 -11.8330 -2.5013 0.9528
0.3273 -11.8296 -2.5015 0.9528
0.5651 -11.8214 -2.5017 0.9528
1.0399 -11.7907 -2.5020 0.9528
1.5132 -11.7409 -2.5023 0.9528
2.4520 -11.5845 -2.5030 0.9527
2.6845 -11.5337 -2.5032 0.9527
3.1463 -11.4179 -2.5035 0.9527
3.3754 -11.3531 -2.5036 0.9527
3.8295 -11.2097 -2.5040 0.9527
4.0543 -11.1312 -2.5041 0.9527
4.4990 -10.9606 -2.5044 0.9527
4.7187 -10.8687 -2.5046 0.9527
5.7872 -10.3435 -2.5054 0.9527
6.1990 -10.1037 -2.5057 0.9527
6.4012 -9.9776 -2.5058 0.9527
6.6009 -9.8475 -2.5059 0.9527
6.7978 -9.7134 -2.5061 0.9527
6.9921 -9.5753 -2.5062 0.9527
7.3721 -9.2875 -2.5065 0.9527
7.7403 -8.9847 -2.5068 0.9527
8.2690 -8.5031 -2.5071 0.9527
9.0826 -7.6323 -2.5077 0.9527
9.3828 -7.2617 -2.5079 0.9527
9.5273 -7.0719 -2.5080 0.9526
9.8046 -6.6838 -2.5082 0.9526
9.9374 -6.4856 -2.5083 0.9526
10.0661 -6.2848 -2.5084 0.9526
10.1907 -6.0814 -2.5085 0.9526
10.4277 -5.6673 -2.5087 0.9526
10.6477 -5.2439 -2.5089 0.9526
10.7513 -5.0290 -2.5089 0.9526
11.2031 -3.9253 -2.5093 0.9526
11.2800 -3.6995 -2.5093 0.9526
11.4832 -3.0130 -2.5095 0.9526
11.5416 -2.7817 -2.5095 0.9526
11.5954 -2.5492 -2.5096 0.9526
11.6445 -2.3156 -2.5096 0.9526
11.6888 -2.0811 -2.5096 0.9526
11.7633 -1.6096 -2.5097 0.9526
11.8393 -0.8978 -2.5098 0.9526
11.8659 -0.4212 -2.5098 0.9526
11.8720 -0.1826 -2.5098 0.9526
11.8733 0.0561 -2.5098 0.9526
11.8614 0.5333 -2.5098 0.9526
11.8304 1.0096 -2.5098 0.9526
11.5711 2.6586 -2.5096 0.9526
11.5152 2.8907 -2.5096 0.9526
11.4546 3.1215 -2.5096 0.9526
11.3893 3.3510 -2.5095 0.9526
11.1660 4.0311 -2.5094 0.9526
11.0825 4.2546 -2.5093 0.9526
10.9020 4.6964 -2.5092 0.9526
10.8051 4.9145 -2.5091 0.9526
10.5982 5.3445 -2.5090 0.9526
10.0069 6.3800 -2.5086 0.9526
9.7416 6.7765 -2.5084 0.9526
9.4607 7.1621 -2.5082 0.9526
9.3069 7.3445 -2.5061 0.9527
9.1461 7.5208 -2.5030 0.9527
8.9614 7.6760 -2.4942 0.9529
7.8508 7.9029 -2.3547 0.9555
7.5261 8.2112 -2.3545 0.9555
7.3592 8.3605 -2.3544 0.9555
7.0165 8.6487 -2.3541 0.9555
6.8409 8.7875 -2.3540 0.9555
6.6625 8.9227 -2.3539 0.9555
6.4815 9.0544 -2.3537 0.9555
6.2978 9.1823 -2.3536 0.9555
5.9230 9.4270 -2.3534 0.9555
5.5387 9.6563 -2.3531 0.9555
4.7441 10.0676 -2.3525 0.9555
4.3351 10.2490 -2.3523 0.9555
4.1279 10.3334 -2.3521 0.9555
3.7088 10.4896 -2.3518 0.9555
-10.5980 -0.5368 -2.4940 0.9573
-10.5851 -0.7497 -2.4940 0.9573
-10.5679 -0.9623 -2.4940 0.9573
-10.5208 -1.3863 -2.4940 0.9573
-10.4184 -2.0179 -2.4941 0.9573
-10.2782 -2.6422 -2.4942 0.9573
-10.2232 -2.8484 -2.4942 0.9573
-10.1640 -3.0533 -2.4942 0.9573
-9.9620 -3.6605 -2.4944 0.9573
-9.8073 -4.0581 -2.4945 0.9573
-9.6367 -4.4493 -2.4946 0.9573
-9.5455 -4.6422 -2.4946 0.9573
-9.4505 -4.8332 -2.4947 0.9573
-9.3517 -5.0224 -2.4948 0.9573
-9.1428 -5.3945 -2.4949 0.9573
-9.0328 -5.5774 -2.4950 0.9573
-8.8019 -5.9363 -2.4951 0.9573
-8.4290 -6.4566 -2.4954 0.9573
-8.0254 -6.9537 -2.4957 0.9573
-7.8843 -7.1138 -2.4958 0.9573
-7.7400 -7.2712 -2.4959 0.9573
-7.5926 -7.4256 -2.4960 0.9573
-7.4421 -7.5770 -2.4961 0.9573
-7.1322 -7.8707 -2.4963 0.9573
-6.9728 -8.0128 -2.4964 0.9573
-6.8107 -8.1517 -2.4965 0.9573
-6.4781 -8.4197 -2.4967 0.9573
-5.6020 -9.0294 -2.4974 0.9573
-5.2351 -9.2482 -2.4976 0.9573
-4.4763 -9.6408 -2.4981 0.9573
-3.8877 -9.8947 -2.4985 0.9573
-3.2849 -10.1127 -2.4990 0.9573
-2.8761 -10.2378 -2.4993 0.9572
-2.6698 -10.2941 -2.4994 0.9572
-2.4625 -10.3463 -2.4995 0.9572
-1.4124 -10.5443 -2.5003 0.9572
-1.2002 -10.5712 -2.5004 0.9572
-0.9875 -10.5938 -2.5006 0.9572
-0.7745 -10.6121 -2.5007 0.9572
-0.5610 -10.6262 -2.5009 0.9572
-0.3473 -10.6360 -2.5010 0.9572
-0.1335 -10.6414 -2.5012 0.9572
0.0805 -10.6426 -2.5013 0.9572
0.5082 -10.6321 -2.5016 0.9572
0.7219 -10.6203 -2.5018 0.9572
2.2052 -10.4185 -2.5028 0.9572
2.4143 -10.3727 -2.5030 0.9572
2.6225 -10.3227 -2.5031 0.9572
2.8296 -10.2685 -2.5033 0.9572
3.0356 -10.2101 -2.5034 0.9572
3.4398 -10.0689 -2.5007 0.9572
3.6461 -10.0103 -2.5039 0.9572
3.8468 -9.9356 -2.5040 0.9572
4.0459 -9.8568 -2.5041 0.9572
4.2435 -9.7740 -2.5043 0.9572
5.0159 -9.4037 -2.5048 0.9572
5.9358 -8.8552 -2.5055 0.9571
6.1129 -8.7346 -2.5056 0.9571
6.7960 -8.2170 -2.5061 0.9571
8.0269 -7.0252 -2.5070 0.9571
8.1668 -6.8627 -2.5071 0.9571
8.9352 -5.8315 -2.5076 0.9571
9.0509 -5.6510 -2.5077 0.9571
9.2713 -5.2829 -2.5079 0.9571
9.3759 -5.0957 -2.5080 0.9571
9.4767 -4.9063 -2.5080 0.9571
9.5737 -4.7150 -2.5081 0.9571
9.6668 -4.5217 -2.5082 0.9571
9.8412 -4.1297 -2.5083 0.9571
9.9225 -3.9312 -2.5084 0.9571
10.0729 -3.5293 -2.5085 0.9571
10.1421 -3.3262 -2.5085 0.9571
10.2679 -2.9160 -2.5086 0.9571
10.3247 -2.7091 -2.5087 0.9571
10.3772 -2.5010 -2.5087 0.9571
10.4255 -2.2920 -2.5088 0.9571
10.5095 -1.8711 -2.5088 0.9571
10.5764 -1.4472 -2.5089 0.9571
10.6035 -1.2344 -2.5089 0.9571
10.6262 -1.0210 -2.5089 0.9571
10.6741 -0.1642 -2.5090 0.9571
10.6753 0.0504 -2.5090 0.9571
10.6721 0.2650 -2.5090 0.9571
10.6646 0.4795 -2.5090 0.9571
10.6367 0.9077 -2.5089 0.9571
10.6162 1.1213 -2.5089 0.9571
10.5915 1.3345 -2.5089 0.9571
10.4036 2.3904 -2.5088 0.9571
10.2989 2.8065 -2.5087 0.9571
10.1774 3.2181 -2.5087 0.9571
10.1105 3.4220 -2.5086 0.9571
9.8022 4.2227 -2.5084 0.9571
9.5292 4.8054 -2.5082 0.9571
9.4304 4.9958 -2.5082 0.9571
9.3278 5.1843 -2.5081 0.9571
8.9976 5.7365 -2.5079 0.9571
8.7592 6.0931 -2.5077 0.9571
8.6347 6.2677 -2.5076 0.9571
8.5066 6.4398 -2.5075 0.9571
8.3752 6.6093 -2.5074 0.9571
8.2403 6.7760 -2.5074 0.9571
8.1021 6.9400 -2.5073 0.9571
7.6590 7.4058 -2.5039 0.9572
7.3267 7.6780 -2.4943 0.9573
6.7729 7.6944 -2.4091 0.9588
6.5095 7.7019 -2.3700 0.9594
6.3093 7.7769 -2.3536 0.9597
5.6632 8.2570 -2.3532 0.9597
5.4958 8.3687 -2.3530 0.9597
5.3262 8.4771 -2.3529 0.9597
4.9807 8.6834 -2.3527 0.9597
4.8049 8.7813 -2.3526 0.9597
4.4475 8.9664 -2.3523 0.9597
3.7122 9.2926 -2.3518 0.9597
3.5244 9.3648 -2.3517 0.9597
3.3353 9.4333 -2.3515 0.9597
-9.6226 -0.4874 -2.4947 0.9610
-9.6109 -0.6807 -2.4947 0.9610
-9.5758 -1.0664 -2.4947 0.9610
-9.5525 -1.2587 -2.4947 0.9610
-9.5253 -1.4505 -2.4947 0.9610
-9.4595 -1.8322 -2.4947 0.9610
-9.4208 -2.0220 -2.4948 0.9610
-9.3322 -2.3991 -2.4948 0.9610
-9.2822 -2.5862 -2.4949 0.9610
-9.2285 -2.7723 -2.4949 0.9610
-9.1710 -2.9573 -2.4949 0.9610
-9.1098 -3.1410 -2.4950 0.9610
-9.0450 -3.3236 -2.4950 0.9610
-8.9766 -3.5048 -2.4951 0.9610
-8.8288 -3.8629 -2.4952 0.9610
-8.7495 -4.0397 -2.4952 0.9610
-8.6668 -4.2148 -2.4953 0.9610
-8.4908 -4.5600 -2.4954 0.9610
-8.0979 -5.2278 -2.4957 0.9610
-7.8817 -5.5494 -2.4958 0.9610
-7.6528 -5.8620 -2.4960 0.9610
-7.4115 -6.1653 -2.4961 0.9609
-7.2863 -6.3133 -2.4962 0.9609
-7.1582 -6.4587 -2.4963 0.9609
-7.0272 -6.6015 -2.4964 0.9609
-6.8933 -6.7417 -2.4965 0.9609
-6.0335 -7.5239 -2.4971 0.9609
-5.8813 -7.6439 -2.4972 0.9609
-5.7267 -7.7610 -2.4973 0.9609
-5.5698 -7.8748 -2.4974 0.9609
-5.4106 -7.9856 -2.4975 0.9609
-5.2492 -8.0931 -2.4976 0.9609
-5.0857 -8.1973 -2.4977 0.9609
-4.9202 -8.2983 -2.4978 0.9609
-4.7526 -8.3959 -2.4980 0.9609
-4.5831 -8.4901 -2.4981 0.9609
-3.7090 -8.9093 -2.4987 0.9609
-3.5293 -8.9825 -2.4988 0.9609
-3.3482 -9.0521 -2.4989 0.9609
-3.1657 -9.1180 -2.4991 0.9609
-2.7970 -9.2389 -2.4993 0.9609
-2.6109 -9.2937 -2.4995 0.9609
-1.4741 -9.5434 -2.5003 0.9609
-0.8964 -9.6164 -2.5007 0.9609
-0.7030 -9.6330 -2.5008 0.9609
-0.5092 -9.6457 -2.5009 0.9609
-0.1212 -9.6595 -2.5012 0.9609
0.0730 -9.6605 -2.5013 0.9609
0.2672 -9.6576 -2.5015 0.9609
0.4613 -9.6508 -2.5016 0.9609
0.6553 -9.6401 -2.5018 0.9609
0.8489 -9.6255 -2.5019 0.9609
1.0423 -9.6070 -2.5020 0.9609
1.2353 -9.5846 -2.5022 0.9609
1.4278 -9.5584 -2.5023 0.9609
2.0016 -9.4565 -2.5027 0.9608
2.3803 -9.3694 -2.5030 0.9608
2.5683 -9.3202 -2.5031 0.9608
3.1258 -9.1499 -2.5035 0.9608
3.4914 -9.0178 -2.5038 0.9608
3.6722 -8.9462 -2.5039 0.9608
3.8514 -8.8711 -2.5040 0.9608
4.0292 -8.7923 -2.5041 0.9608
4.5524 -8.5348 -2.5045 0.9608
4.7233 -8.4420 -2.5046 0.9608
5.0593 -8.2461 -2.5049 0.9608
5.5479 -7.9273 -2.5052 0.9608
5.8625 -7.6986 -2.5055 0.9608
6.3167 -7.3322 -2.5058 0.9608
6.6068 -7.0730 -2.5060 0.9608
7.0219 -6.6627 -2.5063 0.9608
7.1547 -6.5205 -2.5064 0.9608
8.0004 -5.4539 -2.5070 0.9608
8.1087 -5.2921 -2.5071 0.9608
8.2137 -5.1283 -2.5071 0.9608
8.3154 -4.9623 -2.5072 0.9608
8.5086 -4.6243 -2.5074 0.9608
8.6000 -4.4525 -2.5074 0.9608
8.7725 -4.1034 -2.5076 0.9608
8.8534 -3.9263 -2.5076 0.9608
9.0045 -3.5675 -2.5077 0.9608
9.1409 -3.2028 -2.5078 0.9608
9.2037 -3.0185 -2.5079 0.9608
9.2626 -2.8329 -2.5079 0.9608
9.3179 -2.6462 -2.5080 0.9608
9.5008 -1.8893 -2.5081 0.9608
9.5370 -1.6980 -2.5081 0.9608
9.5977 -1.3133 -2.5082 0.9608
9.6429 -0.9265 -2.5082 0.9608
9.6596 -0.7325 -2.5082 0.9608
9.6725 -0.5382 -2.5082 0.9608
9.6814 -0.3437 -2.5083 0.9608
9.6863 -0.1490 -2.5083 0.9608
9.6874 0.0458 -2.5083 0.9608
9.6845 0.2404 -2.5083 0.9608
9.6670 0.6295 -2.5083 0.9608
9.6524 0.8237 -2.5083 0.9608
9.5850 1.4039 -2.5082 0.9608
9.5207 1.7880 -2.5082 0.9608
9.3459 2.5468 -2.5081 0.9608
9.2927 2.7342 -2.5080 0.9608
9.1106 3.2891 -2.5079 0.9608
8.9707 3.6525 -2.5078 0.9608
8.8953 3.8320 -2.5078 0.9608
8.6476 4.3608 -2.5076 0.9608
8.5580 4.5337 -2.5075 0.9608
8.4649 4.7046 -2.5075 0.9608
8.3684 4.8737 -2.5074 0.9608
8.1653 5.2059 -2.5073 0.9608
8.0588 5.3688 -2.5072 0.9608
7.9490 5.5295 -2.5071 0.9608
7.8360 5.6880 -2.5070 0.9608
7.4782 6.1493 -2.5068 0.9608
7.3528 6.2982 -2.5067 0.9608
7.2245 6.4445 -2.5066 0.9608
6.9591 6.7292 -2.5064 0.9608
6.8222 6.8674 -2.5064 0.9608
6.5402 7.1355 -2.5062 0.9608
6.2410 7.3843 -2.5033 0.9608
6.0862 7.5020 -2.5012 0.9609
5.2777 7.6949 -2.4159 0.9622
5.0572 7.7009 -2.3854 0.9626
4.8434 7.7088 -2.3572 0.9631
4.6781 7.7888 -2.3525 0.9632
4.3608 7.9698 -2.3522 0.9632
4.0366 8.1379 -2.3520 0.9632
3.8720 8.2170 -2.3519 0.9632
3.5383 8.3651 -2.3517 0.9632
3.3692 8.4341 -2.3515 0.9632
3.1988 8.4997 -2.3514 0.9632
3.0272 8.5619 -2.3513 0.9632
2.8544 8.6205 -2.3512 0.9632
-8.7388 -1.1515 -2.4953 0.9640
-8.7139 -1.3269 -2.4953 0.9640
-8.6537 -1.6761 -2.4953 0.9640
-8.6183 -1.8497 -2.4953 0.9640
-8.5372 -2.1947 -2.4954 0.9640
-8.4914 -2.3659 -2.4954 0.9640
-8.3897 -2.7053 -2.4955 0.9640
-8.3337 -2.8734 -2.4955 0.9640
-8.2118 -3.2062 -2.4956 0.9640
-8.0041 -3.6955 -2.4957 0.9640
-7.7673 -4.1714 -2.4959 0.9640
-7.6821 -4.3268 -2.4960 0.9640
-7.5937 -4.4804 -2.4960 0.9640
-7.4079 -4.7823 -2.4961 0.9640
-7.3104 -4.9303 -2.4962 0.9640
-7.2100 -5.0765 -2.4963 0.9640
-7.1067 -5.2205 -2.4964 0.9640
-6.7798 -5.6398 -2.4966 0.9640
-6.6653 -5.7752 -2.4967 0.9640
-5.6561 -6.7698 -2.4973 0.9640
-5.5191 -6.8824 -2.4974 0.9640
-5.2384 -7.0992 -2.4976 0.9640
-5.0949 -7.2034 -2.4977 0.9640
-4.9492 -7.3046 -2.4978 0.9640
-4.8016 -7.4029 -2.4979 0.9640
-4.5006 -7.5905 -2.4982 0.9640
-4.3473 -7.6798 -2.4983 0.9640
-4.1922 -7.7660 -2.4984 0.9640
-3.8770 -7.9289 -2.4986 0.9640
-3.7170 -8.0056 -2.4987 0.9640
-3.5555 -8.0790 -2.4988 0.9640
-3.2282 -8.2162 -2.4990 0.9640
-3.0625 -8.2798 -2.4992 0.9640
-2.3881 -8.5006 -2.4996 0.9640
-2.2168 -8.5473 -2.4997 0.9640
-1.8716 -8.6304 -2.5000 0.9640
-1.1726 -8.7545 -2.5005 0.9639
-0.9965 -8.7768 -2.5006 0.9639
-0.8199 -8.7954 -2.5007 0.9639
-0.6430 -8.8106 -2.5009 0.9639
-0.4658 -8.8222 -2.5010 0.9639
-0.1108 -8.8346 -2.5012 0.9639
0.0668 -8.8355 -2.5014 0.9639
0.4219 -8.8266 -2.5016 0.9639
0.7764 -8.8034 -2.5019 0.9639
1.3058 -8.7419 -2.5022 0.9639
1.4813 -8.7143 -2.5023 0.9639
1.8306 -8.6486 -2.5026 0.9639
2.0041 -8.6105 -2.5027 0.9639
2.1769 -8.5689 -2.5028 0.9639
2.3488 -8.5238 -2.5030 0.9639
2.5198 -8.4753 -2.5031 0.9639
2.6898 -8.4233 -2.5032 0.9639
2.8587 -8.3679 -2.5033 0.9639
3.3583 -8.1816 -2.5037 0.9639
3.8458 -7.9654 -2.5040 0.9639
4.3195 -7.7202 -2.5044 0.9639
4.4740 -7.6321 -2.5045 0.9639
4.6267 -7.5410 -2.5046 0.9639
4.7776 -7.4468 -2.5047 0.9639
4.9265 -7.3496 -2.5048 0.9639
5.2183 -7.1462 -2.5050 0.9639
5.5018 -6.9312 -2.5052 0.9639
5.6402 -6.8196 -2.5053 0.9639
5.7764 -6.7051 -2.5054 0.9639
5.9102 -6.5879 -2.5055 0.9639
6.0417 -6.4679 -2.5056 0.9639
6.1707 -6.3454 -2.5057 0.9639
6.5426 -5.9627 -2.5060 0.9639
6.6614 -5.8301 -2.5060 0.9639
6.8908 -5.5580 -2.5062 0.9639
7.0013 -5.4186 -2.5063 0.9639
7.2139 -5.1331 -2.5064 0.9639
7.3159 -4.9872 -2.5065 0.9639
7.4148 -4.8393 -2.5066 0.9639
7.5108 -4.6894 -2.5067 0.9639
7.7804 -4.2285 -2.5069 0.9639
8.0217 -3.7522 -2.5070 0.9639
8.0957 -3.5903 -2.5071 0.9639
8.1664 -3.4269 -2.5071 0.9639
8.2338 -3.2621 -2.5072 0.9639
8.4159 -2.7601 -2.5073 0.9638
8.5673 -2.2480 -2.5074 0.9638
8.6109 -2.0753 -2.5075 0.9638
8.6875 -1.7276 -2.5075 0.9638
8.7206 -1.5526 -2.5076 0.9638
8.7761 -1.2009 -2.5076 0.9638
8.7985 -1.0243 -2.5076 0.9638
8.8327 -0.6698 -2.5077 0.9638
8.8525 -0.3142 -2.5077 0.9638
8.8571 -0.1362 -2.5077 0.9638
8.8581 0.0418 -2.5077 0.9638
8.8554 0.2199 -2.5077 0.9638
8.8394 0.5756 -2.5077 0.9638
8.7645 1.2837 -2.5076 0.9638
8.6710 1.8096 -2.5076 0.9638
8.6328 1.9835 -2.5076 0.9638
8.5910 2.1566 -2.5075 0.9638
8.4972 2.5001 -2.5075 0.9638
8.2685 3.1743 -2.5073 0.9638
8.2028 3.3399 -2.5073 0.9639
8.1339 3.5040 -2.5072 0.9639
7.9862 3.8279 -2.5071 0.9639
7.9075 3.9876 -2.5071 0.9639
7.8255 4.1456 -2.5070 0.9639
7.7404 4.3020 -2.5070 0.9639
7.3691 4.9094 -2.5067 0.9639
7.2688 5.0563 -2.5066 0.9639
7.1655 5.2013 -2.5066 0.9639
7.0593 5.3441 -2.5065 0.9639
6.9502 5.4847 -2.5064 0.9639
6.8384 5.6232 -2.5063 0.9639
6.7237 5.7593 -2.5063 0.9639
6.4864 6.0245 -2.5061 0.9639
6.3638 6.1535 -2.5060 0.9639
6.2386 6.2799 -2.5059 0.9639
6.1109 6.4038 -2.5058 0.9639
5.8481 6.6438 -2.5057 0.9639
5.7132 6.7598 -2.5056 0.9639
5.4364 6.9834 -2.5054 0.9639
5.2948 7.0910 -2.5053 0.9639
4.6994 7.4795 -2.5007 0.9639
4.5452 7.5676 -2.4991 0.9640
4.3895 7.6527 -2.4975 0.9640
3.2595 7.7061 -2.3687 0.9658
2.9254 7.7732 -2.3512 0.9661
2.7685 7.8301 -2.3511 0.9661
2.6104 7.8838 -2.3510 0.9661
-8.0939 -0.5732 -2.4957 0.9666
-7.9663 -1.5430 -2.4958 0.9666
-7.8980 -1.8619 -2.4958 0.9666
-7.8169 -2.1779 -2.4959 0.9666
-7.6718 -2.6452 -2.4960 0.9666
-7.5595 -2.9515 -2.4961 0.9666
-7.4350 -3.2531 -2.4962 0.9666
-7.2258 -3.6955 -2.4963 0.9666
-7.1502 -3.8400 -2.4963 0.9666
-7.0717 -3.9831 -2.4964 0.9666
-6.9904 -4.1245 -2.4965 0.9666
-6.5421 -4.8057 -2.4968 0.9666
-6.3440 -5.0650 -2.4969 0.9666
-5.8046 -5.6769 -2.4973 0.9666
-5.6895 -5.7926 -2.4973 0.9666
-5.5721 -5.9060 -2.4974 0.9666
-5.4524 -6.0170 -2.4975 0.9666
-5.2065 -6.2317 -2.4977 0.9666
-5.0804 -6.3353 -2.4978 0.9666
-4.9522 -6.4364 -2.4979 0.9666
-4.6898 -6.6307 -2.4980 0.9666
-4.4199 -6.8143 -2.4982 0.9666
-4.1427 -6.9870 -2.4984 0.9666
-3.7145 -7.2249 -2.4987 0.9666
-3.5687 -7.2984 -2.4988 0.9666
-3.4214 -7.3689 -2.4989 0.9666
-3.2727 -7.4365 -2.4990 0.9666
-2.6653 -7.6767 -2.4994 0.9666
-2.5106 -7.7290 -2.4996 0.9666
-2.3548 -7.7783 -2.4997 0.9666
-2.1981 -7.8244 -2.4998 0.9666
-1.7227 -7.9437 -2.5001 0.9666
-1.5628 -7.9771 -2.5002 0.9666
-1.2410 -8.0342 -2.5004 0.9666
-1.0793 -8.0579 -2.5006 0.9665
-0.9172 -8.0783 -2.5007 0.9665
-0.7547 -8.0954 -2.5008 0.9665
-0.5918 -8.1093 -2.5009 0.9665
-0.4287 -8.1200 -2.5010 0.9665
-0.1020 -8.1314 -2.5012 0.9665
0.0615 -8.1322 -2.5014 0.9665
0.3883 -8.1239 -2.5016 0.9665
0.5516 -8.1148 -2.5017 0.9665
0.7146 -8.1025 -2.5018 0.9665
0.8774 -8.0868 -2.5019 0.9665
1.0398 -8.0679 -2.5020 0.9665
1.2018 -8.0458 -2.5022 0.9665
1.3634 -8.0203 -2.5023 0.9665
1.5244 -7.9917 -2.5024 0.9665
1.8445 -7.9247 -2.5026 0.9665
2.0035 -7.8864 -2.5027 0.9665
2.3191 -7.8002 -2.5030 0.9665
2.6310 -7.7013 -2.5032 0.9665
2.7853 -7.6472 -2.5033 0.9665
3.6862 -7.2584 -2.5039 0.9665
3.8315 -7.1831 -2.5040 0.9665
4.1174 -7.0239 -2.5042 0.9665
4.3968 -6.8533 -2.5044 0.9665
4.5338 -6.7638 -2.5045 0.9665
4.6690 -6.6715 -2.5046 0.9665
5.3159 -6.1705 -2.5051 0.9665
5.4390 -6.0626 -2.5052 0.9665
5.9092 -5.6069 -2.5055 0.9665
6.0209 -5.4872 -2.5056 0.9665
6.1302 -5.3652 -2.5057 0.9665
6.3413 -5.1148 -2.5058 0.9665
6.4430 -4.9864 -2.5059 0.9665
6.5421 -4.8561 -2.5060 0.9665
6.6386 -4.7237 -2.5060 0.9665
6.7324 -4.5895 -2.5061 0.9665
6.8234 -4.4533 -2.5062 0.9665
6.9118 -4.3154 -2.5062 0.9665
6.9973 -4.1757 -2.5063 0.9665
7.1598 -3.8912 -2.5064 0.9665
7.2367 -3.7466 -2.5065 0.9665
7.3107 -3.6005 -2.5065 0.9665
7.3818 -3.4529 -2.5066 0.9665
7.5769 -3.0019 -2.5067 0.9665
7.6358 -2.8490 -2.5068 0.9665
7.7444 -2.5399 -2.5069 0.9665
7.7940 -2.3837 -2.5069 0.9665
7.8405 -2.2266 -2.5069 0.9665
7.9607 -1.7501 -2.5070 0.9665
8.0248 -1.4287 -2.5071 0.9665
8.0520 -1.2672 -2.5071 0.9665
8.0759 -1.1051 -2.5071 0.9665
8.0965 -0.9425 -2.5071 0.9665
8.1387 -0.4528 -2.5072 0.9665
8.1462 -0.2892 -2.5072 0.9665
8.1504 -0.1254 -2.5072 0.9665
8.1513 0.0385 -2.5072 0.9665
7.9440 1.8252 -2.5071 0.9665
7.8640 2.1430 -2.5070 0.9665
7.7203 2.6130 -2.5069 0.9665
7.5484 3.0734 -2.5068 0.9665
7.3932 3.3627 -2.4982 0.9666
7.0418 4.1011 -2.5065 0.9665
6.9578 4.2418 -2.5064 0.9665
6.8710 4.3806 -2.5063 0.9665
6.7814 4.5178 -2.5063 0.9665
6.1875 5.3000 -2.5059 0.9665
6.0796 5.4232 -2.5058 0.9665
5.8563 5.6628 -2.5057 0.9665
5.7411 5.7792 -2.5056 0.9665
5.3819 6.1141 -2.5053 0.9665
4.8727 6.5257 -2.5050 0.9665
4.6061 6.7158 -2.5048 0.9665
4.4700 6.8068 -2.5047 0.9665
4.1925 6.9804 -2.5045 0.9665
3.9082 7.1427 -2.5043 0.9665
3.4673 7.3581 -2.5019 0.9665
3.1657 7.4845 -2.4995 0.9666
3.0133 7.5433 -2.4984 0.9666
2.8599 7.5991 -2.4974 0.9666
2.5444 7.6845 -2.4898 0.9667
-7.4633 -0.8312 -2.4962 0.9688
-7.4239 -1.1305 -2.4962 0.9688
-7.3997 -1.2795 -2.4962 0.9688
-7.3424 -1.5759 -2.4962 0.9688
-7.2733 -1.8698 -2.4963 0.9688
-7.1924 -2.1606 -2.4963 0.9688
-6.9960 -2.7315 -2.4965 0.9688
-6.6871 -3.4200 -2.4967 0.9688
-6.5445 -3.6861 -2.4968 0.9688
-6.3914 -3.9463 -2.4969 0.9688
-6.3109 -4.0741 -2.4969 0.9688
-6.2278 -4.2003 -2.4970 0.9688
-6.1423 -4.3247 -2.4970 0.9688
-5.9638 -4.5683 -2.4972 0.9688
-5.7757 -4.8046 -2.4973 0.9688
-5.6781 -4.9198 -2.4974 0.9688
-5.4761 -5.1443 -2.4975 0.9688
-5.2652 -5.3606 -2.4976 0.9688
-5.1565 -5.4655 -2.4977 0.9688
-5.0458 -5.5682 -2.4978 0.9688
-4.7014 -5.8628 -2.4980 0.9688
-4.5828 -5.9563 -2.4981 0.9688
-4.4623 -6.0474 -2.4982 0.9688
-4.2159 -6.2223 -2.4984 0.9688
-4.0901 -6.3060 -2.4985 0.9688
-3.9627 -6.3871 -2.4985 0.9688
-3.8336 -6.4658 -2.4986 0.9688
-3.5709 -6.6151 -2.4988 0.9688
-3.0285 -6.8816 -2.4992 0.9688
-2.8897 -6.9413 -2.4993 0.9688
-2.7497 -6.9983 -2.4994 0.9688
-2.6086 -7.0524 -2.4995 0.9688
-2.4664 -7.1037 -2.4996 0.9688
-2.1790 -7.1977 -2.4998 0.9688
-2.0340 -7.2403 -2.4999 0.9688
-1.4461 -7.3815 -2.5003 0.9688
-0.9987 -7.4562 -2.5006 0.9688
-0.8487 -7.4751 -2.5007 0.9688
-0.6983 -7.4910 -2.5008 0.9688
-0.5476 -7.5038 -2.5009 0.9688
0.0569 -7.5248 -2.5014 0.9688
0.3593 -7.5171 -2.5016 0.9688
1.1120 -7.4447 -2.5021 0.9688
1.2615 -7.4212 -2.5022 0.9688
1.7067 -7.3325 -2.5025 0.9688
1.8538 -7.2971 -2.5026 0.9688
2.1458 -7.2172 -2.5028 0.9688
2.5772 -7.0757 -2.5031 0.9688
2.7190 -7.0227 -2.5032 0.9688
2.8597 -6.9669 -2.5033 0.9688
2.9993 -6.9083 -2.5034 0.9688
3.1377 -6.8469 -2.5035 0.9688
3.2748 -6.7827 -2.5036 0.9688
3.4106 -6.7158 -2.5037 0.9687
3.6781 -6.5738 -2.5039 0.9687
3.8096 -6.4987 -2.5040 0.9687
3.9396 -6.4211 -2.5041 0.9687
4.3199 -6.1727 -2.5044 0.9687
4.4433 -6.0848 -2.5045 0.9687
4.5648 -5.9945 -2.5046 0.9687
4.8024 -5.8065 -2.5047 0.9687
4.9183 -5.7090 -2.5048 0.9687
5.0322 -5.6092 -2.5049 0.9687
5.2539 -5.4027 -2.5051 0.9687
5.7704 -4.8490 -2.5054 0.9687
5.8669 -4.7321 -2.5055 0.9687
5.9610 -4.6134 -2.5056 0.9687
6.0527 -4.4928 -2.5056 0.9687
6.1419 -4.3703 -2.5057 0.9687
6.3129 -4.1201 -2.5058 0.9687
6.4737 -3.8632 -2.5059 0.9687
6.6241 -3.6001 -2.5061 0.9687
6.6952 -3.4663 -2.5061 0.9687
6.7637 -3.3311 -2.5062 0.9687
6.8294 -3.1945 -2.5062 0.9687
6.9525 -2.9175 -2.5063 0.9687
7.0099 -2.7772 -2.5063 0.9687
7.0644 -2.6358 -2.5064 0.9687
7.1649 -2.3498 -2.5065 0.9687
7.3308 -1.7668 -2.5066 0.9687
7.4493 -1.1723 -2.5067 0.9687
7.5196 -0.5702 -2.5067 0.9687
7.5296 -0.4190 -2.5067 0.9687
7.5403 -0.1160 -2.5068 0.9687
7.5336 0.3387 -2.5068 0.9687
7.5139 0.6412 -2.5067 0.9687
7.4995 0.7921 -2.5067 0.9687
7.4820 0.9427 -2.5067 0.9687
7.4615 1.0929 -2.5067 0.9687
7.4380 1.2426 -2.5067 0.9687
7.3819 1.5406 -2.5067 0.9687
7.3494 1.6887 -2.5066 0.9687
7.2755 1.9826 -2.5066 0.9687
6.9835 2.8434 -2.5064 0.9687
6.9249 2.9832 -2.5064 0.9687
6.7991 3.2590 -2.5063 0.9687
6.5900 3.6626 -2.5061 0.9687
6.5149 3.7943 -2.5061 0.9687
6.4372 3.9244 -2.5060 0.9687
6.3569 4.0529 -2.5060 0.9687
6.0102 4.5499 -2.5057 0.9687
5.6247 5.0175 -2.5055 0.9687
5.5226 5.1294 -2.5054 0.9687
5.3117 5.3469 -2.5053 0.9687
5.0922 5.5557 -2.5051 0.9687
4.9793 5.6568 -2.5050 0.9687
4.8644 5.7555 -2.5050 0.9687
4.7476 5.8520 -2.5049 0.9687
4.5083 6.0377 -2.5047 0.9687
4.3858 6.1268 -2.5046 0.9687
4.2617 6.2135 -2.5045 0.9687
3.8790 6.4584 -2.5043 0.9687
3.7483 6.5348 -2.5042 0.9687
3.3472 6.7481 -2.5039 0.9687
3.0731 6.8767 -2.5037 0.9687
2.7940 6.9941 -2.5035 0.9688
2.6527 7.0486 -2.5034 0.9688
2.5104 7.1002 -2.5033 0.9688
-6.9525 -0.6331 -2.4965 0.9708
-6.9383 -0.7727 -2.4965 0.9708
-6.9017 -1.0509 -2.4966 0.9708
-6.8793 -1.1895 -2.4966 0.9708
-6.8260 -1.4651 -2.4966 0.9708
-6.7952 -1.6020 -2.4966 0.9708
-6.7617 -1.7382 -2.4966 0.9708
-6.7254 -1.8738 -2.4967 0.9708
-6.6448 -2.1427 -2.4967 0.9708
-6.5039 -2.5394 -2.4968 0.9708
-6.4516 -2.6696 -2.4969 0.9708
-6.0841 -3.4268 -2.4971 0.9708
-5.8669 -3.7875 -2.4972 0.9708
-5.7101 -4.0204 -2.4974 0.9708
-5.4578 -4.3575 -2.4975 0.9708
-5.2785 -4.5736 -2.4976 0.9708
-4.9937 -4.8838 -2.4978 0.9708
-4.6907 -5.1763 -2.4981 0.9708
-3.6837 -5.9375 -2.4988 0.9708
-3.5638 -6.0106 -2.4988 0.9708
-3.3195 -6.1494 -2.4990 0.9708
-3.1954 -6.2151 -2.4991 0.9707
-3.0699 -6.2783 -2.4992 0.9707
-2.6862 -6.4526 -2.4994 0.9707
-2.4249 -6.5558 -2.4996 0.9707
-2.1596 -6.6484 -2.4998 0.9707
-1.4818 -6.8329 -2.5003 0.9707
-1.2061 -6.8875 -2.5005 0.9707
-0.9284 -6.9309 -2.5007 0.9707
-0.5090 -6.9751 -2.5010 0.9707
-0.3687 -6.9842 -2.5011 0.9707
-0.2283 -6.9905 -2.5012 0.9707
0.0529 -6.9946 -2.5014 0.9707
0.4744 -6.9795 -2.5017 0.9707
0.6146 -6.9688 -2.5018 0.9707
1.1726 -6.8980 -2.5022 0.9707
1.8592 -6.7468 -2.5026 0.9707
1.9945 -6.7084 -2.5027 0.9707
2.5272 -6.5275 -2.5031 0.9707
2.6580 -6.4756 -2.5032 0.9707
2.9164 -6.3640 -2.5034 0.9707
3.0438 -6.3043 -2.5035 0.9707
3.6617 -5.9681 -2.5039 0.9707
3.8989 -5.8165 -2.5041 0.9707
4.0151 -5.7372 -2.5042 0.9707
4.2428 -5.5715 -2.5043 0.9707
4.3540 -5.4853 -2.5044 0.9707
4.4635 -5.3968 -2.5045 0.9707
4.7811 -5.1185 -2.5047 0.9707
4.8832 -5.0215 -2.5048 0.9707
4.9833 -4.9225 -2.5049 0.9707
5.3632 -4.5068 -2.5051 0.9707
5.4528 -4.3982 -2.5052 0.9707
5.5402 -4.2878 -2.5053 0.9707
5.6254 -4.1756 -2.5053 0.9707
5.7084 -4.0618 -2.5054 0.9707
6.0167 -3.5905 -2.5056 0.9707
6.2226 -3.2216 -2.5058 0.9707
6.2862 -3.0959 -2.5058 0.9707
6.3473 -2.9690 -2.5059 0.9707
6.4617 -2.7115 -2.5060 0.9707
6.5656 -2.4497 -2.5060 0.9707
6.6136 -2.3173 -2.5061 0.9707
6.7016 -2.0496 -2.5061 0.9707
6.7415 -1.9146 -2.5062 0.9707
6.8132 -1.6421 -2.5062 0.9707
6.8738 -1.3669 -2.5063 0.9707
6.9439 -0.9502 -2.5063 0.9707
6.9616 -0.8104 -2.5063 0.9707
6.9765 -0.6703 -2.5063 0.9707
6.9886 -0.5300 -2.5064 0.9707
7.0066 0.1740 -2.5064 0.9707
7.0017 0.3148 -2.5064 0.9707
6.9939 0.4554 -2.5064 0.9707
6.9833 0.5959 -2.5064 0.9707
6.9699 0.7362 -2.5064 0.9707
6.9537 0.8761 -2.5064 0.9707
6.8305 1.5694 -2.5063 0.9707
6.7618 1.8426 -2.5062 0.9707
6.7233 1.9782 -2.5062 0.9707
6.6821 2.1129 -2.5062 0.9707
6.5916 2.3797 -2.5061 0.9707
6.5424 2.5117 -2.5061 0.9707
6.3191 3.0289 -2.5059 0.9707
6.2568 3.1552 -2.5059 0.9707
6.1248 3.4040 -2.5058 0.9707
5.9828 3.6473 -2.5057 0.9707
5.9081 3.7668 -2.5057 0.9707
5.8311 3.8847 -2.5056 0.9707
5.7517 4.0010 -2.5056 0.9707
5.6700 4.1157 -2.5055 0.9707
5.3206 4.5574 -2.5053 0.9707
5.0358 4.8694 -2.5051 0.9707
4.9368 4.9695 -2.5050 0.9707
4.8358 5.0676 -2.5049 0.9707
4.6279 5.2576 -2.5048 0.9707
4.5212 5.3494 -2.5047 0.9707
4.4126 5.4390 -2.5046 0.9707
4.1902 5.6116 -2.5045 0.9707
4.0764 5.6946 -2.5044 0.9707
3.8440 5.8534 -2.5042 0.9707
3.7254 5.9293 -2.5042 0.9707
3.4838 6.0738 -2.5040 0.9707
3.3609 6.1424 -2.5039 0.9707
3.1111 6.2721 -2.5037 0.9707
2.9843 6.3332 -2.5036 0.9707
2.4656 6.5515 -2.5033 0.9707
2.3334 6.5994 -2.5032 0.9707
-6.5071 -0.3296 -2.4968 0.9725
-6.4992 -0.4603 -2.4969 0.9725
-6.4887 -0.5908 -2.4969 0.9725
-6.4755 -0.7212 -2.4969 0.9725
-6.4413 -0.9808 -2.4969 0.9725
-6.2768 -1.7488 -2.4970 0.9725
-6.2404 -1.8746 -2.4970 0.9725
-6.2015 -1.9997 -2.4970 0.9725
-6.1163 -2.2474 -2.4971 0.9725
-6.0212 -2.4915 -2.4972 0.9725
-5.9700 -2.6121 -2.4972 0.9725
-5.9163 -2.7316 -2.4972 0.9725
-5.8603 -2.8500 -2.4973 0.9725
-5.8019 -2.9673 -2.4973 0.9725
-5.7412 -3.0833 -2.4973 0.9725
-5.6782 -3.1982 -2.4974 0.9725
-5.6128 -3.3117 -2.4974 0.9725
-5.5452 -3.4239 -2.4975 0.9725
-5.4754 -3.5348 -2.4975 0.9725
-5.4033 -3.6442 -2.4976 0.9725
-5.3291 -3.7521 -2.4976 0.9725
-5.2527 -3.8586 -2.4977 0.9725
-5.1742 -3.9634 -2.4977 0.9725
-5.0936 -4.0668 -2.4978 0.9725
-4.9263 -4.2684 -2.4979 0.9725
-4.8396 -4.3666 -2.4980 0.9725
-4.3776 -4.8308 -2.4983 0.9725
-4.1801 -5.0032 -2.4984 0.9725
-4.0788 -5.0863 -2.4985 0.9725
-3.8713 -5.2464 -2.4986 0.9725
-3.7652 -5.3234 -2.4987 0.9725
-3.6575 -5.3981 -2.4988 0.9725
-3.5484 -5.4707 -2.4989 0.9725
-3.3258 -5.6093 -2.4990 0.9725
-3.0979 -5.7388 -2.4992 0.9725
-2.9820 -5.8001 -2.4992 0.9724
-2.7466 -5.9156 -2.4994 0.9724
-2.6273 -5.9698 -2.4995 0.9724
-2.5068 -6.0216 -2.4996 0.9724
-2.3854 -6.0710 -2.4997 0.9724
-2.0153 -6.2044 -2.4999 0.9724
-1.8903 -6.2439 -2.5000 0.9724
-1.6379 -6.3152 -2.5002 0.9724
-1.5107 -6.3471 -2.5003 0.9724
-1.1255 -6.4273 -2.5005 0.9724
-0.9961 -6.4489 -2.5006 0.9724
-0.7362 -6.4842 -2.5008 0.9724
-0.6057 -6.4979 -2.5009 0.9724
-0.3441 -6.5175 -2.5011 0.9724
0.3117 -6.5203 -2.5016 0.9724
0.5735 -6.5030 -2.5017 0.9724
0.7042 -6.4904 -2.5018 0.9724
0.9645 -6.4573 -2.5020 0.9724
1.7349 -6.2957 -2.5026 0.9724
1.8611 -6.2598 -2.5027 0.9724
1.9866 -6.2214 -2.5027 0.9724
2.1114 -6.1804 -2.5028 0.9724
2.2352 -6.1369 -2.5029 0.9724
2.6013 -5.9917 -2.5032 0.9724
2.7213 -5.9384 -2.5033 0.9724
2.8402 -5.8827 -2.5034 0.9724
2.9580 -5.8246 -2.5034 0.9724
3.4167 -5.5689 -2.5038 0.9724
3.6380 -5.4274 -2.5039 0.9724
3.7465 -5.3534 -2.5040 0.9724
3.9589 -5.1988 -2.5041 0.9724
4.3642 -4.8645 -2.5044 0.9724
4.4612 -4.7760 -2.5045 0.9724
4.5564 -4.6855 -2.5046 0.9724
4.6498 -4.5931 -2.5046 0.9724
4.7413 -4.4988 -2.5047 0.9724
4.8309 -4.4027 -2.5048 0.9724
5.0042 -4.2052 -2.5049 0.9724
5.0879 -4.1038 -2.5050 0.9724
5.3263 -3.7900 -2.5051 0.9724
5.4746 -3.5730 -2.5052 0.9724
5.5454 -3.4623 -2.5053 0.9724
5.6140 -3.3502 -2.5053 0.9724
5.6803 -3.2367 -2.5054 0.9724
5.8060 -3.0059 -2.5055 0.9724
5.9224 -2.7702 -2.5056 0.9724
5.9769 -2.6507 -2.5056 0.9724
6.0291 -2.5300 -2.5056 0.9724
6.1261 -2.2857 -2.5057 0.9724
6.1709 -2.1622 -2.5058 0.9724
6.2529 -1.9124 -2.5058 0.9724
6.2902 -1.7863 -2.5058 0.9724
6.4380 -1.1462 -2.5060 0.9724
6.4790 -0.8866 -2.5060 0.9724
6.4955 -0.7562 -2.5060 0.9724
6.5094 -0.6254 -2.5060 0.9724
6.5293 -0.3633 -2.5060 0.9724
6.5353 -0.2320 -2.5060 0.9724
6.5387 -0.1006 -2.5060 0.9724
6.5394 0.0309 -2.5060 0.9724
6.5158 0.5560 -2.5060 0.9724
6.5033 0.6869 -2.5060 0.9724
6.4881 0.8175 -2.5060 0.9724
6.4703 0.9477 -2.5060 0.9724
6.4270 1.2070 -2.5060 0.9724
6.4014 1.3359 -2.5060 0.9724
6.3732 1.4643 -2.5060 0.9724
6.3424 1.5921 -2.5059 0.9724
6.3091 1.7193 -2.5059 0.9724
6.2732 1.8457 -2.5059 0.9724
6.1044 2.3435 -2.5058 0.9724
6.0559 2.4657 -2.5057 0.9724
5.8961 2.8261 -2.5056 0.9724
5.8380 2.9440 -2.5056 0.9724
5.7775 3.0607 -2.5056 0.9724
5.7148 3.1762 -2.5055 0.9724
5.5823 3.4032 -2.5054 0.9724
5.5126 3.5146 -2.5054 0.9724
5.2121 3.9457 -2.5052 0.9724
5.1316 4.0496 -2.5051 0.9724
5.0491 4.1519 -2.5051 0.9724
4.8779 4.3512 -2.5049 0.9724
4.7893 4.4483 -2.5049 0.9724
4.6988 4.5436 -2.5048 0.9724
4.6064 4.6370 -2.5048 0.9724
4.4161 4.8181 -2.5046 0.9724
4.3182 4.9058 -2.5046 0.9724
4.2186 4.9914 -2.5045 0.9724
4.1174 5.0751 -2.5044 0.9724
4.0144 5.1567 -2.5043 0.9724
3.9098 5.2362 -2.5043 0.9724
3.8037 5.3135 -2.5042 0.9724
3.5868 5.4618 -2.5041 0.9724
3.4762 5.5327 -2.5040 0.9724
3.3642 5.6012 -2.5039 0.9724
3.2508 5.6675 -2.5038 0.9724
3.0202 5.7933 -2.5037 0.9724
2.7847 5.9096 -2.5035 0.9724
2.5448 6.0163 -2.5033 0.9724
2.4232 6.0661 -2.5032 0.9724
2.3007 6.1133 -2.5032 0.9724
-6.0936 -0.3086 -2.4971 0.9740
-6.0861 -0.4310 -2.4971 0.9740
-6.0763 -0.5533 -2.4971 0.9740
