ply
format ascii 1.0
element vertex 1553
property float32 x
property float32 y
property float32 z
property float32 I
end_header
11.8343 -21.1542 -2.3271 0.9072
12.6649 -20.6492 -2.3256 0.9072
13.0723 -20.3846 -2.3249 0.9073
13.4743 -20.1121 -2.3241 0.9073
15.0246 -18.9447 -2.3213 0.9074
15.3970 -18.6342 -2.3207 0.9074
17.1617 -16.9759 -2.3175 0.9076
12.8999 -12.2583 -1.7084 0.9310
17.8196 -16.2657 -2.3163 0.9076
18.7520 -15.1538 -2.3146 0.9077
19.0478 -14.7713 -2.3141 0.9077
19.3359 -14.3832 -2.3136 0.9077
19.8887 -13.5905 -2.3126 0.9077
21.4244 -14.0180 -2.4580 0.9022
22.7373 -11.8115 -2.4599 0.9022
22.9659 -11.3513 -2.4595 0.9022
23.3955 -10.4181 -2.4587 0.9022
-10.0156 17.3772 -2.3825 0.9224
-10.3614 17.1719 -2.3823 0.9224
-10.7029 16.9595 -2.3822 0.9224
-11.3722 16.5132 -2.3817 0.9224
-11.6997 16.2799 -2.3814 0.9224
-12.6518 15.5400 -2.3804 0.9225
-13.8455 14.4647 -2.3785 0.9225
-14.4076 13.8912 -2.3773 0.9225
-14.9576 13.3063 -2.3781 0.9225
-15.4853 12.7008 -2.3790 0.9225
-15.7399 12.3900 -2.3795 0.9225
-16.2301 11.7532 -2.3803 0.9225
-16.4654 11.4273 -2.3807 0.9224
-16.6941 11.0967 -2.3811 0.9224
-16.9161 10.7614 -2.3815 0.9224
-17.5407 9.7292 -2.3826 0.9224
-17.7349 9.3769 -2.3830 0.9224
-17.9218 9.0205 -2.3833 0.9224
-18.2738 8.2967 -2.3839 0.9223
-18.4388 7.9295 -2.3842 0.9223
-18.8047 7.6437 -2.4112 0.9215
-19.8772 7.6188 -2.5286 0.9178
-20.6369 5.6170 -2.5406 0.9175
-20.7469 5.2024 -2.5407 0.9174
-20.8485 4.7856 -2.5409 0.9174
-21.0260 3.9461 -2.5412 0.9174
-21.2278 2.6749 -2.5415 0.9174
-21.3191 1.8216 -2.5416 0.9174
-21.3517 1.3937 -2.5417 0.9174
-21.3352 -1.6078 -2.5415 0.9174
-21.2979 -2.0352 -2.5414 0.9174
-21.2520 -2.4619 -2.5413 0.9174
-20.9815 -4.1561 -2.5407 0.9174
-20.8925 -4.5757 -2.5406 0.9175
-20.7949 -4.9934 -2.5404 0.9175
-20.3202 -6.6414 -2.5394 0.9175
-20.1807 -7.0468 -2.5391 0.9175
-20.0331 -7.4492 -2.5388 0.9175
-19.7134 -8.2446 -2.5382 0.9175
-19.5415 -8.6371 -2.5379 0.9175
-19.3617 -9.0261 -2.5375 0.9175
-19.1740 -9.4112 -2.5372 0.9176
-18.7755 -10.1694 -2.5364 0.9176
-18.3368 -10.9049 -2.5342 0.9177
-18.0698 -11.2426 -2.5280 0.9178
-17.3524 -11.2852 -2.4588 0.9200
-16.3410 -11.5857 -2.3794 0.9225
-16.1023 -11.9088 -2.3790 0.9225
-15.3478 -12.8478 -2.3776 0.9225
-15.0839 -13.1502 -2.3771 0.9226
-14.8139 -13.4472 -2.3765 0.9226
-14.5381 -13.7386 -2.3760 0.9226
-14.2564 -14.0242 -2.3755 0.9226
-13.3780 -14.8458 -2.3738 0.9227
-12.4519 -15.6119 -2.3721 0.9227
-12.1333 -15.8545 -2.3715 0.9227
-11.8098 -16.0905 -2.3709 0.9227
-11.4818 -16.3199 -2.3703 0.9228
-11.1493 -16.5425 -2.3697 0.9228
-10.8124 -16.7583 -2.3690 0.9228
-10.4713 -16.9672 -2.3684 0.9228
-9.7771 -17.3640 -2.3671 0.9229
-7.2366 -18.5242 -2.3624 0.9230
-6.8616 -18.6601 -2.3617 0.9230
-6.1042 -18.9090 -2.3603 0.9231
-5.3377 -19.1270 -2.3588 0.9231
-4.9516 -19.2243 -2.3581 0.9231
-2.2079 -19.6857 -2.3530 0.9233
-1.1322 -12.3202 -1.4696 0.9514
-0.6225 -19.7747 -2.3501 0.9234
0.1709 -19.7714 -2.3487 0.9234
0.9630 -19.7364 -2.3472 0.9235
1.3582 -19.7070 -2.3465 0.9235
1.4226 -13.0088 -1.5545 0.9487
1.6938 -13.0591 -1.5642 0.9483
2.4983 -13.0499 -1.5783 0.9479
2.7732 -13.0616 -1.5861 0.9476
3.6036 -13.0524 -1.6085 0.9469
3.6234 -12.1673 -1.5080 0.9501
6.7377 -18.4809 -2.3366 0.9238
7.1050 -18.3368 -2.3359 0.9238
8.1878 -17.8613 -2.3340 0.9239
8.5420 -17.6886 -2.3333 0.9239
8.8926 -17.5090 -2.3327 0.9239
9.2395 -17.3224 -2.3321 0.9240
10.2563 -16.7222 -2.3302 0.9240
11.2348 -16.0630 -2.3284 0.9241
11.5518 -15.8306 -2.3279 0.9241
12.1715 -15.3472 -2.3268 0.9241
12.4739 -15.0965 -2.3262 0.9241
13.9072 -13.7565 -2.3236 0.9242
14.4417 -13.1824 -2.3227 0.9243
14.9528 -12.5877 -2.3218 0.9243
15.1994 -12.2829 -2.3213 0.9243
15.4965 -12.0174 -2.3294 0.9240
16.4890 -12.2655 -2.4411 0.9206
16.9170 -12.0645 -2.4682 0.9197
17.3981 -11.3835 -2.4697 0.9197
17.6201 -11.0306 -2.4693 0.9197
17.8350 -10.6733 -2.4689 0.9197
18.0428 -10.3120 -2.4686 0.9197
18.4366 -9.5774 -2.4679 0.9197
18.8010 -8.8281 -2.4672 0.9197
18.9720 -8.4483 -2.4670 0.9197
19.1354 -8.0652 -2.4667 0.9198
-6.8555 15.2458 -2.3685 0.9347
-7.1599 15.1054 -2.3685 0.9347
-7.4614 14.9587 -2.3685 0.9347
-7.7598 14.8059 -2.3685 0.9347
-8.9198 14.1339 -2.3681 0.9347
-9.2008 13.9511 -2.3679 0.9347
-10.2960 13.1776 -2.3695 0.9347
-11.0763 12.5421 -2.3709 0.9346
-11.3278 12.3198 -2.3713 0.9346
-11.5748 12.0924 -2.3718 0.9346
-11.8171 11.8600 -2.3722 0.9346
-12.0548 11.6227 -2.3726 0.9346
-12.7384 10.8824 -2.3739 0.9346
-12.9562 10.6265 -2.3742 0.9345
-13.1689 10.3661 -2.3746 0.9345
-14.1509 9.0023 -2.3764 0.9345
-14.3305 8.7179 -2.3767 0.9345
-14.8343 7.8433 -2.3776 0.9345
-15.2070 7.6541 -2.4122 0.9335
-15.9571 7.6345 -2.5064 0.9310
-16.2535 7.3795 -2.5292 0.9304
-16.4220 7.0622 -2.5329 0.9303
-16.5619 6.7321 -2.5331 0.9303
-16.9411 5.7255 -2.5338 0.9303
-17.1596 5.0423 -2.5341 0.9303
-17.3502 4.3506 -2.5344 0.9303
-17.5125 3.6517 -2.5347 0.9303
-17.7515 2.2369 -2.5351 0.9303
-17.7932 1.8804 -2.5351 0.9303
-17.8549 1.1654 -2.5352 0.9303
-17.8748 0.8071 -2.5352 0.9303
-17.8874 0.4485 -2.5353 0.9303
-17.8909 -0.2692 -2.5352 0.9303
-17.8816 -0.6279 -2.5352 0.9303
-17.8651 -0.9864 -2.5351 0.9303
-17.8413 -1.3445 -2.5351 0.9303
-17.7719 -2.0587 -2.5349 0.9303
-17.7263 -2.4146 -2.5348 0.9303
-16.9948 -5.5545 -2.5333 0.9303
-16.6253 -6.5645 -2.5326 0.9303
-16.3451 -7.2244 -2.5321 0.9303
-16.0385 -7.8722 -2.5315 0.9304
-15.8754 -8.1912 -2.5311 0.9304
-15.7059 -8.5069 -2.5308 0.9304
-15.5301 -8.8190 -2.5305 0.9304
-15.3480 -9.1274 -2.5301 0.9304
-14.7648 -10.0294 -2.5290 0.9304
-14.5584 -10.3218 -2.5286 0.9304
-14.1210 -10.8882 -2.5265 0.9305
-12.9322 -11.2744 -2.4309 0.9330
-12.4301 -11.2833 -2.3786 0.9344
-11.9309 -11.7366 -2.3713 0.9346
-11.4463 -12.2009 -2.3704 0.9346
-11.1971 -12.4255 -2.3699 0.9347
-10.9434 -12.6451 -2.3695 0.9347
-9.8865 -13.4701 -2.3675 0.9347
-9.0527 -14.0310 -2.3659 0.9348
-6.8330 -12.1354 -1.9733 0.9453
-7.8919 -14.6978 -2.3637 0.9348
-6.9888 -15.1350 -2.3621 0.9349
-6.6823 -15.2684 -2.3615 0.9349
-6.0616 -15.5165 -2.3603 0.9349
-5.4318 -15.7393 -2.3592 0.9349
-5.1138 -15.8411 -2.3586 0.9350
-4.7939 -15.9365 -2.3580 0.9350
-4.4722 -16.0253 -2.3574 0.9350
-3.8240 -16.1835 -2.3562 0.9350
-1.8506 -16.5000 -2.3525 0.9351
-1.1260 -12.2533 -1.7435 0.9515
-0.8949 -12.4807 -1.7729 0.9507
-0.8544 -16.5684 -2.3507 0.9352
0.3361 -11.7081 -1.6596 0.9538
0.8075 -16.5492 -2.3476 0.9353
1.4698 -16.4949 -2.3464 0.9353
1.8918 -12.5990 -1.8052 0.9498
2.6659 -12.5566 -1.8188 0.9495
2.9264 -12.5399 -1.8245 0.9493
3.1911 -12.5330 -1.8324 0.9491
3.6239 -12.1691 -1.7991 0.9500
5.0298 -15.7296 -2.3399 0.9355
5.3429 -15.6218 -2.3393 0.9355
6.2681 -15.2612 -2.3376 0.9355
6.8718 -14.9905 -2.3365 0.9355
7.1694 -14.8463 -2.3360 0.9356
7.4640 -14.6961 -2.3355 0.9356
8.3286 -14.2111 -2.3339 0.9356
8.8880 -13.8597 -2.3329 0.9356
9.1622 -13.6757 -2.3324 0.9357
9.6992 -13.2918 -2.3314 0.9357
9.9618 -13.0919 -2.3309 0.9357
10.2203 -12.8869 -2.3305 0.9357
10.4746 -12.6769 -2.3300 0.9357
10.7247 -12.4618 -2.3296 0.9357
10.9704 -12.2419 -2.3291 0.9357
11.2116 -12.0172 -2.3287 0.9358
11.9775 -11.3817 -2.3411 0.9354
12.5269 -11.4345 -2.4032 0.9338
13.1096 -11.4930 -2.4702 0.9320
13.5956 -10.9869 -2.4767 0.9318
13.8111 -10.7103 -2.4764 0.9318
14.0210 -10.4296 -2.4760 0.9318
14.2252 -10.1449 -2.4756 0.9318
14.4238 -9.8561 -2.4753 0.9319
14.6165 -9.5636 -2.4749 0.9319
14.8034 -9.2673 -2.4746 0.9319
14.9844 -8.9674 -2.4743 0.9319
15.1593 -8.6640 -2.4740 0.9319
15.3281 -8.3572 -2.4737 0.9319
15.4909 -8.0472 -2.4734 0.9319
15.7977 -7.4179 -2.4728 0.9319
15.9417 -7.0989 -2.4726 0.9319
16.0793 -6.7771 -2.4724 0.9319
16.2105 -6.4526 -2.4721 0.9319
-5.8784 13.0729 -2.3613 0.9435
-6.6578 12.7033 -2.3627 0.9435
-6.9126 12.5697 -2.3632 0.9435
-7.1647 12.4310 -2.3637 0.9435
-7.9037 11.9844 -2.3650 0.9435
-8.1440 11.8257 -2.3654 0.9435
-8.3810 11.6621 -2.3659 0.9434
-8.6148 11.4937 -2.3663 0.9434
-8.8451 11.3206 -2.3667 0.9434
-6.7944 8.3454 -1.7728 0.9573
-10.1502 10.1870 -2.3691 0.9434
-10.9405 9.3464 -2.3705 0.9433
-11.3097 8.9026 -2.3711 0.9433
-11.6606 8.4442 -2.3718 0.9433
-11.9929 7.9717 -2.3723 0.9433
-12.1518 7.7306 -2.3726 0.9433
-12.5898 7.6589 -2.4277 0.9420
-13.1502 7.6428 -2.5057 0.9402
-13.3942 7.4293 -2.5232 0.9398
-13.7063 6.8988 -2.5279 0.9397
-13.8432 6.6231 -2.5281 0.9397
-13.9745 6.3447 -2.5283 0.9397
-14.2201 5.7802 -2.5287 0.9397
-14.5452 4.9158 -2.5293 0.9397
-14.6418 4.6233 -2.5295 0.9397
-14.7325 4.3291 -2.5296 0.9396
-14.8171 4.0329 -2.5298 0.9396
-14.8958 3.7352 -2.5299 0.9396
-15.1497 2.5298 -2.5303 0.9396
-15.1978 2.2256 -2.5304 0.9396
-15.2398 1.9204 -2.5304 0.9396
-15.2756 1.6144 -2.5305 0.9396
-15.3051 1.3077 -2.5305 0.9396
-15.3455 0.6929 -2.5306 0.9396
-15.2575 -1.7675 -2.5303 0.9396
-15.2184 -2.0730 -2.5302 0.9396
-14.9309 -3.5853 -2.5296 0.9396
-14.6854 -4.4758 -2.5291 0.9397
-14.4919 -5.0603 -2.5287 0.9397
-14.3863 -5.3495 -2.5285 0.9397
-14.1577 -5.9211 -2.5281 0.9397
-13.9062 -6.4828 -2.5276 0.9397
-13.6322 -7.0338 -2.5271 0.9397
-13.3361 -7.5731 -2.5265 0.9397
-13.1800 -7.8381 -2.5262 0.9397
-13.0185 -8.0999 -2.5259 0.9397
-12.5030 -8.8646 -2.5249 0.9398
-12.3211 -9.1123 -2.5246 0.9398
-11.9423 -9.5963 -2.5238 0.9398
-11.7457 -9.8324 -2.5235 0.9398
-11.3385 -10.2924 -2.5227 0.9398
-11.1281 -10.5161 -2.5223 0.9398
-10.6839 -10.9400 -2.5191 0.9399
-10.4467 -11.1354 -2.5153 0.9400
-9.7437 -11.2588 -2.4529 0.9414
-9.3605 -11.2649 -2.4128 0.9424
-8.9893 -11.2706 -2.3749 0.9432
-8.4944 -11.5733 -2.3650 0.9435
-8.2590 -11.7391 -2.3646 0.9435
-7.7786 -12.0563 -2.3637 0.9435
-7.5338 -12.2075 -2.3632 0.9435
-6.8189 -12.1103 -2.2896 0.9452
-6.7821 -12.6309 -2.3618 0.9435
-6.2676 -12.8875 -2.3608 0.9436
-5.4778 -13.2328 -2.3594 0.9436
-5.2103 -13.3372 -2.3589 0.9436
-4.9407 -13.4362 -2.3584 0.9436
-4.6692 -13.5296 -2.3579 0.9436
-4.3960 -13.6176 -2.3574 0.9436
-4.1211 -13.7001 -2.3568 0.9437
-3.8447 -13.7770 -2.3563 0.9437
-3.2877 -13.9140 -2.3553 0.9437
-3.0073 -13.9740 -2.3548 0.9437
-2.7259 -14.0284 -2.3543 0.9437
-1.8761 -14.1575 -2.3527 0.9437
-1.3063 -14.2150 -2.3516 0.9438
-0.8949 -12.4811 -2.0614 0.9505
-0.4488 -14.2582 -2.3501 0.9438
-0.1628 -14.2612 -2.3495 0.9438
0.6946 -14.2356 -2.3479 0.9439
0.9798 -14.2156 -2.3474 0.9439
1.2644 -14.1900 -2.3469 0.9439
1.4226 -13.0089 -2.1558 0.9483
1.8316 -14.1216 -2.3459 0.9439
2.3954 -14.0305 -2.3448 0.9439
2.9548 -13.9171 -2.3438 0.9440
3.6225 -13.1209 -2.2424 0.9463
3.6244 -12.1709 -2.0920 0.9498
4.8659 -13.3468 -2.3403 0.9440
6.6763 -12.5169 -2.3370 0.9441
6.9247 -12.3781 -2.3366 0.9441
7.1701 -12.2344 -2.3361 0.9441
7.4127 -12.0859 -2.3357 0.9441
7.6521 -11.9325 -2.3352 0.9442
8.1215 -11.6119 -2.3344 0.9442
9.2600 -11.2069 -2.3949 0.9428
9.6425 -11.2044 -2.4352 0.9418
10.0303 -11.1929 -2.4760 0.9409
10.2651 -11.0027 -2.4789 0.9408
10.7116 -10.5956 -2.4821 0.9407
11.1245 -10.1545 -2.4813 0.9408
11.5195 -9.6974 -2.4806 0.9408
11.8959 -9.2251 -2.4799 0.9408
12.0770 -8.9836 -2.4796 0.9408
12.4244 -8.4899 -2.4790 0.9408
12.7519 -7.9830 -2.4784 0.9408
13.0589 -7.4636 -2.4779 0.9408
13.2046 -7.1994 -2.4776 0.9409
13.6097 -6.3905 -2.4769 0.9409
13.8527 -5.8386 -2.4765 0.9409
-5.3786 11.3473 -2.3603 0.9502
-5.6061 11.2391 -2.3607 0.9502
-5.8314 11.1264 -2.3611 0.9502
-6.0544 11.0091 -2.3615 0.9501
-6.2750 10.8873 -2.3619 0.9501
-6.7088 10.6304 -2.3627 0.9501
-7.1320 10.3562 -2.3635 0.9501
-7.3394 10.2127 -2.3639 0.9501
-7.7455 9.9132 -2.3646 0.9501
-8.8873 8.9195 -2.3667 0.9500
-9.4113 8.3722 -2.3676 0.9500
-9.5785 8.1829 -2.3679 0.9500
-10.1597 7.6725 -2.3930 0.9495
-11.3270 7.2058 -2.5233 0.9468
-11.4711 6.9783 -2.5237 0.9468
-11.6098 6.7475 -2.5240 0.9468
-11.8733 6.2777 -2.5244 0.9468
-12.9690 3.5299 -2.5263 0.9468
-13.0377 3.2692 -2.5265 0.9468
-13.3697 1.4130 -2.5270 0.9468
-13.4159 0.8757 -2.5270 0.9468
-13.4309 0.6065 -2.5271 0.9468
-13.4430 -0.2023 -2.5270 0.9468
-13.4237 -0.7412 -2.5270 0.9468
-13.4059 -1.0103 -2.5269 0.9468
-13.3827 -1.2788 -2.5269 0.9468
-13.3199 -1.8144 -2.5267 0.9468
-13.2804 -2.0811 -2.5266 0.9468
-13.2355 -2.3469 -2.5266 0.9468
-13.0686 -3.1381 -2.5262 0.9468
-13.0023 -3.3994 -2.5261 0.9468
-12.1729 -5.6748 -2.5244 0.9468
-11.8064 -6.3947 -2.5237 0.9468
-11.6745 -6.6296 -2.5235 0.9468
-11.5380 -6.8616 -2.5232 0.9468
-11.2511 -7.3172 -2.5227 0.9468
-11.1009 -7.5405 -2.5224 0.9468
-10.6235 -8.1915 -2.5215 0.9469
-10.4558 -8.4018 -2.5212 0.9469
-10.2839 -8.6087 -2.5208 0.9469
-10.1078 -8.8120 -2.5205 0.9469
-9.9277 -9.0118 -2.5202 0.9469
-9.7436 -9.2078 -2.5198 0.9469
-9.5557 -9.4000 -2.5195 0.9469
-9.1683 -9.7728 -2.5187 0.9469
-8.9692 -9.9532 -2.5183 0.9469
-8.7664 -10.1296 -2.5180 0.9469
-8.5602 -10.3018 -2.5176 0.9469
-8.3506 -10.4697 -2.5172 0.9470
-7.9214 -10.7927 -2.5164 0.9470
-7.6946 -10.9369 -2.5135 0.9470
-7.2338 -11.2118 -2.5079 0.9471
-6.9386 -11.2430 -2.4833 0.9476
-6.6335 -11.2473 -2.4543 0.9482
-6.0433 -11.2550 -2.4012 0.9493
-5.7573 -11.2585 -2.3768 0.9498
-5.0311 -11.4957 -2.3586 0.9502
-4.5644 -11.6839 -2.3578 0.9502
-3.6107 -12.0031 -2.3560 0.9503
-3.1252 -12.1336 -2.3551 0.9503
-2.1411 -12.3355 -2.3533 0.9503
-0.8901 -12.4142 -2.3394 0.9506
-0.3934 -12.4966 -2.3500 0.9504
-0.1427 -12.4995 -2.3496 0.9504
1.1083 -12.4388 -2.3473 0.9504
1.3573 -12.4116 -2.3468 0.9505
1.6057 -12.3795 -2.3464 0.9505
1.8533 -12.3424 -2.3459 0.9505
2.1000 -12.3004 -2.3454 0.9505
2.3458 -12.2535 -2.3450 0.9505
2.5906 -12.2016 -2.3445 0.9505
3.5574 -11.9458 -2.3428 0.9505
3.7956 -11.8698 -2.3423 0.9505
4.0321 -11.7891 -2.3419 0.9506
4.2669 -11.7038 -2.3415 0.9506
4.9603 -11.4198 -2.3402 0.9506
5.1874 -11.3160 -2.3398 0.9506
5.9813 -11.2139 -2.3889 0.9496
6.2702 -11.2082 -2.4139 0.9491
6.5652 -11.2022 -2.4405 0.9485
7.5810 -10.8390 -2.4862 0.9476
7.8008 -10.6902 -2.4874 0.9476
8.0124 -10.5299 -2.4870 0.9476
8.2207 -10.3656 -2.4867 0.9476
8.6272 -10.0246 -2.4859 0.9476
8.8253 -9.8482 -2.4856 0.9476
9.2105 -9.4837 -2.4849 0.9476
9.3976 -9.2958 -2.4845 0.9476
10.4377 -8.0944 -2.4827 0.9477
10.9020 -7.4496 -2.4819 0.9477
11.0480 -7.2287 -2.4816 0.9477
11.4594 -6.5493 -2.4809 0.9477
11.7107 -6.0835 -2.4804 0.9477
11.8294 -5.8469 -2.4802 0.9477
11.9433 -5.6080 -2.4800 0.9477
12.0524 -5.3670 -2.4798 0.9477
12.1567 -5.1238 -2.4797 0.9477
-4.9824 9.9888 -2.3595 0.9554
-5.5766 9.6756 -2.3606 0.9554
-5.7704 9.5632 -2.3610 0.9554
-5.9619 9.4469 -2.3613 0.9554
-6.1511 9.3269 -2.3616 0.9553
-6.3378 9.2029 -2.3620 0.9553
-6.5220 9.0753 -2.3623 0.9553
-6.7036 8.9439 -2.3626 0.9553
-7.4028 8.3824 -2.3639 0.9553
-7.8964 7.9250 -2.3648 0.9553
-8.0547 7.7660 -2.3651 0.9553
-8.6201 7.6685 -2.4388 0.9539
-9.1953 7.5418 -2.5138 0.9525
-9.3569 7.3654 -2.5171 0.9525
-9.5141 7.1850 -2.5201 0.9524
-9.7965 6.7990 -2.5206 0.9524
-10.1905 6.1993 -2.5213 0.9524
-10.3137 5.9942 -2.5216 0.9524
-10.4327 5.7867 -2.5218 0.9524
-10.5475 5.5767 -2.5220 0.9524
-10.6580 5.3645 -2.5222 0.9524
-11.1453 4.2719 -2.5230 0.9524
-11.2293 4.0478 -2.5232 0.9524
-11.3838 3.5946 -2.5234 0.9524
-11.5809 2.9039 -2.5238 0.9524
-11.6888 2.4374 -2.5239 0.9524
-11.8152 1.7302 -2.5241 0.9524
-11.8755 1.2550 -2.5242 0.9524
-11.9298 0.5387 -2.5243 0.9523
-11.9405 -0.1797 -2.5243 0.9523
-11.8870 -1.1359 -2.5241 0.9524
-11.8313 -1.6116 -2.5240 0.9524
-11.7119 -2.3199 -2.5237 0.9524
-11.6084 -2.7875 -2.5235 0.9524
-11.4862 -3.2505 -2.5233 0.9524
-11.2680 -3.9346 -2.5229 0.9524
-11.1861 -4.1595 -2.5227 0.9524
-11.0088 -4.6041 -2.5223 0.9524
-10.6011 -5.4698 -2.5216 0.9524
-10.3714 -5.8895 -2.5211 0.9524
-10.2502 -6.0958 -2.5209 0.9524
-10.1250 -6.2995 -2.5206 0.9524
-9.8622 -6.6992 -2.5201 0.9524
-9.4385 -7.2777 -2.5193 0.9524
-9.2896 -7.4647 -2.5191 0.9524
-8.9807 -7.8294 -2.5185 0.9525
-8.8208 -8.0070 -2.5182 0.9525
-8.3202 -8.5197 -2.5172 0.9525
-8.1466 -8.6837 -2.5169 0.9525
-7.7898 -9.0011 -2.5162 0.9525
-7.6067 -9.1542 -2.5159 0.9525
-7.2314 -9.4493 -2.5152 0.9525
-7.0394 -9.5910 -2.5148 0.9525
-6.6472 -9.8627 -2.5141 0.9525
-6.4471 -9.9925 -2.5137 0.9525
-6.2445 -10.1183 -2.5133 0.9526
-6.0394 -10.2399 -2.5129 0.9526
-5.8319 -10.3574 -2.5125 0.9526
-5.6221 -10.4706 -2.5122 0.9526
-5.1961 -10.6843 -2.5114 0.9526
-4.9799 -10.7845 -2.5109 0.9526
-4.7589 -10.8738 -2.5090 0.9526
-4.5365 -10.9589 -2.5071 0.9527
-3.6249 -11.2290 -2.4942 0.9529
-3.3784 -11.2310 -2.4791 0.9532
-3.1347 -11.2327 -2.4651 0.9534
-2.6548 -11.2355 -2.4404 0.9539
-2.1836 -11.2376 -2.4198 0.9543
-1.7194 -11.2390 -2.4033 0.9546
-1.4894 -11.2394 -2.3966 0.9547
-0.5796 -11.2394 -2.3789 0.9550
-0.3538 -11.2390 -2.3769 0.9551
-0.1283 -11.2383 -2.3757 0.9551
0.0971 -11.2376 -2.3755 0.9551
0.3226 -11.2366 -2.3762 0.9551
1.0009 -11.2328 -2.3838 0.9549
1.2282 -11.2312 -2.3882 0.9549
1.6858 -11.2273 -2.3998 0.9546
2.3822 -11.2202 -2.4246 0.9542
4.2560 -10.9841 -2.4900 0.9530
4.6969 -10.8135 -2.4921 0.9529
4.9142 -10.7200 -2.4927 0.9529
5.1274 -10.6176 -2.4924 0.9529
5.3385 -10.5110 -2.4920 0.9529
5.5473 -10.4003 -2.4916 0.9530
5.7539 -10.2854 -2.4912 0.9530
6.1600 -10.0434 -2.4905 0.9530
6.3592 -9.9164 -2.4901 0.9530
6.5559 -9.7855 -2.4898 0.9530
6.9411 -9.5120 -2.4891 0.9530
7.3150 -9.2235 -2.4884 0.9530
7.8533 -8.7635 -2.4874 0.9530
8.3630 -8.2724 -2.4865 0.9530
8.5262 -8.1021 -2.4862 0.9531
8.9949 -7.5721 -2.4854 0.9531
9.1440 -7.3895 -2.4851 0.9531
9.2894 -7.2038 -2.4848 0.9531
9.5689 -6.8241 -2.4843 0.9531
9.7029 -6.6302 -2.4841 0.9531
10.1994 -5.8293 -2.4832 0.9531
10.3135 -5.6231 -2.4830 0.9531
10.7278 -4.7771 -2.4823 0.9531
10.9093 -4.3425 -2.4820 0.9531
-4.8372 8.7958 -2.3592 0.9596
-5.0133 8.6982 -2.3595 0.9596
-5.3595 8.4924 -2.3602 0.9596
-5.5295 8.3843 -2.3605 0.9596
-6.0259 8.0397 -2.3614 0.9596
-6.3450 7.7935 -2.3619 0.9595
-7.3343 7.6622 -2.4928 0.9574
-7.8540 7.2743 -2.5160 0.9570
-8.0028 7.1192 -2.5174 0.9569
-8.1447 6.9580 -2.5176 0.9569
-8.5509 6.4575 -2.5183 0.9569
-8.8045 6.1105 -2.5188 0.9569
-9.0440 5.7535 -2.5192 0.9569
-9.3758 5.2004 -2.5198 0.9569
-9.4789 5.0117 -2.5200 0.9569
-9.6736 4.6282 -2.5203 0.9569
-9.7650 4.4335 -2.5205 0.9569
-9.9362 4.0388 -2.5208 0.9569
-10.0157 3.8390 -2.5209 0.9569
-10.0912 3.6375 -2.5210 0.9569
-10.1626 3.4346 -2.5212 0.9569
-10.2299 3.2302 -2.5213 0.9569
-10.2931 3.0246 -2.5214 0.9569
-10.3521 2.8176 -2.5215 0.9569
-10.4575 2.4004 -2.5217 0.9569
-10.5038 2.1903 -2.5217 0.9569
-10.5459 1.9792 -2.5218 0.9569
-10.5837 1.7674 -2.5219 0.9569
-10.6465 1.3416 -2.5220 0.9569
-10.6714 1.1278 -2.5220 0.9569
-10.6920 0.9135 -2.5220 0.9569
-10.7083 0.6989 -2.5220 0.9569
-10.7277 0.2690 -2.5221 0.9569
-10.7310 0.0538 -2.5221 0.9569
-10.7298 -0.1615 -2.5220 0.9569
-10.7003 -0.8064 -2.5220 0.9569
-10.6818 -1.0208 -2.5219 0.9569
-10.6590 -1.2348 -2.5219 0.9569
-10.6318 -1.4482 -2.5218 0.9569
-10.5646 -1.8733 -2.5217 0.9569
-10.5246 -2.0848 -2.5216 0.9569
-10.4802 -2.2953 -2.5215 0.9569
-10.3789 -2.7135 -2.5213 0.9569
-10.3220 -2.9210 -2.5212 0.9569
-9.8933 -4.1376 -2.5203 0.9569
-9.7181 -4.5304 -2.5200 0.9569
-9.6246 -4.7241 -2.5198 0.9569
-9.5272 -4.9158 -2.5196 0.9569
-9.4260 -5.1054 -2.5194 0.9569
-9.3210 -5.2930 -2.5192 0.9569
-9.0997 -5.6616 -2.5188 0.9569
-8.9835 -5.8424 -2.5186 0.9569
-8.6135 -6.3703 -2.5179 0.9569
-8.4832 -6.5411 -2.5176 0.9569
-8.3495 -6.7092 -2.5174 0.9569
-7.9284 -7.1969 -2.5166 0.9570
-7.7816 -7.3537 -2.5163 0.9570
-7.6317 -7.5074 -2.5160 0.9570
-7.4787 -7.6581 -2.5157 0.9570
-7.1639 -7.9499 -2.5151 0.9570
-7.0022 -8.0910 -2.5148 0.9570
-6.8377 -8.2288 -2.5145 0.9570
-6.6704 -8.3632 -2.5142 0.9570
-6.3281 -8.6218 -2.5135 0.9570
-5.7959 -8.9832 -2.5125 0.9570
-5.2431 -9.3116 -2.5115 0.9570
-5.0546 -9.4136 -2.5112 0.9570
-4.8641 -9.5117 -2.5108 0.9571
-4.4774 -9.6963 -2.5101 0.9571
-4.2814 -9.7827 -2.5097 0.9571
-4.0838 -9.8652 -2.5094 0.9571
-3.6838 -10.0181 -2.5086 0.9571
-3.4816 -10.0884 -2.5082 0.9571
-3.0733 -10.2168 -2.5075 0.9571
-2.8674 -10.2748 -2.5071 0.9571
-2.4523 -10.3784 -2.5063 0.9571
-2.2433 -10.4238 -2.5059 0.9571
-2.0335 -10.4651 -2.5055 0.9571
-1.6117 -10.5350 -2.5048 0.9572
-0.9748 -10.6078 -2.5036 0.9572
-0.5485 -10.6350 -2.5028 0.9572
-0.1215 -10.6451 -2.5020 0.9572
0.3054 -10.6381 -2.5012 0.9572
0.9441 -10.5955 -2.5001 0.9572
1.5788 -10.5147 -2.4989 0.9573
1.7891 -10.4793 -2.4985 0.9573
2.6215 -10.2959 -2.4970 0.9573
2.8271 -10.2397 -2.4966 0.9573
3.2345 -10.1151 -2.4959 0.9573
3.4362 -10.0467 -2.4955 0.9573
3.6364 -9.9743 -2.4951 0.9573
4.0323 -9.8176 -2.4944 0.9573
4.6134 -9.5533 -2.4933 0.9573
5.3613 -9.1479 -2.4920 0.9574
5.5429 -9.0373 -2.4917 0.9574
6.0740 -8.6843 -2.4907 0.9574
6.2461 -8.5597 -2.4904 0.9574
6.4158 -8.4317 -2.4901 0.9574
7.2234 -7.7425 -2.4886 0.9574
7.3764 -7.5952 -2.4883 0.9574
7.6734 -7.2917 -2.4878 0.9574
7.8173 -7.1356 -2.4876 0.9574
7.9580 -6.9767 -2.4873 0.9574
8.0956 -6.8150 -2.4871 0.9574
8.4883 -6.3141 -2.4864 0.9575
8.6125 -6.1421 -2.4861 0.9575
8.7332 -5.9676 -2.4859 0.9575
8.8504 -5.7908 -2.4857 0.9575
8.9640 -5.6117 -2.4855 0.9575
9.0740 -5.4303 -2.4853 0.9575
9.1804 -5.2469 -2.4851 0.9575
9.3821 -4.8738 -2.4848 0.9575
9.4773 -4.6843 -2.4846 0.9575
9.5687 -4.4930 -2.4845 0.9575
9.6563 -4.3000 -2.4843 0.9575
9.7400 -4.1052 -2.4842 0.9575
-3.8998 8.2275 -2.3575 0.9631
-4.7069 7.8006 -2.3589 0.9631
-4.8629 7.7056 -2.3592 0.9631
-5.5164 7.6760 -2.4474 0.9617
-5.7481 7.6690 -2.4815 0.9612
-6.1176 7.5142 -2.5088 0.9608
-6.2727 7.3967 -2.5111 0.9607
-6.5739 7.1495 -2.5147 0.9607
-7.1285 6.6023 -2.5157 0.9606
-7.2602 6.4586 -2.5160 0.9606
-7.3889 6.3123 -2.5162 0.9606
-7.5147 6.1634 -2.5164 0.9606
-7.6375 6.0120 -2.5166 0.9606
-7.7572 5.8581 -2.5168 0.9606
-7.9871 5.5432 -2.5173 0.9606
-8.0973 5.3824 -2.5174 0.9606
-8.2042 5.2193 -2.5176 0.9606
-8.4081 4.8867 -2.5180 0.9606
-8.5050 4.7175 -2.5182 0.9606
-8.5985 4.5462 -2.5183 0.9606
-8.6885 4.3732 -2.5185 0.9606
-8.7750 4.1983 -2.5186 0.9606
-8.8579 4.0217 -2.5188 0.9606
-9.0130 3.6636 -2.5191 0.9606
-9.0851 3.4823 -2.5192 0.9606
-9.1536 3.2996 -2.5193 0.9606
-9.2793 2.9301 -2.5195 0.9606
-9.3366 2.7435 -2.5196 0.9606
-9.4397 2.3670 -2.5198 0.9606
-9.5276 1.9867 -2.5199 0.9606
-9.6000 1.6031 -2.5200 0.9606
-9.6795 1.0230 -2.5202 0.9606
-9.6982 0.8287 -2.5202 0.9606
-9.7306 0.2440 -2.5202 0.9606
-9.7335 0.0488 -2.5202 0.9606
-9.6890 -0.9259 -2.5201 0.9606
-9.6683 -1.1200 -2.5200 0.9606
-9.6152 -1.5067 -2.5199 0.9606
-9.5828 -1.6992 -2.5199 0.9606
-9.5465 -1.8910 -2.5198 0.9606
-9.5063 -2.0820 -2.5197 0.9606
-9.4623 -2.2722 -2.5196 0.9606
-9.4145 -2.4614 -2.5195 0.9606
-9.3629 -2.6496 -2.5194 0.9606
-9.0483 -3.5727 -2.5188 0.9606
-8.8967 -3.9322 -2.5185 0.9606
-8.8155 -4.1096 -2.5183 0.9606
-8.7308 -4.2853 -2.5182 0.9606
-8.5507 -4.6314 -2.5178 0.9606
-8.4555 -4.8016 -2.5176 0.9606
-8.3569 -4.9698 -2.5174 0.9606
-8.2549 -5.1360 -2.5173 0.9606
-8.1496 -5.3001 -2.5171 0.9606
-7.5747 -6.0867 -2.5160 0.9606
-7.3231 -6.3843 -2.5155 0.9607
-6.9239 -6.8111 -2.5147 0.9607
-6.3531 -7.3409 -2.5136 0.9607
-6.2039 -7.4660 -2.5134 0.9607
-6.0522 -7.5881 -2.5131 0.9607
-5.5830 -7.9355 -2.5122 0.9607
-5.4221 -8.0449 -2.5119 0.9607
-5.2590 -8.1511 -2.5116 0.9607
-5.0939 -8.2539 -2.5113 0.9607
-4.7576 -8.4494 -2.5107 0.9607
-4.5866 -8.5420 -2.5103 0.9607
-4.4138 -8.6312 -2.5100 0.9607
-4.2392 -8.7168 -2.5097 0.9607
-3.7059 -8.9524 -2.5087 0.9608
-3.5252 -9.0237 -2.5084 0.9608
-3.3430 -9.0914 -2.5080 0.9608
-3.1596 -9.1554 -2.5077 0.9608
-2.9750 -9.2156 -2.5073 0.9608
-2.7892 -9.2722 -2.5070 0.9608
-1.8456 -9.4982 -2.5052 0.9608
-1.4628 -9.5618 -2.5045 0.9608
-1.2706 -9.5879 -2.5042 0.9608
-1.0779 -9.6101 -2.5038 0.9608
-0.6914 -9.6428 -2.5031 0.9608
-0.4978 -9.6534 -2.5028 0.9608
-0.3041 -9.6600 -2.5024 0.9609
-0.1103 -9.6628 -2.5020 0.9609
0.0835 -9.6617 -2.5017 0.9609
0.2772 -9.6567 -2.5013 0.9609
0.4708 -9.6478 -2.5010 0.9609
0.8571 -9.6185 -2.5003 0.9609
1.2417 -9.5737 -2.4996 0.9609
1.6242 -9.5135 -2.4989 0.9609
2.1924 -9.3947 -2.4978 0.9609
2.7523 -9.2421 -2.4968 0.9609
3.1198 -9.1218 -2.4961 0.9609
3.8388 -8.8378 -2.4948 0.9610
4.1890 -8.6745 -2.4942 0.9610
4.3616 -8.5877 -2.4939 0.9610
5.5158 -7.8862 -2.4918 0.9610
5.6722 -7.7732 -2.4915 0.9610
5.8263 -7.6570 -2.4912 0.9610
5.9780 -7.5378 -2.4909 0.9610
6.1273 -7.4156 -2.4907 0.9610
6.4184 -7.1623 -2.4901 0.9610
6.5601 -7.0315 -2.4899 0.9610
6.6991 -6.8978 -2.4896 0.9610
6.8354 -6.7614 -2.4894 0.9611
6.9690 -6.6223 -2.4891 0.9611
7.0997 -6.4806 -2.4889 0.9611
7.2276 -6.3363 -2.4887 0.9611
7.3526 -6.1896 -2.4885 0.9611
7.4746 -6.0403 -2.4882 0.9611
7.7095 -5.7348 -2.4878 0.9611
7.8223 -5.5785 -2.4876 0.9611
8.2418 -4.9323 -2.4869 0.9611
8.3384 -4.7657 -2.4867 0.9611
8.6083 -4.2548 -2.4862 0.9611
8.6914 -4.0811 -2.4861 0.9611
8.7710 -3.9057 -2.4860 0.9611
8.8471 -3.7288 -2.4858 0.9611
8.9196 -3.5505 -2.4857 0.9611
-3.4593 7.6930 -2.3879 0.9655
-3.6444 7.6886 -2.4087 0.9652
-3.8328 7.6840 -2.4309 0.9649
-4.4156 7.6612 -2.5033 0.9639
-4.7259 7.4884 -2.5068 0.9639
-5.1787 7.2061 -2.5122 0.9638
-5.3227 7.1016 -2.5124 0.9638
-5.6044 6.8838 -2.5129 0.9638
-5.7419 6.7707 -2.5132 0.9638
-5.8771 6.6548 -2.5134 0.9638
-6.0099 6.5362 -2.5137 0.9638
-6.5168 6.0358 -2.5146 0.9637
-6.7547 5.7705 -2.5150 0.9637
-6.8697 5.6344 -2.5152 0.9637
-7.0912 5.3552 -2.5156 0.9637
-7.4020 4.9202 -2.5161 0.9637
-7.8599 4.1557 -2.5170 0.9637
-8.1694 3.5132 -2.5175 0.9637
-8.3045 3.1831 -2.5177 0.9637
-8.4819 2.6783 -2.5180 0.9637
-8.5831 2.3362 -2.5182 0.9637
-8.6285 2.1636 -2.5183 0.9637
-8.7087 1.8160 -2.5184 0.9637
-8.7436 1.6410 -2.5185 0.9637
-8.7749 1.4653 -2.5185 0.9637
-8.8027 1.2891 -2.5186 0.9637
-8.8646 0.7574 -2.5186 0.9637
-8.8781 0.5795 -2.5187 0.9637
-8.8879 0.4013 -2.5187 0.9637
-8.8942 0.2230 -2.5187 0.9637
-8.8914 -0.3122 -2.5186 0.9637
-8.8716 -0.6685 -2.5186 0.9637
-8.8562 -0.8463 -2.5186 0.9637
-8.7592 -1.5532 -2.5183 0.9637
-8.7260 -1.7285 -2.5183 0.9637
-8.5583 -2.4219 -2.5179 0.9637
-8.5077 -2.5929 -2.5178 0.9637
-8.3352 -3.0994 -2.5175 0.9637
-8.2710 -3.2658 -2.5174 0.9637
-8.2034 -3.4308 -2.5172 0.9637
-8.1325 -3.5945 -2.5171 0.9637
-8.0583 -3.7566 -2.5170 0.9637
-7.9809 -3.9172 -2.5168 0.9637
-7.8164 -4.2336 -2.5165 0.9637
-7.7294 -4.3892 -2.5163 0.9637
-7.6393 -4.5430 -2.5161 0.9637
-7.3506 -4.9931 -2.5156 0.9637
-7.2485 -5.1391 -2.5154 0.9637
-7.1434 -5.2830 -2.5152 0.9637
-7.0354 -5.4248 -2.5150 0.9637
-6.4541 -6.0992 -2.5139 0.9638
-6.3299 -6.2268 -2.5137 0.9638
-6.2032 -6.3519 -2.5134 0.9638
-6.0740 -6.4744 -2.5132 0.9638
-5.8083 -6.7114 -2.5127 0.9638
-5.6719 -6.8259 -2.5124 0.9638
-5.3925 -7.0464 -2.5119 0.9638
-5.2496 -7.1524 -2.5116 0.9638
-4.9574 -7.3555 -2.5111 0.9638
-4.8084 -7.4526 -2.5108 0.9638
-4.3500 -7.7256 -2.5099 0.9638
-4.0358 -7.8920 -2.5094 0.9638
-3.8762 -7.9704 -2.5091 0.9638
-3.5526 -8.1175 -2.5085 0.9638
-3.3887 -8.1861 -2.5081 0.9638
-3.2235 -8.2514 -2.5078 0.9638
-2.7204 -8.4272 -2.5069 0.9639
-2.3797 -8.5274 -2.5063 0.9639
-1.6878 -8.6862 -2.5050 0.9639
-1.3378 -8.7446 -2.5043 0.9639
-1.1620 -8.7686 -2.5040 0.9639
-0.9858 -8.7890 -2.5037 0.9639
-0.8092 -8.8058 -2.5034 0.9639
-0.6324 -8.8191 -2.5030 0.9639
-0.4553 -8.8289 -2.5027 0.9639
-0.2781 -8.8351 -2.5024 0.9639
-0.1009 -8.8377 -2.5021 0.9639
0.0764 -8.8368 -2.5017 0.9639
0.2536 -8.8324 -2.5014 0.9639
0.4306 -8.8243 -2.5011 0.9639
0.6074 -8.8128 -2.5008 0.9639
0.9601 -8.7791 -2.5001 0.9640
1.4857 -8.7021 -2.4991 0.9640
1.6597 -8.6694 -2.4988 0.9640
2.3479 -8.5043 -2.4976 0.9640
2.8540 -8.3446 -2.4966 0.9640
3.0204 -8.2847 -2.4963 0.9640
3.1856 -8.2214 -2.4960 0.9640
3.6729 -8.0122 -2.4951 0.9640
3.9903 -7.8566 -2.4946 0.9640
4.4540 -7.5999 -2.4937 0.9640
4.6050 -7.5082 -2.4935 0.9640
4.7542 -7.4135 -2.4932 0.9640
5.1897 -7.1120 -2.4924 0.9641
5.6063 -6.7850 -2.4916 0.9641
5.7407 -6.6705 -2.4914 0.9641
6.1297 -6.3115 -2.4907 0.9641
6.4964 -5.9299 -2.4900 0.9641
6.8396 -5.5272 -2.4894 0.9641
6.9485 -5.3885 -2.4892 0.9641
7.1579 -5.1047 -2.4889 0.9641
7.4504 -4.6641 -2.4883 0.9641
7.5419 -4.5134 -2.4882 0.9641
7.6304 -4.3610 -2.4880 0.9641
7.8775 -3.8936 -2.4876 0.9641
-3.4906 7.3642 -2.5067 0.9665
-3.7875 7.2266 -2.5095 0.9664
-3.9322 7.1502 -2.5099 0.9664
-4.4944 6.8148 -2.5109 0.9664
-4.6306 6.7240 -2.5111 0.9664
-4.7650 6.6304 -2.5114 0.9664
-4.8974 6.5341 -2.5116 0.9664
-5.2830 6.2295 -2.5123 0.9664
-5.4073 6.1229 -2.5125 0.9664
-5.7672 5.7881 -2.5132 0.9664
-5.9956 5.5531 -2.5136 0.9664
-6.1063 5.4322 -2.5138 0.9664
-6.4233 5.0563 -2.5144 0.9664
-6.5239 4.9268 -2.5145 0.9664
-6.6219 4.7953 -2.5147 0.9664
-6.7172 4.6618 -2.5149 0.9664
-6.8996 4.3893 -2.5152 0.9664
-7.0709 4.1096 -2.5155 0.9664
-7.1523 3.9671 -2.5156 0.9664
-7.3064 3.6775 -2.5159 0.9663
-7.5154 3.2320 -2.5163 0.9663
-7.6397 2.9283 -2.5165 0.9663
-7.6972 2.7746 -2.5166 0.9663
-7.7515 2.6197 -2.5167 0.9663
-7.8028 2.4638 -2.5168 0.9663
-7.8509 2.3069 -2.5169 0.9663
-7.8958 2.1491 -2.5169 0.9663
-7.9375 1.9904 -2.5170 0.9663
-8.0434 1.5096 -2.5172 0.9663
-8.0722 1.3480 -2.5172 0.9663
-8.1200 1.0232 -2.5173 0.9663
-8.1390 0.8601 -2.5173 0.9663
-8.1761 0.3692 -2.5174 0.9663
-8.1844 0.0410 -2.5174 0.9663
-8.1835 -0.1231 -2.5174 0.9663
-8.1611 -0.6150 -2.5173 0.9663
-8.1470 -0.7785 -2.5173 0.9663
-8.1089 -1.1046 -2.5172 0.9663
-8.0273 -1.5901 -2.5170 0.9663
-7.9936 -1.7507 -2.5169 0.9663
-7.9566 -1.9106 -2.5169 0.9663
-7.9164 -2.0697 -2.5168 0.9663
-7.8731 -2.2280 -2.5167 0.9663
-7.8265 -2.3854 -2.5166 0.9663
-7.7768 -2.5417 -2.5165 0.9663
-7.5467 -3.1562 -2.5160 0.9663
-7.4815 -3.3068 -2.5159 0.9663
-7.4133 -3.4559 -2.5158 0.9663
-7.3421 -3.6037 -2.5156 0.9664
-7.2680 -3.7501 -2.5155 0.9664
-7.1909 -3.8948 -2.5153 0.9664
-7.1109 -4.0380 -2.5152 0.9664
-6.9423 -4.3194 -2.5149 0.9664
-6.8539 -4.4574 -2.5147 0.9664
-6.7626 -4.5937 -2.5145 0.9664
-6.3708 -5.1193 -2.5138 0.9664
-6.1594 -5.3698 -2.5134 0.9664
-6.0500 -5.4918 -2.5132 0.9664
-5.9381 -5.6116 -2.5130 0.9664
-5.8239 -5.7290 -2.5127 0.9664
-5.7073 -5.8442 -2.5125 0.9664
-5.5885 -5.9569 -2.5123 0.9664
-5.3441 -6.1751 -2.5118 0.9664
-4.4244 -6.8575 -2.5101 0.9664
-4.2855 -6.9441 -2.5099 0.9664
-4.1450 -7.0279 -2.5096 0.9664
-4.0028 -7.1089 -2.5093 0.9664
-3.5669 -7.3343 -2.5085 0.9664
-3.4187 -7.4036 -2.5082 0.9664
-3.2692 -7.4698 -2.5080 0.9665
-3.1184 -7.5330 -2.5077 0.9665
-2.6588 -7.7043 -2.5068 0.9665
-2.5035 -7.7552 -2.5065 0.9665
-2.3472 -7.8029 -2.5062 0.9665
-2.1900 -7.8475 -2.5060 0.9665
-1.8731 -7.9272 -2.5054 0.9665
-1.7135 -7.9622 -2.5051 0.9665
-1.5533 -7.9940 -2.5048 0.9665
-1.3925 -8.0226 -2.5045 0.9665
-1.0694 -8.0701 -2.5039 0.9665
-0.7448 -8.1045 -2.5033 0.9665
-0.2560 -8.1317 -2.5024 0.9665
-0.0928 -8.1342 -2.5021 0.9665
0.2334 -8.1295 -2.5015 0.9665
0.3963 -8.1222 -2.5012 0.9665
0.7216 -8.0978 -2.5006 0.9665
0.8837 -8.0808 -2.5003 0.9666
1.2068 -8.0369 -2.4997 0.9666
1.6873 -7.9470 -2.4988 0.9666
2.0041 -7.8711 -2.4982 0.9666
2.4730 -7.7337 -2.4974 0.9666
2.9326 -7.5685 -2.4965 0.9666
3.0834 -7.5073 -2.4963 0.9666
3.3812 -7.3760 -2.4957 0.9666
3.5281 -7.3059 -2.4954 0.9666
3.6735 -7.2329 -2.4952 0.9666
3.8175 -7.1571 -2.4949 0.9666
3.9598 -7.0783 -2.4947 0.9666
4.2396 -6.9124 -2.4942 0.9666
4.3770 -6.8253 -2.4939 0.9666
4.7781 -6.5479 -2.4932 0.9666
4.9080 -6.4501 -2.4929 0.9666
5.0359 -6.3498 -2.4927 0.9667
5.1617 -6.2470 -2.4925 0.9667
5.2855 -6.1416 -2.4923 0.9667
5.4071 -6.0339 -2.4920 0.9667
5.5266 -5.9237 -2.4918 0.9667
5.7587 -5.6964 -2.4914 0.9667
6.4957 -4.8319 -2.4901 0.9667
6.6834 -4.5669 -2.4898 0.9667
6.9446 -4.1560 -2.4893 0.9667
7.1049 -3.8737 -2.4890 0.9667
7.1808 -3.7303 -2.4889 0.9667
7.2538 -3.5853 -2.4888 0.9667
7.3239 -3.4390 -2.4886 0.9667
7.3910 -3.2912 -2.4885 0.9667
7.5164 -2.9919 -2.4883 0.9667
-3.0946 6.8821 -2.5083 0.9687
-3.2324 6.8194 -2.5086 0.9687
-3.5039 6.6856 -2.5090 0.9687
-3.6377 6.6146 -2.5093 0.9687
-4.2836 6.2201 -2.5105 0.9687
-5.0019 5.6638 -2.5118 0.9687
-5.1149 5.5628 -2.5120 0.9686
-5.2259 5.4596 -2.5122 0.9686
-5.9415 4.6769 -2.5134 0.9686
-6.2131 4.3120 -2.5139 0.9686
-6.2987 4.1868 -2.5141 0.9686
-6.4623 3.9313 -2.5144 0.9686
-6.6155 3.6694 -2.5146 0.9686
-6.8896 3.1280 -2.5151 0.9686
-6.9512 2.9894 -2.5152 0.9686
-7.0101 2.8495 -2.5153 0.9686
-7.1192 2.5662 -2.5155 0.9686
-7.3029 1.9877 -2.5158 0.9686
-7.3415 1.8409 -2.5159 0.9686
-7.3771 1.6933 -2.5160 0.9686
-7.4393 1.3962 -2.5161 0.9686
-7.4660 1.2467 -2.5161 0.9686
-7.5422 0.6444 -2.5162 0.9686
-7.5621 0.3415 -2.5162 0.9686
-7.5697 0.0379 -2.5162 0.9686
-7.5650 -0.2657 -2.5162 0.9686
-7.5482 -0.5688 -2.5162 0.9686
-7.5191 -0.8710 -2.5161 0.9686
-7.4245 -1.4707 -2.5159 0.9686
-7.3933 -1.6192 -2.5158 0.9686
-7.3220 -1.9143 -2.5157 0.9686
-7.2819 -2.0607 -2.5156 0.9686
-7.2389 -2.2062 -2.5155 0.9686
-7.1929 -2.3509 -2.5154 0.9686
-7.1440 -2.4946 -2.5153 0.9686
-7.0377 -2.7788 -2.5151 0.9686
-6.9802 -2.9193 -2.5150 0.9686
-6.9199 -3.0585 -2.5149 0.9686
-6.8569 -3.1966 -2.5148 0.9686
-6.7910 -3.3333 -2.5146 0.9686
-6.7225 -3.4686 -2.5145 0.9686
-6.6512 -3.6025 -2.5144 0.9686
-6.5006 -3.8659 -2.5141 0.9686
-6.1684 -4.3733 -2.5134 0.9686
-6.0790 -4.4958 -2.5133 0.9686
-5.9872 -4.6165 -2.5131 0.9686
-5.7964 -4.8522 -2.5127 0.9686
-5.6975 -4.9671 -2.5125 0.9686
-5.5963 -5.0800 -2.5124 0.9686
-5.3872 -5.2995 -2.5120 0.9686
-5.0576 -5.6125 -2.5113 0.9687
-4.9436 -5.7123 -2.5111 0.9687
-4.8276 -5.8098 -2.5109 0.9687
-4.7097 -5.9049 -2.5107 0.9687
-4.3449 -6.1757 -2.5100 0.9687
-4.0930 -6.3438 -2.5095 0.9687
-3.8346 -6.5016 -2.5090 0.9687
-3.7030 -6.5765 -2.5088 0.9687
-3.2999 -6.7853 -2.5080 0.9687
-3.0245 -6.9108 -2.5075 0.9687
-2.7444 -7.0250 -2.5070 0.9687
-2.6027 -7.0779 -2.5068 0.9687
-2.3162 -7.1751 -2.5062 0.9687
-2.1716 -7.2193 -2.5060 0.9687
-2.0262 -7.2606 -2.5057 0.9687
-1.7330 -7.3344 -2.5051 0.9687
-1.4372 -7.3964 -2.5046 0.9687
-1.2884 -7.4229 -2.5043 0.9687
-0.6891 -7.4990 -2.5032 0.9688
-0.3877 -7.5189 -2.5027 0.9688
-0.2369 -7.5244 -2.5024 0.9688
-0.0859 -7.5268 -2.5021 0.9688
0.0651 -7.5261 -2.5018 0.9688
0.3667 -7.5158 -2.5013 0.9688
0.6677 -7.4934 -2.5007 0.9688
0.8177 -7.4777 -2.5004 0.9688
0.9674 -7.4589 -2.5002 0.9688
1.2655 -7.4125 -2.4996 0.9688
1.5614 -7.3542 -2.4991 0.9688
2.0002 -7.2447 -2.4983 0.9688
2.1448 -7.2023 -2.4980 0.9688
2.2886 -7.1571 -2.4977 0.9688
2.4314 -7.1091 -2.4975 0.9688
2.5732 -7.0581 -2.4972 0.9688
2.7140 -7.0044 -2.4970 0.9688
2.8536 -6.9478 -2.4967 0.9688
3.2653 -6.7616 -2.4960 0.9688
3.7952 -6.4757 -2.4950 0.9689
3.9239 -6.3977 -2.4948 0.9689
4.1766 -6.2340 -2.4943 0.9689
4.4224 -6.0605 -2.4939 0.9689
4.6611 -5.8772 -2.4934 0.9689
4.8922 -5.6846 -2.4930 0.9689
5.0048 -5.5849 -2.4928 0.9689
5.1154 -5.4830 -2.4926 0.9689
5.2239 -5.3789 -2.4924 0.9689
5.3304 -5.2726 -2.4922 0.9689
5.4346 -5.1643 -2.4920 0.9689
5.5367 -5.0539 -2.4919 0.9689
5.8293 -4.7108 -2.4913 0.9689
5.9223 -4.5926 -2.4912 0.9689
6.1009 -4.3509 -2.4908 0.9689
6.1865 -4.2274 -2.4907 0.9689
6.3503 -3.9755 -2.4904 0.9689
6.4284 -3.8471 -2.4903 0.9689
6.5039 -3.7172 -2.4901 0.9689
6.6471 -3.4530 -2.4899 0.9689
6.7147 -3.3189 -2.4898 0.9689
6.7796 -3.1834 -2.4897 0.9689
-3.2564 6.2133 -2.5086 0.9706
-3.3806 6.1472 -2.5088 0.9706
-4.0963 5.6999 -2.5101 0.9706
-4.6482 5.2633 -2.5111 0.9706
-4.7532 5.1694 -2.5113 0.9706
-4.9574 4.9753 -2.5116 0.9706
-5.0565 4.8752 -2.5118 0.9706
-5.1536 4.7732 -2.5120 0.9706
-5.3416 4.5633 -2.5123 0.9706
-5.4324 4.4555 -2.5125 0.9706
-5.6074 4.2346 -2.5128 0.9706
-5.6915 4.1216 -2.5130 0.9706
-6.0048 3.6530 -2.5135 0.9706
-6.0772 3.5320 -2.5136 0.9706
-6.1471 3.4096 -2.5138 0.9706
-6.3419 3.0342 -2.5141 0.9706
-6.4590 2.7777 -2.5143 0.9706
-6.5657 2.5166 -2.5145 0.9706
-6.7058 2.1174 -2.5147 0.9706
-6.7471 1.9826 -2.5148 0.9706
-6.7856 1.8469 -2.5149 0.9706
-6.8849 1.4356 -2.5150 0.9706
-6.9371 1.1584 -2.5151 0.9706
-6.9591 1.0191 -2.5152 0.9706
-6.9782 0.8793 -2.5152 0.9706
-6.9945 0.7392 -2.5152 0.9706
-7.0264 0.3173 -2.5152 0.9706
-7.0335 0.0352 -2.5152 0.9706
-7.0014 -0.6691 -2.5152 0.9706
-6.9482 -1.0888 -2.5150 0.9706
-6.9248 -1.2279 -2.5150 0.9706
-6.8986 -1.3665 -2.5149 0.9706
-6.8379 -1.6420 -2.5148 0.9706
-6.6835 -2.1844 -2.5145 0.9706
-6.5901 -2.4505 -2.5143 0.9706
-6.5393 -2.5821 -2.5142 0.9706
-6.4300 -2.8420 -2.5140 0.9706
-6.3714 -2.9702 -2.5139 0.9706
-6.3103 -3.0973 -2.5138 0.9706
-6.0405 -3.5923 -2.5132 0.9706
-5.6488 -4.1777 -2.5125 0.9706
-5.5636 -4.2899 -2.5123 0.9706
-5.4760 -4.4003 -2.5122 0.9706
-5.2004 -4.7207 -2.5116 0.9706
-5.0062 -4.9247 -2.5113 0.9706
-4.8040 -5.1207 -2.5109 0.9706
-4.3768 -5.4875 -2.5101 0.9706
-4.2655 -5.5737 -2.5099 0.9706
-4.0378 -5.7393 -2.5095 0.9706
-3.9216 -5.8186 -2.5092 0.9706
-3.8038 -5.8955 -2.5090 0.9706
-3.6844 -5.9701 -2.5088 0.9706
-3.5636 -6.0423 -2.5086 0.9706
-3.4414 -6.1120 -2.5083 0.9706
-3.1930 -6.2439 -2.5079 0.9706
-2.9395 -6.3657 -2.5074 0.9707
-2.8109 -6.4228 -2.5072 0.9707
-2.6813 -6.4772 -2.5069 0.9707
-2.5506 -6.5291 -2.5067 0.9707
-2.4189 -6.5783 -2.5064 0.9707
-2.2863 -6.6248 -2.5062 0.9707
-2.1528 -6.6687 -2.5059 0.9707
-2.0184 -6.7098 -2.5057 0.9707
-1.4736 -6.8472 -2.5047 0.9707
-1.3358 -6.8747 -2.5044 0.9707
-0.9197 -6.9405 -2.5037 0.9707
-0.6405 -6.9703 -2.5031 0.9707
-0.5006 -6.9811 -2.5029 0.9707
-0.2202 -6.9941 -2.5024 0.9707
0.0605 -6.9958 -2.5019 0.9707
0.2007 -6.9925 -2.5016 0.9707
0.3409 -6.9863 -2.5013 0.9707
0.7602 -6.9511 -2.5006 0.9707
0.8993 -6.9337 -2.5003 0.9707
1.1764 -6.8907 -2.4998 0.9707
1.3142 -6.8650 -2.4995 0.9707
1.5882 -6.8054 -2.4990 0.9707
1.8594 -6.7349 -2.4985 0.9708
2.2604 -6.6089 -2.4978 0.9708
2.3922 -6.5617 -2.4976 0.9708
2.5231 -6.5117 -2.4973 0.9708
2.6529 -6.4592 -2.4971 0.9708
2.7817 -6.4041 -2.4969 0.9708
2.9093 -6.3464 -2.4966 0.9708
3.4073 -6.0907 -2.4957 0.9708
3.6482 -5.9481 -2.4953 0.9708
3.7664 -5.8732 -2.4951 0.9708
3.8831 -5.7960 -2.4949 0.9708
4.1117 -5.6347 -2.4945 0.9708
4.2235 -5.5507 -2.4942 0.9708
4.5486 -5.2854 -2.4937 0.9708
4.7562 -5.0980 -2.4933 0.9708
4.9561 -4.9024 -2.4929 0.9708
5.3316 -4.4883 -2.4923 0.9708
5.5066 -4.2703 -2.4919 0.9708
5.5908 -4.1588 -2.4918 0.9708
5.6728 -4.0456 -2.4917 0.9708
5.7524 -3.9308 -2.4915 0.9708
5.9048 -3.6965 -2.4912 0.9708
5.9774 -3.5772 -2.4911 0.9708
6.1808 -3.2108 -2.4908 0.9708
6.3041 -2.9601 -2.4905 0.9708
6.3619 -2.8330 -2.4904 0.9708
-2.9211 5.8563 -2.5079 0.9724
-3.2688 5.6715 -2.5086 0.9723
-3.3822 5.6052 -2.5088 0.9723
-3.4942 5.5367 -2.5090 0.9723
-3.8217 5.3179 -2.5096 0.9723
-4.0325 5.1611 -2.5100 0.9723
-4.6249 4.6417 -2.5110 0.9723
-4.7174 4.5483 -2.5112 0.9723
-4.8079 4.4530 -2.5113 0.9723
-4.8966 4.3560 -2.5115 0.9723
-4.9833 4.2572 -2.5117 0.9723
-5.0680 4.1566 -2.5118 0.9723
-5.3096 3.8450 -2.5122 0.9723
-5.4601 3.6294 -2.5125 0.9723
-5.5321 3.5193 -2.5126 0.9723
-5.6019 3.4079 -2.5128 0.9723
-5.7346 3.1808 -2.5130 0.9723
-5.7974 3.0652 -2.5131 0.9723
-5.8580 2.9485 -2.5132 0.9723
-5.9162 2.8305 -2.5133 0.9723
-5.9720 2.7114 -2.5134 0.9723
-6.0254 2.5912 -2.5135 0.9723
-6.0764 2.4699 -2.5136 0.9723
-6.1709 2.2244 -2.5138 0.9723
-6.2145 2.1003 -2.5138 0.9723
-6.2555 1.9753 -2.5139 0.9723
-6.2940 1.8495 -2.5140 0.9723
-6.3300 1.7229 -2.5140 0.9723
-6.4482 1.2102 -2.5142 0.9723
-6.5096 0.8203 -2.5143 0.9723
-6.5473 0.4273 -2.5144 0.9723
-6.5592 0.1644 -2.5144 0.9723
-6.5604 -0.0987 -2.5144 0.9723
-6.5511 -0.3617 -2.5143 0.9723
-6.5425 -0.4930 -2.5143 0.9723
-6.5312 -0.6241 -2.5143 0.9723
-6.5173 -0.7550 -2.5143 0.9723
-6.5008 -0.8855 -2.5142 0.9723
-6.4816 -1.0157 -2.5142 0.9723
-6.4084 -1.4035 -2.5140 0.9723
-6.2746 -1.9124 -2.5138 0.9723
-6.1477 -2.2860 -2.5135 0.9723
-6.0506 -2.5305 -2.5133 0.9723
-5.9984 -2.6512 -2.5132 0.9723
-5.8867 -2.8894 -2.5130 0.9723
-5.8273 -3.0067 -2.5129 0.9723
-5.7656 -3.1229 -2.5128 0.9723
-5.5665 -3.4634 -2.5124 0.9723
-5.4957 -3.5741 -2.5122 0.9723
-5.1903 -4.0021 -2.5117 0.9723
-5.1087 -4.1051 -2.5115 0.9723
-4.7621 -4.5002 -2.5108 0.9723
-4.4819 -4.7774 -2.5103 0.9723
-4.3849 -4.8659 -2.5101 0.9723
-4.2861 -4.9525 -2.5100 0.9723
-4.1856 -5.0371 -2.5098 0.9723
-4.0834 -5.1197 -2.5096 0.9723
-3.9796 -5.2001 -2.5094 0.9723
-3.8742 -5.2785 -2.5092 0.9723
-3.7673 -5.3547 -2.5090 0.9723
-3.6588 -5.4287 -2.5088 0.9723
-3.0956 -5.7653 -2.5077 0.9724
-2.6227 -5.9927 -2.5068 0.9724
-2.5018 -6.0436 -2.5066 0.9724
-2.3799 -6.0920 -2.5064 0.9724
-2.2570 -6.1379 -2.5062 0.9724
-1.7572 -6.2968 -2.5052 0.9724
-1.6304 -6.3301 -2.5050 0.9724
-1.3750 -6.3892 -2.5045 0.9724
-1.2465 -6.4149 -2.5043 0.9724
-0.8582 -6.4764 -2.5036 0.9724
-0.7281 -6.4917 -2.5033 0.9724
-0.4671 -6.5144 -2.5028 0.9724
-0.3363 -6.5218 -2.5026 0.9724
-0.2054 -6.5266 -2.5024 0.9724
0.5792 -6.5003 -2.5009 0.9724
0.9688 -6.4519 -2.5002 0.9724
1.0979 -6.4306 -2.5000 0.9724
1.2265 -6.4067 -2.4997 0.9724
1.3546 -6.3802 -2.4995 0.9724
1.6091 -6.3195 -2.4990 0.9725
1.7353 -6.2854 -2.4988 0.9725
1.9856 -6.2096 -2.4983 0.9725
2.1096 -6.1680 -2.4981 0.9725
2.2326 -6.1239 -2.4979 0.9725
2.3548 -6.0774 -2.4977 0.9725
2.7153 -5.9232 -2.4970 0.9725
2.8333 -5.8670 -2.4968 0.9725
2.9501 -5.8086 -2.4966 0.9725
3.1801 -5.6846 -2.4962 0.9725
3.2932 -5.6192 -2.4960 0.9725
3.4050 -5.5516 -2.4958 0.9725
3.7318 -5.3355 -2.4952 0.9725
3.8377 -5.2592 -2.4950 0.9725
4.0449 -5.1003 -2.4946 0.9725
4.1461 -5.0178 -2.4944 0.9725
4.2456 -4.9333 -2.4942 0.9725
4.4394 -4.7584 -2.4939 0.9725
4.6260 -4.5759 -2.4936 0.9725
4.8919 -4.2887 -2.4931 0.9725
4.9766 -4.1895 -2.4929 0.9725
5.0593 -4.0886 -2.4928 0.9725
5.2951 -3.7763 -2.4924 0.9725
5.4418 -3.5605 -2.4921 0.9725
5.6452 -3.2264 -2.4917 0.9725
5.7085 -3.1124 -2.4916 0.9725
5.7695 -2.9971 -2.4915 0.9725
5.9386 -2.6445 -2.4912 0.9725
5.9902 -2.5247 -2.4911 0.9725
6.0395 -2.4040 -2.4911 0.9725
-2.5123 5.5870 -2.5072 0.9739
-2.6240 5.5360 -2.5074 0.9739
-2.7348 5.4827 -2.5076 0.9739
-2.9529 5.3695 -2.5080 0.9739
-3.3747 5.1171 -2.5087 0.9739
-3.4769 5.0488 -2.5089 0.9739
-3.6771 4.9060 -2.5093 0.9738
-3.7750 4.8316 -2.5095 0.9738
-4.3295 4.3452 -2.5105 0.9738
-4.5838 4.0777 -2.5109 0.9738
-4.6649 3.9852 -2.5111 0.9738
-4.7442 3.8911 -2.5112 0.9738
-4.8969 3.6981 -2.5115 0.9738
-5.1112 3.3974 -2.5119 0.9738
-5.1785 3.2944 -2.5120 0.9738
-5.2438 3.1900 -2.5121 0.9738
-5.3680 2.9774 -2.5123 0.9738
-5.5380 2.6496 -2.5126 0.9738
-5.5902 2.5381 -2.5127 0.9738
-5.6402 2.4255 -2.5128 0.9738
-5.6879 2.3120 -2.5129 0.9738
-5.8171 1.9660 -2.5131 0.9738
-5.8555 1.8490 -2.5132 0.9738
-5.9565 1.4936 -2.5133 0.9738
-5.9854 1.3739 -2.5134 0.9738
-6.0118 1.2536 -2.5134 0.9738
-6.0359 1.1328 -2.5135 0.9738
-6.0575 1.0115 -2.5135 0.9738
-6.1075 0.6455 -2.5136 0.9738
-6.1193 0.5228 -2.5136 0.9738
-6.1409 -0.0924 -2.5136 0.9738
-6.1378 -0.2156 -2.5136 0.9738
-6.1322 -0.3386 -2.5136 0.9738
-6.1241 -0.4615 -2.5135 0.9738
-6.1135 -0.5842 -2.5135 0.9738
-6.1005 -0.7067 -2.5135 0.9738
-6.0671 -0.9508 -2.5134 0.9738
-5.9408 -1.5532 -2.5132 0.9738
-5.9083 -1.6720 -2.5131 0.9738
-5.8734 -1.7901 -2.5130 0.9738
-5.8362 -1.9075 -2.5129 0.9738
-5.7966 -2.0241 -2.5129 0.9738
-5.7104 -2.2547 -2.5127 0.9738
-5.6638 -2.3687 -2.5126 0.9738
-5.6149 -2.4817 -2.5125 0.9738
-5.5105 -2.7047 -2.5123 0.9738
-5.2750 -3.1373 -2.5119 0.9738
-5.2108 -3.2420 -2.5117 0.9738
-5.0761 -3.4480 -2.5115 0.9738
-4.9332 -3.6484 -2.5112 0.9738
-4.5418 -4.1228 -2.5105 0.9738
-4.0124 -4.6363 -2.5095 0.9738
-3.7256 -4.8682 -2.5089 0.9739
-3.6269 -4.9415 -2.5087 0.9739
-2.7891 -5.4541 -2.5072 0.9739
-2.6789 -5.5085 -2.5070 0.9739
-2.5677 -5.5607 -2.5068 0.9739
-2.4555 -5.6106 -2.5065 0.9739
-2.3423 -5.6582 -2.5063 0.9739
-1.7633 -5.8618 -2.5053 0.9739
-1.5265 -5.9267 -2.5048 0.9739
-1.2874 -5.9821 -2.5044 0.9739
-0.9251 -6.0471 -2.5037 0.9739
-0.8036 -6.0639 -2.5035 0.9739
-0.5596 -6.0901 -2.5030 0.9739
-0.4374 -6.0996 -2.5028 0.9739
-0.1924 -6.1111 -2.5024 0.9739
-0.0698 -6.1132 -2.5021 0.9739
0.0528 -6.1128 -2.5019 0.9739
0.5424 -6.0867 -2.5010 0.9739
0.6643 -6.0741 -2.5008 0.9739
0.7859 -6.0590 -2.5006 0.9739
0.9071 -6.0415 -2.5003 0.9739
1.1485 -5.9992 -2.4999 0.9739
1.2685 -5.9744 -2.4997 0.9739
1.5068 -5.9177 -2.4992 0.9740
1.6250 -5.8858 -2.4990 0.9740
1.9755 -5.7759 -2.4984 0.9740
2.0907 -5.7347 -2.4982 0.9740
2.4312 -5.5972 -2.4975 0.9740
2.6533 -5.4943 -2.4971 0.9740
2.7627 -5.4395 -2.4969 0.9740
2.8710 -5.3826 -2.4967 0.9740
2.9781 -5.3235 -2.4966 0.9740
3.2921 -5.1336 -2.4960 0.9740
3.4948 -4.9968 -2.4956 0.9740
3.5941 -4.9253 -2.4954 0.9740
3.6919 -4.8519 -2.4953 0.9740
3.7882 -4.7766 -2.4951 0.9740
3.8829 -4.6993 -2.4949 0.9740
3.9761 -4.6202 -2.4947 0.9740
4.0677 -4.5392 -2.4946 0.9740
4.1577 -4.4564 -2.4944 0.9740
4.3325 -4.2856 -2.4941 0.9740
4.4173 -4.1976 -2.4940 0.9740
4.7384 -3.8292 -2.4934 0.9740
4.9593 -3.5367 -2.4930 0.9740
5.1622 -3.2317 -2.4926 0.9740
5.3465 -2.9150 -2.4923 0.9740
5.5621 -2.4768 -2.4919 0.9740
5.6105 -2.3647 -2.4918 0.9740
5.6566 -2.2516 -2.4918 0.9740
-2.5679 5.1481 -2.5073 0.9752
-2.6708 5.0960 -2.5074 0.9752
-2.8734 4.9855 -2.5078 0.9752
-2.9731 4.9272 -2.5080 0.9752
-3.0715 4.8670 -2.5082 0.9752
-3.3593 4.6744 -2.5087 0.9752
-3.4526 4.6064 -2.5089 0.9752
-3.5445 4.5365 -2.5090 0.9752
-3.7241 4.3913 -2.5093 0.9752
-3.9821 4.1602 -2.5098 0.9752
-4.0650 4.0797 -2.5100 0.9752
-4.1462 3.9976 -2.5101 0.9752
-4.3037 3.8286 -2.5104 0.9752
-4.3799 3.7417 -2.5105 0.9752
-4.5269 3.5634 -2.5108 0.9752
-4.7336 3.2852 -2.5112 0.9752
-4.7988 3.1898 -2.5113 0.9752
-4.9233 2.9950 -2.5115 0.9752
-5.0951 2.6939 -2.5118 0.9752
-5.1483 2.5913 -2.5119 0.9752
-5.1994 2.4876 -2.5120 0.9752
-5.4614 1.8458 -2.5124 0.9752
-5.4975 1.7359 -2.5125 0.9752
-5.5313 1.6253 -2.5125 0.9752
-5.5629 1.5141 -2.5126 0.9752
-5.5923 1.4023 -2.5127 0.9752
-5.6194 1.2899 -2.5127 0.9752
-5.6442 1.1769 -2.5127 0.9752
-5.6667 1.0635 -2.5128 0.9752
-5.6870 0.9497 -2.5128 0.9752
-5.7050 0.8354 -2.5128 0.9752
-5.7340 0.6060 -2.5129 0.9752
-5.7450 0.4909 -2.5129 0.9752
-5.7537 0.3755 -2.5129 0.9752
-5.7653 -0.0867 -2.5129 0.9752
-5.7624 -0.2024 -2.5129 0.9752
-5.7571 -0.3179 -2.5129 0.9752
-5.7397 -0.5485 -2.5128 0.9752
-5.7129 -0.7782 -2.5128 0.9752
-5.6555 -1.1203 -2.5127 0.9752
-5.6058 -1.3461 -2.5125 0.9752
-5.5775 -1.4582 -2.5125 0.9752
-5.5470 -1.5698 -2.5124 0.9752
-5.5143 -1.6806 -2.5124 0.9752
-5.4028 -2.0090 -2.5121 0.9752
-5.3612 -2.1169 -2.5121 0.9752
-5.2717 -2.3300 -2.5119 0.9752
-5.2237 -2.4352 -2.5118 0.9752
-5.1736 -2.5394 -2.5117 0.9752
-4.9526 -2.9453 -2.5113 0.9752
-4.8301 -3.1413 -2.5110 0.9752
-4.7659 -3.2373 -2.5109 0.9752
-4.6317 -3.4255 -2.5107 0.9752
-4.0231 -4.1196 -2.5095 0.9752
-3.8542 -4.2771 -2.5092 0.9752
-3.4981 -4.5710 -2.5085 0.9752
-3.4055 -4.6399 -2.5083 0.9752
-3.3115 -4.7069 -2.5082 0.9752
-3.2162 -4.7720 -2.5080 0.9752
-3.1196 -4.8352 -2.5078 0.9752
-3.0218 -4.8965 -2.5076 0.9752
-2.9228 -4.9557 -2.5074 0.9752
-2.8226 -5.0130 -2.5073 0.9752
-2.6189 -5.1213 -2.5069 0.9752
-2.5155 -5.1724 -2.5067 0.9752
-2.0922 -5.3557 -2.5059 0.9752
-1.8755 -5.4344 -2.5055 0.9752
-1.7660 -5.4705 -2.5053 0.9752
-1.6558 -5.5044 -2.5051 0.9752
-1.5449 -5.5360 -2.5049 0.9752
-0.8687 -5.6786 -2.5036 0.9752
-0.7546 -5.6944 -2.5034 0.9752
-0.4107 -5.7280 -2.5028 0.9753
-0.2957 -5.7346 -2.5026 0.9753
-0.1806 -5.7389 -2.5024 0.9753
-0.0655 -5.7409 -2.5021 0.9753
0.0496 -5.7406 -2.5019 0.9753
0.1647 -5.7379 -2.5017 0.9753
0.2798 -5.7330 -2.5015 0.9753
0.3946 -5.7257 -2.5013 0.9753
1.0786 -5.6341 -2.5000 0.9753
1.1913 -5.6109 -2.4998 0.9753
1.3035 -5.5854 -2.4996 0.9753
1.4151 -5.5577 -2.4994 0.9753
1.6366 -5.4956 -2.4990 0.9753
2.3882 -5.2096 -2.4976 0.9753
2.7972 -5.0000 -2.4969 0.9753
2.8967 -4.9426 -2.4967 0.9753
2.9950 -4.8831 -2.4965 0.9753
3.0921 -4.8217 -2.4964 0.9753
3.1879 -4.7584 -2.4962 0.9753
3.5581 -4.4864 -2.4955 0.9753
3.8207 -4.2636 -2.4951 0.9753
3.9052 -4.1858 -2.4949 0.9753
4.2271 -3.8585 -2.4943 0.9753
4.3034 -3.7728 -2.4942 0.9753
4.3780 -3.6855 -2.4941 0.9753
4.4508 -3.5967 -2.4939 0.9753
4.5218 -3.5066 -2.4938 0.9753
4.6583 -3.3221 -2.4936 0.9753
5.0221 -2.7382 -2.4929 0.9754
5.0758 -2.6368 -2.4928 0.9754
5.1275 -2.5344 -2.4927 0.9754
5.1771 -2.4310 -2.4926 0.9754
5.3134 -2.1150 -2.4924 0.9754
-2.2208 4.9388 -2.5066 0.9764
-2.3196 4.8937 -2.5068 0.9764
-2.6102 4.7463 -2.5073 0.9764
-2.7051 4.6933 -2.5075 0.9764
-2.7988 4.6385 -2.5077 0.9764
-2.9830 4.5231 -2.5080 0.9764
-3.0733 4.4627 -2.5082 0.9764
-3.1624 4.4004 -2.5083 0.9764
-3.2502 4.3364 -2.5085 0.9764
-3.3367 4.2706 -2.5086 0.9764
-3.5057 4.1338 -2.5089 0.9764
-3.5881 4.0629 -2.5091 0.9764
-3.6691 3.9904 -2.5092 0.9764
-3.8266 3.8405 -2.5095 0.9764
-3.9031 3.7632 -2.5096 0.9764
-4.0513 3.6040 -2.5099 0.9764
-4.3279 3.2684 -2.5104 0.9764
-4.3928 3.1811 -2.5105 0.9764
-4.4559 3.0925 -2.5106 0.9764
-4.5172 3.0026 -2.5107 0.9764
-4.5767 2.9116 -2.5109 0.9764
-4.7961 2.5358 -2.5112 0.9764
-4.8942 2.3416 -2.5114 0.9764
-4.9404 2.2430 -2.5115 0.9764
-4.9845 2.1436 -2.5116 0.9764
