ply
format ascii 1.0
element vertex 1536
property float32 x
property float32 y
property float32 z
property float32 I
end_header
1.7379 -18.6160 2.8643 0.9271
2.1317 -18.7578 2.8921 0.9265
2.5355 -18.9185 2.9241 0.9257
2.9234 -18.9197 2.9328 0.9255
3.3137 -18.9209 2.9427 0.9252
3.7068 -18.9221 2.9539 0.9249
4.1031 -18.9233 2.9663 0.9246
4.4759 -18.8111 2.9622 0.9247
4.9065 -18.9258 2.9952 0.9239
5.2936 -18.8527 2.9998 0.9238
5.6363 -18.6281 2.9815 0.9243
6.0474 -18.6294 3.0005 0.9238
6.4639 -18.6307 3.0210 0.9233
7.4331 -18.9337 3.1160 0.9210
8.2934 -18.8619 3.1565 0.9200
9.2151 -18.8648 3.2163 0.9185
9.7279 -18.9408 3.2619 0.9174
10.5414 -18.6433 3.2810 0.9170
11.0419 -18.6448 3.3196 0.9160
25.2073 -35.6870 6.6933 0.8379
27.5588 -34.4169 6.7545 0.8366
28.5236 -32.8292 6.6624 0.8386
29.5902 -32.7070 6.7568 0.8365
33.7381 -35.8197 7.5382 0.8194
53.0076 -54.0618 11.5988 0.7361
24.9503 -24.4451 5.3510 0.8682
25.4258 -23.9299 5.3489 0.8682
27.2966 -24.6764 5.6371 0.8617
32.7918 31.8535 5.9532 0.8316
24.7241 25.0005 4.5787 0.8678
23.2841 25.5159 4.4982 0.8699
22.0482 25.1576 4.3561 0.8738
22.2215 26.4065 4.4942 0.8700
21.7989 26.9857 4.5174 0.8694
21.8025 28.1268 4.6342 0.8663
24.1016 32.4161 5.2602 0.8496
16.3736 25.0397 3.8959 0.8863
14.0772 24.6495 3.6964 0.8918
13.6064 24.9761 3.7037 0.8916
13.6140 27.5696 4.0040 0.8834
14.5662 32.7468 4.6672 0.8654
13.7887 32.7538 4.6278 0.8664
13.6419 36.4287 5.0655 0.8548
11.5100 37.4608 5.1032 0.8538
10.0570 35.2360 4.7717 0.8626
8.7612 36.1331 4.8416 0.8607
7.5079 37.4732 4.9768 0.8571
6.7290 37.4756 4.9582 0.8576
2.6766 16.8434 2.2209 0.9335
1.8814 15.9456 2.0908 0.9373
1.5379 15.7443 2.0600 0.9382
1.1943 15.4193 2.0139 0.9395
0.8891 15.5185 2.0241 0.9392
0.5739 15.4385 2.0118 0.9396
-1.6767 16.1650 2.1163 0.9365
-5.7311 34.7245 4.5830 0.8677
-6.4559 34.7585 4.6037 0.8671
-7.9046 34.7298 4.6382 0.8662
-9.3369 37.5254 5.0356 0.8556
-10.1415 37.5279 5.0622 0.8549
-12.5524 35.0139 4.8437 0.8607
-15.1914 37.5571 5.2757 0.8492
-16.0771 37.5599 5.3203 0.8481
-17.0250 35.7371 5.1548 0.8524
-17.7227 35.3559 5.1501 0.8525
-18.3722 34.8855 5.1343 0.8530
-19.2426 34.8245 5.1811 0.8517
-20.1956 34.8766 5.2481 0.8500
-23.0128 36.2995 5.5968 0.8408
-24.3550 36.7635 5.7426 0.8370
-25.1918 34.8990 5.6049 0.8406
-51.7978 60.8106 10.4022 0.7245
-32.6412 35.3430 6.2649 0.8236
-28.4470 20.4979 4.5659 0.8681
-28.8146 17.4334 4.3856 0.8730
-30.5727 16.8594 4.5464 0.8686
-30.7917 16.1829 4.5298 0.8691
-30.3661 15.1893 4.4214 0.8720
-30.1642 14.3387 4.3492 0.8740
-32.9330 14.0636 4.6632 0.8655
-38.4442 -8.5426 5.1283 0.8531
-32.1866 -17.5699 4.7752 0.8625
-31.8746 -18.2393 4.7822 0.8623
-32.0587 -19.2090 4.8667 0.8601
-25.0019 -17.8531 4.0006 0.8834
-24.2009 -18.0254 3.9296 0.8854
-23.6909 -18.3962 3.9059 0.8860
-23.8226 -20.9139 4.1280 0.8800
-22.9395 -21.8298 4.1236 0.8801
-21.0136 -21.6693 3.9307 0.8854
-24.2930 -28.2735 4.8542 0.8604
-23.3952 -28.3610 4.7876 0.8622
-22.8287 -28.8343 4.7892 0.8621
-21.7011 -29.7932 4.7998 0.8618
-12.2499 -17.5473 2.7867 0.9173
-11.9875 -17.9276 2.8084 0.9167
-24.7634 -38.6931 5.9822 0.8308
-23.8265 -38.9286 5.9435 0.8318
-23.5002 -40.1852 6.0621 0.8288
-22.5833 -40.4597 6.0339 0.8295
-8.8493 -17.4666 2.5498 0.9241
-7.5341 -16.4799 2.3597 0.9295
-7.5700 -17.4778 2.4803 0.9260
-6.6811 -17.2982 2.4148 0.9279
-6.3687 -17.5282 2.4285 0.9275
-6.0683 -17.8071 2.4498 0.9269
-5.5188 -18.6097 2.5277 0.9247
-5.4809 -21.6321 2.9060 0.9139
-6.9029 -29.7393 3.9756 0.8841
-7.3025 -34.5996 4.6049 0.8671
-2.8140 -18.9020 2.4886 0.9258
-0.5153 -18.8347 2.4536 0.9268
0.2410 -18.8370 2.4532 0.9268
0.6120 -18.6125 2.4251 0.9276
1.3615 -18.6149 2.4305 0.9275
1.7379 -18.6160 2.4347 0.9274
2.1317 -18.7578 2.4584 0.9267
2.5355 -18.9185 2.4856 0.9259
2.9234 -18.9197 2.4930 0.9257
3.7068 -18.9221 2.5109 0.9252
4.9065 -18.9258 2.5460 0.9242
7.4331 -18.9337 2.6488 0.9212
8.3261 -18.9364 2.6938 0.9199
8.7318 -18.8243 2.7022 0.9197
9.2515 -18.9393 2.7448 0.9185
9.7279 -18.9408 2.7728 0.9177
10.2142 -18.9423 2.8024 0.9169
33.4334 -51.6108 8.0077 0.7803
28.9710 -39.3163 6.3596 0.8212
27.7727 -34.6839 5.7861 0.8359
30.1836 -33.3630 5.8587 0.8340
32.6818 -33.3318 6.0788 0.8284
64.0952 -60.3242 11.4618 0.7011
32.7842 29.3828 4.7274 0.8377
23.7535 25.0035 3.7033 0.8705
23.2841 25.5159 3.7093 0.8703
21.7990 26.9857 3.7251 0.8697
22.4276 32.8396 4.2703 0.8522
16.3670 25.0296 3.2113 0.8866
15.7194 25.1263 3.1826 0.8876
14.0772 24.6495 3.0481 0.8921
13.6064 24.9761 3.0541 0.8919
13.6144 27.5705 3.3018 0.8836
13.7995 32.7795 3.8191 0.8667
13.6353 34.2987 3.9634 0.8620
13.5843 36.2750 4.1594 0.8557
11.5100 37.4608 4.2082 0.8541
10.0547 35.2281 3.9339 0.8630
8.0986 36.5923 4.0244 0.8600
2.7264 17.1575 1.8655 0.9325
4.8374 34.9545 3.7892 0.8677
1.3209 17.0538 1.8367 0.9335
0.9291 16.2179 1.7444 0.9367
0.6019 16.1930 1.7400 0.9369
0.2798 16.3800 1.7592 0.9362
-0.0506 16.9275 1.8177 0.9342
-2.1976 34.7208 3.7358 0.8694
-3.8905 37.5086 4.0493 0.8592
-4.6535 37.5109 4.0589 0.8589
-5.4204 37.5133 4.0701 0.8586
-5.7295 34.7143 3.7781 0.8680
-7.1883 34.7962 3.8154 0.8668
-7.9128 34.7659 3.8287 0.8664
-9.3369 37.5254 4.1524 0.8559
-11.5022 36.6530 4.1251 0.8568
-16.7534 37.0650 4.3678 0.8491
-17.0183 35.7229 4.2490 0.8528
-17.7150 35.3406 4.2450 0.8530
-18.3660 34.8738 4.2324 0.8534
-22.7806 37.5806 4.7190 0.8380
-23.8270 37.5839 4.7785 0.8361
-24.5201 35.4464 4.6282 0.8408
-25.1835 34.8874 4.6203 0.8411
-26.3204 34.9617 4.6992 0.8386
-51.7978 60.8106 8.5777 0.7252
-53.9475 58.4130 8.5383 0.7262
-34.6783 36.0686 5.3729 0.8177
-32.4954 31.1899 4.8367 0.8343
-34.3450 30.4131 4.9262 0.8315
-35.8526 29.2671 4.9698 0.8301
-29.8566 23.3898 4.0727 0.8585
-31.6311 22.7922 4.1865 0.8548
-30.9507 21.3714 4.0389 0.8596
-30.3867 20.0934 3.9118 0.8637
-29.8363 18.8799 3.7914 0.8676
-30.9255 17.8726 3.8355 0.8662
-32.4961 17.0786 3.9421 0.8627
-33.0471 15.7092 3.9292 0.8631
-33.2609 14.2037 3.8836 0.8646
-34.3712 13.8689 3.9800 0.8615
-39.3596 -17.5477 4.6275 0.8408
-37.3401 -17.5541 4.4306 0.8471
-34.3461 -17.8634 4.1572 0.8558
-32.1866 -17.5699 3.9377 0.8628
-31.8977 -19.9934 4.0425 0.8595
-31.8828 -20.8869 4.0929 0.8578
-31.8857 -21.8158 4.1486 0.8561
-25.7415 -18.3812 3.3966 0.8805
-24.0715 -18.6918 3.2726 0.8846
-22.8606 -19.2707 3.2106 0.8867
-23.1227 -20.2994 3.3040 0.8836
-22.2829 -21.2049 3.3031 0.8836
-21.2502 -21.0509 3.2120 0.8866
-24.5706 -27.4617 3.9569 0.8622
-23.6391 -27.5125 3.8951 0.8642
-23.6562 -28.6774 3.9920 0.8611
-21.4143 -32.0256 4.1369 0.8564
-25.3269 -39.5736 5.0452 0.8278
-25.0940 -40.9995 5.1618 0.8242
-21.7805 -40.9309 4.9788 0.8298
-22.2266 -43.8706 5.2810 0.8205
-20.5797 -42.7261 5.0925 0.8263
-22.8416 -49.9628 5.8992 0.8017
-11.5273 -28.1508 3.2665 0.8848
-11.9471 -37.5071 4.2270 0.8535
-8.6721 -29.2428 3.2753 0.8845
-8.2845 -35.6913 3.9345 0.8629
-7.5140 -35.6019 3.9072 0.8638
-2.0099 -18.5998 2.0089 0.9275
-1.2575 -18.6021 2.0021 0.9277
-0.8829 -18.6033 1.9999 0.9278
-0.1354 -18.6056 1.9980 0.9279
0.2381 -18.6067 1.9982 0.9279
0.6118 -18.6079 1.9992 0.9278
0.9861 -18.6091 2.0011 0.9278
2.1152 -18.6126 2.0115 0.9274
5.2289 -18.6222 2.0770 0.9251
5.6349 -18.6235 2.0894 0.9247
6.0459 -18.6247 2.1027 0.9242
6.8847 -18.6273 2.1325 0.9232
7.3134 -18.6287 2.1490 0.9226
7.7490 -18.6300 2.1667 0.9220
9.1025 -18.6342 2.2269 0.9200
9.5712 -18.6356 2.2496 0.9192
11.0392 -18.6402 2.3263 0.9165
32.4574 -52.3787 6.6168 0.7804
25.6858 -36.3643 4.7807 0.8360
28.4783 -35.5651 4.8925 0.8325
29.1594 -34.9540 4.8880 0.8327
30.0422 -31.8958 4.7051 0.8384
28.2038 -26.5445 4.1590 0.8557
27.1825 -24.5732 3.9348 0.8629
23.2841 25.5159 2.9241 0.8705
22.0401 25.1485 2.8308 0.8744
22.2215 26.4065 2.9216 0.8706
21.7989 26.9857 2.9366 0.8700
24.3474 32.7468 3.4544 0.8489
23.3438 32.7499 3.4046 0.8509
22.4850 32.9236 3.3750 0.8521
16.3604 25.0196 2.5306 0.8869
15.7164 25.1214 2.5085 0.8878
14.7399 24.6474 2.4311 0.8911
13.6190 29.0335 2.7147 0.8792
14.5797 32.7770 3.0368 0.8659
13.7995 32.7795 3.0107 0.8670
13.6353 34.2987 3.1245 0.8623
12.3373 37.4583 3.3385 0.8536
10.0525 35.2201 3.1005 0.8633
9.6679 36.6445 3.2082 0.8589
5.9556 37.4780 3.2124 0.8587
4.1193 34.9128 2.9760 0.8684
2.7135 35.0334 2.9746 0.8684
1.3538 36.4205 3.0852 0.8639
0.6405 37.4945 3.1745 0.8602
-1.4999 34.7495 2.9444 0.8697
-2.2031 34.8077 2.9525 0.8694
-3.8905 37.5086 3.1922 0.8595
-5.7334 34.7383 2.9805 0.8682
-7.1680 34.6979 2.9993 0.8674
-9.3369 37.5254 3.2735 0.8562
-10.1415 37.5279 3.2908 0.8555
-11.5201 36.7102 3.2570 0.8569
-11.7675 35.0219 3.1276 0.8622
-13.4019 35.1464 3.1842 0.8598
-16.7724 37.1071 3.4472 0.8492
-17.0116 35.7088 3.3483 0.8532
-17.7089 35.3284 3.3453 0.8533
-19.2777 34.8881 3.3742 0.8521
-20.2317 34.9390 3.4178 0.8504
-23.8270 37.5839 3.7671 0.8364
-24.5145 35.4383 3.6478 0.8412
-25.1709 34.8700 3.6406 0.8414
-26.2921 34.9241 3.7006 0.8391
-27.4078 34.9245 3.7582 0.8368
-51.7978 60.8106 6.7621 0.7257
-33.5717 32.2229 3.9392 0.8296
-9.5910 8.1555 1.0657 0.9507
-37.1296 29.0875 3.9928 0.8275
-51.7491 37.2885 5.3995 0.7741
-34.1428 22.5772 3.4650 0.8485
-51.8846 32.8316 5.1977 0.7815
-33.9604 20.5467 3.3601 0.8527
-34.3378 18.9357 3.3195 0.8544
-33.3120 17.5074 3.1857 0.8598
-32.9886 16.5011 3.1224 0.8624
-67.9095 28.9999 6.2510 0.7435
-46.6781 -17.5252 4.2208 0.8186
-43.9950 -17.5332 4.0092 0.8269
-41.5679 -17.5407 3.8193 0.8343
-39.3598 -17.5478 3.6480 0.8411
-37.3401 -17.5541 3.4928 0.8474
-31.8925 -18.2496 3.1106 0.8629
-31.8952 -19.1110 3.1476 0.8613
-31.9008 -20.8987 3.2284 0.8581
-28.6740 -21.3570 3.0266 0.8663
-25.5164 -19.8137 2.7348 0.8784
-24.4400 -19.7768 2.6614 0.8814
-23.9745 -20.2097 2.6544 0.8817
-23.7412 -20.8424 2.6743 0.8809
-22.0392 -21.8326 2.6261 0.8829
-25.0877 -29.1985 3.2588 0.8568
-24.1267 -29.2477 3.2096 0.8588
-23.0064 -29.0588 3.1375 0.8618
-22.4458 -29.5506 3.1413 0.8616
-22.6732 -31.1277 3.2600 0.8568
-21.7567 -32.5377 3.3134 0.8546
-23.6733 -38.6783 3.8388 0.8336
-23.6084 -40.3703 3.9589 0.8288
-22.6219 -40.5288 3.9291 0.8300
-21.8744 -45.4140 4.2671 0.8168
-22.0855 -53.9346 4.9337 0.7914
-23.4004 -60.5859 5.4980 0.7705
-22.6273 -62.2753 5.6090 0.7665
-12.0342 -37.7806 3.3566 0.8529
-8.6756 -29.2545 2.5831 0.8847
-10.2219 -37.1917 3.2651 0.8566
-8.7359 -34.4788 3.0110 0.8669
-3.8822 -18.3940 1.5914 0.9273
-2.7389 -18.3975 1.5746 0.9281
-1.6155 -18.4010 1.5637 0.9285
-1.2440 -18.4022 1.5613 0.9286
-0.8734 -18.4033 1.5596 0.9287
-0.5035 -18.4045 1.5586 0.9288
-0.1340 -18.4056 1.5581 0.9288
0.2355 -18.4068 1.5583 0.9288
0.6052 -18.4079 1.5591 0.9287
0.9755 -18.4090 1.5606 0.9287
1.3466 -18.4102 1.5626 0.9286
2.0925 -18.4125 1.5687 0.9283
2.4679 -18.4137 1.5727 0.9281
3.6079 -18.4172 1.5887 0.9274
4.0370 -18.6185 1.6127 0.9264
4.4303 -18.6197 1.6202 0.9260
5.6349 -18.6235 1.6471 0.9249
6.0459 -18.6247 1.6576 0.9244
6.8847 -18.6273 1.6811 0.9234
7.3134 -18.6287 1.6941 0.9228
7.7490 -18.6300 1.7081 0.9222
8.6430 -18.6328 1.7387 0.9209
9.5712 -18.6356 1.7735 0.9193
10.0497 -18.6371 1.7924 0.9185
31.9872 -51.6200 5.1407 0.7837
52.1821 -77.1154 7.8821 0.6881
27.1429 -35.3280 3.7714 0.8362
27.5049 -34.3495 3.7251 0.8381
28.7838 -34.5038 3.8037 0.8350
29.6169 -32.7366 3.7371 0.8376
30.1153 -31.9734 3.7182 0.8383
31.4253 -32.0502 3.7997 0.8351
53.3849 -52.3040 6.3267 0.7408
32.7842 29.3828 2.7300 0.8383
40.0513 37.3724 3.3969 0.8029
33.6817 32.7178 2.9118 0.8285
24.7241 25.0005 2.1804 0.8686
23.7535 25.0035 2.1386 0.8709
23.2841 25.5159 2.1420 0.8707
22.0361 25.1439 2.0732 0.8746
23.3438 32.7499 2.4939 0.8511
16.3539 25.0097 1.8530 0.8871
15.7133 25.1166 1.8372 0.8880
14.7399 24.6474 1.7808 0.8913
13.6064 24.9761 1.7637 0.8923
13.6190 29.0335 1.9886 0.8794
14.5797 32.7770 2.2245 0.8661
13.7995 32.7795 2.2054 0.8672
13.6419 36.4288 2.4122 0.8556
11.5100 37.4608 2.4301 0.8547
10.0502 35.2123 2.2707 0.8635
8.1112 36.6494 2.3276 0.8603
6.7290 37.4757 2.3610 0.8585
5.9556 37.4780 2.3532 0.8589
3.4172 34.9833 2.1796 0.8686
2.7112 35.0036 2.1771 0.8687
2.1478 37.4898 2.3286 0.8603
0.6405 37.4945 2.3254 0.8605
-0.4159 18.0295 1.1183 0.9303
-1.5001 34.7537 2.1571 0.8699
-2.1977 34.7234 2.1575 0.8698
-2.8983 34.7210 2.1606 0.8697
-5.7341 34.7425 2.1835 0.8684
-7.9026 34.7211 2.2081 0.8670
-10.1415 37.5279 2.4106 0.8557
-10.9551 37.5304 2.4244 0.8550
-11.7858 35.0763 2.2946 0.8622
-12.5847 35.1039 2.3125 0.8612
-13.3692 35.0607 2.3268 0.8604
-19.3041 34.9359 2.4751 0.8522
-20.1950 34.8757 2.4991 0.8509
-23.8270 37.5838 2.7595 0.8367
-24.3550 36.7635 2.7346 0.8380
-25.1942 34.9023 2.6693 0.8415
-27.3993 34.9137 2.7521 0.8371
-53.9179 65.9361 5.2817 0.7108
-51.7728 60.7812 4.9511 0.7262
-33.6646 35.0142 3.0120 0.8231
-33.1085 31.7784 2.8458 0.8320
-33.0448 30.4668 2.7871 0.8352
-34.7503 30.7721 2.8783 0.8303
-9.5876 8.1526 0.7804 0.9508
-51.8602 40.6274 4.0852 0.7680
-51.8703 37.3758 3.9645 0.7740
-51.9181 35.8494 3.9124 0.7766
-51.8955 34.3163 3.8580 0.7793
-51.8834 32.8309 3.8073 0.7819
-51.8879 31.3933 3.7606 0.7842
-32.4043 18.7273 2.3208 0.8607
-57.9139 28.9689 4.0155 0.7714
-64.2793 28.9886 4.3726 0.7538
-91.6146 34.8454 6.0781 0.6751
-80.7346 28.8659 5.3168 0.7092
-86.2544 28.9005 5.6409 0.6945
-88.4990 27.6897 5.7502 0.6896
-41.5678 -17.5407 2.7977 0.8346
-31.8981 -19.9936 2.3344 0.8600
-31.9038 -21.8281 2.3971 0.8565
-31.8566 -22.7478 2.4274 0.8548
-31.8597 -23.7298 2.4634 0.8528
-26.1616 -21.1699 2.0869 0.8738
-24.9658 -21.9174 2.0601 0.8753
-24.4492 -22.3486 2.0541 0.8757
-23.2263 -22.1027 1.9882 0.8794
-22.9429 -22.7278 2.0026 0.8786
-22.3712 -23.0694 1.9927 0.8792
-24.5503 -28.5730 2.3360 0.8599
-22.8426 -28.8519 2.2820 0.8629
-22.9317 -31.4827 2.4152 0.8555
-22.8549 -32.7383 2.4759 0.8521
-24.1692 -37.7645 2.7803 0.8355
-25.4318 -43.4884 3.1240 0.8172
-26.9851 -50.7116 3.5621 0.7944
-25.3448 -52.6190 3.6217 0.7913
-23.1969 -50.7400 3.4596 0.7996
-23.3433 -60.4381 4.0176 0.7713
-21.9201 -60.3290 3.9803 0.7732
-20.9902 -61.5942 4.0352 0.7704
-11.5839 -36.3670 2.3668 0.8582
-8.6557 -29.1875 1.8878 0.8851
-10.8800 -39.5860 2.5458 0.8483
-7.6816 -36.3959 2.3066 0.8615
-3.5363 -18.5951 1.1738 0.9269
-3.1512 -18.5963 1.1696 0.9272
-2.7686 -18.5975 1.1659 0.9274
-1.6330 -18.6010 1.1579 0.9279
-1.2575 -18.6021 1.1562 0.9280
-0.8829 -18.6033 1.1549 0.9281
-0.5090 -18.6045 1.1541 0.9281
0.6118 -18.6079 1.1545 0.9281
1.7375 -18.6114 1.1591 0.9278
2.4947 -18.6137 1.1646 0.9275
3.2603 -18.6161 1.1720 0.9271
4.0370 -18.6185 1.1814 0.9265
5.2289 -18.6222 1.1994 0.9254
5.6349 -18.6235 1.2065 0.9250
6.4623 -18.6260 1.2225 0.9240
6.8847 -18.6273 1.2315 0.9235
7.3134 -18.6286 1.2410 0.9229
8.6430 -18.6328 1.2737 0.9210
10.0497 -18.6371 1.3130 0.9186
34.7412 -53.6295 3.9624 0.7741
52.2826 -77.2640 5.7850 0.6881
52.0501 -73.6892 5.5945 0.6966
29.6783 -35.5761 2.8729 0.8305
31.4393 -36.1850 2.9725 0.8252
53.0142 -51.9408 4.6023 0.7427
53.0266 -47.9366 4.4327 0.7509
32.7842 29.3828 1.7359 0.8384
33.6817 32.7178 1.8515 0.8286
14.6055 16.6653 0.8738 0.9151
14.2453 16.9281 0.8724 0.9152
21.8025 28.1268 1.4032 0.8672
24.3474 32.7468 1.6090 0.8493
23.3438 32.7499 1.5858 0.8513
16.2082 24.7869 1.1678 0.8882
14.7399 24.6474 1.1324 0.8914
14.0772 24.6495 1.1193 0.8926
13.6103 26.2228 1.1650 0.8885
13.6144 27.5705 1.2125 0.8842
13.6190 29.0335 1.2645 0.8795
13.6353 34.2987 1.4554 0.8626
13.6419 36.4287 1.5338 0.8558
13.1754 37.4557 1.5656 0.8530
11.5100 37.4608 1.5453 0.8548
9.6680 36.6445 1.4944 0.8592
7.5079 37.4732 1.5070 0.8581
6.7290 37.4756 1.5013 0.8586
5.9556 37.4780 1.4963 0.8591
5.0021 36.1448 1.4388 0.8641
4.2649 36.1471 1.4352 0.8644
2.8274 36.5041 1.4437 0.8637
2.1478 37.4898 1.4807 0.8604
1.3687 36.8228 1.4530 0.8629
-0.1121 37.4968 1.4785 0.8606
-0.4148 17.9797 0.7091 0.9305
-2.2186 35.0533 1.3850 0.8688
-3.1308 37.5062 1.4841 0.8601
-3.8905 37.5086 1.4869 0.8599
-4.6535 37.5109 1.4904 0.8596
-1.7814 8.6232 0.3472 0.9654
-1.9541 8.5857 0.3472 0.9654
-2.1260 8.5447 0.3472 0.9654
-2.2971 8.5003 0.3472 0.9654
-2.8045 8.3467 0.3472 0.9654
-3.1372 8.2274 0.3472 0.9654
-3.3017 8.1628 0.3472 0.9654
-3.4649 8.0948 0.3472 0.9654
-3.6267 8.0237 0.3472 0.9654
-3.7870 7.9492 0.3472 0.9654
-4.1030 7.7908 0.3472 0.9654
-4.3009 7.7835 0.3507 0.9650
-4.7142 7.7769 0.3586 0.9642
-4.9297 7.7760 0.3630 0.9638
-5.3800 7.7774 0.3729 0.9629
-25.5884 35.4484 1.7239 0.8394
-51.3042 65.3746 3.2768 0.7170
-51.7900 63.3338 3.2260 0.7207
-51.9240 54.0057 2.9541 0.7409
-51.6791 51.6352 2.8806 0.7464
-51.7129 49.6354 2.8264 0.7506
-36.4843 33.6380 1.9568 0.8198
-51.7906 45.8616 2.7278 0.7581
-37.7319 30.8012 1.9206 0.8229
-51.8602 40.6275 2.5977 0.7682
-51.8703 37.3758 2.5210 0.7742
-51.8742 35.8191 2.4857 0.7770
-52.5015 28.9521 2.3641 0.7866
-55.1036 28.9602 2.4546 0.7794
-59.8624 28.4561 2.6136 0.7670
-63.5881 28.6769 2.7505 0.7564
-71.8303 28.9837 3.0542 0.7334
-80.7346 28.8659 3.3808 0.7095
-88.1593 27.5834 3.6424 0.6909
-89.7543 24.1736 3.6652 0.6893
-46.6791 -17.5256 1.9661 0.8191
-43.9969 -17.5339 1.8675 0.8273
-41.5695 -17.5414 1.7791 0.8348
-39.3600 -17.5479 1.6993 0.8415
-37.3403 -17.5541 1.6270 0.8477
-31.8927 -18.2497 1.4489 0.8632
-32.0204 -19.1860 1.4719 0.8612
-31.8981 -19.9936 1.4844 0.8601
-31.9038 -21.8281 1.5243 0.8566
-31.8566 -22.7478 1.5435 0.8550
-31.8357 -23.7120 1.5652 0.8531
-31.8107 -24.7013 1.5881 0.8511
-31.8139 -25.7437 1.6137 0.8489
-24.9707 -21.9218 1.3102 0.8755
-31.9511 -30.4054 1.7392 0.8381
-31.9381 -32.9348 1.8090 0.8322
-31.9423 -34.2902 1.8479 0.8289
-26.1338 -29.2089 1.5454 0.8548
-31.9060 -38.6782 1.9771 0.8181
-26.5920 -33.5876 1.6892 0.8424
-31.9163 -42.0187 2.0806 0.8096
-32.0101 -45.8525 2.2050 0.7994
-31.9918 -47.8444 2.2694 0.7942
-32.0056 -52.2917 2.4175 0.7824
-31.8684 -59.8883 2.6750 0.7622
-31.8405 -62.8462 2.7780 0.7543
-32.0026 -70.0013 3.0350 0.7348
-8.5742 -19.7964 0.8507 0.9173
-27.2824 -75.0870 3.1501 0.7263
-24.3491 -76.4425 3.1634 0.7253
-8.6352 -29.1182 1.1976 0.8855
-8.9560 -38.5844 1.5619 0.8534
-3.5363 -18.5951 0.7464 0.9270
-3.1512 -18.5963 0.7437 0.9273
-2.7686 -18.5975 0.7414 0.9275
-2.3883 -18.5986 0.7394 0.9277
-2.0099 -18.5998 0.7377 0.9278
-1.6330 -18.6010 0.7363 0.9280
-0.8829 -18.6033 0.7344 0.9282
-0.1354 -18.6056 0.7337 0.9282
1.7375 -18.6114 0.7371 0.9279
2.1152 -18.6126 0.7386 0.9278
2.4947 -18.6137 0.7405 0.9276
2.8763 -18.6149 0.7427 0.9274
3.2603 -18.6161 0.7452 0.9271
4.0370 -18.6185 0.7512 0.9266
5.2289 -18.6222 0.7627 0.9255
5.6349 -18.6234 0.7672 0.9251
6.4623 -18.6260 0.7774 0.9241
9.5711 -18.6356 0.8261 0.9196
10.0497 -18.6371 0.8349 0.9187
10.5388 -18.6386 0.8443 0.9179
11.0392 -18.6402 0.8542 0.9169
51.9301 -80.1637 3.7662 0.6823
52.1132 -73.7786 3.5617 0.6966
58.8459 -73.4897 3.7123 0.6860
51.9850 -62.3156 3.2000 0.7226
53.3642 -58.9853 3.1364 0.7273
58.6137 -62.2301 3.3709 0.7102
53.6338 -54.7004 3.0207 0.7359
53.3913 -50.2500 2.8910 0.7456
53.3974 -48.2718 2.8383 0.7496
24.2633 24.5345 0.5829 0.8711
22.3838 24.5293 0.5609 0.8756
14.2453 16.9281 0.3737 0.9153
21.7038 26.8679 0.5834 0.8709
21.7229 28.0241 0.5989 0.8678
24.3474 32.7468 0.6893 0.8494
23.3438 32.7499 0.6794 0.8514
14.6835 24.5532 0.4833 0.8919
14.0234 24.5552 0.4777 0.8930
13.5115 24.8018 0.4771 0.8932
13.5153 26.0398 0.4956 0.8893
13.7995 32.7795 0.6008 0.8674
13.6353 34.2987 0.6235 0.8627
13.5693 36.2349 0.6536 0.8566
13.1754 37.4557 0.6707 0.8531
9.9766 34.9545 0.6140 0.8647
7.9796 32.9095 0.5720 0.8733
7.2802 32.8943 0.5691 0.8739
5.9076 32.9013 0.5647 0.8748
3.2157 32.9201 0.5587 0.8761
2.5366 32.7491 0.5548 0.8769
1.2252 32.9592 0.5571 0.8764
0.6210 36.3495 0.6141 0.8646
-0.0986 32.9685 0.5569 0.8764
-0.4147 17.9755 0.3037 0.9306
-2.7532 32.9834 0.5591 0.8760
-4.7640 32.9707 0.5627 0.8752
-5.4134 32.7994 0.5615 0.8755
-6.5018 35.0055 0.6014 0.8672
-1.9311 9.3480 0.1612 0.9625
-1.8259 8.0222 0.1390 0.9676
-2.1682 8.0233 0.1404 0.9673
-2.3421 8.0238 0.1412 0.9671
-2.5181 8.0243 0.1421 0.9669
-2.6964 8.0249 0.1430 0.9667
-2.8771 8.0254 0.1440 0.9665
-3.0605 8.0260 0.1451 0.9662
-3.2467 8.0266 0.1463 0.9660
-3.6285 8.0278 0.1488 0.9654
-4.0247 8.0290 0.1517 0.9647
-22.8045 32.9664 0.6771 0.8518
-23.8018 32.9734 0.6869 0.8499
-24.6888 32.7944 0.6934 0.8486
-51.8052 58.4029 1.3187 0.7317
-51.9524 56.2527 1.2934 0.7361
-51.8695 51.8256 1.2386 0.7458
-51.9721 49.8841 1.2169 0.7496
-9.5810 8.1470 0.2124 0.9509
-51.8602 40.6275 1.1128 0.7683
-51.9180 35.8494 1.0658 0.7769
-57.9139 28.9689 1.0938 0.7718
-63.1696 28.4881 1.1705 0.7579
-71.8554 28.9939 1.3089 0.7335
-80.7347 28.8659 1.4483 0.7096
-86.2544 28.9005 1.5366 0.6949
-88.1593 27.5834 1.5604 0.6910
-88.1653 25.6542 1.5510 0.6926
-85.5483 17.5972 1.4753 0.7051
-96.4742 -1.7299 1.6299 0.6798
-43.1641 -17.2020 0.7849 0.8304
-38.6118 -17.2143 0.7141 0.8444
-36.7144 -17.2599 0.6853 0.8502
-33.2457 -17.2911 0.6330 0.8608
-32.1870 -17.5701 0.6194 0.8636
-32.1057 -19.2371 0.6322 0.8609
-32.1113 -21.0366 0.6485 0.8576
-31.9038 -21.8282 0.6530 0.8567
-31.8566 -22.7479 0.6612 0.8550
-31.8357 -23.7119 0.6706 0.8532
-24.9859 -21.9351 0.5616 0.8755
-32.0527 -29.2989 0.7335 0.8405
-32.5543 -32.2490 0.7740 0.8325
-31.9381 -32.9348 0.7750 0.8323
-31.9513 -37.1867 0.8282 0.8219
-31.9110 -40.3058 0.8684 0.8141
-31.9163 -42.0187 0.8913 0.8097
-32.1981 -44.2043 0.9238 0.8035
-32.0100 -45.8524 0.9446 0.7995
-31.9918 -47.8444 0.9722 0.7943
-32.0056 -52.2918 1.0356 0.7825
-32.0026 -57.3350 1.1092 0.7690
-31.9220 -59.9891 1.1479 0.7620
-31.9968 -63.1546 1.1959 0.7533
-25.2772 -52.4786 0.9839 0.7921
-32.0030 -70.0021 1.3002 0.7350
-8.5868 -19.8255 0.3649 0.9172
-8.2305 -20.0996 0.3669 0.9168
-32.3441 -89.0180 1.5999 0.6846
-32.1282 -94.2778 1.6825 0.6714
-2.6822 -20.8872 0.3557 0.9192
-1.2670 -18.7431 0.3173 0.9276
-0.8896 -18.7442 0.3170 0.9277
-0.5128 -18.7454 0.3168 0.9277
2.5171 -18.7807 0.3201 0.9270
2.9021 -18.7819 0.3210 0.9268
3.6798 -18.7843 0.3233 0.9263
4.4701 -18.7868 0.3262 0.9257
4.8708 -18.7880 0.3279 0.9253
5.2758 -18.7893 0.3297 0.9249
5.6854 -18.7905 0.3316 0.9245
6.0897 -18.7599 0.3332 0.9241
6.5203 -18.7931 0.3360 0.9235
7.8185 -18.7971 0.3439 0.9218
10.1974 -20.8757 0.3924 0.9112
10.7224 -20.8773 0.3964 0.9104
51.9301 -80.1638 1.6135 0.6824
30.4708 -36.5260 0.8035 0.8267
52.9862 -60.9844 1.3646 0.7238
53.0076 -54.0618 1.2789 0.7387
53.0206 -49.9011 1.2299 0.7473
53.0266 -47.9366 1.2075 0.7513
34.6963 32.3756 -0.2672 0.8271
24.2524 24.5235 -0.1942 0.8711
22.3838 24.5293 -0.1870 0.8756
23.3438 32.7499 -0.2264 0.8514
16.7641 24.5467 -0.1674 0.8879
16.0526 24.5489 -0.1651 0.8893
14.0234 24.5552 -0.1592 0.8931
13.5114 24.8019 -0.1590 0.8932
13.5153 26.0398 -0.1652 0.8893
5.8651 13.1854 -0.0812 0.9439
13.4512 31.9521 -0.1952 0.8705
13.5467 36.1746 -0.2175 0.8568
13.1754 37.4557 -0.2235 0.8531
10.7691 32.6968 -0.1938 0.8714
9.9766 34.9545 -0.2047 0.8647
6.4865 24.5858 -0.1432 0.9033
5.9077 32.9013 -0.1882 0.8748
5.2346 32.9407 -0.1878 0.8751
5.0021 36.1448 -0.2054 0.8642
3.8878 32.9509 -0.1868 0.8757
1.2255 32.9678 -0.1857 0.8764
-0.0986 32.9771 -0.1857 0.8764
-1.4146 32.7741 -0.1847 0.8770
-2.2147 34.9922 -0.1974 0.8691
-2.7540 32.9924 -0.1864 0.8760
-4.0940 33.0011 -0.1872 0.8754
-4.7640 32.9707 -0.1876 0.8752
-5.4134 32.7994 -0.1872 0.8755
-6.5018 35.0055 -0.2005 0.8673
-9.6325 32.9995 -0.1935 0.8715
-2.9345 9.3512 -0.0552 0.9616
-3.3609 9.3749 -0.0561 0.9609
-4.0070 9.3614 -0.0573 0.9601
-4.2386 9.3776 -0.0579 0.9597
-5.1372 8.4747 -0.0558 0.9611
-51.8052 58.4029 -0.4395 0.7318
-51.9524 56.2527 -0.4311 0.7362
-51.8695 51.8256 -0.4128 0.7458
-51.9152 49.8295 -0.4052 0.7499
-51.8877 45.9476 -0.3902 0.7579
-9.5786 8.1450 -0.0708 0.9509
-51.8602 40.6275 -0.3709 0.7683
-51.8703 37.3758 -0.3600 0.7743
-51.8834 32.8309 -0.3457 0.7822
-51.8879 31.3933 -0.3414 0.7846
-32.2339 18.6288 -0.2096 0.8616
-57.9139 28.9689 -0.3646 0.7718
-60.1761 28.6052 -0.3751 0.7660
-57.6516 24.6194 -0.3529 0.7782
-71.8303 28.9837 -0.4361 0.7336
-86.2544 28.9005 -0.5122 0.6950
-88.1593 27.5834 -0.5201 0.6911
-88.1712 23.7471 -0.5141 0.6940
-88.1828 19.9920 -0.5091 0.6965
-88.1886 18.1403 -0.5069 0.6976
-64.9372 2.7477 -0.3659 0.7711
-38.4463 -11.8484 -0.2265 0.8514
-47.9687 -16.9193 -0.2864 0.8159
-45.0880 -16.9282 -0.2712 0.8248
-40.1525 -16.9435 -0.2454 0.8400
-34.2758 -16.9617 -0.2153 0.8582
-32.1870 -17.5701 -0.2065 0.8636
-31.8953 -19.1111 -0.2093 0.8618
-31.9009 -20.8987 -0.2147 0.8585
-31.9038 -21.8281 -0.2176 0.8567
-31.8660 -25.7859 -0.2308 0.8488
-31.8694 -26.8648 -0.2347 0.8464
-24.9502 -21.9037 -0.1869 0.8756
-31.9471 -29.2024 -0.2437 0.8410
-31.3791 -32.3583 -0.2538 0.8350
-31.9423 -34.2902 -0.2638 0.8291
-31.9467 -35.7058 -0.2698 0.8256
-31.9060 -38.6782 -0.2823 0.8183
-32.0038 -43.9375 -0.3060 0.8046
-32.0100 -45.8524 -0.3148 0.7996
-31.6610 -47.3497 -0.3207 0.7962
-32.0056 -52.2918 -0.3452 0.7825
-25.3767 -43.3941 -0.2830 0.8178
-31.1810 -55.8632 -0.3602 0.7742
-31.9998 -63.1606 -0.3986 0.7534
-32.0030 -70.0021 -0.4333 0.7350
-8.5673 -19.7803 -0.1214 0.9174
-24.9695 -78.3902 -0.4632 0.7196
-3.5390 -20.8845 -0.1193 0.9188
-3.1093 -20.8858 -0.1189 0.9190
-2.6822 -20.8872 -0.1186 0.9192
0.2395 -18.7158 -0.1054 0.9279
0.6154 -18.7170 -0.1054 0.9278
0.9919 -18.7181 -0.1055 0.9278
1.3612 -18.6102 -0.1051 0.9281
1.7501 -18.7464 -0.1060 0.9275
2.5128 -18.7488 -0.1065 0.9271
2.8972 -18.7500 -0.1068 0.9269
4.0663 -18.7536 -0.1080 0.9261
4.4625 -18.7548 -0.1085 0.9258
4.8625 -18.7561 -0.1091 0.9254
5.2668 -18.7573 -0.1097 0.9250
5.6757 -18.7586 -0.1103 0.9246
6.0897 -18.7599 -0.1110 0.9241
6.5092 -18.7612 -0.1118 0.9236
6.9346 -18.7625 -0.1126 0.9231
7.3665 -18.7638 -0.1135 0.9225
7.8052 -18.7652 -0.1144 0.9219
8.7057 -18.7679 -0.1165 0.9206
10.1610 -20.8012 -0.1303 0.9116
10.6842 -20.8028 -0.1317 0.9107
11.1455 -20.6692 -0.1322 0.9103
11.0506 -18.6594 -0.1221 0.9169
52.1132 -73.7786 -0.5086 0.6968
58.5890 -79.5106 -0.5561 0.6736
53.4633 -66.7677 -0.4816 0.7102
30.3834 -36.4212 -0.2670 0.8272
53.3642 -58.9853 -0.4478 0.7275
68.2702 -69.6279 -0.5491 0.6770
53.1418 -48.0407 -0.4033 0.7508
22.6184 20.2717 -0.8552 0.8856
22.6210 21.1079 -0.8712 0.8836
22.6237 21.9762 -0.8881 0.8814
24.0658 24.3348 -0.9637 0.8720
23.1211 24.3378 -0.9452 0.8743
14.7298 16.8071 -0.6293 0.9145
14.3315 17.0305 -0.6267 0.9148
14.7645 19.0472 -0.6786 0.9081
14.3792 19.3398 -0.6786 0.9081
14.5705 24.3642 -0.7994 0.8926
14.5457 28.0251 -0.8891 0.8813
6.1472 13.1048 -0.4076 0.9437
5.8684 13.1929 -0.4066 0.9439
14.5725 36.6561 -1.1107 0.8540
31.1571 83.2009 -2.5016 0.7008
29.4810 83.8095 -2.5016 0.7008
27.7929 84.3844 -2.5016 0.7008
22.6641 85.9040 -2.5016 0.7008
20.9354 86.3416 -2.5016 0.7008
19.1982 86.7444 -2.5016 0.7008
17.4532 87.1123 -2.5016 0.7008
15.7012 87.4450 -2.5016 0.7008
13.9430 87.7425 -2.5016 0.7008
10.4102 88.2318 -2.5017 0.7008
6.8607 88.5786 -2.5017 0.7008
-0.2657 88.8438 -2.5017 0.7008
-5.6120 88.6668 -2.5017 0.7008
-10.9380 88.1691 -2.5017 0.7008
-16.2243 87.3510 -2.5017 0.7008
-1.8259 8.0222 -0.2316 0.9676
-24.8949 85.2862 -2.5017 0.7008
-3.1498 9.3742 -0.2785 0.9612
-3.5750 9.3755 -0.2825 0.9606
-3.7926 9.3762 -0.2848 0.9603
-5.1372 8.4747 -0.2790 0.9611
-33.3018 52.5289 -1.7513 0.7797
-33.2939 46.1230 -1.6018 0.7964
-33.3933 42.5515 -1.5231 0.8054
-33.9894 39.9035 -1.4760 0.8108
-33.1730 37.3978 -1.4076 0.8187
-33.3725 36.1348 -1.3850 0.8213
-33.4313 34.7715 -1.3582 0.8245
-33.1983 33.1701 -1.3214 0.8288
-33.2681 30.6727 -1.2741 0.8344
-9.5775 8.1440 -0.3540 0.9509
-31.7019 24.8354 -1.1340 0.8512
-33.0594 24.8444 -1.1644 0.8475
-38.7835 25.6459 -1.3092 0.8302
-38.8500 23.5050 -1.2786 0.8339
-32.0777 18.5386 -1.0432 0.8622
-38.8659 20.4263 -1.2363 0.8389
-38.8269 17.5101 -1.1993 0.8433
-38.8915 15.6928 -1.1809 0.8455
-34.9467 13.2919 -1.0528 0.8610
-82.8019 27.7437 -2.4589 0.7051
-83.3555 26.0804 -2.4593 0.7050
-83.8747 24.4058 -2.4597 0.7050
-84.9222 17.4684 -2.4413 0.7068
-84.1806 13.8204 -2.4021 0.7108
-84.1671 6.9539 -2.3780 0.7132
-58.9876 3.6833 -1.6642 0.7894
-59.0269 2.4977 -1.6636 0.7895
-61.8728 1.3748 -1.7426 0.7806
-64.9771 0.1393 -1.8296 0.7710
-67.2692 -1.2062 -1.8945 0.7640
-79.9293 -4.6470 -2.2544 0.7259
-79.6456 -6.2368 -2.2495 0.7264
-83.6020 -11.6420 -2.3768 0.7134
-86.5446 -15.6153 -2.4763 0.7033
-86.7333 -19.2728 -2.5018 0.7008
-86.3289 -21.0098 -2.5018 0.7008
-85.8899 -22.7382 -2.5018 0.7008
-38.4423 -11.8472 -1.1327 0.8513
-84.3658 -27.8660 -2.5018 0.7008
-45.0880 -16.9282 -1.3561 0.8247
-37.9866 -16.9356 -1.1711 0.8467
-36.0682 -16.9561 -1.1222 0.8526
-32.5782 -16.9439 -1.0340 0.8633
-31.8927 -18.2497 -1.0347 0.8633
-31.8953 -19.1110 -1.0470 0.8618
-31.8981 -19.9936 -1.0600 0.8602
-32.0923 -21.0241 -1.0803 0.8577
-32.0952 -21.9591 -1.0950 0.8559
-31.8566 -22.7479 -1.1022 0.8550
-31.8597 -23.7298 -1.1186 0.8530
-32.0575 -25.9409 -1.1612 0.8479
-32.0609 -27.0263 -1.1807 0.8455
-31.9474 -29.2027 -1.2188 0.8410
-31.9509 -30.4051 -1.2419 0.8382
-29.9693 -30.9045 -1.2121 0.8418
-31.9513 -37.1867 -1.3805 0.8219
-31.9060 -38.6782 -1.4118 0.8182
-31.9110 -40.3058 -1.4476 0.8141
-32.2050 -44.2138 -1.5402 0.8034
-23.7502 -35.5190 -1.2031 0.8428
-23.6477 -38.6363 -1.2755 0.8342
-23.4887 -57.3615 -1.7453 0.7803
-23.4964 -60.8345 -1.8363 0.7703
-23.5098 -64.7040 -1.9385 0.7592
-8.6673 -29.2266 -0.8584 0.8852
-21.8217 -86.1254 -2.5017 0.7008
-2.2606 -20.9204 -0.5925 0.9192
-1.6330 -18.6010 -0.5258 0.9280
0.9936 -18.7501 -0.5287 0.9276
1.7531 -18.7784 -0.5311 0.9273
2.1342 -18.7796 -0.5322 0.9272
2.5171 -18.7807 -0.5336 0.9270
3.2896 -18.7831 -0.5369 0.9265
3.6798 -18.7843 -0.5390 0.9263
4.0732 -18.7856 -0.5413 0.9260
4.4701 -18.7868 -0.5438 0.9256
4.8708 -18.7880 -0.5465 0.9253
5.2758 -18.7893 -0.5495 0.9249
5.6854 -18.7905 -0.5528 0.9244
6.0897 -18.7599 -0.5554 0.9241
6.9465 -18.7945 -0.5642 0.9230
7.3790 -18.7958 -0.5686 0.9224
8.2655 -18.7985 -0.5782 0.9211
8.7205 -18.7999 -0.5835 0.9204
10.7006 -20.8348 -0.6595 0.9105
11.1455 -20.6692 -0.6612 0.9103
11.0506 -18.6594 -0.6106 0.9169
31.7403 -51.2215 -1.6968 0.7857
48.1345 -68.1457 -2.3493 0.7162
31.6603 -42.9660 -1.5028 0.8077
50.8307 -66.1590 -2.3492 0.7162
30.2821 -36.2998 -1.3311 0.8277
52.9937 -58.5757 -2.2242 0.7290
59.3751 -58.1728 -2.3406 0.7170
53.0266 -47.9366 -2.0128 0.7512
22.6210 21.1079 -1.5691 0.8835
22.6237 21.9763 -1.5995 0.8813
32.7294 34.4506 -2.4099 0.8267
14.5615 16.6151 -1.1204 0.9153
13.9835 16.6169 -1.1014 0.9167
13.9537 17.2738 -1.1261 0.9149
13.9584 18.7737 -1.1864 0.9106
13.9664 21.3584 -1.2942 0.9028
25.3941 40.5905 -2.4282 0.8255
24.5902 41.1187 -2.4297 0.8254
22.1113 42.6016 -2.4342 0.8251
21.2638 43.0612 -2.4356 0.8250
19.5392 43.9267 -2.4382 0.8249
18.6629 44.3321 -2.4394 0.8248
17.7779 44.7191 -2.4405 0.8247
16.8843 45.0874 -2.4416 0.8246
6.3303 20.6029 -1.0931 0.9173
4.9312 24.6123 -1.2730 0.9044
3.4075 24.6225 -1.2606 0.9052
1.9034 24.5743 -1.2500 0.9060
0.9158 24.6367 -1.2503 0.9060
0.4209 24.6400 -1.2498 0.9060
-0.4166 18.0591 -0.9161 0.9302
-1.5604 24.6532 -1.2528 0.9058
-2.5518 24.6016 -1.2543 0.9057
-4.0713 24.6676 -1.2679 0.9047
-6.5542 24.2532 -1.2741 0.9043
-3.3609 9.3749 -0.5051 0.9609
-3.7926 9.3762 -0.5129 0.9603
-4.0070 9.3614 -0.5164 0.9600
-4.2386 9.3776 -0.5219 0.9596
-4.4678 9.3783 -0.5268 0.9592
-4.7014 9.3790 -0.5321 0.9589
-4.9398 9.3797 -0.5376 0.9584
-5.1709 9.3581 -0.5422 0.9581
-5.1593 8.9098 -0.5221 0.9596
-5.1372 8.4747 -0.5025 0.9611
-15.2963 24.1277 -1.4488 0.8919
-17.4270 24.1421 -1.5100 0.8876
-18.0661 23.9973 -1.5233 0.8867
-18.8892 24.0696 -1.5517 0.8847
-20.4273 23.9816 -1.5976 0.8815
-22.1530 23.9866 -1.6559 0.8774
-24.0331 24.0126 -1.7229 0.8728
-14.4356 13.3094 -0.9958 0.9244
-14.8824 13.1787 -1.0081 0.9235
-9.5764 8.1430 -0.6375 0.9509
-17.6331 13.2515 -1.1186 0.9154
-18.3326 13.2098 -1.1459 0.9135
-28.8498 13.7139 -1.6200 0.8799
-37.9773 13.5784 -2.0454 0.8508
-44.4844 14.9050 -2.3793 0.8287
-44.2789 13.8541 -2.3529 0.8304
-44.4801 12.9428 -2.3493 0.8307
-31.3112 8.4330 -1.6445 0.8782
-44.9638 11.1472 -2.3493 0.8307
-45.1784 10.2425 -2.3493 0.8307
-45.3749 9.3336 -2.3493 0.8307
-48.6803 6.9918 -2.4941 0.8212
-49.0712 5.0476 -2.5017 0.8207
-49.3301 0.1057 -2.5017 0.8207
-49.3223 -0.8844 -2.5017 0.8207
-49.2946 -1.8742 -2.5017 0.8207
-49.2470 -2.8632 -2.5017 0.8207
-49.1796 -3.8511 -2.5017 0.8207
-48.9854 -5.8217 -2.5017 0.8207
-48.8587 -6.8038 -2.5017 0.8207
-48.3607 -9.7319 -2.5017 0.8207
-48.1556 -10.7006 -2.5017 0.8207
-47.9022 -11.6579 -2.5002 0.8208
-44.7823 -11.8555 -2.3493 0.8307
-44.5353 -12.7520 -2.3493 0.8307
-43.3691 -16.2828 -2.3493 0.8307
-42.4971 -16.9362 -2.3201 0.8326
-40.1525 -16.9435 -2.2102 0.8398
-37.9866 -16.9356 -2.1092 0.8466
-36.0682 -16.9561 -2.0212 0.8525
-34.2758 -16.9617 -1.9395 0.8580
-32.5782 -16.9439 -1.8623 0.8632
-30.7247 -17.5813 -1.7952 0.8678
-31.8953 -19.1111 -1.8857 0.8616
-32.0952 -21.9591 -1.9722 0.8558
-30.2963 -22.5653 -1.9158 0.8596
-23.6073 -19.1029 -1.5401 0.8855
-23.3503 -19.6835 -1.5488 0.8849
-23.3817 -20.5267 -1.5779 0.8828
-23.4136 -21.4020 -1.6087 0.8807
-23.3837 -26.1350 -1.7785 0.8690
-23.4178 -29.5783 -1.9133 0.8598
-23.3898 -33.5045 -2.0722 0.8490
-23.5056 -36.7278 -2.2114 0.8398
-23.4600 -38.3297 -2.2791 0.8353
-23.3576 -41.8468 -2.4304 0.8254
-20.5104 -44.8637 -2.5017 0.8207
-8.5844 -19.8198 -1.0954 0.9171
-17.7733 -46.0167 -2.5017 0.8207
-16.8461 -46.3641 -2.5017 0.8207
-15.9121 -46.6929 -2.5017 0.8207
-14.9717 -47.0029 -2.5017 0.8207
-8.5679 -31.1737 -1.6396 0.8785
-8.9948 -35.5006 -1.8573 0.8636
-8.9054 -38.3666 -1.9975 0.8541
-8.2393 -39.0383 -2.0234 0.8523
-3.5374 -18.6005 -0.9602 0.9270
-3.5390 -20.8845 -1.0742 0.9187
-2.6822 -20.8872 -1.0680 0.9191
-2.2606 -20.9204 -1.0671 0.9192
-1.2670 -18.7431 -0.9527 0.9275
-0.8896 -18.7442 -0.9517 0.9276
-0.1364 -18.7466 -0.9507 0.9277
1.7531 -18.7784 -0.9565 0.9272
2.1342 -18.7796 -0.9585 0.9271
2.9021 -18.7819 -0.9638 0.9267
3.2896 -18.7831 -0.9671 0.9265
3.6798 -18.7843 -0.9707 0.9262
4.0732 -18.7856 -0.9748 0.9259
4.4701 -18.7868 -0.9794 0.9256
4.8708 -18.7880 -0.9843 0.9252
5.6854 -18.7905 -0.9956 0.9244
6.5203 -18.7931 -1.0088 0.9234
6.9465 -18.7945 -1.0162 0.9229
7.3790 -18.7958 -1.0240 0.9223
7.8185 -18.7972 -1.0325 0.9217
8.2655 -18.7985 -1.0414 0.9210
8.7205 -18.7999 -1.0510 0.9203
24.2794 -42.9400 -2.5017 0.8207
27.6451 -40.8543 -2.5017 0.8207
28.5837 -38.7907 -2.4436 0.8245
28.5959 -37.2192 -2.3803 0.8286
29.0482 -36.2769 -2.3569 0.8302
31.1788 -34.4630 -2.3569 0.8302
31.8642 -33.8302 -2.3569 0.8302
34.5355 -35.2223 -2.5017 0.8207
36.5925 -33.0800 -2.5017 0.8207
22.6184 20.2717 -2.2270 0.8853
22.6237 21.9763 -2.3126 0.8812
22.3530 23.5292 -2.3796 0.8779
15.1601 16.6133 -1.6491 0.9137
13.9835 16.6169 -1.5924 0.9166
13.9560 18.0042 -1.6703 0.9127
13.9584 18.7737 -1.7153 0.9104
13.9635 20.4461 -1.8154 0.9055
13.9664 21.3584 -1.8711 0.9027
17.2892 27.6355 -2.3902 0.8774
16.7385 27.9893 -2.3912 0.8774
16.1802 28.3318 -2.3923 0.8773
14.4633 29.2893 -2.3951 0.8772
6.1260 13.0596 -1.0577 0.9438
5.8100 13.0616 -1.0482 0.9443
5.7151 13.5758 -1.0800 0.9426
5.9153 14.8795 -1.1740 0.9378
5.1756 13.8208 -1.0821 0.9425
5.8874 16.7369 -1.3009 0.9313
6.1279 18.6055 -1.4363 0.9244
5.9412 20.8159 -1.5872 0.9168
5.8365 24.0708 -1.8161 0.9054
1.8292 13.2175 -0.9784 0.9479
1.5982 13.5449 -1.0000 0.9468
2.3355 23.9101 -1.7615 0.9081
-0.7810 18.0933 -1.3279 0.9299
-1.5159 23.9493 -1.7595 0.9082
-2.4881 23.9869 -1.7682 0.9078
-1.9504 13.4987 -1.0000 0.9468
-1.8518 8.9640 -0.6711 0.9640
-1.8259 8.0222 -0.6032 0.9675
-5.9536 23.9279 -1.8079 0.9058
-6.4701 23.9421 -1.8185 0.9053
-2.9345 9.3512 -0.7186 0.9615
-3.3609 9.3749 -0.7302 0.9608
-3.5750 9.3755 -0.7357 0.9606
-4.0070 9.3614 -0.7466 0.9600
-4.2386 9.3776 -0.7546 0.9596
-4.4678 9.3783 -0.7617 0.9592
-4.7014 9.3790 -0.7693 0.9588
-4.9398 9.3797 -0.7773 0.9584
-5.1709 9.3581 -0.7839 0.9580
-8.7452 13.2009 -1.1610 0.9385
-10.7575 13.1553 -1.2460 0.9341
-11.2557 13.2142 -1.2727 0.9327
-13.3771 13.3658 -1.3865 0.9270
-13.9066 13.3479 -1.4134 0.9256
-14.2898 13.1750 -1.4251 0.9250
-14.8824 13.1787 -1.4576 0.9234
-17.4600 13.6782 -1.6263 0.9149
-17.7906 13.3698 -1.6317 0.9146
-18.3326 13.2098 -1.6568 0.9134
-19.3735 13.3774 -1.7262 0.9099
-20.2894 13.4165 -1.7835 0.9071
-22.1388 13.3945 -1.8972 0.9014
-22.8814 13.2238 -1.9377 0.8994
-25.7084 13.5113 -2.1295 0.8900
-26.5922 13.3016 -2.1801 0.8876
-28.4689 13.5329 -2.3112 0.8812
-29.2081 13.1722 -2.3493 0.8794
-30.1705 10.7872 -2.3493 0.8794
-30.3810 10.1795 -2.3493 0.8794
-30.5792 9.5676 -2.3493 0.8794
-30.7651 8.9520 -2.3493 0.8794
-30.9385 8.3327 -2.3493 0.8794
-33.1868 7.5238 -2.4951 0.8724
-33.7730 4.8507 -2.5017 0.8721
-34.0037 2.8094 -2.5017 0.8721
-34.0533 2.1263 -2.5017 0.8721
-34.1195 0.0731 -2.5017 0.8721
-34.0950 -1.2963 -2.5017 0.8721
-34.0621 -1.9803 -2.5017 0.8721
-34.0155 -2.6636 -2.5017 0.8721
-33.5774 -6.0584 -2.5017 0.8721
-32.9833 -8.7319 -2.5017 0.8721
-32.6063 -10.0487 -2.5017 0.8721
-30.4200 -11.4211 -2.3825 0.8778
-29.7645 -11.8619 -2.3493 0.8794
-29.5204 -12.4570 -2.3493 0.8794
-29.2644 -13.0470 -2.3493 0.8794
-28.7172 -14.2110 -2.3493 0.8794
-28.4262 -14.7845 -2.3493 0.8794
-28.1237 -15.3521 -2.3493 0.8794
-27.8099 -15.9134 -2.3493 0.8794
-27.1488 -17.0167 -2.3493 0.8794
-26.8018 -17.5582 -2.3493 0.8794
-26.4440 -18.0926 -2.3493 0.8794
-23.7050 -19.1820 -2.2359 0.8849
-23.5070 -19.8156 -2.2543 0.8840
-23.3345 -22.2057 -2.3618 0.8788
-23.3277 -23.1090 -2.4076 0.8766
-23.2031 -24.9086 -2.4960 0.8724
-22.2356 -25.8790 -2.5017 0.8721
-21.7116 -26.3201 -2.5017 0.8721
-21.1790 -26.7505 -2.5017 0.8721
-20.6378 -27.1702 -2.5017 0.8721
-19.5307 -27.9766 -2.5017 0.8721
-18.3921 -28.7379 -2.5017 0.8721
-17.8116 -29.1012 -2.5017 0.8721
-15.4202 -30.4361 -2.5017 0.8721
-8.7408 -18.1469 -1.4769 0.9224
-14.1862 -31.0304 -2.5017 0.8721
-12.9294 -31.5747 -2.5017 0.8721
-9.3065 -27.3091 -2.1154 0.8907
-9.1983 -28.8776 -2.2222 0.8855
-7.6349 -30.1334 -2.2793 0.8828
-7.2446 -31.2111 -2.3493 0.8794
-3.5374 -18.6005 -1.3883 0.9269
-3.5161 -20.7496 -1.5431 0.9191
-3.0892 -20.7509 -1.5383 0.9193
-1.2670 -18.7430 -1.3774 0.9274
-0.5128 -18.7454 -1.3750 0.9275
-0.1364 -18.7466 -1.3746 0.9276
0.2395 -18.7158 -1.3724 0.9277
0.9936 -18.7501 -1.3767 0.9275
1.3612 -18.6102 -1.3682 0.9279
1.7501 -18.7464 -1.3805 0.9273
2.1305 -18.7476 -1.3835 0.9271
2.8972 -18.7500 -1.3911 0.9267
3.6736 -18.7524 -1.4011 0.9262
4.4625 -18.7548 -1.4135 0.9256
5.6757 -18.7586 -1.4370 0.9244
6.5092 -18.7612 -1.4561 0.9234
7.3134 -18.6286 -1.4674 0.9229
7.7490 -18.6300 -1.4794 0.9223
8.1920 -18.6314 -1.4923 0.9216
8.6430 -18.6328 -1.5060 0.9209
17.4200 -26.8911 -2.3493 0.8794
17.9570 -26.5372 -2.3494 0.8794
20.7870 -27.0555 -2.5017 0.8721
22.3776 -25.7554 -2.5017 0.8721
22.8900 -25.3011 -2.5017 0.8721
23.3932 -24.8366 -2.5017 0.8721
24.3711 -23.8777 -2.5017 0.8721
24.8455 -23.3837 -2.5017 0.8721
18.4754 16.5585 -2.3819 0.9051
17.4512 17.6463 -2.3827 0.9051
15.1601 16.6133 -2.1592 0.9136
13.9835 16.6169 -2.0850 0.9164
13.9537 17.2738 -2.1318 0.9146
13.1824 21.0710 -2.3862 0.9049
12.3297 21.5895 -2.3869 0.9049
11.4567 22.0735 -2.3876 0.9049
11.0130 22.3024 -2.3880 0.9049
6.1260 13.0596 -1.3849 0.9437
5.2628 13.2381 -1.3677 0.9444
4.9065 13.9483 -1.4195 0.9423
3.1845 13.1336 -1.2974 0.9471
2.6321 13.1370 -1.2863 0.9476
2.0789 13.0825 -1.2717 0.9482
1.8107 13.0841 -1.2681 0.9483
1.5506 13.1416 -1.2704 0.9482
1.2839 13.1432 -1.2678 0.9483
1.0181 13.1448 -1.2657 0.9484
0.7532 13.1465 -1.2642 0.9485
0.4887 13.1481 -1.2632 0.9485
-0.3034 13.1530 -1.2631 0.9485
-0.5678 13.1546 -1.2641 0.9485
-1.0983 13.1579 -1.2676 0.9483
-1.3649 13.1596 -1.2702 0.9482
-2.1632 13.1065 -1.2753 0.9480
-2.4347 13.1082 -1.2800 0.9478
-1.8518 8.9640 -0.8788 0.9639
-1.8259 8.0222 -0.7899 0.9675
-3.2767 13.1692 -1.3029 0.9469
-3.5593 13.1710 -1.3098 0.9467
-3.8451 13.1728 -1.3174 0.9464
-2.9345 9.3512 -0.9409 0.9614
-3.1498 9.3742 -0.9494 0.9610
-3.3609 9.3749 -0.9561 0.9608
-3.5750 9.3755 -0.9633 0.9605
-3.7926 9.3762 -0.9710 0.9602
-4.4678 9.3783 -0.9973 0.9591
-5.1709 9.3581 -1.0265 0.9579
-5.1593 8.9098 -0.9884 0.9595
-8.6918 13.7100 -1.5585 0.9369
-9.2684 13.3985 -1.5641 0.9366
-10.7575 13.1553 -1.6315 0.9340
-11.3562 13.3322 -1.6813 0.9320
-12.1624 13.7113 -1.7596 0.9290
-12.4253 13.4538 -1.7582 0.9291
-13.3757 13.3644 -1.8153 0.9268
-14.8824 13.1787 -1.9085 0.9232
-16.6487 13.5906 -2.0633 0.9173
-17.1361 13.4245 -2.0899 0.9162
-18.3326 13.2098 -2.1693 0.9132
-20.2716 13.4048 -2.3332 0.9070
-20.6785 13.0849 -2.3493 0.9063
-21.6613 11.3843 -2.3493 0.9063
-22.1008 10.5058 -2.3493 0.9063
-22.3072 10.0601 -2.3493 0.9063
-22.6930 9.1567 -2.3493 0.9063
-22.8722 8.6994 -2.3493 0.9063
-25.0014 7.2749 -2.4998 0.9007
-25.1615 6.7768 -2.5017 0.9006
-25.4132 5.7614 -2.5017 0.9006
-25.7935 3.7046 -2.5017 0.9006
-25.8626 3.1862 -2.5017 0.9006
-25.9214 2.6665 -2.5017 0.9006
-25.9697 2.1456 -2.5017 0.9006
-26.0349 1.1016 -2.5017 0.9006
-26.0517 0.5788 -2.5017 0.9006
-26.0581 0.0558 -2.5017 0.9006
-26.0540 -0.4672 -2.5017 0.9006
-26.0394 -0.9900 -2.5017 0.9006
-25.9786 -2.0343 -2.5017 0.9006
-25.8091 -3.5940 -2.5017 0.9006
-25.6441 -4.6270 -2.5017 0.9006
-25.4377 -5.6525 -2.5017 0.9006
-25.3192 -6.1619 -2.5017 0.9006
-25.1904 -6.6688 -2.5017 0.9006
-24.9024 -7.6745 -2.5017 0.9006
-24.7434 -8.1728 -2.5017 0.9006
-24.5744 -8.6677 -2.5017 0.9006
-24.3954 -9.1592 -2.5017 0.9006
-24.2067 -9.6470 -2.5017 0.9006
-23.8000 -10.6108 -2.5017 0.9006
-23.5823 -11.0863 -2.5017 0.9006
-23.3550 -11.5574 -2.5017 0.9006
-22.8723 -12.4854 -2.5017 0.9006
-22.6171 -12.9420 -2.5017 0.9006
-22.3528 -13.3934 -2.5017 0.9006
-21.7972 -14.2797 -2.5017 0.9006
-20.8983 -15.5655 -2.5017 0.9006
-20.5817 -15.9819 -2.5017 0.9006
-20.2568 -16.3918 -2.5017 0.9006
-19.9237 -16.7950 -2.5017 0.9006
-19.5826 -17.1916 -2.5017 0.9006
-19.2336 -17.5811 -2.5017 0.9006
-18.5125 -18.3389 -2.5017 0.9006
-17.7616 -19.0671 -2.5017 0.9006
-16.9820 -19.7646 -2.5017 0.9006
-16.1750 -20.4302 -2.5017 0.9006
-15.7617 -20.7508 -2.5017 0.9006
-14.4844 -21.6617 -2.5017 0.9006
-14.0467 -21.9481 -2.5017 0.9006
-13.6033 -22.2256 -2.5017 0.9006
-9.6086 -17.2146 -1.8927 0.9238
-11.7769 -23.2450 -2.5017 0.9006
-8.9066 -19.4820 -2.0566 0.9175
-8.4229 -19.4471 -2.0346 0.9184
-8.3567 -22.9995 -2.3493 0.9063
-7.4269 -23.3163 -2.3493 0.9063
-6.9574 -23.4607 -2.3493 0.9063
-6.0102 -23.7210 -2.3493 0.9063
-5.0534 -23.9431 -2.3493 0.9063
-3.5374 -18.6005 -1.8178 0.9267
-3.5161 -20.7496 -2.0205 0.9189
-2.6648 -20.7522 -2.0087 0.9194
-1.2670 -18.7430 -1.8035 0.9273
-0.5128 -18.7454 -1.8003 0.9274
-0.1364 -18.7466 -1.7998 0.9274
0.2395 -18.7158 -1.7970 0.9275
0.9936 -18.7501 -1.8026 0.9273
1.3612 -18.6102 -1.7914 0.9278
2.1152 -18.6126 -1.7984 0.9275
2.4947 -18.6137 -1.8030 0.9273
3.2603 -18.6161 -1.8144 0.9269
5.2289 -18.6222 -1.8570 0.9252
5.6349 -18.6234 -1.8680 0.9248
6.4623 -18.6260 -1.8928 0.9238
6.8847 -18.6273 -1.9066 0.9233
7.3134 -18.6286 -1.9213 0.9227
8.1920 -18.6314 -1.9540 0.9215
10.6842 -20.8028 -2.2452 0.9103
12.0442 -21.3012 -2.3493 0.9063
11.0506 -18.6594 -2.0819 0.9165
13.7138 -20.2665 -2.3493 0.9063
14.5162 -19.6998 -2.3493 0.9063
17.1320 -17.4727 -2.3493 0.9063
17.4792 -17.1253 -2.3493 0.9063
19.3300 -17.4745 -2.5017 0.9006
14.4599 13.4927 -2.3493 0.9234
14.1862 13.7802 -2.3493 0.9234
13.9206 14.0761 -2.3516 0.9234
13.6665 14.3856 -2.3570 0.9232
13.4050 14.6900 -2.3623 0.9230
12.8629 15.2827 -2.3726 0.9227
12.5765 15.5708 -2.3777 0.9225
11.9887 16.1246 -2.3868 0.9223
11.3343 16.5962 -2.3873 0.9222
11.0001 16.8222 -2.3875 0.9222
10.6614 17.0415 -2.3878 0.9222
10.3184 17.2539 -2.3881 0.9222
9.9711 17.4595 -2.3883 0.9222
9.6197 17.6581 -2.3886 0.9222
6.1260 13.0596 -1.7135 0.9436
5.8100 13.0616 -1.6981 0.9440
5.0828 13.5730 -1.7216 0.9433
4.7973 13.6381 -1.7173 0.9434
4.4940 13.6447 -1.7064 0.9438
4.2051 13.6862 -1.7007 0.9440
3.5178 13.3333 -1.6380 0.9460
3.2933 13.5823 -1.6601 0.9453
3.0077 13.5900 -1.6534 0.9455
2.6555 13.2542 -1.6057 0.9470
2.3802 13.2559 -1.5998 0.9472
1.8107 13.0841 -1.5690 0.9482
1.0272 13.2621 -1.5801 0.9478
0.5110 13.7463 -1.6340 0.9461
0.2299 13.4557 -1.5986 0.9472
-1.3771 13.2770 -1.5856 0.9477
-1.6473 13.2786 -1.5894 0.9475
-1.8935 13.1049 -1.5728 0.9481
-2.1632 13.1065 -1.5779 0.9479
-2.4347 13.1082 -1.5837 0.9477
-4.0455 13.8591 -1.7150 0.9435
-2.9345 9.3512 -1.1642 0.9613
-3.3609 9.3748 -1.1830 0.9607
-3.5750 9.3755 -1.1919 0.9604
-3.7926 9.3762 -1.2014 0.9601
-4.0070 9.3614 -1.2096 0.9598
-4.2386 9.3776 -1.2224 0.9594
-4.7014 9.3790 -1.2462 0.9586
-4.9398 9.3797 -1.2592 0.9582
-5.1709 9.3581 -1.2700 0.9578
-5.1593 8.9098 -1.2230 0.9594
-5.1372 8.4747 -1.1771 0.9609
-9.6176 13.3236 -1.9519 0.9360
-10.0324 13.3261 -1.9814 0.9350
-10.3218 13.1526 -1.9860 0.9349
-11.3562 13.3322 -2.0803 0.9319
-12.8481 13.3632 -2.2020 0.9280
-14.8067 13.1116 -2.3493 0.9234
-9.5729 8.1401 -1.4927 0.9506
-15.3210 12.5068 -2.3493 0.9234
-16.0459 11.5621 -2.3493 0.9234
-16.4970 10.9088 -2.3493 0.9234
-17.1236 9.8962 -2.3493 0.9234
-17.3188 9.5505 -2.3493 0.9234
-17.5070 9.2010 -2.3493 0.9234
-17.6882 8.8477 -2.3493 0.9234
-17.8622 8.4909 -2.3493 0.9234
-18.9516 7.6470 -2.4275 0.9210
-19.6462 7.4723 -2.4968 0.9188
-19.8312 7.0904 -2.5017 0.9187
-20.0997 6.2888 -2.5017 0.9187
-20.7824 3.4120 -2.5017 0.9187
-20.9891 1.7341 -2.5017 0.9187
-21.0197 1.3125 -2.5017 0.9187
-21.0554 0.4678 -2.5017 0.9187
-21.0606 0.0451 -2.5017 0.9187
-21.0251 -1.2224 -2.5017 0.9187
-20.9964 -1.6442 -2.5017 0.9187
-20.9591 -2.0652 -2.5017 0.9187
-20.8594 -2.9048 -2.5017 0.9187
-20.7969 -3.3229 -2.5017 0.9187
-20.7260 -3.7396 -2.5017 0.9187
-20.6467 -4.1548 -2.5017 0.9187
-20.5592 -4.5684 -2.5017 0.9187
-20.3593 -5.3899 -2.5017 0.9187
-20.2470 -5.7974 -2.5017 0.9187
-20.1266 -6.2026 -2.5017 0.9187
-19.8614 -7.0054 -2.5017 0.9187
-19.4038 -8.1880 -2.5017 0.9187
-19.2356 -8.5758 -2.5017 0.9187
-19.0596 -8.9601 -2.5017 0.9187
-18.8759 -9.3409 -2.5017 0.9187
-18.6846 -9.7179 -2.5017 0.9187
-18.4858 -10.0909 -2.5017 0.9187
-18.2795 -10.4599 -2.5017 0.9187
-17.8450 -11.1851 -2.5017 0.9187
-17.6169 -11.5411 -2.5017 0.9187
-17.3817 -11.8923 -2.5017 0.9187
-17.1395 -12.2388 -2.5017 0.9187
-16.8904 -12.5804 -2.5017 0.9187
-16.6345 -12.9168 -2.5017 0.9187
-16.1027 -13.5740 -2.5017 0.9187
-15.8270 -13.8945 -2.5017 0.9187
-15.5449 -14.2094 -2.5017 0.9187
-14.9621 -14.8218 -2.5017 0.9187
-14.6616 -15.1191 -2.5017 0.9187
-14.0430 -15.6954 -2.5017 0.9187
-13.0729 -16.5120 -2.5017 0.9187
-12.0555 -17.2688 -2.5017 0.9187
-11.7065 -17.5073 -2.5017 0.9187
-9.5981 -17.1957 -2.3393 0.9237
-9.2907 -17.4595 -2.3493 0.9234
-8.9384 -17.6425 -2.3493 0.9234
-8.5825 -17.8183 -2.3493 0.9234
-7.4946 -18.3025 -2.3493 0.9234
-7.1258 -18.4493 -2.3493 0.9234
-6.7540 -18.5886 -2.3493 0.9234
-6.3796 -18.7204 -2.3493 0.9234
-5.6231 -18.9614 -2.3493 0.9234
-5.2414 -19.0704 -2.3493 0.9234
-4.8576 -19.1717 -2.3493 0.9234
-3.5374 -18.6005 -2.2491 0.9266
-3.1827 -18.7819 -2.2628 0.9261
-2.4263 -18.8945 -2.2628 0.9261
-1.6330 -18.6010 -2.2180 0.9275
-0.8881 -18.7123 -2.2253 0.9273
-0.1362 -18.7146 -2.2231 0.9274
0.6154 -18.7170 -2.2245 0.9273
1.3612 -18.6102 -2.2165 0.9276
2.1152 -18.6126 -2.2251 0.9273
5.2289 -18.6222 -2.2976 0.9250
6.4623 -18.6260 -2.3419 0.9237
6.8564 -18.5509 -2.3493 0.9234
7.9605 -18.1047 -2.3493 0.9234
8.6806 -17.7706 -2.3493 0.9234
9.0355 -17.5928 -2.3493 0.9234
9.3868 -17.4079 -2.3493 0.9234
10.0779 -17.0171 -2.3493 0.9234
10.7528 -16.5989 -2.3493 0.9234
11.0838 -16.3797 -2.3493 0.9234
11.4103 -16.1540 -2.3493 0.9234
12.3618 -15.4380 -2.3493 0.9234
12.9714 -14.9294 -2.3493 0.9234
13.2684 -14.6661 -2.3493 0.9234
13.5601 -14.3968 -2.3493 0.9234
13.8464 -14.1217 -2.3493 0.9234
14.4020 -13.5546 -2.3493 0.9234
11.8931 11.5527 -2.3493 0.9352
11.1763 12.2475 -2.3493 0.9352
10.9282 12.4694 -2.3493 0.9352
10.4189 12.8979 -2.3493 0.9352
10.1579 13.1045 -2.3493 0.9352
9.6238 13.5016 -2.3493 0.9352
9.3509 13.6921 -2.3493 0.9352
8.8035 14.0717 -2.3519 0.9351
7.9744 14.6373 -2.3617 0.9349
7.6889 14.8137 -2.3648 0.9348
6.1260 13.0596 -2.0439 0.9434
5.8100 13.0616 -2.0255 0.9439
5.2628 13.2381 -2.0185 0.9441
4.3685 13.2634 -1.9786 0.9451
3.5000 13.2660 -1.9440 0.9461
3.2171 13.2677 -1.9344 0.9463
3.0066 13.5848 -1.9714 0.9453
2.0789 13.0824 -1.8769 0.9479
1.8107 13.0841 -1.8715 0.9480
1.5644 13.2588 -1.8917 0.9475
1.2953 13.2605 -1.8878 0.9476
0.5111 13.7508 -1.9497 0.9459
0.2270 13.2840 -1.8825 0.9477
-0.0397 13.2857 -1.8825 0.9477
-0.3161 13.7034 -1.9421 0.9461
-0.5736 13.2890 -1.8847 0.9477
-0.8675 13.7053 -1.9458 0.9460
-1.3771 13.2770 -1.8913 0.9475
-2.1632 13.1065 -1.8822 0.9477
