ply
format ascii 1.0
element vertex 1586
property float32 x
property float32 y
property float32 z
property float32 I
end_header
5.5482 -10.4600 -2.5028 0.9527
6.3728 -9.9813 -2.5032 0.9527
6.5727 -9.8513 -2.5033 0.9527
6.9645 -9.5794 -2.5035 0.9527
7.1563 -9.4377 -2.5036 0.9527
7.3451 -9.2920 -2.5037 0.9527
7.5310 -9.1426 -2.5038 0.9527
7.7138 -8.9894 -2.5039 0.9527
7.8936 -8.8326 -2.5040 0.9527
8.7429 -7.9960 -2.5044 0.9527
9.0584 -7.6380 -2.5046 0.9527
9.2107 -7.4543 -2.5047 0.9527
9.3592 -7.2676 -2.5048 0.9527
9.9148 -6.4919 -2.5051 0.9527
10.0439 -6.2911 -2.5052 0.9527
10.5187 -5.4633 -2.5055 0.9527
10.6268 -5.2505 -2.5055 0.9527
10.7307 -5.0356 -2.5056 0.9527
10.9253 -4.5998 -2.5057 0.9527
11.1022 -4.1564 -2.5058 0.9527
11.3336 -3.4788 -2.5060 0.9527
11.4016 -3.2500 -2.5061 0.9527
11.4650 -3.0198 -2.5061 0.9527
11.5237 -2.7884 -2.5062 0.9527
11.6270 -2.3223 -2.5063 0.9527
11.6716 -2.0878 -2.5063 0.9527
11.7115 -1.8524 -2.5064 0.9527
11.7466 -1.6162 -2.5064 0.9527
11.7770 -1.3794 -2.5064 0.9527
11.8025 -1.1420 -2.5065 0.9527
11.8393 -0.6660 -2.5065 0.9527
11.8567 -0.1888 -2.5066 0.9527
11.8550 0.2888 -2.5066 0.9527
11.8162 1.0039 -2.5067 0.9527
11.7937 1.2417 -2.5067 0.9527
11.7342 1.7155 -2.5068 0.9527
11.6974 1.9514 -2.5068 0.9527
11.6558 2.1865 -2.5068 0.9527
11.6094 2.4208 -2.5068 0.9527
11.5583 2.6541 -2.5068 0.9527
11.5026 2.8862 -2.5068 0.9527
11.4421 3.1172 -2.5068 0.9527
11.3073 3.5754 -2.5068 0.9527
11.2330 3.8023 -2.5068 0.9527
11.1541 4.0277 -2.5068 0.9527
10.9828 4.4734 -2.5067 0.9527
10.8904 4.6936 -2.5067 0.9527
10.7937 4.9119 -2.5067 0.9527
10.6925 5.1282 -2.5067 0.9527
10.4772 5.5544 -2.5066 0.9527
10.3631 5.7642 -2.5066 0.9527
10.2448 5.9716 -2.5066 0.9527
10.1224 6.1766 -2.5066 0.9527
9.8653 6.5790 -2.5065 0.9527
8.9026 7.3301 -2.4376 0.9539
8.5978 7.3746 -2.3944 0.9547
8.3081 7.4217 -2.3548 0.9555
7.9978 7.7455 -2.3534 0.9555
7.8401 7.9047 -2.3534 0.9555
7.6792 8.0608 -2.3533 0.9555
7.3481 8.3631 -2.3532 0.9555
7.0051 8.6517 -2.3531 0.9555
6.8293 8.7908 -2.3530 0.9555
6.6507 8.9263 -2.3530 0.9555
6.4695 9.0581 -2.3529 0.9555
6.2856 9.1863 -2.3528 0.9555
6.0992 9.3107 -2.3528 0.9555
-10.2773 2.7023 -2.4975 0.9573
-10.3774 2.2863 -2.4974 0.9573
-10.4212 2.0768 -2.4974 0.9573
-10.4607 1.8665 -2.4973 0.9573
-10.4960 1.6555 -2.4973 0.9573
-10.5539 1.2316 -2.4972 0.9573
-10.5764 1.0188 -2.4972 0.9573
-10.5946 0.8056 -2.4972 0.9573
-10.6086 0.5922 -2.4971 0.9573
-10.6182 0.3784 -2.4971 0.9573
-10.6246 -0.0494 -2.4971 0.9573
-10.6214 -0.2633 -2.4970 0.9573
-10.5859 -0.9040 -2.4970 0.9573
-10.4787 -1.7527 -2.4969 0.9573
-10.2494 -2.7970 -2.4969 0.9573
-10.1285 -3.2074 -2.4969 0.9573
-9.9912 -3.6126 -2.4969 0.9573
-9.8377 -4.0120 -2.4970 0.9573
-9.7550 -4.2092 -2.4970 0.9573
-9.6683 -4.4048 -2.4970 0.9573
-9.5778 -4.5986 -2.4970 0.9573
-9.4833 -4.7906 -2.4970 0.9573
-9.3850 -4.9806 -2.4971 0.9573
-9.2829 -5.1686 -2.4971 0.9573
-9.1770 -5.3545 -2.4971 0.9573
-9.0675 -5.5382 -2.4971 0.9573
-8.9542 -5.7197 -2.4972 0.9573
-8.7169 -6.0758 -2.4972 0.9573
-8.5929 -6.2501 -2.4973 0.9573
-8.4655 -6.4219 -2.4973 0.9573
-8.2003 -6.7578 -2.4974 0.9573
-7.9219 -7.0827 -2.4974 0.9573
-7.7778 -7.2409 -2.4975 0.9573
-7.6305 -7.3961 -2.4975 0.9573
-7.4802 -7.5484 -2.4976 0.9573
-7.3269 -7.6976 -2.4976 0.9573
-6.8492 -8.1264 -2.4978 0.9573
-6.6843 -8.2629 -2.4978 0.9573
-6.1738 -8.6519 -2.4980 0.9573
-5.9985 -8.7747 -2.4981 0.9573
-5.2736 -9.2298 -2.4983 0.9573
-5.0868 -9.3344 -2.4984 0.9573
-4.8980 -9.4352 -2.4985 0.9573
-4.7071 -9.5321 -2.4985 0.9573
-4.3198 -9.7145 -2.4987 0.9573
-3.9254 -9.8811 -2.4988 0.9573
-3.7258 -9.9585 -2.4989 0.9573
-3.5246 -10.0318 -2.4990 0.9572
-3.1181 -10.1662 -2.4992 0.9572
-2.9129 -10.2272 -2.4992 0.9572
-2.2904 -10.3855 -2.4995 0.9572
-2.0809 -10.4298 -2.4996 0.9572
-1.8705 -10.4700 -2.4996 0.9572
-1.4475 -10.5368 -2.4996 0.9572
-1.0218 -10.5837 -2.4990 0.9573
-0.5948 -10.6150 -2.4987 0.9573
-0.1670 -10.6302 -2.4986 0.9573
0.0471 -10.6318 -2.4988 0.9573
0.4752 -10.6234 -2.4993 0.9572
0.9028 -10.5990 -2.5000 0.9572
1.1163 -10.5808 -2.5005 0.9572
1.5417 -10.5296 -2.5011 0.9572
2.1748 -10.4185 -2.5014 0.9572
3.0064 -10.2113 -2.5017 0.9572
3.2115 -10.1491 -2.5018 0.9572
3.6178 -10.0123 -2.5020 0.9572
3.8188 -9.9378 -2.5021 0.9572
4.0183 -9.8593 -2.5022 0.9572
4.6067 -9.5998 -2.5025 0.9572
4.7992 -9.5054 -2.5026 0.9572
5.1784 -9.3052 -2.5028 0.9572
5.3649 -9.1994 -2.5029 0.9572
5.7313 -8.9766 -2.5030 0.9572
5.9111 -8.8596 -2.5031 0.9572
6.0885 -8.7391 -2.5032 0.9572
6.4358 -8.4875 -2.5034 0.9572
6.6056 -8.3565 -2.5035 0.9572
6.9372 -8.0843 -2.5036 0.9572
7.0988 -7.9433 -2.5037 0.9572
8.0060 -7.0312 -2.5042 0.9572
8.2830 -6.7036 -2.5044 0.9572
8.7966 -6.0162 -2.5047 0.9572
8.9162 -5.8380 -2.5047 0.9572
9.1445 -5.4746 -2.5049 0.9572
9.2531 -5.2895 -2.5049 0.9572
9.3580 -5.1023 -2.5050 0.9571
9.6496 -4.5283 -2.5052 0.9571
9.8246 -4.1364 -2.5053 0.9571
9.9061 -3.9378 -2.5054 0.9571
9.9836 -3.7376 -2.5054 0.9571
10.1264 -3.3328 -2.5055 0.9571
10.2528 -2.9225 -2.5056 0.9571
10.3097 -2.7155 -2.5057 0.9571
10.4111 -2.2983 -2.5058 0.9571
10.4554 -2.0883 -2.5058 0.9571
10.5313 -1.6657 -2.5059 0.9571
10.6461 -0.5988 -2.5060 0.9571
10.6561 -0.3844 -2.5061 0.9571
10.6602 0.2597 -2.5061 0.9571
10.6529 0.4742 -2.5062 0.9571
10.6253 0.9027 -2.5062 0.9571
10.5805 1.3298 -2.5062 0.9571
10.5516 1.5426 -2.5062 0.9571
10.4810 1.9662 -2.5062 0.9571
10.4393 2.1768 -2.5063 0.9571
10.2889 2.8031 -2.5063 0.9571
10.2303 3.0096 -2.5063 0.9571
9.9549 3.8229 -2.5062 0.9571
9.7928 4.2206 -2.5062 0.9571
9.7058 4.4168 -2.5062 0.9571
9.5200 4.8040 -2.5061 0.9571
9.3187 5.1833 -2.5061 0.9571
8.8711 5.9160 -2.5060 0.9571
8.7500 6.0933 -2.5060 0.9571
8.4974 6.4404 -2.5059 0.9571
8.3659 6.6101 -2.5059 0.9571
8.2310 6.7771 -2.5058 0.9571
8.0927 6.9413 -2.5058 0.9571
7.6387 7.3976 -2.4992 0.9572
6.9126 7.5551 -2.4067 0.9588
6.4548 7.6518 -2.3528 0.9597
6.2993 7.7801 -2.3527 0.9597
5.8177 8.1456 -2.3525 0.9597
5.6524 8.2608 -2.3525 0.9597
5.4848 8.3728 -2.3524 0.9597
-9.4212 2.0756 -2.4978 0.9609
-9.4609 1.8855 -2.4978 0.9609
-9.4968 1.6946 -2.4977 0.9609
-9.5289 1.5030 -2.4977 0.9609
-9.5814 1.1181 -2.4976 0.9609
-9.6311 0.5376 -2.4975 0.9609
-9.6399 0.3436 -2.4975 0.9609
-9.6457 -0.0448 -2.4975 0.9609
-9.6359 -0.4331 -2.4974 0.9609
-9.6252 -0.6270 -2.4974 0.9609
-9.5921 -1.0140 -2.4974 0.9609
-9.5697 -1.2069 -2.4974 0.9609
-9.5132 -1.5912 -2.4974 0.9609
-9.3998 -2.1626 -2.4974 0.9609
-9.2521 -2.7261 -2.4974 0.9609
-9.1953 -2.9119 -2.4974 0.9609
-9.1349 -3.0965 -2.4974 0.9609
-9.0707 -3.2798 -2.4974 0.9609
-9.0028 -3.4617 -2.4974 0.9609
-8.6953 -4.1749 -2.4974 0.9609
-8.4276 -4.6924 -2.4975 0.9609
-8.3315 -4.8611 -2.4975 0.9609
-8.2320 -5.0280 -2.4975 0.9609
-7.6854 -5.8302 -2.4977 0.9609
-7.5666 -5.9838 -2.4977 0.9609
-7.4447 -6.1351 -2.4978 0.9609
-7.1919 -6.4300 -2.4978 0.9609
-7.0611 -6.5736 -2.4979 0.9609
-6.9274 -6.7146 -2.4979 0.9609
-6.7909 -6.8528 -2.4980 0.9609
-6.6517 -6.9883 -2.4980 0.9609
-6.5097 -7.1209 -2.4980 0.9609
-6.3652 -7.2507 -2.4981 0.9609
-5.9162 -7.6222 -2.4982 0.9609
-5.7616 -7.7399 -2.4983 0.9609
-5.4456 -7.9659 -2.4984 0.9609
-5.2842 -8.0741 -2.4985 0.9609
-5.1207 -8.1791 -2.4985 0.9609
-4.6179 -8.4739 -2.4987 0.9609
-4.0982 -8.7379 -2.4989 0.9609
-3.9216 -8.8189 -2.4990 0.9609
-3.7433 -8.8963 -2.4990 0.9609
-3.5635 -8.9701 -2.4991 0.9609
-3.3823 -9.0403 -2.4992 0.9609
-3.0157 -9.1697 -2.4993 0.9609
-2.4569 -9.3358 -2.4995 0.9609
-2.2685 -9.3837 -2.4996 0.9609
-2.0792 -9.4278 -2.4997 0.9609
-1.6980 -9.5044 -2.4998 0.9609
-1.1212 -9.5905 -2.5001 0.9609
-0.7343 -9.6285 -2.5002 0.9609
-0.5403 -9.6416 -2.5003 0.9609
-0.3460 -9.6509 -2.5004 0.9609
0.0428 -9.6576 -2.5005 0.9609
0.2372 -9.6551 -2.5006 0.9609
0.4316 -9.6487 -2.5007 0.9609
0.6258 -9.6383 -2.5008 0.9609
0.8198 -9.6241 -2.5009 0.9609
1.0134 -9.6060 -2.5010 0.9609
1.2067 -9.5840 -2.5011 0.9609
1.3994 -9.5581 -2.5011 0.9609
1.7832 -9.4946 -2.5013 0.9609
1.9741 -9.4571 -2.5014 0.9609
2.1642 -9.4157 -2.5015 0.9609
2.3534 -9.3706 -2.5016 0.9609
2.5417 -9.3216 -2.5016 0.9609
2.9151 -9.2124 -2.5018 0.9609
3.1001 -9.1521 -2.5019 0.9609
4.0050 -8.7957 -2.5023 0.9609
4.1814 -8.7136 -2.5024 0.9609
4.7003 -8.4461 -2.5027 0.9608
4.8695 -8.3500 -2.5027 0.9608
5.0368 -8.2505 -2.5028 0.9608
5.3653 -8.0415 -2.5030 0.9608
5.5263 -7.9322 -2.5031 0.9608
5.6850 -7.8195 -2.5031 0.9608
5.9956 -7.5848 -2.5033 0.9608
6.1473 -7.4628 -2.5034 0.9608
6.2965 -7.3377 -2.5035 0.9608
6.7286 -6.9448 -2.5037 0.9608
7.0032 -6.6687 -2.5038 0.9608
7.3936 -6.2343 -2.5040 0.9608
7.9838 -5.4603 -2.5044 0.9608
8.5850 -4.4590 -2.5047 0.9608
8.6732 -4.2853 -2.5048 0.9608
8.7579 -4.1099 -2.5049 0.9608
8.8391 -3.9328 -2.5049 0.9608
8.9906 -3.5739 -2.5050 0.9608
9.1276 -3.2091 -2.5051 0.9608
9.2497 -2.8392 -2.5052 0.9608
9.3052 -2.6524 -2.5052 0.9608
9.4488 -2.0859 -2.5054 0.9608
9.5579 -1.5117 -2.5055 0.9608
9.6321 -0.9320 -2.5056 0.9608
9.6490 -0.7379 -2.5056 0.9608
9.6620 -0.5435 -2.5056 0.9608
9.6711 -0.3488 -2.5057 0.9608
9.6763 -0.1540 -2.5057 0.9608
9.6775 0.0408 -2.5057 0.9608
9.6576 0.6250 -2.5058 0.9608
9.6431 0.8193 -2.5058 0.9608
9.6247 1.0133 -2.5058 0.9608
9.6024 1.2069 -2.5058 0.9608
9.5762 1.4000 -2.5058 0.9608
9.5461 1.5925 -2.5058 0.9608
9.5121 1.7844 -2.5058 0.9608
9.4326 2.1659 -2.5058 0.9608
9.1671 3.1030 -2.5058 0.9608
9.1027 3.2869 -2.5058 0.9608
9.0347 3.4695 -2.5058 0.9608
8.9629 3.6507 -2.5058 0.9608
8.8876 3.8304 -2.5058 0.9608
8.8086 4.0086 -2.5058 0.9608
8.7260 4.1851 -2.5057 0.9608
8.6400 4.3599 -2.5057 0.9608
8.2609 5.0407 -2.5056 0.9608
8.0511 5.3691 -2.5056 0.9608
7.9412 5.5301 -2.5056 0.9608
7.7120 5.8451 -2.5055 0.9608
7.4702 6.1507 -2.5054 0.9608
7.3447 6.2998 -2.5054 0.9608
7.0849 6.5902 -2.5053 0.9608
6.6738 7.0055 -2.5052 0.9608
6.5307 7.1377 -2.5049 0.9608
6.3808 7.2623 -2.5030 0.9608
6.2286 7.3837 -2.5011 0.9609
6.0742 7.5021 -2.4993 0.9609
-8.5779 2.0717 -2.4982 0.9640
-8.6541 1.7247 -2.4981 0.9640
-8.6870 1.5500 -2.4981 0.9640
-8.7421 1.1990 -2.4980 0.9640
-8.7983 0.6691 -2.4979 0.9640
-8.8099 0.4918 -2.4979 0.9640
-8.8179 0.3143 -2.4979 0.9640
-8.8143 -0.3962 -2.4978 0.9640
-8.8045 -0.5736 -2.4978 0.9640
-8.7911 -0.7507 -2.4978 0.9640
-8.7297 -1.2801 -2.4977 0.9640
-8.7021 -1.4555 -2.4977 0.9640
-8.6710 -1.6305 -2.4977 0.9640
-8.6364 -1.8047 -2.4977 0.9640
-8.5983 -1.9782 -2.4977 0.9640
-8.5567 -2.1509 -2.4977 0.9640
-8.4113 -2.6636 -2.4977 0.9640
-8.2973 -3.0001 -2.4977 0.9640
-8.2352 -3.1666 -2.4977 0.9640
-8.1698 -3.3317 -2.4977 0.9640
-8.1011 -3.4956 -2.4978 0.9640
-7.9539 -3.8189 -2.4978 0.9640
-7.8754 -3.9783 -2.4978 0.9640
-7.6211 -4.4466 -2.4979 0.9640
-7.5301 -4.5992 -2.4979 0.9640
-7.4360 -4.7499 -2.4979 0.9640
-7.2389 -5.0456 -2.4980 0.9640
-7.0301 -5.3330 -2.4980 0.9640
-6.9213 -5.4736 -2.4980 0.9640
-6.6955 -5.7479 -2.4981 0.9640
-6.3366 -6.1419 -2.4982 0.9640
-5.9545 -6.5136 -2.4983 0.9640
-5.8223 -6.6323 -2.4984 0.9640
-5.6877 -6.7483 -2.4984 0.9640
-5.5507 -6.8616 -2.4985 0.9640
-5.4116 -6.9721 -2.4985 0.9640
-5.1267 -7.1846 -2.4986 0.9640
-4.9811 -7.2865 -2.4987 0.9640
-4.8335 -7.3854 -2.4987 0.9640
-4.6839 -7.4814 -2.4988 0.9640
-4.3791 -7.6643 -2.4989 0.9640
-4.2240 -7.7510 -2.4989 0.9640
-4.0672 -7.8347 -2.4990 0.9640
-3.7486 -7.9925 -2.4991 0.9640
-3.4240 -8.1373 -2.4992 0.9640
-3.2595 -8.2048 -2.4993 0.9640
-3.0937 -8.2690 -2.4994 0.9640
-2.9267 -8.3298 -2.4994 0.9640
-2.7584 -8.3873 -2.4995 0.9640
-2.4186 -8.4920 -2.4996 0.9640
-2.2472 -8.5392 -2.4997 0.9640
-2.0749 -8.5830 -2.4998 0.9640
-1.5531 -8.6933 -2.5000 0.9640
-1.3778 -8.7230 -2.5000 0.9640
-1.0255 -8.7719 -2.5002 0.9640
-0.3165 -8.8270 -2.5005 0.9639
-0.1387 -8.8319 -2.5006 0.9639
0.0391 -8.8332 -2.5006 0.9639
0.2170 -8.8309 -2.5007 0.9639
0.5724 -8.8155 -2.5009 0.9639
0.9269 -8.7858 -2.5010 0.9639
1.2799 -8.7419 -2.5012 0.9639
1.8055 -8.6495 -2.5014 0.9639
1.9794 -8.6117 -2.5015 0.9639
2.1525 -8.5704 -2.5016 0.9639
2.3246 -8.5256 -2.5016 0.9639
2.6662 -8.4256 -2.5018 0.9639
3.1702 -8.2500 -2.5020 0.9639
3.3358 -8.1848 -2.5021 0.9639
3.5000 -8.1162 -2.5022 0.9639
3.6629 -8.0444 -2.5023 0.9639
3.8242 -7.9692 -2.5023 0.9639
4.1422 -7.8093 -2.5025 0.9639
4.2987 -7.7245 -2.5026 0.9639
4.4535 -7.6366 -2.5026 0.9639
4.6065 -7.5456 -2.5027 0.9639
4.7576 -7.4516 -2.5028 0.9639
5.0541 -7.2544 -2.5029 0.9639
5.8925 -6.5936 -2.5034 0.9639
6.5263 -5.9687 -2.5037 0.9639
6.6453 -5.8362 -2.5038 0.9639
6.7617 -5.7014 -2.5038 0.9639
6.8753 -5.5643 -2.5039 0.9639
7.1992 -5.1394 -2.5041 0.9639
7.3014 -4.9936 -2.5041 0.9639
7.4006 -4.8456 -2.5042 0.9639
7.7671 -4.2349 -2.5044 0.9639
7.8510 -4.0777 -2.5045 0.9639
7.9317 -3.9189 -2.5045 0.9639
8.0833 -3.5965 -2.5046 0.9639
8.1543 -3.4331 -2.5047 0.9639
8.2219 -3.2683 -2.5047 0.9639
8.2862 -3.1022 -2.5048 0.9639
8.3471 -2.9347 -2.5048 0.9639
8.4047 -2.7661 -2.5049 0.9639
8.4588 -2.5964 -2.5049 0.9639
8.5095 -2.4256 -2.5049 0.9639
8.5567 -2.2538 -2.5050 0.9639
8.6005 -2.0811 -2.5050 0.9639
8.6408 -1.9075 -2.5050 0.9639
8.7108 -1.5582 -2.5051 0.9639
8.7405 -1.3825 -2.5051 0.9639
8.7893 -1.0295 -2.5052 0.9639
8.8357 -0.4970 -2.5053 0.9639
8.8440 -0.3190 -2.5053 0.9639
8.8487 -0.1409 -2.5053 0.9639
8.8498 0.0373 -2.5053 0.9639
8.8473 0.2155 -2.5054 0.9639
8.8015 0.9266 -2.5054 0.9639
8.7811 1.1037 -2.5054 0.9639
8.7572 1.2802 -2.5054 0.9639
8.6986 1.6318 -2.5055 0.9639
8.6258 1.9807 -2.5055 0.9639
8.5842 2.1540 -2.5055 0.9639
8.5391 2.3264 -2.5055 0.9639
8.4905 2.4978 -2.5055 0.9639
8.3242 3.0058 -2.5054 0.9639
8.2620 3.1728 -2.5054 0.9639
8.1964 3.3385 -2.5054 0.9639
8.0552 3.6657 -2.5054 0.9639
7.8191 4.1453 -2.5054 0.9639
7.6457 4.4566 -2.5053 0.9639
7.2621 5.0571 -2.5052 0.9639
7.1587 5.2023 -2.5052 0.9639
6.9433 5.4861 -2.5051 0.9639
6.5992 5.8950 -2.5050 0.9639
6.4791 6.0266 -2.5050 0.9639
6.2310 6.2824 -2.5049 0.9639
5.8401 6.6468 -2.5048 0.9639
5.7049 6.7629 -2.5047 0.9639
5.2860 7.0946 -2.5046 0.9639
5.1419 7.1994 -2.5045 0.9639
4.9943 7.2991 -2.5037 0.9639
4.8435 7.3939 -2.5023 0.9639
-7.9326 1.7476 -2.4984 0.9666
-7.9661 1.5875 -2.4984 0.9666
-7.9963 1.4268 -2.4983 0.9666
-8.0471 1.1037 -2.4983 0.9666
-8.0848 0.7788 -2.4982 0.9666
-8.0988 0.6159 -2.4982 0.9666
-8.1169 0.2893 -2.4982 0.9666
-8.1194 -0.2013 -2.4981 0.9666
-8.1136 -0.3647 -2.4981 0.9666
-8.0923 -0.6910 -2.4981 0.9666
-8.0767 -0.8538 -2.4981 0.9666
-8.0103 -1.3398 -2.4980 0.9666
-7.9817 -1.5008 -2.4980 0.9666
-7.8351 -2.1381 -2.4980 0.9666
-7.7426 -2.4519 -2.4980 0.9666
-7.6917 -2.6073 -2.4980 0.9666
-7.5806 -2.9148 -2.4980 0.9666
-7.4571 -3.2177 -2.4981 0.9666
-7.3908 -3.3672 -2.4981 0.9666
-7.3216 -3.5154 -2.4981 0.9666
-7.2494 -3.6621 -2.4981 0.9666
-7.1742 -3.8073 -2.4981 0.9666
-7.0962 -3.9510 -2.4981 0.9666
-6.8449 -4.3723 -2.4982 0.9666
-6.4711 -4.9091 -2.4983 0.9666
-6.2684 -5.1657 -2.4984 0.9666
-6.1632 -5.2909 -2.4984 0.9666
-6.0555 -5.4140 -2.4984 0.9666
-5.9454 -5.5349 -2.4985 0.9666
-5.8328 -5.6536 -2.4985 0.9666
-5.4811 -5.9957 -2.4986 0.9666
-5.3593 -6.1049 -2.4986 0.9666
-5.2354 -6.2117 -2.4987 0.9666
-5.1094 -6.3160 -2.4987 0.9666
-4.9813 -6.4176 -2.4988 0.9666
-4.7190 -6.6132 -2.4989 0.9666
-4.4491 -6.7981 -2.4990 0.9666
-4.3114 -6.8865 -2.4990 0.9666
-3.8880 -7.1346 -2.4992 0.9666
-3.3017 -7.4250 -2.4994 0.9666
-2.8476 -7.6113 -2.4995 0.9666
-2.5390 -7.7201 -2.4997 0.9666
-2.3831 -7.7699 -2.4997 0.9666
-2.2262 -7.8164 -2.4998 0.9666
-2.0685 -7.8599 -2.4998 0.9666
-1.4295 -8.0016 -2.5001 0.9666
-1.2682 -8.0290 -2.5002 0.9666
-1.1063 -8.0531 -2.5002 0.9666
-0.9439 -8.0740 -2.5003 0.9666
-0.7812 -8.0916 -2.5004 0.9666
-0.4548 -8.1169 -2.5005 0.9666
-0.1277 -8.1291 -2.5006 0.9665
0.0360 -8.1302 -2.5007 0.9665
0.3633 -8.1226 -2.5009 0.9665
0.6901 -8.1019 -2.5010 0.9665
0.8531 -8.0866 -2.5011 0.9665
1.0158 -8.0680 -2.5011 0.9665
1.3399 -8.0210 -2.5013 0.9665
1.9811 -7.8881 -2.5016 0.9665
2.1396 -7.8469 -2.5016 0.9665
2.2972 -7.8024 -2.5017 0.9665
3.0702 -7.5331 -2.5021 0.9665
3.5197 -7.3346 -2.5023 0.9665
3.6668 -7.2625 -2.5023 0.9665
3.8123 -7.1874 -2.5024 0.9665
4.5160 -6.7687 -2.5028 0.9665
4.6515 -6.6767 -2.5028 0.9665
4.7852 -6.5818 -2.5029 0.9665
5.1742 -6.2814 -2.5031 0.9665
5.2997 -6.1761 -2.5032 0.9665
5.5444 -5.9580 -2.5033 0.9665
5.6634 -5.8453 -2.5034 0.9665
6.0063 -5.4932 -2.5035 0.9665
6.3275 -5.1209 -2.5037 0.9665
6.4294 -4.9926 -2.5038 0.9665
6.6255 -4.7299 -2.5039 0.9665
6.8109 -4.4595 -2.5040 0.9665
6.9852 -4.1819 -2.5041 0.9665
7.0681 -4.0404 -2.5041 0.9665
7.1482 -3.8974 -2.5042 0.9665
7.2253 -3.7528 -2.5042 0.9665
7.6818 -2.7008 -2.5046 0.9665
7.7348 -2.5457 -2.5046 0.9665
7.8312 -2.2323 -2.5047 0.9665
7.8747 -2.0742 -2.5047 0.9665
7.9150 -1.9152 -2.5047 0.9665
7.9520 -1.7555 -2.5048 0.9665
7.9859 -1.5951 -2.5048 0.9665
8.0438 -1.2723 -2.5049 0.9665
8.0887 -0.9474 -2.5049 0.9665
8.1204 -0.6210 -2.5050 0.9665
8.1390 -0.2936 -2.5050 0.9665
8.1433 -0.1296 -2.5050 0.9665
8.1420 0.1983 -2.5051 0.9665
8.1276 0.5260 -2.5051 0.9665
8.0999 0.8528 -2.5051 0.9665
8.0811 1.0157 -2.5051 0.9665
8.0590 1.1782 -2.5051 0.9665
8.0337 1.3402 -2.5051 0.9665
8.0051 1.5017 -2.5051 0.9665
7.9382 1.8228 -2.5052 0.9665
7.8999 1.9822 -2.5052 0.9665
7.8583 2.1409 -2.5052 0.9665
7.8136 2.2987 -2.5051 0.9665
7.7147 2.6114 -2.5051 0.9665
7.6606 2.7662 -2.5051 0.9665
7.5429 3.0723 -2.5051 0.9665
7.2712 3.6692 -2.5051 0.9665
7.1958 3.8148 -2.5051 0.9665
7.0362 4.1013 -2.5050 0.9665
6.9522 4.2422 -2.5050 0.9665
6.8653 4.3812 -2.5050 0.9665
6.7756 4.5185 -2.5050 0.9665
6.6832 4.6540 -2.5049 0.9665
6.5881 4.7876 -2.5049 0.9665
6.4903 4.9192 -2.5049 0.9665
6.1813 5.3018 -2.5048 0.9665
6.0732 5.4251 -2.5048 0.9665
5.9626 5.5463 -2.5047 0.9665
5.8497 5.6651 -2.5047 0.9665
5.6167 5.8959 -2.5046 0.9665
5.4968 6.0077 -2.5046 0.9665
5.1238 6.3282 -2.5044 0.9665
4.9953 6.4300 -2.5044 0.9665
4.8647 6.5292 -2.5044 0.9665
4.7322 6.6257 -2.5043 0.9665
4.4614 6.8106 -2.5042 0.9665
-7.4817 0.7207 -2.4985 0.9688
-7.4947 0.5699 -2.4985 0.9688
-7.5046 0.4189 -2.4984 0.9688
-7.5114 0.2677 -2.4984 0.9688
-7.5152 0.1164 -2.4984 0.9688
-7.5160 -0.0349 -2.4984 0.9688
-7.5137 -0.1862 -2.4984 0.9688
-7.5001 -0.4886 -2.4983 0.9688
-7.4887 -0.6395 -2.4983 0.9688
-7.4742 -0.7901 -2.4983 0.9688
-7.3863 -1.3889 -2.4983 0.9688
-7.3244 -1.6851 -2.4983 0.9688
-7.2890 -1.8323 -2.4983 0.9688
-7.1651 -2.2690 -2.4983 0.9688
-7.1180 -2.4128 -2.4983 0.9688
-7.0680 -2.5556 -2.4983 0.9688
-7.0151 -2.6974 -2.4983 0.9688
-6.9009 -2.9777 -2.4983 0.9688
-6.7755 -3.2531 -2.4983 0.9688
-6.6391 -3.5233 -2.4984 0.9688
-6.5668 -3.6563 -2.4984 0.9688
-6.3343 -4.0462 -2.4984 0.9688
-6.2516 -4.1729 -2.4985 0.9688
-6.0786 -4.4213 -2.4985 0.9688
-5.9884 -4.5428 -2.4985 0.9688
-5.8958 -4.6625 -2.4986 0.9688
-5.6038 -5.0101 -2.4987 0.9688
-5.5018 -5.1220 -2.4987 0.9688
-5.3976 -5.2318 -2.4987 0.9688
-4.8448 -5.7483 -2.4989 0.9688
-4.6096 -5.9388 -2.4990 0.9688
-4.3669 -6.1198 -2.4991 0.9688
-4.2429 -6.2066 -2.4991 0.9688
-3.9897 -6.3726 -2.4992 0.9688
-3.5979 -6.6022 -2.4993 0.9688
-3.4643 -6.6735 -2.4994 0.9688
-2.9164 -6.9311 -2.4996 0.9688
-2.3495 -7.1439 -2.4998 0.9688
-2.2052 -7.1899 -2.4999 0.9688
-1.6198 -7.3447 -2.5001 0.9688
-1.4716 -7.3760 -2.5002 0.9688
-0.5720 -7.5007 -2.5005 0.9688
-0.2696 -7.5180 -2.5006 0.9688
-0.1181 -7.5221 -2.5007 0.9688
0.1848 -7.5212 -2.5008 0.9688
0.3362 -7.5161 -2.5009 0.9688
0.6386 -7.4969 -2.5010 0.9688
1.2398 -7.4220 -2.5013 0.9688
1.3890 -7.3957 -2.5014 0.9688
1.5377 -7.3665 -2.5014 0.9688
1.8331 -7.2990 -2.5016 0.9688
1.9798 -7.2608 -2.5016 0.9688
2.1256 -7.2196 -2.5017 0.9688
2.2706 -7.1756 -2.5018 0.9688
2.4147 -7.1286 -2.5018 0.9688
2.5578 -7.0787 -2.5019 0.9688
2.6999 -7.0260 -2.5020 0.9688
2.8409 -6.9703 -2.5020 0.9688
2.9807 -6.9119 -2.5021 0.9688
3.1193 -6.8507 -2.5022 0.9688
3.2567 -6.7867 -2.5022 0.9688
3.3928 -6.7199 -2.5023 0.9688
3.7926 -6.5033 -2.5025 0.9688
4.0516 -6.3457 -2.5026 0.9688
4.4276 -6.0900 -2.5028 0.9688
4.5494 -5.9997 -2.5029 0.9688
4.7875 -5.8120 -2.5030 0.9688
5.0179 -5.6148 -2.5031 0.9688
5.2401 -5.4084 -2.5032 0.9688
5.3480 -5.3020 -2.5033 0.9688
5.7578 -4.8550 -2.5035 0.9688
5.9488 -4.6194 -2.5036 0.9688
6.0408 -4.4988 -2.5037 0.9688
6.1303 -4.3763 -2.5037 0.9687
6.2173 -4.2521 -2.5038 0.9687
6.4630 -3.8692 -2.5039 0.9687
6.5397 -3.7384 -2.5040 0.9687
6.6138 -3.6060 -2.5040 0.9687
6.7538 -3.3369 -2.5041 0.9687
6.8829 -3.0624 -2.5042 0.9687
6.9433 -2.9233 -2.5042 0.9687
7.0556 -2.6414 -2.5043 0.9687
7.1564 -2.3553 -2.5044 0.9687
7.2859 -1.9191 -2.5045 0.9687
7.3231 -1.7720 -2.5045 0.9687
7.3574 -1.6242 -2.5045 0.9687
7.4646 -1.0270 -2.5046 0.9687
7.4838 -0.8766 -2.5047 0.9687
7.5132 -0.5746 -2.5047 0.9687
7.5303 -0.2716 -2.5048 0.9687
7.5353 0.0318 -2.5048 0.9687
7.5280 0.3351 -2.5048 0.9687
7.5197 0.4866 -2.5048 0.9687
7.5084 0.6379 -2.5048 0.9687
7.4941 0.7890 -2.5049 0.9687
7.4563 1.0901 -2.5049 0.9687
7.4329 1.2400 -2.5049 0.9687
7.3445 1.6865 -2.5049 0.9687
7.3091 1.8340 -2.5049 0.9687
7.2706 1.9808 -2.5049 0.9687
7.2293 2.1268 -2.5049 0.9687
7.1378 2.4161 -2.5049 0.9687
7.0877 2.5593 -2.5049 0.9687
7.0347 2.7015 -2.5049 0.9687
6.8587 3.1212 -2.5048 0.9687
6.7274 3.3948 -2.5048 0.9687
6.2689 4.1807 -2.5047 0.9687
6.1834 4.3060 -2.5047 0.9687
5.8167 4.7893 -2.5046 0.9687
5.7190 4.9054 -2.5045 0.9687
5.5168 5.1315 -2.5045 0.9687
5.4123 5.2415 -2.5044 0.9687
5.3056 5.3493 -2.5044 0.9687
5.1967 5.4550 -2.5044 0.9687
5.0858 5.5584 -2.5043 0.9687
4.9727 5.6597 -2.5043 0.9687
4.8577 5.7585 -2.5043 0.9687
4.6218 5.9492 -2.5042 0.9687
4.5010 6.0410 -2.5041 0.9687
4.3784 6.1303 -2.5041 0.9687
4.2540 6.2171 -2.5041 0.9687
4.1279 6.3014 -2.5040 0.9687
-6.7581 1.7770 -2.4989 0.9708
-6.8789 1.2274 -2.4988 0.9708
-6.9021 1.0887 -2.4988 0.9708
-6.9226 0.9495 -2.4987 0.9708
-6.9402 0.8099 -2.4987 0.9708
-6.9551 0.6700 -2.4987 0.9708
-6.9827 0.2489 -2.4986 0.9708
-6.9848 -0.1731 -2.4986 0.9708
-6.9799 -0.3137 -2.4986 0.9708
-6.9615 -0.5945 -2.4986 0.9708
-6.9129 -1.0137 -2.4985 0.9708
-6.8911 -1.1526 -2.4985 0.9708
-6.7760 -1.7033 -2.4985 0.9708
-6.7403 -1.8394 -2.4985 0.9708
-6.7019 -1.9747 -2.4985 0.9708
-6.6608 -2.1093 -2.4985 0.9708
-6.6170 -2.2430 -2.4985 0.9708
-6.5213 -2.5076 -2.4985 0.9708
-6.1717 -3.2753 -2.4986 0.9708
-5.9629 -3.6420 -2.4987 0.9708
-5.8115 -3.8792 -2.4987 0.9708
-5.7323 -3.9954 -2.4987 0.9708
-5.6507 -4.1101 -2.4987 0.9708
-5.3924 -4.4438 -2.4988 0.9708
-5.1145 -4.7614 -2.4989 0.9708
-4.9188 -4.9636 -2.4990 0.9708
-4.8179 -5.0617 -2.4990 0.9708
-4.7151 -5.1577 -2.4990 0.9708
-4.6103 -5.2517 -2.4991 0.9707
-4.2851 -5.5207 -2.4992 0.9707
-4.1731 -5.6059 -2.4992 0.9707
-4.0595 -5.6889 -2.4992 0.9707
-3.9442 -5.7696 -2.4993 0.9707
-3.8272 -5.8479 -2.4993 0.9707
-3.7088 -5.9239 -2.4994 0.9707
-3.5888 -5.9975 -2.4994 0.9707
-3.4674 -6.0686 -2.4994 0.9707
-3.3446 -6.1373 -2.4995 0.9707
-2.9681 -6.3284 -2.4996 0.9707
-2.7110 -6.4430 -2.4997 0.9707
-2.5808 -6.4964 -2.4998 0.9707
-2.4495 -6.5472 -2.4998 0.9707
-2.1840 -6.6408 -2.4999 0.9707
-2.0499 -6.6835 -2.5000 0.9707
-1.9150 -6.7236 -2.5000 0.9707
-1.6428 -6.7956 -2.5001 0.9707
-1.5057 -6.8274 -2.5002 0.9707
-1.3679 -6.8565 -2.5003 0.9707
-0.9516 -6.9270 -2.5004 0.9707
-0.6720 -6.9600 -2.5005 0.9707
-0.5317 -6.9723 -2.5006 0.9707
-0.3912 -6.9818 -2.5007 0.9707
0.1718 -6.9913 -2.5009 0.9707
0.3125 -6.9866 -2.5010 0.9707
0.7338 -6.9555 -2.5011 0.9707
1.1524 -6.8990 -2.5013 0.9707
1.2911 -6.8746 -2.5014 0.9707
1.4293 -6.8474 -2.5014 0.9707
1.8402 -6.7491 -2.5016 0.9707
2.1106 -6.6698 -2.5018 0.9707
2.3775 -6.5798 -2.5019 0.9707
2.6406 -6.4791 -2.5020 0.9707
3.5252 -6.0449 -2.5024 0.9707
3.6463 -5.9728 -2.5025 0.9707
3.7659 -5.8983 -2.5025 0.9707
4.0005 -5.7422 -2.5027 0.9707
4.4499 -5.4022 -2.5029 0.9707
4.5579 -5.3116 -2.5029 0.9707
4.6640 -5.2189 -2.5030 0.9707
4.7683 -5.1240 -2.5030 0.9707
4.8706 -5.0271 -2.5031 0.9707
5.0692 -4.8271 -2.5032 0.9707
5.1655 -4.7242 -2.5033 0.9707
5.3517 -4.5126 -2.5034 0.9707
5.6979 -4.0677 -2.5036 0.9707
5.7788 -3.9522 -2.5036 0.9707
5.8573 -3.8351 -2.5037 0.9707
6.1473 -3.3517 -2.5038 0.9707
6.6516 -2.1892 -2.5042 0.9707
6.6944 -2.0548 -2.5042 0.9707
6.7345 -1.9196 -2.5042 0.9707
6.8065 -1.6470 -2.5043 0.9707
6.8674 -1.3717 -2.5043 0.9707
6.8937 -1.2331 -2.5044 0.9707
6.9172 -1.0941 -2.5044 0.9707
6.9708 -0.6745 -2.5045 0.9707
6.9990 -0.2525 -2.5045 0.9707
7.0027 -0.1115 -2.5045 0.9707
6.9968 0.3115 -2.5046 0.9707
6.9492 0.8734 -2.5046 0.9707
6.9084 1.1525 -2.5046 0.9707
6.8564 1.4297 -2.5046 0.9707
6.8263 1.5675 -2.5047 0.9707
6.7933 1.7046 -2.5047 0.9707
6.6780 2.1116 -2.5046 0.9707
6.3747 2.9010 -2.5046 0.9707
6.3150 3.0287 -2.5046 0.9707
6.2527 3.1553 -2.5046 0.9707
6.1879 3.2805 -2.5046 0.9707
5.6654 4.1170 -2.5044 0.9707
5.4063 4.4514 -2.5044 0.9707
5.1276 4.7695 -2.5043 0.9707
5.0304 4.8717 -2.5042 0.9707
4.8301 5.0702 -2.5042 0.9707
4.7270 5.1663 -2.5042 0.9707
4.5150 5.3523 -2.5041 0.9707
4.4063 5.4421 -2.5040 0.9707
-6.3069 1.6583 -2.4991 0.9725
-6.3390 1.5310 -2.4991 0.9725
-6.3953 1.2745 -2.4990 0.9725
-6.4197 1.1455 -2.4990 0.9725
-6.4413 1.0160 -2.4990 0.9725
-6.4908 0.6253 -2.4989 0.9725
-6.5106 0.3634 -2.4989 0.9725
-6.5199 0.1010 -2.4988 0.9725
-6.5205 -0.0303 -2.4988 0.9725
-6.5067 -0.4239 -2.4988 0.9725
-6.4843 -0.6855 -2.4988 0.9725
-6.4514 -0.9460 -2.4987 0.9725
-6.4081 -1.2049 -2.4987 0.9725
-6.3825 -1.3337 -2.4987 0.9725
-6.2903 -1.7166 -2.4987 0.9725
-6.2545 -1.8429 -2.4987 0.9725
-6.1753 -2.0933 -2.4987 0.9725
-6.1319 -2.2171 -2.4987 0.9725
-6.0860 -2.3402 -2.4987 0.9725
-6.0377 -2.4622 -2.4987 0.9725
-5.9869 -2.5833 -2.4988 0.9725
-5.8201 -2.9401 -2.4988 0.9725
-5.7597 -3.0567 -2.4988 0.9725
-5.5648 -3.3989 -2.4988 0.9725
-5.4235 -3.6202 -2.4989 0.9725
-5.1952 -3.9411 -2.4989 0.9725
-5.1149 -4.0450 -2.4990 0.9725
-5.0324 -4.1472 -2.4990 0.9725
-4.9480 -4.2477 -2.4990 0.9725
-4.6827 -4.5388 -2.4991 0.9725
-4.2030 -4.9868 -2.4993 0.9724
-4.1018 -5.0704 -2.4993 0.9724
-3.8945 -5.2316 -2.4994 0.9724
-3.6808 -5.3843 -2.4994 0.9724
-3.5717 -5.4574 -2.4995 0.9724
-3.4611 -5.5283 -2.4995 0.9724
-3.3492 -5.5970 -2.4995 0.9724
-3.1212 -5.7275 -2.4996 0.9724
-3.0053 -5.7893 -2.4997 0.9724
-2.1625 -6.1548 -2.5000 0.9724
-2.0382 -6.1973 -2.5000 0.9724
-1.7871 -6.2745 -2.5001 0.9724
-1.5331 -6.3416 -2.5002 0.9724
-1.4051 -6.3713 -2.5003 0.9724
-1.2766 -6.3985 -2.5003 0.9724
-0.8880 -6.4643 -2.5005 0.9724
-0.7577 -6.4810 -2.5006 0.9724
-0.3651 -6.5153 -2.5007 0.9724
-0.2338 -6.5215 -2.5008 0.9724
0.0289 -6.5259 -2.5009 0.9724
0.1603 -6.5242 -2.5009 0.9724
0.4229 -6.5127 -2.5011 0.9724
0.8153 -6.4758 -2.5012 0.9724
1.0754 -6.4380 -2.5013 0.9724
1.3338 -6.3898 -2.5015 0.9724
1.5901 -6.3312 -2.5016 0.9724
1.8438 -6.2623 -2.5017 0.9724
2.2186 -6.1400 -2.5019 0.9724
2.5854 -5.9953 -2.5020 0.9724
2.8248 -5.8866 -2.5021 0.9724
3.1753 -5.7057 -2.5023 0.9724
3.2896 -5.6407 -2.5024 0.9724
3.5141 -5.5040 -2.5025 0.9724
3.6243 -5.4322 -2.5025 0.9724
3.8403 -5.2821 -2.5026 0.9724
4.1524 -5.0410 -2.5028 0.9724
4.4494 -4.7814 -2.5030 0.9724
4.5449 -4.6909 -2.5030 0.9724
4.6385 -4.5986 -2.5031 0.9724
5.0777 -4.1095 -2.5033 0.9724
5.1595 -4.0065 -2.5033 0.9724
5.2392 -3.9018 -2.5034 0.9724
5.3168 -3.7956 -2.5034 0.9724
5.3923 -3.6879 -2.5035 0.9724
5.4655 -3.5786 -2.5035 0.9724
5.6719 -3.2423 -2.5036 0.9724
5.7361 -3.1275 -2.5037 0.9724
5.7980 -3.0114 -2.5037 0.9724
5.8575 -2.8941 -2.5038 0.9724
5.9147 -2.7756 -2.5038 0.9724
5.9695 -2.6560 -2.5038 0.9724
6.0218 -2.5353 -2.5039 0.9724
6.0717 -2.4136 -2.5039 0.9724
6.1192 -2.2909 -2.5039 0.9724
6.1642 -2.1672 -2.5040 0.9724
6.2066 -2.0427 -2.5040 0.9724
6.3808 -1.4086 -2.5041 0.9724
6.4325 -1.1506 -2.5042 0.9724
6.4544 -1.0209 -2.5042 0.9724
6.4737 -0.8907 -2.5042 0.9724
6.5045 -0.6294 -2.5043 0.9724
6.5159 -0.4983 -2.5043 0.9724
6.5246 -0.3670 -2.5043 0.9724
6.5307 -0.2356 -2.5043 0.9724
6.5350 0.0276 -2.5044 0.9724
6.5332 0.1591 -2.5044 0.9724
6.5287 0.2906 -2.5044 0.9724
6.5215 0.4220 -2.5044 0.9724
6.5117 0.5533 -2.5044 0.9724
6.4993 0.6843 -2.5044 0.9724
6.4842 0.8150 -2.5044 0.9724
6.4462 1.0754 -2.5044 0.9724
6.3695 1.4626 -2.5044 0.9724
6.3055 1.7179 -2.5044 0.9724
6.2696 1.8444 -2.5044 0.9724
6.1903 2.0954 -2.5044 0.9724
6.1468 2.2196 -2.5044 0.9724
6.1009 2.3429 -2.5044 0.9724
5.8925 2.8261 -2.5044 0.9724
5.7111 3.1766 -2.5044 0.9724
5.6459 3.2909 -2.5043 0.9724
5.5088 3.5155 -2.5043 0.9724
5.3627 3.7344 -2.5043 0.9724
5.2863 3.8416 -2.5042 0.9724
5.1273 4.0512 -2.5042 0.9724
5.0446 4.1536 -2.5042 0.9724
4.9599 4.2543 -2.5041 0.9724
4.7845 4.4505 -2.5041 0.9724
4.6014 4.6394 -2.5040 0.9724
4.5070 4.7310 -2.5040 0.9724
4.2130 4.9943 -2.5039 0.9724
4.1115 5.0780 -2.5039 0.9724
3.9036 5.2393 -2.5038 0.9724
3.7973 5.3167 -2.5038 0.9724
3.6894 5.3920 -2.5037 0.9724
3.5801 5.4651 -2.5037 0.9724
-5.9058 1.5529 -2.4992 0.9740
-5.9358 1.4336 -2.4992 0.9740
-5.9886 1.1934 -2.4992 0.9740
-6.0317 0.9514 -2.4991 0.9740
-6.0495 0.8297 -2.4991 0.9740
-6.0650 0.7078 -2.4991 0.9740
-6.0965 0.3403 -2.4990 0.9740
-6.1021 0.2175 -2.4990 0.9740
-6.0997 -0.2742 -2.4990 0.9740
-6.0836 -0.5195 -2.4989 0.9740
-6.0577 -0.7640 -2.4989 0.9740
-6.0411 -0.8858 -2.4989 0.9740
-6.0005 -1.1283 -2.4989 0.9740
-5.9502 -1.3690 -2.4989 0.9740
-5.9215 -1.4885 -2.4989 0.9740
-5.8903 -1.6074 -2.4989 0.9740
-5.8567 -1.7257 -2.4989 0.9740
-5.8208 -1.8433 -2.4989 0.9740
-5.6537 -2.3056 -2.4989 0.9740
-5.5042 -2.6428 -2.4990 0.9740
-5.4499 -2.7531 -2.4990 0.9740
-5.2739 -3.0771 -2.4990 0.9740
-5.1458 -3.2870 -2.4990 0.9740
-5.0786 -3.3900 -2.4991 0.9740
-5.0093 -3.4916 -2.4991 0.9740
-4.9381 -3.5917 -2.4991 0.9740
-4.8648 -3.6905 -2.4991 0.9740
-4.7895 -3.7877 -2.4991 0.9740
-4.7124 -3.8834 -2.4992 0.9740
-4.2984 -4.3376 -2.4993 0.9740
-4.2102 -4.4233 -2.4993 0.9740
-4.1204 -4.5072 -2.4993 0.9740
-3.9357 -4.6696 -2.4994 0.9740
-3.8409 -4.7479 -2.4994 0.9740
-3.7446 -4.8244 -2.4995 0.9740
-3.6467 -4.8988 -2.4995 0.9740
-3.5474 -4.9713 -2.4995 0.9739
-3.4466 -5.0418 -2.4996 0.9739
-3.3445 -5.1103 -2.4996 0.9739
-3.2409 -5.1767 -2.4996 0.9739
-3.1361 -5.2409 -2.4997 0.9739
-2.9226 -5.3631 -2.4998 0.9739
-2.5937 -5.5300 -2.4999 0.9739
-2.4818 -5.5812 -2.4999 0.9739
-2.3690 -5.6302 -2.5000 0.9739
-2.2552 -5.6768 -2.5000 0.9739
-1.7913 -5.8403 -2.5002 0.9739
-1.4355 -5.9381 -2.5003 0.9739
-1.3157 -5.9659 -2.5004 0.9739
-0.8315 -6.0529 -2.5006 0.9739
-0.7095 -6.0685 -2.5006 0.9739
-0.4646 -6.0924 -2.5007 0.9739
-0.3418 -6.1007 -2.5008 0.9739
-0.2190 -6.1064 -2.5008 0.9739
-0.0960 -6.1097 -2.5009 0.9739
0.1501 -6.1089 -2.5010 0.9739
0.5187 -6.0891 -2.5011 0.9739
0.7634 -6.0635 -2.5012 0.9739
1.1282 -6.0068 -2.5014 0.9739
1.2489 -5.9830 -2.5015 0.9739
1.7264 -5.8636 -2.5017 0.9739
1.8441 -5.8278 -2.5017 0.9739
1.9611 -5.7896 -2.5018 0.9739
2.0773 -5.7491 -2.5018 0.9739
2.3072 -5.6610 -2.5019 0.9739
2.5334 -5.5638 -2.5021 0.9739
2.7554 -5.4575 -2.5022 0.9739
2.8648 -5.4010 -2.5022 0.9739
2.9730 -5.3423 -2.5023 0.9739
3.0801 -5.2815 -2.5023 0.9739
3.1858 -5.2185 -2.5024 0.9739
3.2903 -5.1534 -2.5024 0.9739
3.4953 -5.0170 -2.5025 0.9739
3.6946 -4.8724 -2.5026 0.9739
3.7920 -4.7971 -2.5027 0.9739
3.8879 -4.7199 -2.5027 0.9739
3.9822 -4.6408 -2.5028 0.9739
4.0749 -4.5597 -2.5028 0.9739
4.2554 -4.3921 -2.5029 0.9739
4.3430 -4.3056 -2.5030 0.9739
4.4289 -4.2174 -2.5030 0.9739
4.5953 -4.0358 -2.5031 0.9739
4.6757 -3.9425 -2.5031 0.9739
4.7542 -3.8476 -2.5032 0.9739
4.8308 -3.7512 -2.5032 0.9739
4.9781 -3.5538 -2.5033 0.9739
5.0487 -3.4529 -2.5034 0.9739
5.1838 -3.2469 -2.5034 0.9739
5.3706 -2.9282 -2.5035 0.9739
5.4843 -2.7097 -2.5036 0.9739
5.5378 -2.5988 -2.5037 0.9739
5.5891 -2.4868 -2.5037 0.9739
5.6848 -2.2598 -2.5038 0.9739
5.7292 -2.1449 -2.5038 0.9739
5.7714 -2.0291 -2.5038 0.9739
5.8111 -1.9125 -2.5038 0.9739
5.9162 -1.5583 -2.5039 0.9739
5.9464 -1.4389 -2.5040 0.9739
5.9742 -1.3189 -2.5040 0.9739
6.0226 -1.0773 -2.5040 0.9739
6.0431 -0.9558 -2.5040 0.9739
6.0768 -0.7118 -2.5041 0.9739
6.1006 -0.4666 -2.5041 0.9739
6.1088 -0.3436 -2.5041 0.9739
6.1178 -0.0974 -2.5042 0.9739
6.1168 0.1490 -2.5042 0.9739
6.1059 0.3951 -2.5042 0.9739
6.0851 0.6407 -2.5042 0.9739
6.0710 0.7631 -2.5042 0.9739
6.0353 1.0068 -2.5043 0.9739
5.9636 1.3694 -2.5043 0.9739
5.9348 1.4892 -2.5043 0.9739
5.9036 1.6083 -2.5043 0.9739
5.8700 1.7269 -2.5043 0.9739
5.7957 1.9618 -2.5043 0.9739
5.7550 2.0781 -2.5043 0.9739
5.7120 2.1936 -2.5042 0.9739
5.2861 3.0812 -2.5042 0.9739
5.2229 3.1870 -2.5041 0.9739
5.0903 3.3946 -2.5041 0.9739
4.8760 3.6957 -2.5041 0.9739
4.8006 3.7931 -2.5040 0.9739
4.6439 3.9832 -2.5040 0.9739
4.5627 4.0758 -2.5040 0.9739
4.3948 4.2562 -2.5039 0.9739
4.1297 4.5135 -2.5038 0.9739
4.0379 4.5957 -2.5038 0.9739
3.9445 4.6760 -2.5038 0.9739
3.8495 4.7544 -2.5037 0.9739
3.7530 4.8309 -2.5037 0.9739
3.5554 4.9780 -2.5036 0.9739
3.4544 5.0485 -2.5036 0.9739
3.3520 5.1169 -2.5036 0.9739
-5.5464 1.4584 -2.4994 0.9753
-5.5746 1.3464 -2.4994 0.9753
-5.6646 0.8935 -2.4993 0.9753
-5.6815 0.7792 -2.4993 0.9753
-5.6960 0.6647 -2.4992 0.9753
-5.7256 0.3196 -2.4992 0.9753
-5.7285 -0.2575 -2.4991 0.9753
-5.7222 -0.3728 -2.4991 0.9753
-5.7135 -0.4879 -2.4991 0.9753
-5.7025 -0.6028 -2.4991 0.9753
-5.6736 -0.8319 -2.4991 0.9753
-5.6557 -0.9460 -2.4991 0.9753
-5.6355 -1.0597 -2.4991 0.9753
-5.5612 -1.3979 -2.4991 0.9753
-5.5319 -1.5096 -2.4991 0.9753
-5.5004 -1.6207 -2.4991 0.9753
-5.4307 -1.8409 -2.4991 0.9753
-5.3926 -1.9498 -2.4991 0.9753
-5.3097 -2.1654 -2.4991 0.9753
-5.2651 -2.2718 -2.4991 0.9753
-5.2183 -2.3774 -2.4991 0.9753
-5.1694 -2.4820 -2.4991 0.9753
-5.0653 -2.6881 -2.4991 0.9753
-5.0102 -2.7896 -2.4991 0.9753
-4.9530 -2.8899 -2.4992 0.9753
-4.8938 -2.9891 -2.4992 0.9753
-4.8327 -3.0870 -2.4992 0.9753
-4.7696 -3.1837 -2.4992 0.9753
-4.6376 -3.3732 -2.4992 0.9753
-4.4981 -3.5572 -2.4993 0.9753
-4.2753 -3.8224 -2.4993 0.9753
-4.1975 -3.9077 -2.4994 0.9753
-4.1180 -3.9915 -2.4994 0.9753
-3.6962 -4.3854 -2.4995 0.9753
-3.6072 -4.4590 -2.4996 0.9753
-3.5167 -4.5308 -2.4996 0.9753
-3.2369 -4.7350 -2.4997 0.9753
-3.0437 -4.8616 -2.4998 0.9753
-2.7448 -5.0367 -2.4999 0.9753
-2.6429 -5.0910 -2.4999 0.9753
-2.5398 -5.1433 -2.4999 0.9753
-2.3308 -5.2415 -2.5000 0.9753
-2.1179 -5.3313 -2.5001 0.9753
-1.9017 -5.4124 -2.5002 0.9753
-1.7923 -5.4497 -2.5002 0.9753
-1.1226 -5.6266 -2.5005 0.9753
-1.0091 -5.6481 -2.5005 0.9753
-0.8952 -5.6674 -2.5006 0.9753
-0.7809 -5.6844 -2.5006 0.9753
-0.5514 -5.7114 -2.5007 0.9753
-0.4363 -5.7215 -2.5008 0.9753
-0.0901 -5.7378 -2.5009 0.9753
0.0254 -5.7385 -2.5010 0.9753
0.4871 -5.7183 -2.5012 0.9753
0.7169 -5.6943 -2.5013 0.9753
0.8315 -5.6788 -2.5013 0.9753
1.0595 -5.6410 -2.5014 0.9753
1.2858 -5.5940 -2.5015 0.9753
1.5100 -5.5379 -2.5016 0.9753
1.6212 -5.5065 -2.5017 0.9753
1.7318 -5.4728 -2.5017 0.9753
1.8417 -5.4369 -2.5018 0.9753
2.0592 -5.3586 -2.5019 0.9753
2.2733 -5.2716 -2.5020 0.9753
2.3791 -5.2249 -2.5020 0.9753
2.4838 -5.1760 -2.5021 0.9753
2.5876 -5.1250 -2.5021 0.9753
2.6903 -5.0720 -2.5022 0.9753
2.8924 -4.9598 -2.5023 0.9753
2.9918 -4.9006 -2.5023 0.9753
3.1868 -4.7764 -2.5024 0.9753
3.2823 -4.7113 -2.5025 0.9753
3.3766 -4.6444 -2.5025 0.9753
3.5610 -4.5048 -2.5026 0.9753
3.6510 -4.4323 -2.5027 0.9753
3.7396 -4.3580 -2.5027 0.9753
3.9122 -4.2040 -2.5028 0.9753
3.9961 -4.1245 -2.5028 0.9753
4.1590 -3.9604 -2.5029 0.9753
4.2380 -3.8759 -2.5030 0.9753
4.3908 -3.7023 -2.5030 0.9753
4.6065 -3.4306 -2.5032 0.9752
4.6747 -3.3372 -2.5032 0.9752
5.0977 -2.6477 -2.5035 0.9752
5.2484 -2.3352 -2.5036 0.9752
5.2945 -2.2291 -2.5036 0.9752
5.3383 -2.1221 -2.5036 0.9752
5.3800 -2.0142 -2.5036 0.9752
5.4196 -1.9055 -2.5037 0.9752
5.4569 -1.7960 -2.5037 0.9752
5.5249 -1.5749 -2.5038 0.9752
5.5839 -1.3512 -2.5038 0.9752
5.6917 -0.7831 -2.5039 0.9752
5.7455 0.0242 -2.5040 0.9752
5.7439 0.1399 -2.5040 0.9752
5.7337 0.3710 -2.5041 0.9752
5.7251 0.4864 -2.5041 0.9752
5.7141 0.6016 -2.5041 0.9752
5.6000 1.2859 -2.5041 0.9752
5.5730 1.3984 -2.5041 0.9752
5.4784 1.7323 -2.5041 0.9752
5.4042 1.9514 -2.5041 0.9752
5.2765 2.2741 -2.5041 0.9752
5.2296 2.3799 -2.5041 0.9752
5.1806 2.4847 -2.5041 0.9752
5.0764 2.6912 -2.5040 0.9752
5.0211 2.7928 -2.5040 0.9752
4.7800 3.1877 -2.5040 0.9752
4.7148 3.2833 -2.5039 0.9752
4.6477 3.3775 -2.5039 0.9752
4.5788 3.4704 -2.5039 0.9752
4.5079 3.5618 -2.5039 0.9752
4.3608 3.7404 -2.5038 0.9752
4.2846 3.8274 -2.5038 0.9752
4.2066 3.9129 -2.5038 0.9752
4.1269 3.9967 -2.5038 0.9752
4.0456 4.0790 -2.5037 0.9752
3.8780 4.2384 -2.5037 0.9752
3.7918 4.3156 -2.5037 0.9752
3.5242 4.5365 -2.5036 0.9752
3.4321 4.6065 -2.5035 0.9752
3.3387 4.6746 -2.5035 0.9752
3.1477 4.8051 -2.5034 0.9752
-5.2223 1.3732 -2.4995 0.9765
-5.2956 1.0554 -2.4994 0.9765
-5.3157 0.9485 -2.4994 0.9765
-5.3337 0.8413 -2.4994 0.9765
-5.3495 0.7337 -2.4994 0.9765
-5.3632 0.6258 -2.4994 0.9765
-5.3746 0.5177 -2.4994 0.9765
-5.3839 0.4094 -2.4993 0.9765
-5.3911 0.3009 -2.4993 0.9765
-5.3987 0.0836 -2.4993 0.9765
-5.3993 -0.0251 -2.4993 0.9765
-5.3939 -0.2424 -2.4993 0.9765
-5.3797 -0.4594 -2.4992 0.9765
-5.3694 -0.5676 -2.4992 0.9765
-5.3421 -0.7833 -2.4992 0.9765
-5.3252 -0.8907 -2.4992 0.9765
-5.3062 -0.9977 -2.4992 0.9765
-5.2851 -1.1044 -2.4992 0.9765
-5.1134 -1.7333 -2.4992 0.9765
-5.0775 -1.8359 -2.4992 0.9765
-5.0395 -1.9378 -2.4992 0.9765
-4.9995 -2.0388 -2.4992 0.9765
-4.9575 -2.1391 -2.4992 0.9765
-4.9134 -2.2385 -2.4992 0.9765
-4.8193 -2.4345 -2.4993 0.9765
-4.5503 -2.9067 -2.4993 0.9765
-4.4909 -2.9977 -2.4993 0.9765
-4.4297 -3.0875 -2.4994 0.9765
-4.3019 -3.2634 -2.4994 0.9765
-4.0971 -3.5172 -2.4995 0.9765
-4.0255 -3.5991 -2.4995 0.9765
-3.7230 -3.9114 -2.4996 0.9765
-3.6435 -3.9856 -2.4996 0.9765
-3.3964 -4.1984 -2.4997 0.9765
-3.3112 -4.2660 -2.4997 0.9765
-3.2247 -4.3319 -2.4997 0.9765
-2.9574 -4.5188 -2.4998 0.9765
-2.8658 -4.5775 -2.4999 0.9765
-2.5844 -4.7424 -2.5000 0.9765
-2.3914 -4.8427 -2.5000 0.9765
-2.2935 -4.8900 -2.5001 0.9765
-2.0948 -4.9785 -2.5001 0.9765
-1.9941 -5.0197 -2.5002 0.9765
-1.8927 -5.0589 -2.5002 0.9765
-1.6876 -5.1312 -2.5003 0.9765
-1.4797 -5.1951 -2.5004 0.9765
-1.3748 -5.2240 -2.5004 0.9765
-1.2693 -5.2507 -2.5005 0.9765
-1.1634 -5.2752 -2.5005 0.9765
-1.0569 -5.2977 -2.5006 0.9765
-0.6273 -5.3659 -2.5007 0.9765
-0.5192 -5.3776 -2.5008 0.9765
-0.4108 -5.3870 -2.5008 0.9765
-0.1936 -5.3994 -2.5009 0.9765
-0.0848 -5.4023 -2.5010 0.9765
0.1327 -5.4016 -2.5010 0.9765
0.7829 -5.3468 -2.5013 0.9765
0.8904 -5.3300 -2.5014 0.9765
1.2106 -5.2669 -2.5015 0.9765
1.3164 -5.2415 -2.5016 0.9765
1.4217 -5.2140 -2.5016 0.9765
1.6305 -5.1528 -2.5017 0.9765
1.7340 -5.1190 -2.5018 0.9765
1.8367 -5.0831 -2.5018 0.9765
1.9387 -5.0452 -2.5019 0.9765
2.0400 -5.0053 -2.5019 0.9765
2.4362 -4.8253 -2.5021 0.9765
2.5330 -4.7753 -2.5021 0.9765
2.6286 -4.7235 -2.5022 0.9765
2.8168 -4.6140 -2.5023 0.9765
2.9092 -4.5564 -2.5023 0.9765
3.0004 -4.4970 -2.5024 0.9765
3.2665 -4.3079 -2.5025 0.9765
3.4374 -4.1730 -2.5026 0.9765
3.6833 -3.9581 -2.5027 0.9765
3.7623 -3.8832 -2.5028 0.9764
4.0628 -3.5681 -2.5029 0.9764
4.1339 -3.4857 -2.5030 0.9764
4.2033 -3.4018 -2.5030 0.9764
4.2710 -3.3165 -2.5030 0.9764
4.3370 -3.2299 -2.5031 0.9764
4.4012 -3.1420 -2.5031 0.9764
4.5242 -2.9623 -2.5032 0.9764
4.6400 -2.7778 -2.5033 0.9764
4.6950 -2.6839 -2.5033 0.9764
4.7482 -2.5889 -2.5033 0.9764
4.7994 -2.4927 -2.5033 0.9764
4.8487 -2.3957 -2.5034 0.9764
4.8960 -2.2975 -2.5034 0.9764
4.9846 -2.0986 -2.5035 0.9764
5.0259 -1.9979 -2.5035 0.9764
5.1024 -1.7940 -2.5036 0.9764
5.1375 -1.6909 -2.5036 0.9764
5.2015 -1.4827 -2.5036 0.9764
5.2304 -1.3777 -2.5037 0.9764
5.2817 -1.1660 -2.5037 0.9764
5.3042 -1.0594 -2.5037 0.9764
5.3426 -0.8450 -2.5038 0.9764
5.3586 -0.7373 -2.5038 0.9764
5.3724 -0.6292 -2.5038 0.9764
5.3840 -0.5210 -2.5038 0.9764
5.4092 0.0228 -2.5039 0.9764
5.4077 0.1317 -2.5039 0.9764
5.3981 0.3493 -2.5039 0.9764
5.3900 0.4580 -2.5039 0.9764
5.3797 0.5664 -2.5039 0.9764
5.3672 0.6746 -2.5039 0.9764
5.2722 1.2106 -2.5040 0.9764
5.2468 1.3165 -2.5040 0.9764
5.1895 1.5267 -2.5040 0.9764
5.1239 1.7344 -2.5039 0.9764
5.0879 1.8372 -2.5039 0.9764
5.0098 2.0405 -2.5039 0.9764
4.9235 2.2406 -2.5039 0.9764
4.8293 2.4370 -2.5039 0.9764
4.6733 2.7240 -2.5039 0.9764
4.6175 2.8175 -2.5038 0.9764
4.5598 2.9099 -2.5038 0.9764
4.4389 3.0911 -2.5038 0.9764
4.3108 3.2673 -2.5038 0.9764
4.1056 3.5215 -2.5037 0.9764
3.7307 3.9161 -2.5036 0.9764
3.6510 3.9904 -2.5036 0.9764
3.5699 4.0631 -2.5035 0.9764
3.4873 4.1340 -2.5035 0.9764
3.3180 4.2710 -2.5035 0.9764
3.1433 4.4010 -2.5034 0.9764
2.9635 4.5239 -2.5033 0.9764
-4.9283 1.2958 -2.4996 0.9776
-4.9534 1.1964 -2.4996 0.9776
-4.9764 1.0964 -2.4996 0.9776
-5.0164 0.8951 -2.4995 0.9776
-5.0334 0.7939 -2.4995 0.9776
-5.0483 0.6924 -2.4995 0.9776
-5.0922 0.1815 -2.4994 0.9776
-5.0953 -0.0237 -2.4994 0.9776
-5.0938 -0.1262 -2.4994 0.9776
-5.0902 -0.2288 -2.4994 0.9776
-5.0768 -0.4335 -2.4994 0.9776
-5.0552 -0.6376 -2.4994 0.9776
-5.0414 -0.7392 -2.4994 0.9776
-5.0075 -0.9416 -2.4994 0.9776
-4.9655 -1.1424 -2.4993 0.9776
-4.9415 -1.2422 -2.4993 0.9776
-4.9155 -1.3414 -2.4993 0.9776
-4.8256 -1.6357 -2.4994 0.9776
-4.7917 -1.7326 -2.4994 0.9776
-4.7558 -1.8287 -2.4994 0.9776
-4.5933 -2.2054 -2.4994 0.9776
-4.5008 -2.3886 -2.4994 0.9776
-4.3485 -2.6560 -2.4994 0.9776
-4.2942 -2.7430 -2.4995 0.9776
-4.2381 -2.8289 -2.4995 0.9776
-4.0597 -3.0797 -2.4995 0.9776
-3.8664 -3.3192 -2.4996 0.9776
-3.7988 -3.3964 -2.4996 0.9776
-3.5870 -3.6197 -2.4997 0.9776
-3.5134 -3.6912 -2.4997 0.9776
-3.3620 -3.8297 -2.4997 0.9776
-3.2842 -3.8967 -2.4998 0.9776
-3.0431 -4.0880 -2.4998 0.9776
-2.5284 -4.4253 -2.5000 0.9775
-1.9768 -4.6981 -2.5002 0.9775
-1.7861 -4.7740 -2.5003 0.9775
-1.3963 -4.9025 -2.5005 0.9775
-1.1978 -4.9550 -2.5005 0.9775
-1.0979 -4.9781 -2.5006 0.9775
-0.8966 -5.0184 -2.5007 0.9775
-0.4899 -5.0747 -2.5008 0.9775
-0.3877 -5.0836 -2.5009 0.9775
-0.2852 -5.0904 -2.5009 0.9775
-0.1827 -5.0952 -2.5009 0.9775
0.0226 -5.0986 -2.5010 0.9775
0.2279 -5.0938 -2.5011 0.9775
0.4328 -5.0807 -2.5012 0.9775
0.5350 -5.0710 -2.5013 0.9775
0.6370 -5.0593 -2.5013 0.9775
0.7387 -5.0455 -2.5013 0.9775
1.2422 -4.9462 -2.5016 0.9775
1.3416 -4.9203 -2.5016 0.9775
1.4404 -4.8924 -2.5017 0.9775
1.5387 -4.8624 -2.5017 0.9775
1.6363 -4.8306 -2.5018 0.9775
1.8295 -4.7609 -2.5018 0.9775
1.9250 -4.7232 -2.5019 0.9775
2.0198 -4.6836 -2.5019 0.9775
2.3902 -4.5062 -2.5021 0.9775
2.4805 -4.4572 -2.5022 0.9775
2.6580 -4.3539 -2.5022 0.9775
2.9999 -4.1262 -2.5024 0.9775
3.0824 -4.0651 -2.5024 0.9775
3.1637 -4.0022 -2.5025 0.9775
3.2437 -3.9378 -2.5025 0.9775
3.4757 -3.7350 -2.5027 0.9775
3.5502 -3.6643 -2.5027 0.9775
3.6233 -3.5921 -2.5027 0.9775
3.6950 -3.5185 -2.5028 0.9775
3.9008 -3.2892 -2.5029 0.9775
3.9663 -3.2100 -2.5029 0.9775
4.0302 -3.1295 -2.5030 0.9775
4.0925 -3.0478 -2.5030 0.9775
4.2120 -2.8806 -2.5031 0.9775
4.2692 -2.7953 -2.5031 0.9775
4.3246 -2.7088 -2.5031 0.9775
4.4303 -2.5325 -2.5032 0.9775
4.4805 -2.4429 -2.5032 0.9775
4.5288 -2.3522 -2.5032 0.9775
4.6199 -2.1680 -2.5033 0.9775
4.7425 -1.8852 -2.5034 0.9775
4.7796 -1.7894 -2.5034 0.9775
4.8478 -1.5955 -2.5035 0.9775
5.0242 -0.8987 -2.5036 0.9775
5.0413 -0.7974 -2.5036 0.9775
5.0564 -0.6957 -2.5037 0.9775
5.0694 -0.5938 -2.5037 0.9775
5.0893 -0.3892 -2.5037 0.9775
5.1036 -0.0812 -2.5037 0.9775
5.1042 0.0215 -2.5038 0.9775
5.1027 0.1243 -2.5038 0.9775
5.0936 0.3296 -2.5038 0.9775
5.0763 0.5345 -2.5038 0.9775
5.0645 0.6365 -2.5038 0.9775
5.0169 0.9412 -2.5038 0.9775
4.8969 1.4406 -2.5038 0.9775
4.8669 1.5389 -2.5038 0.9775
4.8010 1.7336 -2.5038 0.9775
4.7273 1.9255 -2.5038 0.9775
4.6875 2.0203 -2.5038 0.9775
4.5569 2.2995 -2.5038 0.9775
4.4606 2.4811 -2.5037 0.9775
4.3571 2.6587 -2.5037 0.9775
4.2465 2.8319 -2.5037 0.9775
4.0677 3.0830 -2.5036 0.9775
3.8741 3.3229 -2.5036 0.9775
3.8063 3.4002 -2.5036 0.9775
3.5940 3.6237 -2.5035 0.9775
3.5203 3.6953 -2.5035 0.9775
3.2907 3.9009 -2.5034 0.9775
3.0491 4.0924 -2.5033 0.9775
2.9661 4.1529 -2.5033 0.9775
2.7964 4.2688 -2.5032 0.9775
-4.6838 1.1312 -2.4997 0.9785
-4.7255 0.9417 -2.4997 0.9785
-4.7595 0.7507 -2.4996 0.9785
-4.7736 0.6547 -2.4996 0.9785
-4.8043 0.3653 -2.4996 0.9785
-4.8151 0.1716 -2.4996 0.9785
-4.8175 0.0747 -2.4995 0.9785
-4.8180 -0.0224 -2.4995 0.9785
-4.8166 -0.1194 -2.4995 0.9785
-4.8079 -0.3132 -2.4995 0.9785
-4.7670 -0.6990 -2.4995 0.9785
-4.6953 -1.0803 -2.4995 0.9785
-4.6480 -1.2684 -2.4995 0.9785
-4.5932 -1.4545 -2.4995 0.9785
-4.5630 -1.5467 -2.4995 0.9785
-4.3845 -1.9975 -2.4995 0.9785
-4.3433 -2.0854 -2.4995 0.9785
-4.3005 -2.1724 -2.4995 0.9785
-4.1616 -2.4281 -2.4995 0.9785
-4.1119 -2.5114 -2.4996 0.9785
-4.0605 -2.5937 -2.4996 0.9785
-4.0075 -2.6750 -2.4996 0.9785
-3.9528 -2.7551 -2.4996 0.9785
-3.8387 -2.9121 -2.4996 0.9785
-3.5267 -3.2833 -2.4997 0.9785
-3.4599 -3.3536 -2.4997 0.9785
-3.1790 -3.6213 -2.4998 0.9785
-2.9547 -3.8067 -2.4999 0.9785
-2.6390 -4.0323 -2.5000 0.9785
-2.5573 -4.0846 -2.5001 0.9785
-2.4745 -4.1353 -2.5001 0.9785
-2.3061 -4.2317 -2.5001 0.9785
-2.2205 -4.2774 -2.5002 0.9785
-2.1339 -4.3212 -2.5002 0.9785
-2.0465 -4.3634 -2.5002 0.9785
-1.9583 -4.4037 -2.5003 0.9785
-1.8692 -4.4424 -2.5003 0.9785
-1.7794 -4.4791 -2.5003 0.9785
-1.6889 -4.5141 -2.5004 0.9785
-1.4133 -4.6081 -2.5005 0.9785
-1.2267 -4.6613 -2.5006 0.9785
-1.1326 -4.6852 -2.5006 0.9785
-0.9431 -4.7271 -2.5007 0.9785
-0.7521 -4.7614 -2.5007 0.9785
-0.4633 -4.7983 -2.5009 0.9785
-0.2697 -4.8133 -2.5009 0.9785
0.0213 -4.8210 -2.5011 0.9785
0.2154 -4.8164 -2.5011 0.9785
0.4092 -4.8040 -2.5012 0.9785
0.5058 -4.7948 -2.5013 0.9785
0.6023 -4.7838 -2.5013 0.9785
0.6985 -4.7708 -2.5014 0.9785
1.2685 -4.6523 -2.5016 0.9785
1.4549 -4.5976 -2.5017 0.9785
1.5471 -4.5674 -2.5017 0.9785
1.6388 -4.5354 -2.5018 0.9785
1.7298 -4.5016 -2.5018 0.9785
1.8201 -4.4659 -2.5019 0.9785
1.9097 -4.4284 -2.5019 0.9785
2.1737 -4.3053 -2.5020 0.9785
2.2600 -4.2607 -2.5021 0.9785
2.3454 -4.2144 -2.5021 0.9785
2.5132 -4.1167 -2.5022 0.9785
2.6770 -4.0123 -2.5023 0.9785
2.7573 -3.9577 -2.5023 0.9785
2.8364 -3.9014 -2.5024 0.9785
2.9145 -3.8436 -2.5024 0.9785
3.0670 -3.7233 -2.5025 0.9785
3.1413 -3.6608 -2.5025 0.9785
3.2145 -3.5969 -2.5026 0.9785
3.3568 -3.4646 -2.5026 0.9785
3.4259 -3.3964 -2.5027 0.9785
3.6883 -3.1099 -2.5028 0.9785
3.8106 -2.9590 -2.5029 0.9785
3.9267 -2.8032 -2.5029 0.9785
4.0365 -2.6429 -2.5030 0.9785
4.0890 -2.5612 -2.5030 0.9785
4.1397 -2.4784 -2.5031 0.9785
4.2363 -2.3097 -2.5031 0.9785
4.3259 -2.1374 -2.5032 0.9785
4.3681 -2.0498 -2.5032 0.9785
4.4472 -1.8724 -2.5033 0.9785
4.5191 -1.6918 -2.5033 0.9785
4.5523 -1.6005 -2.5033 0.9785
4.5836 -1.5085 -2.5034 0.9785
4.6131 -1.4160 -2.5034 0.9785
4.6903 -1.1349 -2.5034 0.9785
4.7323 -0.9452 -2.5035 0.9785
4.7504 -0.8497 -2.5035 0.9785
4.7665 -0.7539 -2.5035 0.9785
4.7931 -0.5614 -2.5036 0.9785
4.8183 -0.2710 -2.5036 0.9785
4.8254 -0.0768 -2.5036 0.9785
4.8260 0.0204 -2.5036 0.9785
4.8160 0.3117 -2.5037 0.9785
4.8087 0.4086 -2.5037 0.9785
4.7753 0.6982 -2.5037 0.9785
4.7245 0.9852 -2.5037 0.9785
4.7037 1.0801 -2.5037 0.9785
4.6810 1.1746 -2.5037 0.9785
4.6564 1.2686 -2.5037 0.9785
4.6299 1.3621 -2.5037 0.9785
4.5392 1.6391 -2.5037 0.9785
4.4696 1.8205 -2.5037 0.9785
4.4320 1.9101 -2.5037 0.9785
4.3515 2.0870 -2.5037 0.9785
4.3085 2.1742 -2.5036 0.9785
4.2639 2.2605 -2.5036 0.9785
4.1196 2.5137 -2.5036 0.9785
4.0150 2.6775 -2.5036 0.9785
3.9602 2.7578 -2.5036 0.9785
3.9039 2.8370 -2.5035 0.9785
3.7254 3.0674 -2.5035 0.9785
3.5989 3.2149 -2.5035 0.9785
3.5334 3.2867 -2.5034 0.9785
3.2574 3.5601 -2.5034 0.9785
3.0364 3.7502 -2.5033 0.9785
2.8044 3.9265 -2.5032 0.9785
2.7247 3.9822 -2.5032 0.9785
-4.4142 1.1607 -2.4998 0.9794
-4.5083 0.7111 -2.4997 0.9794
-4.5217 0.6202 -2.4997 0.9794
-4.5429 0.4376 -2.4997 0.9794
-4.5610 0.1625 -2.4997 0.9794
-4.5624 -0.1131 -2.4996 0.9794
-4.5472 -0.3883 -2.4996 0.9794
-4.5385 -0.4798 -2.4996 0.9794
-4.4852 -0.8434 -2.4996 0.9794
-4.4476 -1.0233 -2.4996 0.9794
-4.3222 -1.4651 -2.4996 0.9794
-4.1903 -1.8081 -2.4996 0.9794
-4.1531 -1.8921 -2.4996 0.9794
-4.0736 -2.0578 -2.4996 0.9794
-4.0313 -2.1394 -2.4996 0.9794
-3.8949 -2.3789 -2.4997 0.9794
-3.7960 -2.5338 -2.4997 0.9794
-3.6909 -2.6846 -2.4997 0.9794
-3.2773 -3.1767 -2.4998 0.9794
-3.1468 -3.3061 -2.4999 0.9794
-3.0113 -3.4302 -2.4999 0.9794
-2.4997 -3.8194 -2.5001 0.9794
-2.4223 -3.8690 -2.5001 0.9794
-1.9385 -4.1331 -2.5003 0.9794
-1.8549 -4.1713 -2.5003 0.9794
-1.3388 -4.3648 -2.5005 0.9794
-1.2506 -4.3909 -2.5006 0.9794
-1.1620 -4.4153 -2.5006 0.9794
-0.8933 -4.4776 -2.5007 0.9794
-0.7124 -4.5100 -2.5008 0.9794
-0.6214 -4.5235 -2.5008 0.9794
-0.5302 -4.5352 -2.5009 0.9794
-0.4388 -4.5450 -2.5009 0.9794
-0.1636 -4.5634 -2.5010 0.9794
-0.0717 -4.5659 -2.5011 0.9794
