ply
format ascii 1.0
element vertex 1542
property float32 x
property float32 y
property float32 z
property float32 I
end_header
-68.3960 -31.5809 -2.1213 0.7397
-76.6605 -39.2132 -2.4246 0.7085
-74.6525 -42.0588 -2.4127 0.7097
-73.6041 -43.4421 -2.4066 0.7103
-50.0592 -35.2630 -1.7242 0.7827
-51.4111 -37.7859 -1.7966 0.7747
-65.5500 -52.3673 -2.3624 0.7148
-58.3743 -54.8808 -2.2560 0.7257
-59.2823 -58.0256 -2.3358 0.7175
-58.0784 -59.1822 -2.3348 0.7176
-27.3806 -29.0478 -1.1240 0.8524
-55.6045 -61.4208 -2.3329 0.7178
-56.0283 -64.4496 -2.4047 0.7105
-56.4286 -67.6111 -2.4797 0.7030
-47.8105 -73.8182 -2.4765 0.7033
-44.7681 -75.6257 -2.4746 0.7035
-43.2213 -76.4831 -2.4737 0.7036
-37.4408 -69.4824 -2.2224 0.7292
-31.5029 -61.3900 -1.9429 0.7587
-30.1380 -61.7590 -1.9350 0.7596
-33.1099 -75.4050 -2.3189 0.7192
-31.5753 -76.0309 -2.3181 0.7193
-25.8861 -66.0539 -1.9977 0.7528
-23.0916 -66.7080 -1.9877 0.7539
-21.7037 -67.0328 -1.9840 0.7543
-17.5632 -68.0020 -1.9776 0.7550
-18.9320 -79.9100 -2.3124 0.7199
-17.3153 -80.2524 -2.3117 0.7200
-15.6926 -80.5624 -2.3111 0.7200
-13.1741 -75.7228 -2.1642 0.7352
-5.4329 -40.9173 -1.1623 0.8477
-3.8461 -34.2335 -0.9700 0.8712
-2.7094 -29.4453 -0.8326 0.8884
-1.8544 -25.8440 -0.7296 0.9015
-0.6521 -20.7704 -0.5851 0.9202
-0.2131 -18.9305 -0.5331 0.9270
0.4564 -15.7398 -0.4434 0.9389
1.0432 -15.0423 -0.4246 0.9414
1.3620 -15.2010 -0.4297 0.9408
1.6792 -15.2752 -0.4327 0.9404
2.0008 -15.3505 -0.4359 0.9399
2.6592 -15.5046 -0.4430 0.9390
2.9968 -15.5836 -0.4468 0.9385
3.3404 -15.6640 -0.4510 0.9379
3.6907 -15.7460 -0.4554 0.9373
4.0480 -15.8297 -0.4601 0.9367
4.7859 -16.0024 -0.4703 0.9353
5.1676 -16.0917 -0.4759 0.9346
5.9261 -16.1853 -0.4853 0.9334
6.3356 -16.2811 -0.4919 0.9325
6.7948 -16.4726 -0.5017 0.9312
7.2305 -16.5746 -0.5092 0.9302
8.6214 -16.9002 -0.5342 0.9269
9.6298 -17.1362 -0.5535 0.9244
44.2829 -20.3407 -2.4714 0.8227
44.8092 -19.5003 -2.4783 0.8222
45.1993 -18.5974 -2.4787 0.8222
45.5712 -17.6867 -2.4791 0.8222
45.9250 -16.7687 -2.4794 0.8222
46.2605 -15.8437 -2.4798 0.8221
46.5776 -14.9120 -2.4802 0.8221
47.1557 -13.0301 -2.4811 0.8221
47.6585 -11.1260 -2.4819 0.8220
48.0850 -9.2027 -2.4828 0.8219
48.2693 -8.2347 -2.4833 0.8219
48.4345 -7.2631 -2.4838 0.8219
48.7063 -5.3104 -2.4847 0.8218
48.8129 -4.3300 -2.4852 0.8218
48.8999 -3.3475 -2.4857 0.8218
49.0032 -1.3774 -2.4861 0.8217
46.0230 2.4136 -2.3372 0.8315
45.9752 3.3400 -2.3377 0.8314
45.9087 4.2654 -2.3382 0.8314
45.8237 5.1895 -2.3388 0.8314
44.3979 5.9352 -2.2716 0.8358
41.6211 6.4190 -2.1357 0.8448
40.0462 7.0038 -2.0617 0.8497
37.5993 7.3586 -1.9430 0.8577
36.2906 7.8638 -1.8832 0.8618
33.1148 8.5841 -1.7349 0.8720
29.2499 9.4992 -1.5596 0.8841
25.8008 10.1376 -1.4058 0.8949
24.2923 10.6923 -1.3460 0.8992
23.2546 10.7993 -1.3003 0.9024
22.4639 10.9869 -1.2682 0.9047
21.6318 11.1249 -1.2336 0.9072
20.3035 11.4975 -1.1833 0.9108
19.0156 11.8031 -1.1350 0.9143
18.4099 11.9469 -1.1130 0.9159
17.8609 12.1082 -1.0943 0.9172
17.9596 12.7100 -1.1158 0.9156
18.1871 13.4284 -1.1465 0.9134
18.3535 14.1306 -1.1747 0.9114
18.5283 14.8686 -1.2048 0.9092
19.1098 17.3310 -1.3083 0.9018
19.6676 18.5717 -1.3718 0.8973
20.6330 23.8393 -1.5989 0.8814
21.3007 25.6357 -1.6903 0.8750
6.5648 8.5811 -0.5479 0.9577
24.3370 39.4790 -2.3520 0.8305
22.8884 42.6996 -2.4570 0.8236
15.1226 31.1621 -1.7566 0.8705
16.7198 45.6358 -2.4648 0.8231
7.7526 30.2902 -1.5857 0.8823
7.1399 30.4332 -1.5853 0.8823
5.9143 30.7206 -1.5866 0.8822
5.3004 30.8653 -1.5882 0.8821
4.0676 31.1571 -1.5935 0.8817
2.8248 31.4532 -1.6015 0.8812
1.5674 31.7546 -1.6124 0.8804
0.9242 31.6483 -1.6057 0.8809
0.2899 31.9573 -1.6208 0.8799
-1.6590 32.3096 -1.6407 0.8785
-3.0176 32.8690 -1.6739 0.8762
-3.7049 33.0380 -1.6860 0.8753
-4.4026 33.2100 -1.6990 0.8744
-5.1114 33.3852 -1.7128 0.8735
-5.8323 33.5640 -1.7277 0.8725
-6.5660 33.7454 -1.7435 0.8714
-8.0719 34.1021 -1.7772 0.8690
-8.8470 34.2835 -1.7956 0.8678
-10.4480 34.6583 -1.8358 0.8650
-12.1251 35.0508 -1.8809 0.8620
-12.9956 35.2545 -1.9055 0.8603
-18.8183 45.3395 -2.4895 0.8215
-16.8673 36.4254 -2.0357 0.8515
-18.6720 36.4048 -2.0749 0.8489
-19.7443 36.6594 -2.1117 0.8464
-20.8556 36.9232 -2.1506 0.8438
-22.0091 37.1971 -2.1919 0.8410
-23.2084 37.4818 -2.2358 0.8381
-25.7595 38.0874 -2.3318 0.8318
-24.3649 34.5080 -2.1423 0.8444
-26.6573 36.1867 -2.2794 0.8353
-26.9237 35.0487 -2.2414 0.8378
-27.6734 31.8460 -2.1396 0.8445
-21.7290 21.2771 -1.5423 0.8853
-28.7895 27.0777 -2.0044 0.8536
-29.1992 25.3278 -1.9603 0.8566
-9.4092 7.5201 -0.6109 0.9529
-33.1456 25.4149 -2.1182 0.8460
-40.6239 26.2474 -2.4527 0.8239
-41.5540 24.5373 -2.4474 0.8243
-42.0154 23.6827 -2.4460 0.8243
-42.4180 22.7972 -2.4422 0.8246
-42.8522 21.9309 -2.4413 0.8246
-43.6094 20.1470 -2.4362 0.8250
-44.0035 19.2643 -2.4361 0.8250
-44.3321 18.3541 -2.4333 0.8252
-44.6348 17.4358 -2.4302 0.8254
-45.2372 15.6039 -2.4268 0.8256
-46.1576 11.8675 -2.4170 0.8262
-46.3699 10.9322 -2.4161 0.8263
-46.6551 9.0349 -2.4100 0.8267
-47.0000 6.1882 -2.4041 0.8271
-25.6099 2.8489 -1.3068 0.9019
-47.0928 4.2813 -2.3981 0.8275
-47.1084 1.4273 -2.3902 0.8280
-46.9458 -1.4127 -2.3819 0.8285
-46.8484 -2.3541 -2.3789 0.8287
-46.6051 -4.2273 -2.3732 0.8291
-46.2822 -6.0840 -2.3674 0.8295
-46.0895 -7.0049 -2.3642 0.8297
-45.0023 -11.5606 -2.3564 0.8302
-44.7500 -12.4609 -2.3558 0.8302
-44.1916 -14.2447 -2.3547 0.8303
-43.8856 -15.1276 -2.3541 0.8303
-43.5618 -16.0038 -2.3536 0.8304
-44.3879 -21.5895 -2.5032 0.8206
-43.4623 -23.3469 -2.5020 0.8207
-42.4672 -25.0647 -2.5008 0.8208
-41.9441 -25.9080 -2.5002 0.8208
-41.4042 -26.7404 -2.4996 0.8209
-40.8481 -27.5616 -2.4990 0.8209
-39.0826 -29.9545 -2.4972 0.8210
-37.8278 -31.4880 -2.4961 0.8211
-36.5130 -32.9690 -2.4949 0.8212
-35.8338 -33.6893 -2.4943 0.8212
-35.1405 -34.3955 -2.4937 0.8212
-34.4333 -35.0877 -2.4932 0.8213
-32.2315 -37.0760 -2.4915 0.8214
-28.0934 -36.5560 -2.3381 0.8314
-26.5882 -37.6404 -2.3371 0.8315
-25.0414 -38.6632 -2.3361 0.8315
-24.2532 -39.1511 -2.3356 0.8316
-23.4556 -39.6229 -2.3351 0.8316
-22.6485 -40.0788 -2.3347 0.8316
-21.8334 -40.5183 -2.3342 0.8317
-20.1773 -41.3476 -2.3333 0.8317
-19.3375 -41.7372 -2.3328 0.8317
-18.4901 -42.1098 -2.3324 0.8318
-17.6356 -42.4653 -2.3319 0.8318
-15.0332 -43.4284 -2.3307 0.8319
-14.1537 -43.7144 -2.3302 0.8319
-10.5857 -44.6811 -2.3287 0.8320
-6.9543 -45.3600 -2.3273 0.8321
-3.8465 -34.2361 -1.7472 0.8711
-2.7096 -29.4472 -1.4997 0.8883
-1.8545 -25.8454 -1.3141 0.9014
-1.1876 -23.0360 -1.1698 0.9118
-0.6521 -20.7706 -1.0539 0.9201
-0.2132 -18.9313 -0.9601 0.9270
0.4564 -15.7404 -0.7986 0.9389
0.7359 -14.9706 -0.7601 0.9417
2.3274 -15.4271 -0.7912 0.9394
2.9968 -15.5838 -0.8048 0.9384
3.3405 -15.6642 -0.8123 0.9379
4.4129 -15.9153 -0.8376 0.9360
4.7859 -16.0026 -0.8471 0.9353
5.5587 -16.1835 -0.8678 0.9338
7.2306 -16.5748 -0.9171 0.9301
7.6796 -16.6799 -0.9313 0.9291
8.1429 -16.7883 -0.9463 0.9280
8.6216 -16.9004 -0.9622 0.9268
9.1168 -17.0163 -0.9790 0.9256
9.6299 -17.1364 -0.9969 0.9243
10.1623 -17.2611 -1.0158 0.9229
10.7155 -17.3906 -1.0359 0.9214
29.5527 -16.5728 -2.4843 0.8729
29.8829 -15.9762 -2.4846 0.8729
30.2011 -15.3730 -2.4848 0.8729
30.5072 -14.7636 -2.4850 0.8729
31.0827 -13.5267 -2.4855 0.8729
31.8523 -11.6303 -2.4863 0.8728
32.0834 -10.9882 -2.4866 0.8728
32.5070 -9.6905 -2.4871 0.8728
32.6993 -9.0355 -2.4874 0.8728
32.8784 -8.3767 -2.4877 0.8728
33.1970 -7.0487 -2.4883 0.8727
33.3363 -6.3800 -2.4887 0.8727
33.5748 -5.0348 -2.4893 0.8727
33.8311 -3.0010 -2.4903 0.8727
33.8893 -2.3199 -2.4907 0.8726
33.9339 -1.6378 -2.4910 0.8726
33.9648 -0.9547 -2.4914 0.8726
33.9856 0.4129 -2.4921 0.8726
33.9754 1.0968 -2.4924 0.8725
33.9515 1.7806 -2.4928 0.8725
31.8740 2.9614 -2.3471 0.8795
31.5782 4.8701 -2.3428 0.8797
31.4787 5.5054 -2.3431 0.8797
31.3665 6.1387 -2.3435 0.8797
24.2333 5.2511 -1.8181 0.9053
30.1171 9.1151 -2.3072 0.8814
29.2493 9.4990 -2.2549 0.8840
27.1609 10.0459 -2.1233 0.8903
25.8003 10.1374 -2.0325 0.8948
25.1482 10.4702 -1.9973 0.8965
23.4509 10.8904 -1.8958 0.9015
22.6295 11.0679 -1.8471 0.9039
21.6314 11.1247 -1.7835 0.9070
21.1448 11.4182 -1.7620 0.9081
20.7551 11.7532 -1.7489 0.9088
18.8631 15.7716 -1.8028 0.9061
19.2860 17.4908 -1.9090 0.9008
19.6696 18.5737 -1.9836 0.8972
19.7286 20.1916 -2.0699 0.8930
20.6553 22.9164 -2.2621 0.8836
20.6328 23.8391 -2.3117 0.8812
21.2110 25.5278 -2.4336 0.8754
20.7004 25.9587 -2.4344 0.8753
19.6530 26.7895 -2.4361 0.8752
12.7711 20.7171 -1.7844 0.9070
12.2303 20.7639 -1.7669 0.9079
15.1469 29.6765 -2.4430 0.8749
13.9501 30.2828 -2.4447 0.8748
12.7290 30.8407 -2.4463 0.8748
12.1099 31.1011 -2.4472 0.8747
11.4855 31.3490 -2.4480 0.8747
10.8559 31.5843 -2.4488 0.8746
10.2215 31.8070 -2.4496 0.8746
9.0103 30.1046 -2.3041 0.8816
7.7788 30.3928 -2.3003 0.8818
6.5494 30.6806 -2.3002 0.8818
5.9343 30.8246 -2.3016 0.8817
4.0808 31.2584 -2.3114 0.8812
2.8335 31.5504 -2.3227 0.8807
2.2047 31.6975 -2.3297 0.8803
1.5719 31.8456 -2.3378 0.8800
0.9242 31.6480 -2.3215 0.8807
0.2899 31.9570 -2.3432 0.8797
-0.3586 32.4418 -2.3788 0.8780
-2.3135 32.3343 -2.3769 0.8781
-3.0224 32.9209 -2.4240 0.8758
-3.7098 33.0818 -2.4408 0.8750
-5.0899 33.2450 -2.4660 0.8738
-6.4265 33.0287 -2.4672 0.8738
-7.0914 32.9001 -2.4677 0.8737
-7.7538 32.7580 -2.4683 0.8737
-8.4132 32.6023 -2.4688 0.8737
-10.3714 32.0552 -2.4703 0.8736
-11.6576 31.6249 -2.4713 0.8736
-12.2941 31.3901 -2.4718 0.8735
-12.9257 31.1423 -2.4723 0.8735
-13.5523 30.8816 -2.4727 0.8735
-14.1735 30.6081 -2.4732 0.8735
-14.7891 30.3219 -2.4736 0.8734
-15.3988 30.0231 -2.4740 0.8734
-16.0025 29.7120 -2.4744 0.8734
-17.1902 29.0528 -2.4752 0.8734
-19.4810 27.5910 -2.4765 0.8733
-20.0063 27.1581 -2.4733 0.8735
-20.4592 26.6334 -2.4625 0.8740
-21.4632 25.7273 -2.4566 0.8743
-24.0237 22.5953 -2.4182 0.8761
-9.4081 7.5192 -0.8831 0.9528
-26.0610 19.9827 -2.4079 0.8766
-26.4612 19.4570 -2.4083 0.8766
-27.1688 18.3398 -2.4035 0.8768
-27.5069 17.7730 -2.4012 0.8769
-27.8473 17.2087 -2.4002 0.8770
-28.1742 16.6367 -2.3991 0.8770
-28.4770 16.0515 -2.3968 0.8771
-28.7684 15.4614 -2.3947 0.8772
-29.8321 13.0602 -2.3878 0.8776
-30.6909 10.5864 -2.3804 0.8779
-30.8704 9.9578 -2.3783 0.8780
-30.3715 9.1263 -2.3253 0.8806
-31.1992 8.6945 -2.3748 0.8782
-31.3393 8.0576 -2.3726 0.8783
-31.5823 6.7781 -2.3684 0.8785
-31.6872 6.1363 -2.3665 0.8786
-31.7757 5.4925 -2.3644 0.8787
-25.6906 3.9100 -1.9054 0.9010
-25.5659 2.8440 -1.8861 0.9020
-25.7150 2.3378 -1.8933 0.9016
-28.0233 1.4139 -2.0573 0.8936
-27.0154 0.8185 -1.9817 0.8973
-32.1660 -0.3204 -2.3586 0.8790
-32.0736 -2.2596 -2.3575 0.8790
-32.4566 -3.6038 -2.3944 0.8772
-33.3409 -4.3828 -2.4657 0.8738
-33.7863 -5.1350 -2.5057 0.8719
-33.5843 -6.4965 -2.5081 0.8718
-33.4414 -7.1699 -2.5077 0.8718
-33.2850 -7.8401 -2.5073 0.8718
-32.7354 -9.8293 -2.5061 0.8719
-32.3028 -11.1349 -2.5053 0.8719
-31.5565 -13.0572 -2.5040 0.8720
-31.2821 -13.6873 -2.5036 0.8720
-30.6959 -14.9300 -2.5028 0.8721
-29.7242 -16.7465 -2.5015 0.8721
-28.2626 -19.0697 -2.4999 0.8722
-27.8685 -19.6313 -2.4995 0.8722
-26.6201 -21.2666 -2.4982 0.8723
-22.8474 -22.3631 -2.3441 0.8797
-21.9221 -23.2569 -2.3434 0.8797
-21.4463 -23.6896 -2.3430 0.8797
-20.9620 -24.1126 -2.3427 0.8797
-19.9685 -24.9289 -2.3419 0.8798
-18.9435 -25.7043 -2.3412 0.8798
-18.4197 -26.0764 -2.3409 0.8798
-16.8054 -27.1283 -2.3398 0.8799
-15.1305 -28.0813 -2.3389 0.8799
-13.4041 -28.9309 -2.3379 0.8800
-12.8175 -29.1909 -2.3376 0.8800
-11.6296 -29.6753 -2.3370 0.8800
-8.5846 -30.6749 -2.3356 0.8801
-7.3417 -30.9884 -2.3350 0.8801
-5.4568 -31.3648 -2.3343 0.8801
-4.8240 -31.4650 -2.3340 0.8801
-4.1895 -31.5526 -2.3338 0.8802
-1.1876 -23.0371 -1.6914 0.9116
-0.6521 -20.7708 -1.5237 0.9200
1.0432 -15.0427 -1.1056 0.9413
1.6792 -15.2755 -1.1268 0.9402
2.3274 -15.4272 -1.1440 0.9393
3.6908 -15.7464 -1.1858 0.9372
4.0481 -15.8300 -1.1980 0.9366
4.4130 -15.9154 -1.2110 0.9359
5.5588 -16.1837 -1.2547 0.9337
5.9262 -16.1857 -1.2638 0.9332
6.3357 -16.2815 -1.2810 0.9323
7.6797 -16.6801 -1.3464 0.9290
8.1430 -16.7886 -1.3681 0.9279
9.1169 -17.0166 -1.4155 0.9255
9.6300 -17.1367 -1.4413 0.9242
10.7157 -17.3908 -1.4978 0.9213
22.6077 -12.6781 -2.4884 0.9011
23.1027 -11.7597 -2.4888 0.9011
23.9807 -9.8669 -2.4895 0.9010
24.3623 -8.8955 -2.4899 0.9010
24.5385 -8.4041 -2.4901 0.9010
24.7047 -7.9094 -2.4904 0.9010
24.8610 -7.4112 -2.4906 0.9010
25.1437 -6.4061 -2.4910 0.9010
25.3859 -5.3901 -2.4915 0.9010
25.4917 -4.8787 -2.4917 0.9010
25.8118 -2.8142 -2.4927 0.9009
25.8659 -2.2945 -2.4930 0.9009
25.9096 -1.7737 -2.4933 0.9009
25.9429 -1.2521 -2.4935 0.9009
25.9656 -0.7299 -2.4938 0.9009
25.9779 -0.2072 -2.4941 0.9009
25.9710 0.8384 -2.4946 0.9009
25.9518 1.3610 -2.4949 0.9008
25.9222 1.8832 -2.4952 0.9008
25.8820 2.4047 -2.4955 0.9008
25.8314 2.9254 -2.4958 0.9008
25.6845 3.9611 -2.4950 0.9008
24.1124 4.7190 -2.3588 0.9060
23.8735 5.1731 -2.3452 0.9065
23.7674 5.6532 -2.3454 0.9065
23.6518 6.1311 -2.3457 0.9065
23.3917 7.0796 -2.3463 0.9065
22.9306 8.4812 -2.3472 0.9064
22.5764 9.3994 -2.3478 0.9064
22.3855 9.8530 -2.3481 0.9064
22.1855 10.3028 -2.3484 0.9064
21.9765 10.7485 -2.3487 0.9064
21.1444 11.4180 -2.3070 0.9080
19.8178 11.7553 -2.2121 0.9116
19.3420 12.0057 -2.1856 0.9126
17.8604 12.1079 -2.0715 0.9169
17.9601 12.7104 -2.1124 0.9154
18.3610 13.5568 -2.1912 0.9124
18.8102 15.0948 -2.3154 0.9076
18.4049 17.3794 -2.4302 0.9033
18.0561 17.7508 -2.4309 0.9033
16.9652 18.8225 -2.4327 0.9032
10.5162 13.1874 -1.6193 0.9345
10.1581 13.8468 -1.6487 0.9333
14.1804 21.0566 -2.4372 0.9030
11.7266 18.1927 -2.0780 0.9167
11.9539 19.3913 -2.1870 0.9125
11.5589 22.6470 -2.4410 0.9029
11.1039 22.8809 -2.4417 0.9028
10.6440 23.1057 -2.4423 0.9028
9.7106 23.5274 -2.4436 0.9028
9.2375 23.7241 -2.4442 0.9028
8.2796 24.0889 -2.4454 0.9027
7.3073 24.4149 -2.4467 0.9027
6.8163 24.5631 -2.4473 0.9026
6.3221 24.7014 -2.4479 0.9026
5.8252 24.8297 -2.4485 0.9026
5.3257 24.9480 -2.4491 0.9026
4.8238 25.0562 -2.4497 0.9025
3.3055 25.3197 -2.4514 0.9025
2.7959 25.3870 -2.4520 0.9025
1.7730 25.4906 -2.4531 0.9024
-0.2827 25.5733 -2.4553 0.9023
-0.7974 25.5679 -2.4558 0.9023
-1.8263 25.5257 -2.4569 0.9023
-3.8761 25.3164 -2.4588 0.9022
-5.3994 25.0504 -2.4602 0.9022
-5.9035 24.9411 -2.4606 0.9021
-6.4053 24.8216 -2.4611 0.9021
-7.8951 24.4020 -2.4623 0.9021
-8.3860 24.2421 -2.4627 0.9021
-9.3152 23.7841 -2.4523 0.9024
-9.7680 23.5344 -2.4463 0.9027
-10.2140 23.2746 -2.4402 0.9029
-11.1425 22.8453 -2.4402 0.9029
-11.6021 22.6206 -2.4407 0.9029
-12.0570 22.3865 -2.4411 0.9029
-12.8421 21.7042 -2.4211 0.9036
-13.6177 21.0348 -2.4057 0.9042
-14.0203 20.7300 -2.4026 0.9043
-14.4196 20.4226 -2.4001 0.9044
-15.6096 19.4953 -2.3977 0.9045
-15.9846 19.1604 -2.3956 0.9046
-16.3539 18.8198 -2.3937 0.9047
-17.4225 17.7609 -2.3886 0.9049
-18.4397 16.6569 -2.3856 0.9050
-19.0698 15.8804 -2.3825 0.9051
-19.6687 15.0813 -2.3795 0.9052
-20.2426 14.2657 -2.3775 0.9053
-21.2700 12.5598 -2.3715 0.9055
-21.7348 11.6812 -2.3689 0.9056
-11.3194 5.7930 -1.2208 0.9502
-11.3466 5.5217 -1.2115 0.9506
-11.4527 5.2910 -1.2112 0.9506
-11.6028 5.0796 -1.2160 0.9504
-11.8002 4.8855 -1.2261 0.9500
-23.5423 7.0742 -2.3600 0.9059
-23.9196 5.6393 -2.3594 0.9060
-24.0260 5.1564 -2.3591 0.9060
-24.2861 3.6962 -2.3584 0.9060
-26.1353 0.2657 -2.5093 0.9003
-26.1220 -0.7861 -2.5090 0.9003
-26.0979 -1.3114 -2.5087 0.9003
-26.0180 -2.3600 -2.5081 0.9003
-25.8191 -3.9241 -2.5072 0.9004
-25.7318 -4.4423 -2.5069 0.9004
-25.5260 -5.4728 -2.5063 0.9004
-25.2789 -6.4939 -2.5057 0.9004
-24.6626 -8.5013 -2.5045 0.9005
-24.2944 -9.4844 -2.5038 0.9005
-23.8871 -10.4516 -2.5032 0.9005
-23.6689 -10.9288 -2.5029 0.9005
-23.2041 -11.8693 -2.5022 0.9006
-22.9576 -12.3323 -2.5019 0.9006
-22.7019 -12.7902 -2.5016 0.9006
-22.4371 -13.2427 -2.5013 0.9006
-22.1633 -13.6898 -2.5010 0.9006
-21.2888 -14.9964 -2.5000 0.9006
-20.9800 -15.4198 -2.4997 0.9007
-20.3375 -16.2474 -2.4991 0.9007
-19.6605 -17.0467 -2.4982 0.9007
-18.7685 -16.9468 -2.4277 0.9034
-17.8011 -16.7357 -2.3457 0.9065
-15.0550 -15.3411 -2.0636 0.9173
-16.3897 -18.1041 -2.3445 0.9065
-15.2620 -19.0532 -2.3437 0.9066
-14.8738 -19.3542 -2.3434 0.9066
-14.4797 -19.6474 -2.3431 0.9066
-13.6742 -20.2095 -2.3426 0.9066
-13.2633 -20.4782 -2.3424 0.9066
-12.8471 -20.7387 -2.3421 0.9066
-12.4259 -20.9907 -2.3418 0.9066
-11.9996 -21.2342 -2.3416 0.9066
-11.1331 -21.6952 -2.3411 0.9067
-10.6932 -21.9126 -2.3408 0.9067
-10.2490 -22.1210 -2.3406 0.9067
-8.4337 -22.8645 -2.3397 0.9067
-6.5654 -23.4600 -2.3388 0.9067
-6.0915 -23.5853 -2.3386 0.9068
-4.6561 -23.9038 -2.3380 0.9068
-3.6900 -24.0680 -2.3376 0.9068
-3.2047 -24.1355 -2.3375 0.9068
-2.7181 -24.1934 -2.3373 0.9068
-1.7422 -24.2798 -2.3370 0.9068
-0.6521 -20.7710 -1.9951 0.9199
-0.2132 -18.9329 -1.8178 0.9267
0.4565 -15.7415 -1.5119 0.9387
1.0432 -15.0428 -1.4476 0.9412
1.3621 -15.2014 -1.4653 0.9405
2.0009 -15.3510 -1.4862 0.9397
2.9969 -15.5841 -1.5236 0.9382
3.6908 -15.7466 -1.5527 0.9371
4.0481 -15.8302 -1.5687 0.9365
4.4130 -15.9156 -1.5856 0.9358
4.7860 -16.0029 -1.6036 0.9351
5.1678 -16.0923 -1.6226 0.9343
5.5588 -16.1838 -1.6428 0.9335
5.9263 -16.1859 -1.6548 0.9331
6.7951 -16.4732 -1.7108 0.9309
7.6798 -16.6803 -1.7630 0.9289
8.1431 -16.7888 -1.7914 0.9278
9.6302 -17.1369 -1.8872 0.9240
10.1626 -17.2615 -1.9231 0.9227
10.7158 -17.3911 -1.9611 0.9212
18.2906 -10.2571 -2.4910 0.9190
18.4943 -9.8875 -2.4911 0.9190
18.6906 -9.5139 -2.4913 0.9190
19.7079 -7.1960 -2.4922 0.9190
19.8501 -6.7984 -2.4924 0.9190
19.9843 -6.3981 -2.4925 0.9189
20.1104 -5.9950 -2.4927 0.9189
20.4400 -4.7718 -2.4933 0.9189
20.5335 -4.3598 -2.4935 0.9189
20.6187 -3.9461 -2.4937 0.9189
20.6956 -3.5306 -2.4939 0.9189
20.8243 -2.6955 -2.4943 0.9189
20.8760 -2.2761 -2.4945 0.9189
20.9543 -1.4344 -2.4949 0.9189
20.9807 -1.0126 -2.4951 0.9189
21.0017 0.6780 -2.4960 0.9188
20.8372 2.7855 -2.4972 0.9188
20.7122 3.6224 -2.4977 0.9188
20.6371 4.0389 -2.4979 0.9188
20.4619 4.8669 -2.4984 0.9188
20.3373 5.2719 -2.4956 0.9189
20.0290 5.6244 -2.4712 0.9196
18.7932 6.1033 -2.3471 0.9235
18.0943 7.9642 -2.3483 0.9235
17.9322 8.3276 -2.3486 0.9234
17.5862 9.0443 -2.3491 0.9234
17.4024 9.3973 -2.3493 0.9234
17.2115 9.7466 -2.3495 0.9234
17.0137 10.0920 -2.3498 0.9234
16.1537 11.4321 -2.3507 0.9234
15.9220 11.7560 -2.3510 0.9234
15.6838 12.0753 -2.3512 0.9234
15.4392 12.3897 -2.3515 0.9234
15.1883 12.6992 -2.3517 0.9233
14.9312 13.0035 -2.3519 0.9233
14.6911 13.3236 -2.3559 0.9232
13.9865 14.3135 -2.3771 0.9226
13.7335 14.6337 -2.3839 0.9223
13.4731 14.9481 -2.3904 0.9221
13.2047 15.2567 -2.3968 0.9219
10.6831 13.3967 -2.0354 0.9333
6.5625 8.5781 -1.2829 0.9574
11.3079 16.7913 -2.4047 0.9217
10.9748 17.0264 -2.4062 0.9216
10.6434 17.2652 -2.4092 0.9215
10.3018 17.4978 -2.4121 0.9215
9.9368 17.7277 -2.4148 0.9214
9.6142 17.9359 -2.4173 0.9213
7.4198 19.0557 -2.4291 0.9209
6.6541 19.3595 -2.4317 0.9208
5.8743 19.6269 -2.4336 0.9208
5.4729 19.7487 -2.4343 0.9208
5.0793 19.8581 -2.4348 0.9208
4.2801 20.0499 -2.4353 0.9207
3.0927 20.2585 -2.4347 0.9208
1.4204 20.4214 -2.4316 0.9208
1.0087 20.4357 -2.4304 0.9209
0.5969 20.4402 -2.4290 0.9209
-0.2257 20.4201 -2.4258 0.9210
-1.0466 20.3835 -2.4245 0.9211
-1.8668 20.3339 -2.4255 0.9210
-2.6846 20.2511 -2.4266 0.9210
-3.0922 20.1972 -2.4271 0.9210
-3.9023 20.0560 -2.4271 0.9210
-4.2958 19.9300 -2.4218 0.9212
-5.8280 19.3328 -2.3985 0.9219
-6.2042 19.1754 -2.3940 0.9220
-6.5820 19.0271 -2.3916 0.9221
-7.3315 18.7192 -2.3880 0.9222
-7.7021 18.5568 -2.3866 0.9223
-8.7942 18.0306 -2.3830 0.9224
-9.5128 17.6625 -2.3830 0.9224
-10.2054 17.2479 -2.3806 0.9224
-11.2119 16.5777 -2.3773 0.9225
-11.8595 16.0990 -2.3752 0.9226
-12.1759 15.8504 -2.3742 0.9226
-12.4871 15.5955 -2.3732 0.9227
-13.0980 15.0729 -2.3720 0.9227
-13.9647 14.2360 -2.3688 0.9228
-15.2917 12.7342 -2.3638 0.9230
-9.4057 7.5173 -1.4303 0.9527
-16.2415 11.4459 -2.3602 0.9231
-16.4677 11.1163 -2.3601 0.9231
-16.6873 10.7821 -2.3600 0.9231
-16.9000 10.4436 -2.3599 0.9231
-17.1059 10.1009 -2.3597 0.9231
-10.7463 5.2296 -1.4196 0.9530
-10.7241 4.9544 -1.4032 0.9535
-11.3405 4.6951 -1.4580 0.9518
-18.7682 6.4738 -2.3583 0.9231
-18.8933 6.0944 -2.3581 0.9231
-19.0108 5.7126 -2.3580 0.9232
-19.1205 5.3284 -2.3578 0.9232
-19.3165 4.5541 -2.3574 0.9232
-21.0347 1.9123 -2.5089 0.9184
-21.0909 1.0642 -2.5085 0.9185
-21.1062 0.6395 -2.5083 0.9185
-21.1130 0.2146 -2.5081 0.9185
-21.0541 -1.4833 -2.5071 0.9185
-20.9734 -2.3288 -2.5067 0.9185
-20.9203 -2.7501 -2.5064 0.9185
-20.7102 -4.0062 -2.5057 0.9185
-20.6234 -4.4217 -2.5054 0.9185
-20.5282 -4.8353 -2.5052 0.9186
-20.4247 -5.2469 -2.5049 0.9186
-19.7844 -7.2684 -2.5037 0.9186
-19.3039 -8.4463 -2.5029 0.9186
-18.7533 -9.5927 -2.5021 0.9187
-18.5546 -9.9671 -2.5019 0.9187
-18.1347 -10.7034 -2.5014 0.9187
-17.6858 -11.4221 -2.5009 0.9187
-17.4505 -11.7744 -2.5006 0.9187
-16.9592 -12.4646 -2.5001 0.9187
-16.7032 -12.8020 -2.4998 0.9187
-16.4405 -13.1342 -2.4996 0.9187
-16.1713 -13.4610 -2.4993 0.9187
-15.3206 -14.4037 -2.4979 0.9188
-14.9872 -14.6695 -2.4911 0.9190
-13.9814 -14.2471 -2.3711 0.9227
-12.6495 -15.1563 -2.3450 0.9236
-12.3408 -15.4063 -2.3448 0.9236
-12.0271 -15.6501 -2.3446 0.9236
-11.3855 -16.1183 -2.3441 0.9236
-10.7258 -16.5604 -2.3437 0.9236
-10.0490 -16.9755 -2.3433 0.9236
-9.7045 -17.1728 -2.3431 0.9236
-8.2894 -17.8914 -2.3423 0.9236
-7.9270 -18.0531 -2.3421 0.9237
-7.5615 -18.2076 -2.3419 0.9237
-7.1930 -18.3546 -2.3417 0.9237
-6.8217 -18.4941 -2.3415 0.9237
-6.4477 -18.6262 -2.3413 0.9237
-6.0711 -18.7508 -2.3412 0.9237
-5.3109 -18.9771 -2.3408 0.9237
-4.9276 -19.0788 -2.3407 0.9237
-4.5423 -19.1728 -2.3405 0.9237
-3.3766 -19.4081 -2.3400 0.9237
-2.9851 -19.4708 -2.3399 0.9237
-2.1990 -19.5729 -2.3396 0.9237
-1.0139 -19.6665 -2.3392 0.9237
0.1542 -17.3862 -2.0653 0.9324
0.7359 -14.9710 -1.7805 0.9414
1.3621 -15.2016 -1.8130 0.9404
2.9969 -15.5843 -1.8851 0.9381
3.6909 -15.7467 -1.9212 0.9369
4.0482 -15.8304 -1.9409 0.9363
4.7861 -16.0031 -1.9841 0.9349
5.1678 -16.0925 -2.0077 0.9342
5.9264 -16.1861 -2.0475 0.9329
6.3359 -16.2820 -2.0753 0.9320
7.2309 -16.5754 -2.1481 0.9297
7.6799 -16.6806 -2.1813 0.9287
8.1432 -16.7890 -2.2165 0.9276
9.1172 -17.0170 -2.2932 0.9252
9.6303 -17.1371 -2.3351 0.9239
10.3226 -16.7529 -2.3374 0.9238
15.5155 -8.2950 -2.4928 0.9314
15.6800 -7.9815 -2.4930 0.9314
15.9901 -7.3448 -2.4932 0.9314
16.1355 -7.0219 -2.4933 0.9314
16.2744 -6.6962 -2.4935 0.9314
16.5325 -6.0365 -2.4937 0.9314
16.7639 -5.3670 -2.4940 0.9314
16.9683 -4.6887 -2.4943 0.9313
17.2948 -3.3099 -2.4950 0.9313
17.4666 -2.2609 -2.4955 0.9313
17.5098 -1.9090 -2.4957 0.9313
17.5459 -1.5564 -2.4958 0.9313
17.5749 -1.2031 -2.4960 0.9313
17.5969 -0.8493 -2.4962 0.9313
17.6117 -0.4950 -2.4964 0.9313
17.6194 -0.1405 -2.4966 0.9313
17.5512 1.6307 -2.4975 0.9313
17.3056 3.3869 -2.4985 0.9312
17.1581 4.0811 -2.4989 0.9312
16.9828 4.7690 -2.4994 0.9312
16.8848 5.1102 -2.4996 0.9312
16.7800 5.4495 -2.4998 0.9312
16.5323 6.1147 -2.4975 0.9313
16.3764 6.4346 -2.4930 0.9314
15.8238 6.5880 -2.4286 0.9331
14.8921 7.2836 -2.3489 0.9352
14.2631 8.4604 -2.3497 0.9352
13.9135 9.0291 -2.3501 0.9352
13.5413 9.5832 -2.3505 0.9352
13.1470 10.1221 -2.3509 0.9352
12.9417 10.3855 -2.3511 0.9352
12.7312 10.6447 -2.3513 0.9352
12.2946 11.1502 -2.3517 0.9351
11.3620 12.1068 -2.3525 0.9351
10.8674 12.5562 -2.3529 0.9351
10.3550 12.9854 -2.3533 0.9351
9.8257 13.3937 -2.3536 0.9351
9.2803 13.7803 -2.3540 0.9351
8.1576 14.5095 -2.3585 0.9350
7.5770 14.8453 -2.3616 0.9349
7.2812 15.0038 -2.3630 0.9348
6.9822 15.1569 -2.3645 0.9348
6.6797 15.3033 -2.3659 0.9348
6.3741 15.4430 -2.3672 0.9347
5.7534 15.7037 -2.3697 0.9347
5.4388 15.8237 -2.3708 0.9346
4.8014 16.0421 -2.3726 0.9346
4.4791 16.1405 -2.3734 0.9346
3.1689 16.4600 -2.3750 0.9345
1.8351 16.6625 -2.3752 0.9345
1.4998 16.6950 -2.3750 0.9345
0.8263 16.7399 -2.3748 0.9345
0.4893 16.7517 -2.3746 0.9345
-1.8661 16.6407 -2.3726 0.9346
-2.2003 16.5974 -2.3723 0.9346
-3.1962 16.4268 -2.3712 0.9346
-3.8543 16.2836 -2.3710 0.9346
-4.1816 16.2042 -2.3712 0.9346
-4.5058 16.1133 -2.3707 0.9346
-4.8286 16.0158 -2.3701 0.9347
-5.1483 15.9118 -2.3696 0.9347
-5.7817 15.6846 -2.3685 0.9347
-6.7128 15.2965 -2.3669 0.9347
-7.0176 15.1546 -2.3663 0.9348
-7.6180 14.8528 -2.3651 0.9348
-7.9133 14.6927 -2.3645 0.9348
-8.2053 14.5269 -2.3640 0.9348
-8.7796 14.1791 -2.3630 0.9348
-9.0606 13.9957 -2.3623 0.9349
-9.6108 13.6118 -2.3609 0.9349
-5.1101 6.6523 -1.1886 0.9667
-5.1453 6.4261 -1.1664 0.9673
-5.2478 6.0391 -1.1336 0.9682
-5.3743 5.9389 -1.1349 0.9682
-5.5625 5.9036 -1.1493 0.9678
-5.7574 5.8693 -1.1649 0.9673
-6.1908 5.8228 -1.2042 0.9662
-12.7926 10.6531 -2.3588 0.9350
-13.2101 10.1290 -2.3586 0.9350
-9.4137 6.9218 -1.6556 0.9539
-9.4349 6.3689 -1.6129 0.9551
-9.5069 6.1427 -1.6037 0.9553
-9.7896 5.5181 -1.5923 0.9556
-10.2905 5.0078 -1.6215 0.9548
-11.1587 4.6199 -1.7112 0.9524
-11.5273 4.5029 -1.7535 0.9512
-12.3268 4.2520 -1.8476 0.9487
-12.7416 4.1100 -1.8969 0.9473
-16.6911 5.0155 -2.4694 0.9320
-17.0242 4.7443 -2.5041 0.9311
-17.2350 4.0634 -2.5090 0.9310
-17.3823 3.3661 -2.5086 0.9310
-17.4453 3.0154 -2.5085 0.9310
-17.5013 2.6636 -2.5083 0.9310
-17.5501 2.3107 -2.5081 0.9310
-17.6538 1.2473 -2.5076 0.9310
-17.6741 0.8918 -2.5074 0.9310
-17.6917 -0.1762 -2.5068 0.9310
-17.6147 -1.5977 -2.5061 0.9310
-17.5776 -1.9517 -2.5059 0.9310
-17.5334 -2.3048 -2.5057 0.9310
-17.4820 -2.6570 -2.5055 0.9311
-17.3582 -3.3577 -2.5051 0.9311
-17.2856 -3.7060 -2.5049 0.9311
-17.2061 -4.0528 -2.5046 0.9311
-16.9260 -5.0823 -2.5040 0.9311
-16.7050 -5.7583 -2.5036 0.9311
-16.4569 -6.4247 -2.5032 0.9311
-16.0352 -7.4040 -2.5025 0.9311
-15.8816 -7.7245 -2.5023 0.9311
-15.3826 -8.6665 -2.5017 0.9312
-14.4280 -10.1635 -2.5006 0.9312
-14.2193 -10.4509 -2.5004 0.9312
-13.0921 -11.8213 -2.4993 0.9312
-12.8505 -12.0814 -2.4991 0.9312
-12.3519 -12.5866 -2.4987 0.9312
-11.8175 -13.0537 -2.4949 0.9313
-11.4663 -13.1898 -2.4763 0.9318
-10.3493 -12.9200 -2.3455 0.9353
-9.8194 -13.3239 -2.3452 0.9353
-8.9955 -13.8889 -2.3446 0.9353
-8.4281 -14.2375 -2.3443 0.9353
-8.1393 -14.4031 -2.3441 0.9353
-7.5521 -14.7169 -2.3438 0.9354
-7.2539 -14.8648 -2.3436 0.9354
-6.6490 -15.1426 -2.3433 0.9354
-5.0926 -15.7287 -2.3425 0.9354
-4.7748 -15.8270 -2.3423 0.9354
-3.4858 -16.1559 -2.3418 0.9354
-1.5139 -16.4530 -2.3411 0.9354
-0.8506 -16.4991 -2.3408 0.9354
-0.1860 -16.5185 -2.3406 0.9354
0.4565 -15.7426 -2.2315 0.9384
0.7359 -14.9712 -2.1238 0.9412
1.3621 -15.2018 -2.1626 0.9402
2.3275 -15.4278 -2.2107 0.9389
2.6594 -15.5054 -2.2290 0.9384
3.3406 -15.6649 -2.2695 0.9373
4.4120 -15.9120 -2.3396 0.9355
5.0486 -15.7210 -2.3395 0.9355
5.3638 -15.6160 -2.3395 0.9355
6.2960 -15.2634 -2.3394 0.9355
6.9050 -14.9974 -2.3394 0.9355
7.2053 -14.8554 -2.3394 0.9355
7.5028 -14.7073 -2.3394 0.9355
8.3765 -14.2278 -2.3394 0.9355
13.2044 -7.4049 -2.4940 0.9405
13.6288 -6.5955 -2.4943 0.9405
14.0038 -5.7619 -2.4946 0.9405
14.2257 -5.1943 -2.4949 0.9405
14.3281 -4.9072 -2.4950 0.9404
14.6003 -4.0344 -2.4954 0.9404
14.6793 -3.7400 -2.4955 0.9404
14.8195 -3.1466 -2.4958 0.9404
14.8807 -2.8479 -2.4959 0.9404
15.0280 -1.9452 -2.4964 0.9404
15.0959 -1.3391 -2.4967 0.9404
15.1395 -0.7307 -2.4970 0.9404
15.1521 -0.4259 -2.4971 0.9404
15.1532 0.4892 -2.4976 0.9404
15.1232 1.0987 -2.4979 0.9404
15.0991 1.4029 -2.4981 0.9404
15.0688 1.7065 -2.4983 0.9404
14.9900 2.3118 -2.4986 0.9404
14.7597 3.5107 -2.4993 0.9403
14.6086 4.1023 -2.4997 0.9403
14.4338 4.6875 -2.5001 0.9403
14.3376 4.9774 -2.5002 0.9403
14.2356 5.2653 -2.5004 0.9403
13.7701 6.3948 -2.5012 0.9403
12.7667 7.2296 -2.4170 0.9423
12.3406 7.3200 -2.3637 0.9435
12.1192 7.5225 -2.3498 0.9438
11.8085 8.0052 -2.3502 0.9438
11.6458 8.2418 -2.3504 0.9438
10.9486 9.1542 -2.3511 0.9438
10.5729 9.5888 -2.3514 0.9438
10.3786 9.8003 -2.3516 0.9438
10.1800 10.0079 -2.3517 0.9438
9.9772 10.2114 -2.3519 0.9438
9.7704 10.4109 -2.3521 0.9438
8.9041 11.1659 -2.3527 0.9437
8.2159 11.6852 -2.3532 0.9437
7.4973 12.1620 -2.3537 0.9437
7.0028 12.4554 -2.3540 0.9437
6.7511 12.5946 -2.3541 0.9437
6.4967 12.7287 -2.3543 0.9437
6.2397 12.8576 -2.3544 0.9437
5.9800 12.9814 -2.3545 0.9437
5.7179 13.0998 -2.3547 0.9437
5.4535 13.2130 -2.3548 0.9437
4.3743 13.6118 -2.3553 0.9437
4.0997 13.6978 -2.3555 0.9437
3.8235 13.7783 -2.3556 0.9437
3.2663 13.9223 -2.3558 0.9437
2.9856 13.9860 -2.3559 0.9437
2.7037 14.0439 -2.3561 0.9437
2.4207 14.0961 -2.3562 0.9437
2.1366 14.1426 -2.3563 0.9437
0.9926 14.2710 -2.3567 0.9437
0.4176 14.3005 -2.3569 0.9437
0.1298 14.3057 -2.3568 0.9437
-0.1581 14.3063 -2.3570 0.9436
-0.4460 14.3009 -2.3571 0.9436
-1.0211 14.2722 -2.3572 0.9436
-1.3082 14.2490 -2.3572 0.9436
-1.5947 14.2208 -2.3574 0.9436
-2.1658 14.1459 -2.3575 0.9436
-2.4500 14.0998 -2.3576 0.9436
-3.2966 13.9272 -2.3577 0.9436
-3.8544 13.7838 -2.3578 0.9436
-4.4061 13.6179 -2.3579 0.9436
-5.2199 13.3277 -2.3580 0.9436
-5.4871 13.2201 -2.3580 0.9436
-6.5325 12.7364 -2.3581 0.9436
-6.7874 12.6023 -2.3581 0.9436
-7.0397 12.4632 -2.3581 0.9436
-5.0940 5.8621 -1.2794 0.9690
-5.2837 5.8388 -1.2973 0.9686
-5.8716 5.7495 -1.3538 0.9672
-6.5504 5.6819 -1.4285 0.9655
-6.7864 5.6514 -1.4549 0.9648
-7.3336 5.6232 -1.5224 0.9632
-9.0307 6.0960 -1.7949 0.9568
-8.9677 5.7943 -1.7589 0.9576
-8.9144 5.5088 -1.7263 0.9584
-9.8154 5.0233 -1.8164 0.9563
-10.8086 4.7319 -1.9438 0.9533
-11.6009 4.5317 -2.0518 0.9508
-11.9347 4.3874 -2.0948 0.9498
-12.3865 4.2726 -2.1585 0.9483
-12.9135 4.1655 -2.2353 0.9465
-14.5821 4.3818 -2.5084 0.9401
-14.6666 4.0873 -2.5082 0.9401
-14.8176 3.4934 -2.5080 0.9401
-14.9445 2.8940 -2.5077 0.9402
-15.0471 2.2901 -2.5074 0.9402
-15.1551 1.3778 -2.5069 0.9402
-15.1964 0.7667 -2.5066 0.9402
-15.1465 -1.3739 -2.5055 0.9402
-15.0769 -1.9819 -2.5051 0.9402
-15.0329 -2.2847 -2.5049 0.9402
-14.8645 -3.1869 -2.5044 0.9402
-14.4640 -4.6623 -2.5035 0.9403
-14.3662 -4.9521 -2.5033 0.9403
-14.2626 -5.2398 -2.5032 0.9403
-13.7910 -6.3678 -2.5024 0.9403
-13.3787 -7.1867 -2.5019 0.9403
-13.2304 -7.4539 -2.5017 0.9403
-12.7537 -8.2368 -2.5011 0.9403
-12.2308 -8.9893 -2.5006 0.9403
-11.8574 -9.4728 -2.5002 0.9403
-11.6635 -9.7088 -2.5000 0.9403
-11.2618 -10.1687 -2.4997 0.9403
-11.0541 -10.3926 -2.4995 0.9403
-10.8420 -10.6121 -2.4993 0.9404
-10.4047 -11.0382 -2.4989 0.9404
-9.4808 -11.8359 -2.4982 0.9404
-9.2368 -12.0192 -2.4972 0.9404
-8.6622 -12.2630 -2.4734 0.9410
-7.4966 -12.1015 -2.3451 0.9439
-7.0027 -12.3918 -2.3448 0.9439
-6.2411 -12.7894 -2.3444 0.9439
-5.7208 -13.0286 -2.3441 0.9439
-4.9234 -13.3477 -2.3437 0.9440
-4.6535 -13.4434 -2.3436 0.9440
-4.3818 -13.5336 -2.3435 0.9440
-3.8333 -13.6975 -2.3432 0.9440
-3.2787 -13.8392 -2.3430 0.9440
-2.9994 -13.9017 -2.3429 0.9440
-2.7189 -13.9586 -2.3427 0.9440
-2.4374 -14.0098 -2.3426 0.9440
-1.8388 -11.9938 -1.9989 0.9520
-1.6134 -12.1511 -2.0193 0.9515
-1.5874 -14.1295 -2.3423 0.9440
-1.3027 -14.1580 -2.3422 0.9440
-1.0175 -14.1807 -2.3421 0.9440
-0.1600 -14.2146 -2.3419 0.9440
0.4120 -14.2086 -2.3417 0.9440
1.2684 -14.1565 -2.3415 0.9440
1.5530 -14.1277 -2.3414 0.9440
2.1201 -14.0530 -2.3413 0.9440
2.4024 -14.0072 -2.3412 0.9440
2.6837 -13.9557 -2.3412 0.9440
2.9640 -13.8985 -2.3411 0.9440
3.7969 -13.6936 -2.3410 0.9440
4.0717 -13.6142 -2.3409 0.9440
4.3447 -13.5293 -2.3409 0.9440
4.8855 -13.3432 -2.3409 0.9440
5.1529 -13.2421 -2.3408 0.9440
5.6815 -13.0237 -2.3408 0.9440
6.2009 -12.7845 -2.3408 0.9440
6.9609 -12.3870 -2.3408 0.9440
11.5775 -6.4925 -2.4949 0.9474
11.7063 -6.2585 -2.4950 0.9474
11.8303 -6.0218 -2.4951 0.9474
11.9495 -5.7828 -2.4952 0.9474
12.1734 -5.2977 -2.4954 0.9474
12.2781 -5.0519 -2.4955 0.9474
12.3777 -4.8039 -2.4956 0.9474
12.5621 -4.3023 -2.4958 0.9474
12.6467 -4.0489 -2.4959 0.9474
12.7262 -3.7937 -2.4960 0.9474
12.8005 -3.5371 -2.4962 0.9474
12.8697 -3.2789 -2.4963 0.9474
12.9337 -3.0194 -2.4964 0.9474
12.9925 -2.7587 -2.4965 0.9474
13.0460 -2.4968 -2.4966 0.9474
13.1372 -1.9700 -2.4969 0.9474
13.2559 -0.9074 -2.4974 0.9474
13.2722 -0.6405 -2.4976 0.9474
13.2889 0.1614 -2.4980 0.9473
13.2838 0.4289 -2.4981 0.9473
13.2573 0.9631 -2.4984 0.9473
13.1401 2.0265 -2.4990 0.9473
13.0975 2.2907 -2.4992 0.9473
13.0495 2.5539 -2.4993 0.9473
12.9378 3.0773 -2.4996 0.9473
12.7309 3.8531 -2.5001 0.9473
12.4777 4.6151 -2.5006 0.9473
12.3831 4.8655 -2.5008 0.9473
12.2834 5.1140 -2.5009 0.9473
12.1788 5.3606 -2.5011 0.9473
12.0693 5.6049 -2.5012 0.9473
11.9548 5.8470 -2.5014 0.9473
11.7114 6.3241 -2.5017 0.9473
10.6921 7.5669 -2.4621 0.9481
9.5951 8.0226 -2.3508 0.9504
9.2657 8.4033 -2.3511 0.9504
9.0953 8.5885 -2.3513 0.9504
8.7434 8.9487 -2.3516 0.9504
8.3773 9.2944 -2.3519 0.9503
8.1891 9.4617 -2.3520 0.9503
7.8027 9.7847 -2.3523 0.9503
6.5030 8.5004 -2.0117 0.9574
6.4448 8.7850 -2.0479 0.9566
6.7823 10.5221 -2.3530 0.9503
5.6926 11.1533 -2.3537 0.9503
5.4673 11.2662 -2.3538 0.9503
5.2398 11.3745 -2.3539 0.9503
5.0101 11.4782 -2.3540 0.9503
4.7784 11.5773 -2.3541 0.9503
4.5447 11.6717 -2.3543 0.9503
3.3500 12.0721 -2.3548 0.9503
3.1065 12.1376 -2.3549 0.9503
2.6159 12.2538 -2.3551 0.9503
2.3689 12.3045 -2.3552 0.9503
2.1208 12.3502 -2.3553 0.9503
1.8720 12.3908 -2.3554 0.9503
1.6223 12.4265 -2.3555 0.9503
1.3720 12.4571 -2.3556 0.9503
0.8697 12.5031 -2.3558 0.9503
0.6179 12.5185 -2.3559 0.9503
0.3659 12.5288 -2.3559 0.9503
0.1137 12.5341 -2.3560 0.9503
-0.8946 12.5041 -2.3563 0.9503
-1.3971 12.4587 -2.3564 0.9503
-1.6476 12.4283 -2.3565 0.9503
-1.8974 12.3929 -2.3565 0.9503
-2.8880 12.2012 -2.3567 0.9502
-3.1330 12.1408 -2.3568 0.9502
-3.3767 12.0755 -2.3568 0.9502
-3.6191 12.0053 -2.3568 0.9502
-3.8600 11.9301 -2.3569 0.9502
-4.3370 11.7654 -2.3569 0.9502
-4.5729 11.6759 -2.3569 0.9502
-4.8070 11.5816 -2.3569 0.9502
-5.0391 11.4826 -2.3570 0.9502
-5.4971 11.2706 -2.3570 0.9502
-5.7228 11.1578 -2.3570 0.9502
-4.1496 7.0132 -1.5317 0.9674
-4.6107 6.2590 -1.4612 0.9689
-4.6604 6.0669 -1.4380 0.9693
-4.7079 5.8798 -1.4158 0.9698
-5.3885 5.7189 -1.4769 0.9685
-5.5795 5.6879 -1.4976 0.9681
-5.9693 5.6144 -1.5403 0.9672
-6.6006 5.4967 -1.6145 0.9656
-9.0356 6.3677 -2.0777 0.9560
-8.8892 6.0005 -2.0159 0.9573
-9.8650 5.0487 -2.0830 0.9559
-10.2101 4.9687 -2.1343 0.9548
-10.8930 4.7689 -2.2351 0.9528
-11.2107 4.6414 -2.2806 0.9518
-12.4285 4.8550 -2.5080 0.9471
-11.9981 4.4107 -2.4027 0.9493
-12.6127 4.3506 -2.5078 0.9471
-12.6972 4.0957 -2.5077 0.9471
-12.7764 3.8392 -2.5075 0.9472
-12.9194 3.3217 -2.5073 0.9472
-12.9830 3.0609 -2.5072 0.9472
-13.0413 2.7989 -2.5071 0.9472
-13.0943 2.5358 -2.5069 0.9472
-13.1421 2.2716 -2.5068 0.9472
-13.1844 2.0066 -2.5067 0.9472
-13.2214 1.7408 -2.5066 0.9472
-13.2531 1.4743 -2.5064 0.9472
-13.3002 0.9397 -2.5062 0.9472
-13.3305 0.1355 -2.5057 0.9472
-13.3298 -0.1328 -2.5056 0.9472
-13.3121 -0.6689 -2.5053 0.9472
-13.2951 -0.9366 -2.5052 0.9472
-13.2120 -1.7368 -2.5047 0.9472
-13.0808 -2.5303 -2.5042 0.9472
-13.0264 -2.7928 -2.5041 0.9472
-12.9667 -3.0542 -2.5039 0.9472
-12.6759 -4.0859 -2.5033 0.9472
-12.5903 -4.3400 -2.5031 0.9472
-12.4997 -4.5921 -2.5030 0.9472
-12.4039 -4.8424 -2.5028 0.9472
-11.9713 -5.8226 -2.5022 0.9473
-11.8509 -6.0620 -2.5020 0.9473
-11.7258 -6.2988 -2.5018 0.9473
-11.3221 -6.9935 -2.5014 0.9473
-10.8774 -7.6624 -2.5009 0.9473
-10.3933 -8.3031 -2.5004 0.9473
-10.0495 -8.7135 -2.5001 0.9473
-9.6895 -9.1096 -2.4998 0.9473
-8.9234 -9.8568 -2.4991 0.9473
-8.5185 -10.2067 -2.4988 0.9473
-8.3109 -10.3754 -2.4987 0.9473
-8.1000 -10.5399 -2.4985 0.9473
-7.8858 -10.7002 -2.4984 0.9473
-7.6684 -10.8560 -2.4982 0.9473
-6.9982 -11.2970 -2.4978 0.9473
-6.7637 -11.4257 -2.4957 0.9474
-6.2807 -11.6556 -2.4886 0.9475
-5.9463 -11.5877 -2.4481 0.9484
-4.3164 -11.7022 -2.3444 0.9505
-4.0799 -11.7861 -2.3443 0.9505
-3.6020 -11.9396 -2.3441 0.9505
-3.3608 -12.0091 -2.3440 0.9505
-3.1183 -12.0738 -2.3439 0.9505
-2.8746 -12.1335 -2.3438 0.9505
-2.3839 -12.2383 -2.3436 0.9505
-1.8370 -11.9818 -2.2784 0.9519
-1.1422 -12.4135 -2.3431 0.9505
-0.8922 -12.4335 -2.3430 0.9505
0.6119 -12.4481 -2.3426 0.9505
1.1122 -12.4127 -2.3424 0.9505
1.6107 -12.3573 -2.3423 0.9505
1.8590 -12.3221 -2.3423 0.9505
2.1065 -12.2819 -2.3422 0.9505
2.5989 -12.1867 -2.3421 0.9505
2.8436 -12.1318 -2.3421 0.9505
3.0871 -12.0719 -2.3421 0.9506
3.3293 -12.0071 -2.3420 0.9506
3.8097 -11.8631 -2.3420 0.9506
4.0476 -11.7839 -2.3419 0.9506
4.5183 -11.6112 -2.3419 0.9506
5.4373 -11.2101 -2.3418 0.9506
5.6617 -11.0984 -2.3418 0.9506
5.8839 -10.9822 -2.3418 0.9506
6.1460 -10.9368 -2.3580 0.9502
10.2980 -5.7750 -2.4957 0.9529
11.0094 -4.2729 -2.4963 0.9529
11.1733 -3.8267 -2.4965 0.9529
11.3191 -3.3743 -2.4967 0.9529
11.4466 -2.9163 -2.4969 0.9529
11.5557 -2.4536 -2.4971 0.9529
11.6033 -2.2207 -2.4972 0.9528
11.6461 -1.9868 -2.4973 0.9528
11.6843 -1.7521 -2.4974 0.9528
11.8040 -0.5697 -2.4980 0.9528
11.8186 0.1436 -2.4984 0.9528
11.8140 0.3814 -2.4985 0.9528
11.7903 0.8566 -2.4988 0.9528
11.7475 1.3304 -2.4991 0.9528
11.6477 2.0371 -2.4995 0.9528
11.5055 2.7366 -2.4999 0.9528
11.4487 2.9678 -2.5000 0.9528
11.3873 3.1977 -2.5002 0.9528
11.3213 3.4264 -2.5003 0.9528
11.1755 3.8796 -2.5006 0.9528
11.0116 4.3267 -2.5009 0.9528
10.8299 4.7668 -2.5012 0.9528
10.7324 4.9841 -2.5013 0.9528
10.2992 5.8323 -2.5019 0.9528
10.0574 6.2427 -2.5022 0.9528
9.7992 6.6431 -2.5025 0.9528
9.6641 6.8393 -2.5026 0.9527
9.5250 7.0328 -2.5027 0.9527
9.2290 7.4061 -2.5013 0.9528
9.0690 7.5827 -2.4988 0.9528
8.9058 7.7560 -2.4963 0.9529
7.6127 8.1117 -2.3515 0.9555
7.4483 8.2637 -2.3516 0.9555
7.2809 8.4123 -2.3517 0.9555
7.1105 8.5576 -2.3519 0.9555
6.9373 8.6994 -2.3520 0.9555
6.4333 8.7694 -2.2990 0.9565
6.0299 9.3548 -2.3526 0.9555
5.8407 9.4747 -2.3527 0.9555
5.6491 9.5908 -2.3528 0.9555
5.0609 9.9156 -2.3532 0.9555
4.8606 10.0159 -2.3533 0.9555
4.6583 10.1122 -2.3534 0.9555
3.6197 10.5313 -2.3539 0.9555
3.4072 10.6024 -2.3540 0.9555
3.1933 10.6693 -2.3541 0.9555
2.9781 10.7318 -2.3542 0.9555
2.7616 10.7900 -2.3543 0.9555
2.5440 10.8438 -2.3544 0.9555
2.3254 10.8932 -2.3545 0.9555
2.1058 10.9382 -2.3546 0.9555
1.8854 10.9788 -2.3547 0.9555
1.6641 11.0149 -2.3548 0.9555
1.4422 11.0466 -2.3548 0.9555
1.2196 11.0737 -2.3549 0.9555
0.9966 11.0964 -2.3550 0.9555
0.7731 11.1145 -2.3551 0.9555
0.5493 11.1282 -2.3551 0.9555
0.3253 11.1373 -2.3552 0.9555
-0.1232 11.1420 -2.3553 0.9555
-0.5714 11.1286 -2.3555 0.9555
-1.0188 11.0971 -2.3556 0.9555
-1.2419 11.0746 -2.3556 0.9555
-1.4645 11.0477 -2.3557 0.9555
-2.3483 10.8949 -2.3559 0.9555
-2.5671 10.8457 -2.3559 0.9555
-2.7849 10.7919 -2.3559 0.9555
-3.0016 10.7339 -2.3560 0.9555
-3.2170 10.6714 -2.3560 0.9555
-3.8551 10.4582 -2.3561 0.9555
-4.2729 10.2948 -2.3561 0.9555
-3.4642 7.1026 -1.6704 0.9682
-3.5020 6.8278 -1.6220 0.9691
-3.5820 6.6508 -1.5968 0.9696
-3.6788 6.5131 -1.5812 0.9699
-3.7799 6.3884 -1.5690 0.9701
-3.8825 6.2704 -1.5589 0.9703
-3.9884 6.1607 -1.5513 0.9704
-4.2068 5.9580 -1.5417 0.9706
-4.4763 5.8272 -1.5532 0.9704
-4.6264 5.7780 -1.5646 0.9702
-4.9536 5.7005 -1.5964 0.9696
-5.1240 5.6624 -1.6142 0.9693
-5.4986 5.6054 -1.6598 0.9684
-5.6955 5.5771 -1.6850 0.9679
-5.8994 5.5486 -1.7119 0.9674
-6.1252 5.5330 -1.7448 0.9668
-6.3423 5.5014 -1.7747 0.9663
-6.9481 5.5531 -1.8801 0.9643
-7.0940 5.4394 -1.8896 0.9641
-9.6781 6.8205 -2.5027 0.9527
-9.8234 6.6311 -2.5053 0.9527
-9.9651 6.4387 -2.5079 0.9527
-9.0725 5.3572 -2.2271 0.9578
-9.5766 5.1469 -2.2981 0.9565
-10.6672 5.1911 -2.5077 0.9527
-10.8667 4.7573 -2.5075 0.9527
-11.0485 4.3159 -2.5073 0.9527
-11.1327 4.0925 -2.5072 0.9527
-11.4852 2.9529 -2.5067 0.9527
-11.5937 2.4882 -2.5065 0.9527
-11.6409 2.2543 -2.5064 0.9527
-11.7823 1.3107 -2.5059 0.9527
-11.8058 1.0733 -2.5058 0.9527
-11.8473 0.3590 -2.5054 0.9527
-11.8515 0.1205 -2.5053 0.9527
-11.8354 -0.5947 -2.5049 0.9527
-11.7760 -1.3075 -2.5045 0.9527
-11.7467 -1.5442 -2.5044 0.9527
-11.7126 -1.7801 -2.5042 0.9527
-11.6738 -2.0153 -2.5041 0.9527
-11.6302 -2.2497 -2.5040 0.9527
-11.5820 -2.4832 -2.5038 0.9527
-11.5290 -2.7156 -2.5037 0.9527
-11.4091 -3.1769 -2.5034 0.9527
-11.3423 -3.4057 -2.5033 0.9527
-11.2708 -3.6330 -2.5031 0.9527
-11.1142 -4.0832 -2.5028 0.9527
-10.9396 -4.5265 -2.5026 0.9527
-10.3112 -5.8094 -2.5017 0.9528
-10.1916 -6.0152 -2.5016 0.9528
-10.0679 -6.2188 -2.5014 0.9528
-9.9402 -6.4197 -2.5013 0.9528
-9.8084 -6.6181 -2.5011 0.9528
-9.5331 -7.0066 -2.5008 0.9528
-9.3896 -7.1966 -2.5007 0.9528
-9.2424 -7.3837 -2.5005 0.9528
-9.0914 -7.5677 -2.5004 0.9528
-8.9368 -7.7487 -2.5003 0.9528
-8.7785 -7.9265 -2.5001 0.9528
-8.4516 -8.2724 -2.4998 0.9528
-8.2829 -8.4403 -2.4997 0.9528
-7.7573 -8.9232 -2.4993 0.9528
-7.5757 -9.0771 -2.4992 0.9528
-7.2036 -9.3735 -2.4989 0.9528
-6.8199 -9.6548 -2.4986 0.9528
-6.6239 -9.7896 -2.4985 0.9528
-6.2240 -10.0471 -2.4982 0.9528
-6.0202 -10.1699 -2.4981 0.9528
-5.6056 -10.4028 -2.4979 0.9528
-5.3949 -10.5130 -2.4978 0.9528
-5.1820 -10.6189 -2.4976 0.9528
-4.7500 -10.8179 -2.4974 0.9528
-4.5294 -10.9065 -2.4963 0.9529
-4.3054 -10.9862 -2.4942 0.9529
-3.8539 -11.1333 -2.4904 0.9530
-3.3552 -11.1216 -2.4555 0.9536
-2.8574 -11.0633 -2.4153 0.9544
-2.3750 -11.0076 -2.3803 0.9550
-2.1397 -10.9850 -2.3657 0.9553
-1.9072 -10.9625 -2.3521 0.9555
-1.4595 -10.9924 -2.3440 0.9557
-1.2380 -11.0191 -2.3439 0.9557
-1.0160 -11.0414 -2.3438 0.9557
-0.7935 -11.0593 -2.3437 0.9557
-0.5708 -11.0727 -2.3437 0.9557
-0.3479 -11.0816 -2.3436 0.9557
0.3214 -11.0815 -2.3434 0.9557
0.9893 -11.0411 -2.3432 0.9557
1.4327 -10.9918 -2.3431 0.9557
2.0932 -10.8847 -2.3430 0.9557
2.3118 -10.8402 -2.3429 0.9557
3.2153 -10.7509 -2.3720 0.9552
3.4539 -10.7554 -2.3878 0.9549
3.9426 -10.7681 -2.4239 0.9542
4.1927 -10.7743 -2.4438 0.9538
4.4487 -10.7850 -2.4661 0.9534
9.2643 -5.1953 -2.4963 0.9573
9.4663 -4.8186 -2.4965 0.9573
9.6531 -4.4340 -2.4966 0.9573
9.7407 -4.2390 -2.4967 0.9573
9.8244 -4.0423 -2.4968 0.9573
9.9041 -3.8438 -2.4968 0.9573
9.9797 -3.6439 -2.4969 0.9573
10.0514 -3.4425 -2.4970 0.9573
10.1190 -3.2396 -2.4971 0.9573
10.2419 -2.8300 -2.4973 0.9573
10.4379 -1.9976 -2.4977 0.9573
10.5107 -1.5761 -2.4979 0.9573
10.6181 -0.5125 -2.4984 0.9573
10.6268 -0.2987 -2.4985 0.9573
10.6183 0.5569 -2.4990 0.9573
10.5883 0.9838 -2.4992 0.9572
10.5669 1.1967 -2.4993 0.9572
10.5411 1.4092 -2.4995 0.9572
10.4769 1.8324 -2.4997 0.9572
10.4091 2.0371 -2.4928 0.9574
10.3957 2.2527 -2.4999 0.9572
10.2424 2.8762 -2.5003 0.9572
10.1830 3.0819 -2.5004 0.9572
9.9800 3.6913 -2.5008 0.9572
9.9042 3.8915 -2.5010 0.9572
9.7406 4.2874 -2.5012 0.9572
9.6529 4.4827 -2.5013 0.9572
9.2631 5.2455 -2.5019 0.9572
9.1562 5.4311 -2.5020 0.9572
8.8131 5.9746 -2.5024 0.9572
8.6916 6.1511 -2.5025 0.9572
8.4379 6.4965 -2.5028 0.9572
7.2781 7.7552 -2.4996 0.9572
7.1150 7.8939 -2.4976 0.9573
6.6651 8.0215 -2.4511 0.9581
6.4145 8.0439 -2.4180 0.9586
6.1703 8.0655 -2.3867 0.9591
5.9333 8.0878 -2.3575 0.9596
5.7561 8.1868 -2.3521 0.9597
5.2524 8.5203 -2.3524 0.9597
4.9057 8.7255 -2.3526 0.9597
4.7294 8.8229 -2.3527 0.9597
4.3709 9.0068 -2.3529 0.9597
3.6331 9.3306 -2.3533 0.9597
3.0639 9.5339 -2.3536 0.9597
2.8715 9.5940 -2.3536 0.9597
2.6779 9.6502 -2.3537 0.9597
2.4833 9.7025 -2.3538 0.9597
2.2876 9.7509 -2.3539 0.9597
2.0910 9.7953 -2.3540 0.9597
1.6953 9.8721 -2.3541 0.9597
1.2968 9.9330 -2.3543 0.9597
0.6952 9.9940 -2.3545 0.9597
0.2925 10.0144 -2.3546 0.9597
-0.5138 10.0065 -2.3549 0.9597
-0.7151 9.9943 -2.3549 0.9597
-1.3169 9.9336 -2.3550 0.9597
-1.9139 9.8365 -2.3552 0.9597
-2.1115 9.7962 -2.3552 0.9597
-2.6988 9.6513 -2.3553 0.9597
-2.8925 9.5952 -2.3553 0.9597
-3.0851 9.5351 -2.3554 0.9597
-3.2764 9.4712 -2.3554 0.9597
-3.6549 9.3318 -2.3554 0.9597
-3.8419 9.2565 -2.3554 0.9597
-4.0274 9.1773 -2.3554 0.9597
-4.2113 9.0945 -2.3554 0.9597
-3.3855 6.2859 -1.6780 0.9711
-3.5886 6.0650 -1.6562 0.9715
-3.7030 5.9803 -1.6531 0.9715
-3.8186 5.8985 -1.6514 0.9715
-4.0994 5.8060 -1.6704 0.9712
-4.5869 5.7288 -1.7248 0.9703
-6.1124 5.5214 -1.9359 0.9667
-6.3222 5.4840 -1.9670 0.9662
-6.6379 5.5277 -2.0302 0.9651
-6.8062 5.4397 -2.0477 0.9648
-7.1013 5.4450 -2.1031 0.9639
-8.7214 6.1463 -2.5076 0.9571
-8.8431 5.9694 -2.5075 0.9571
-8.9612 5.7901 -2.5075 0.9571
-9.0757 5.6084 -2.5074 0.9571
-9.4963 4.8600 -2.5071 0.9571
-9.7713 4.2778 -2.5069 0.9571
-9.8551 4.0801 -2.5068 0.9571
-9.9348 3.8809 -2.5067 0.9571
-10.0106 3.6800 -2.5067 0.9571
-10.0823 3.4777 -2.5066 0.9571
-10.2726 2.8628 -2.5063 0.9571
-10.3787 2.4469 -2.5061 0.9571
-10.6164 0.9652 -2.5054 0.9571
-10.6457 0.5371 -2.5052 0.9571
-10.6577 0.1083 -2.5049 0.9572
-10.6434 -0.5348 -2.5046 0.9572
-10.6300 -0.7489 -2.5045 0.9572
-10.6123 -0.9626 -2.5044 0.9572
-10.5639 -1.3887 -2.5041 0.9572
-10.4984 -1.8124 -2.5039 0.9572
-10.4593 -2.0232 -2.5038 0.9572
-10.4160 -2.2332 -2.5036 0.9572
-10.3167 -2.6502 -2.5034 0.9572
-10.2607 -2.8571 -2.5033 0.9572
-10.2006 -3.0629 -2.5031 0.9572
-10.1364 -3.2674 -2.5030 0.9572
-9.7544 -4.2680 -2.5024 0.9572
-9.6661 -4.4632 -2.5022 0.9572
-9.1664 -5.4102 -2.5016 0.9572
-8.9404 -5.7740 -2.5013 0.9572
-8.8219 -5.9525 -2.5012 0.9572
-8.6999 -6.1284 -2.5011 0.9572
-8.5744 -6.3020 -2.5009 0.9572
-8.3130 -6.6412 -2.5007 0.9572
-8.1773 -6.8068 -2.5005 0.9572
-8.0382 -6.9696 -2.5004 0.9572
-7.8960 -7.1296 -2.5003 0.9572
-7.7505 -7.2867 -2.5002 0.9572
-7.6019 -7.4408 -2.5000 0.9572
-7.4503 -7.5919 -2.4999 0.9572
-7.2956 -7.7399 -2.4998 0.9572
-6.9776 -8.0264 -2.4995 0.9572
-6.4797 -8.4315 -2.4992 0.9572
-5.7796 -8.9236 -2.4987 0.9573
-5.5986 -9.0377 -2.4986 0.9573
-5.2300 -9.2548 -2.4984 0.9573
-4.8529 -9.4569 -2.4982 0.9573
-4.4681 -9.6438 -2.4979 0.9573
-3.8776 -9.8946 -2.4976 0.9573
-3.0689 -10.1727 -2.4973 0.9573
-2.4493 -10.3383 -2.4970 0.9573
-2.2407 -10.3851 -2.4969 0.9573
-1.6094 -10.4972 -2.4959 0.9573
-1.3973 -10.5239 -2.4951 0.9573
-0.7592 -10.5803 -2.4930 0.9574
-0.5460 -10.5911 -2.4925 0.9574
-0.3327 -10.5982 -2.4921 0.9574
-0.1193 -10.6014 -2.4917 0.9574
0.0940 -10.6005 -2.4915 0.9574
0.3073 -10.5957 -2.4913 0.9574
0.5204 -10.5870 -2.4912 0.9574
0.9460 -10.5581 -2.4913 0.9574
1.1584 -10.5377 -2.4915 0.9574
1.3703 -10.5133 -2.4918 0.9574
1.5819 -10.4852 -2.4922 0.9574
2.6304 -10.2862 -2.4953 0.9573
3.0424 -10.1728 -2.4955 0.9573
3.2465 -10.1094 -2.4955 0.9573
3.4492 -10.0419 -2.4954 0.9573
3.6506 -9.9704 -2.4954 0.9573
4.0487 -9.8153 -2.4954 0.9573
4.8248 -9.4578 -2.4953 0.9573
5.2015 -9.2560 -2.4953 0.9573
5.3867 -9.1495 -2.4953 0.9573
8.9917 -3.4898 -2.4973 0.9609
9.2982 -2.5693 -2.4977 0.9609
9.3484 -2.3818 -2.4978 0.9609
9.3947 -2.1932 -2.4979 0.9609
9.5421 -1.4309 -2.4982 0.9609
9.5926 -1.0459 -2.4984 0.9609
9.6394 -0.4652 -2.4987 0.9609
9.6511 -0.0770 -2.4989 0.9609
9.6472 0.3115 -2.4991 0.9609
9.6394 0.5055 -2.4992 0.9609
9.6121 0.8931 -2.4994 0.9609
9.5925 1.0863 -2.4996 0.9609
9.4370 2.0449 -2.5001 0.9609
9.2977 2.6109 -2.5005 0.9609
9.1245 3.1676 -2.5008 0.9609
8.8419 3.8918 -2.5013 0.9609
8.7622 4.0691 -2.5014 0.9609
8.5922 4.4188 -2.5016 0.9609
8.5019 4.5910 -2.5017 0.9609
8.1067 5.2608 -2.5022 0.9609
7.9996 5.4231 -2.5023 0.9609
7.6589 5.8967 -2.5027 0.9608
7.5390 6.0499 -2.5028 0.9608
7.1613 6.4947 -2.5031 0.9608
7.0295 6.6378 -2.5033 0.9608
6.6170 7.0508 -2.5036 0.9608
6.4741 7.1828 -2.5037 0.9608
6.0297 7.5614 -2.5040 0.9608
5.7146 7.7898 -2.5014 0.9609
5.5533 7.8983 -2.4999 0.9609
5.3900 8.0037 -2.4984 0.9609
5.0051 8.1192 -2.4695 0.9614
4.7902 8.1325 -2.4438 0.9618
4.1700 8.1700 -2.3750 0.9628
3.4669 8.3999 -2.3528 0.9631
3.1263 8.5332 -2.3530 0.9631
2.6061 8.7072 -2.3532 0.9631
2.2537 8.8055 -2.3534 0.9631
0.6309 9.0698 -2.3540 0.9631
0.2654 9.0883 -2.3541 0.9631
-0.4663 9.0811 -2.3543 0.9631
-0.6489 9.0700 -2.3544 0.9631
-0.8313 9.0553 -2.3544 0.9631
-1.0134 9.0369 -2.3545 0.9631
-1.1951 9.0148 -2.3545 0.9631
-1.5569 8.9597 -2.3546 0.9631
-1.7369 8.9267 -2.3546 0.9631
-2.2724 8.8060 -2.3547 0.9631
-2.4492 8.7586 -2.3548 0.9631
-2.7997 8.6531 -2.3548 0.9631
-2.9733 8.5951 -2.3548 0.9631
-3.3168 8.4686 -2.3549 0.9631
-3.4865 8.4002 -2.3549 0.9631
-3.2446 6.3260 -1.8408 0.9711
-3.3093 6.1443 -1.8069 0.9716
-3.5021 5.9188 -1.7807 0.9720
-3.7579 5.8047 -1.7904 0.9718
-4.0705 5.7650 -1.8272 0.9713
-4.4112 5.7425 -1.8749 0.9705
-4.5760 5.7151 -1.8956 0.9702
-4.9194 5.6612 -1.9419 0.9695
-5.2912 5.6157 -1.9978 0.9686
-6.1112 5.5203 -2.1323 0.9665
-6.3511 5.5091 -2.1769 0.9659
-6.6378 5.5276 -2.2365 0.9649
-7.6843 5.8921 -2.5072 0.9608
-7.8011 5.7361 -2.5071 0.9608
-8.2364 5.0898 -2.5069 0.9608
-8.3370 4.9229 -2.5068 0.9608
-8.5279 4.5832 -2.5067 0.9608
-8.6182 4.4106 -2.5066 0.9608
