ply
format ascii 1.0
element vertex 1541
property float32 x
property float32 y
property float32 z
property float32 I
end_header
-43.5981 -34.0791 -1.5582 0.8014
-43.5248 -47.0373 -1.8045 0.7738
-11.1494 -21.1319 -0.6728 0.9088
-10.0893 -21.1387 -0.6595 0.9105
-9.0684 -21.1453 -0.6478 0.9120
-8.0816 -21.1516 -0.6376 0.9134
-7.5919 -21.1337 -0.6323 0.9141
-4.3864 -21.1753 -0.6089 0.9171
-3.9451 -21.1781 -0.6066 0.9174
-3.5070 -21.1809 -0.6045 0.9177
-2.6387 -21.1864 -0.6012 0.9181
-2.2078 -21.1892 -0.5999 0.9183
-0.4976 -21.2002 -0.5971 0.9186
0.7807 -21.2084 -0.5976 0.9186
2.0657 -21.2166 -0.6002 0.9182
2.9308 -21.2221 -0.6032 0.9178
3.8060 -21.2277 -0.6073 0.9173
4.2484 -21.2306 -0.6097 0.9170
3.8956 -17.6200 -0.5081 0.9303
5.1446 -21.2363 -0.6153 0.9163
3.9967 -15.1607 -0.4415 0.9392
6.9949 -21.2482 -0.6299 0.9144
7.4722 -21.2512 -0.6343 0.9138
9.9746 -21.2672 -0.6614 0.9103
14.1347 -25.9464 -0.8319 0.8885
14.4957 -24.2378 -0.7952 0.8931
16.2724 -21.8815 -0.7678 0.8966
16.9690 -21.8860 -0.7798 0.8951
18.8029 -21.4477 -0.8031 0.8921
19.6750 -21.5533 -0.8217 0.8898
23.0633 -21.5104 -0.8880 0.8814
28.4433 -23.4901 -1.0387 0.8628
33.6255 -21.5426 -1.1245 0.8523
36.8827 -22.5975 -1.2180 0.8411
38.6137 -21.5746 -1.2455 0.8378
41.3817 -22.0423 -1.3202 0.8289
42.9913 -21.8026 -1.3573 0.8246
44.8304 -21.6144 -1.4014 0.8194
47.7101 -21.8328 -1.4774 0.8106
78.6098 -32.2204 -2.3922 0.7118
51.3095 -16.3590 -1.5164 0.8061
51.7461 -15.3602 -1.5199 0.8057
49.7472 -2.5801 -2.5263 0.8191
49.8054 -0.5799 -2.5260 0.8191
49.8042 0.4207 -2.5259 0.8192
49.7826 1.4209 -2.5257 0.8192
49.7409 2.4204 -2.5256 0.8192
49.6788 3.4188 -2.5254 0.8192
49.4940 5.4106 -2.5250 0.8192
49.3713 6.4031 -2.5248 0.8192
32.8909 5.6171 -1.6922 0.8749
31.1522 5.9666 -1.6086 0.8807
31.0500 6.5962 -1.6098 0.8806
25.3081 6.4488 -1.3245 0.9007
25.3013 6.9911 -1.3312 0.9002
44.7695 13.3440 -2.3692 0.8294
44.5049 14.2446 -2.3698 0.8293
44.2689 15.1559 -2.3730 0.8291
44.0138 16.0633 -2.3761 0.8289
42.6288 16.5355 -2.3188 0.8327
37.9773 16.5153 -2.1002 0.8472
36.0105 16.5279 -2.0094 0.8533
34.1040 16.4901 -1.9211 0.8592
32.7376 16.6488 -1.8626 0.8632
29.5483 16.5531 -1.7176 0.8731
14.8452 8.7126 -0.8729 0.9334
27.8604 17.1128 -1.6582 0.8773
25.9187 16.6462 -1.5622 0.8839
24.8131 16.6495 -1.5154 0.8872
23.7765 16.6562 -1.4722 0.8902
23.1360 16.9103 -1.4533 0.8916
18.1595 16.9750 -1.2607 0.9052
17.6188 17.1456 -1.2468 0.9062
16.9293 17.1500 -1.2221 0.9080
16.2663 17.1542 -1.1989 0.9097
15.2202 16.7109 -1.1463 0.9134
14.4107 17.1586 -1.1364 0.9142
14.7681 18.3191 -1.1933 0.9101
14.7730 19.0980 -1.2245 0.9078
14.7783 19.9191 -1.2578 0.9054
14.4364 21.1864 -1.3002 0.9024
14.3415 21.9834 -1.3311 0.9002
6.6114 10.5933 -0.6333 0.9512
6.0363 10.5970 -0.6185 0.9523
6.5254 12.0105 -0.6932 0.9467
5.2237 10.6096 -0.5997 0.9537
10.6378 22.7477 -1.2735 0.9043
5.4757 13.0511 -0.7178 0.9449
7.0065 22.9082 -1.2149 0.9085
6.5085 22.9162 -1.2081 0.9090
6.0158 22.9237 -1.2019 0.9094
5.5278 22.9308 -1.1962 0.9099
5.0442 22.9376 -1.1911 0.9102
4.5644 22.9439 -1.1864 0.9106
4.0876 22.9465 -1.1820 0.9109
3.6151 22.9554 -1.1785 0.9111
3.1447 22.9606 -1.1753 0.9114
2.6766 22.9655 -1.1726 0.9116
1.7459 22.9741 -1.1685 0.9118
0.3267 20.9606 -1.0631 0.9195
-0.0944 20.9633 -1.0631 0.9195
-0.5157 20.9660 -1.0636 0.9194
-1.4913 22.9937 -1.1686 0.9118
-1.7840 20.9741 -1.0675 0.9191
-2.2095 20.9768 -1.0697 0.9190
-3.0665 20.9823 -1.0754 0.9186
-3.9341 20.9879 -1.0829 0.9180
-4.8153 20.9935 -1.0923 0.9174
-5.7273 22.8527 -1.1948 0.9100
-8.2442 22.8689 -1.2328 0.9072
-8.7684 22.8722 -1.2423 0.9066
-9.3010 22.8757 -1.2523 0.9058
-9.8424 22.8791 -1.2631 0.9051
-23.3154 42.0071 -2.4365 0.8250
-11.0613 19.0184 -1.1158 0.9157
-11.0809 15.9513 -0.9850 0.9252
-11.0142 13.9768 -0.9025 0.9312
-10.9956 13.3908 -0.8787 0.9330
-10.9466 12.2895 -0.8346 0.9362
-11.7053 11.6462 -0.8374 0.9360
-12.1886 11.6493 -0.8551 0.9347
-12.6929 11.6525 -0.8738 0.9333
-13.7721 11.6594 -0.9151 0.9303
-14.9605 11.6671 -0.9621 0.9268
-16.8603 11.5862 -1.0375 0.9213
-17.5470 11.5462 -1.0653 0.9193
-18.2717 11.5039 -1.0950 0.9172
-18.9663 11.4157 -1.1227 0.9152
-22.4607 11.7375 -1.2852 0.9035
-23.6607 11.7657 -1.3401 0.8996
-28.8250 12.2277 -1.5879 0.8821
-43.0709 16.2622 -2.3348 0.8316
-33.2146 11.7841 -1.7873 0.8684
-37.9709 11.7773 -2.0162 0.8528
-44.3167 11.8168 -2.3260 0.8322
-44.5455 10.9243 -2.3260 0.8322
-44.9438 9.1255 -2.3258 0.8322
-45.1246 8.2220 -2.3261 0.8322
-48.3674 6.8187 -2.4772 0.8223
-48.4959 5.8459 -2.4772 0.8223
-48.6055 4.8708 -2.4773 0.8223
-48.6953 3.8937 -2.4774 0.8223
-48.7659 2.9149 -2.4775 0.8223
-48.8169 1.9349 -2.4777 0.8223
-48.8484 0.9540 -2.4778 0.8223
-48.8529 -1.0089 -2.4781 0.8223
-48.7792 -2.9707 -2.4784 0.8222
-48.5224 -5.9044 -2.4789 0.8222
-48.3980 -6.8784 -2.4791 0.8222
-48.2541 -7.8498 -2.4793 0.8222
-48.0909 -8.8183 -2.4796 0.8222
-47.9085 -9.7834 -2.4798 0.8221
-47.7070 -10.7448 -2.4800 0.8221
-44.7006 -12.9406 -2.3600 0.8300
-43.8645 -13.6593 -2.3299 0.8319
-43.2903 -15.4136 -2.3304 0.8319
-42.9771 -16.2819 -2.3307 0.8319
-42.6467 -17.1440 -2.3310 0.8319
-42.2990 -17.9994 -2.3313 0.8318
-41.9343 -18.8479 -2.3316 0.8318
-41.1545 -20.5225 -2.3322 0.8318
-40.7396 -21.3479 -2.3325 0.8318
-40.3815 -24.3672 -2.3919 0.8279
-40.3863 -25.4905 -2.4220 0.8259
-40.3910 -26.6428 -2.4539 0.8238
-40.2792 -27.7460 -2.4805 0.8221
-37.4085 -31.7420 -2.4881 0.8216
-36.7695 -32.4925 -2.4885 0.8216
-35.4469 -33.9547 -2.4893 0.8215
-34.7638 -34.6659 -2.4898 0.8215
-34.0665 -35.3635 -2.4902 0.8215
-33.3553 -36.0471 -2.4907 0.8214
-32.6304 -36.7164 -2.4911 0.8214
-31.1407 -38.0113 -2.4920 0.8213
-20.6424 -26.2553 -1.6938 0.8748
-28.8110 -39.8401 -2.4934 0.8213
-28.0102 -40.4184 -2.4939 0.8212
-19.8365 -31.2327 -1.8764 0.8623
-25.5399 -42.0564 -2.4953 0.8211
-13.7753 -23.7461 -1.3922 0.8959
-23.8393 -43.0650 -2.4963 0.8211
-11.1493 -21.1318 -1.2117 0.9087
-10.6140 -21.1353 -1.1994 0.9096
-10.0892 -21.1386 -1.1879 0.9105
-8.5710 -21.1484 -1.1573 0.9127
-8.0815 -21.1515 -1.1483 0.9133
-7.5919 -21.1338 -1.1388 0.9140
-6.6549 -21.1606 -1.1250 0.9150
-6.1915 -21.1636 -1.1183 0.9155
-5.7334 -21.1666 -1.1121 0.9159
-4.3864 -21.1752 -1.0967 0.9170
-3.5070 -21.1808 -1.0888 0.9176
-2.2078 -21.1891 -1.0804 0.9182
-1.7786 -21.1919 -1.0785 0.9184
-0.4976 -21.2001 -1.0754 0.9186
-0.0717 -21.1997 -1.0751 0.9186
0.3543 -21.2056 -1.0756 0.9186
1.2078 -21.2110 -1.0774 0.9184
2.0657 -21.2165 -1.0811 0.9182
2.4972 -21.2193 -1.0835 0.9180
3.8060 -21.2277 -1.0937 0.9172
4.2484 -21.2305 -1.0980 0.9169
5.4216 -17.6556 -0.9367 0.9287
6.0262 -17.1387 -0.9213 0.9298
5.7041 -15.2374 -0.8251 0.9369
9.9746 -21.2672 -1.1913 0.9102
11.0411 -21.2740 -1.2155 0.9085
14.1344 -25.9458 -1.4984 0.8884
14.2409 -24.9355 -1.4563 0.8914
14.4459 -24.1546 -1.4273 0.8934
14.5022 -23.1787 -1.3866 0.8963
14.7000 -21.5214 -1.3217 0.9009
17.6472 -21.8403 -1.4240 0.8936
18.0632 -21.4587 -1.4225 0.8937
19.6749 -21.5532 -1.4800 0.8897
23.9796 -21.4808 -1.6327 0.8790
25.2129 -21.6887 -1.6866 0.8753
26.6943 -22.0457 -1.7558 0.8705
27.0660 -21.4529 -1.7515 0.8708
32.0975 -21.4851 -1.9588 0.8567
33.4677 -21.4415 -2.0157 0.8528
37.0568 -21.6927 -2.1776 0.8420
38.4324 -21.4733 -2.2327 0.8383
42.1439 -20.3191 -2.3727 0.8291
42.9284 -18.6111 -2.3729 0.8291
44.2866 -15.1064 -2.3730 0.8291
44.5814 -14.2139 -2.3730 0.8291
45.1164 -12.4118 -2.3730 0.8291
45.3562 -11.5030 -2.3730 0.8291
47.7565 -11.0957 -2.4864 0.8217
34.0545 -4.5274 -2.5189 0.8713
34.1378 -3.8423 -2.5189 0.8713
34.2627 -2.4679 -2.5187 0.8713
34.3312 0.9799 -2.5183 0.8713
34.2609 2.3578 -2.5180 0.8713
34.2050 3.0453 -2.5179 0.8713
34.1350 3.7316 -2.5178 0.8713
33.9538 5.0990 -2.5175 0.8714
33.8425 5.7796 -2.5173 0.8714
33.7174 6.4579 -2.5172 0.8714
24.7611 5.7823 -1.8644 0.9030
24.0373 6.1249 -1.8188 0.9053
24.0693 6.6507 -1.8309 0.9047
24.0709 7.1746 -1.8417 0.9042
19.8681 6.8020 -1.5398 0.9192
30.2671 11.0463 -2.3624 0.8788
30.0366 11.6511 -2.3622 0.8788
29.7939 12.2510 -2.3620 0.8788
29.5392 12.8458 -2.3618 0.8788
29.2726 13.4353 -2.3616 0.8788
28.9957 14.0201 -2.3615 0.8788
19.3071 16.6462 -1.8692 0.9028
18.5888 16.6894 -1.8317 0.9047
15.2203 16.7110 -1.6573 0.9133
14.3191 18.5111 -1.7160 0.9104
14.3241 19.3069 -1.7627 0.9081
14.3352 21.0378 -1.8666 0.9029
14.3412 21.9830 -1.9245 0.9001
6.0363 10.5971 -0.8942 0.9523
5.4903 10.6079 -0.8758 0.9532
5.2238 10.6096 -0.8671 0.9537
5.7691 13.0114 -1.0436 0.9445
5.4630 13.0208 -1.0354 0.9449
7.9758 22.7649 -1.7686 0.9078
7.4669 22.7681 -1.7569 0.9084
6.9646 22.7713 -1.7460 0.9089
5.9775 22.7777 -1.7267 0.9099
5.4916 22.7808 -1.7182 0.9103
5.0104 22.7839 -1.7105 0.9107
4.5332 22.7870 -1.7035 0.9110
3.5895 22.7930 -1.6918 0.9116
3.1221 22.7960 -1.6871 0.9118
2.6572 22.7990 -1.6830 0.9121
2.1943 22.8020 -1.6796 0.9122
1.7330 22.8049 -1.6769 0.9124
1.2731 22.8079 -1.6749 0.9125
0.8141 22.8108 -1.6736 0.9125
0.3267 20.9607 -1.5371 0.9194
-0.0944 20.9634 -1.5371 0.9194
-1.7841 20.9742 -1.5434 0.9190
-3.5003 20.9945 -1.5606 0.9182
-4.3728 20.9908 -1.5721 0.9176
-4.8153 20.9936 -1.5793 0.9172
-5.7273 22.8528 -1.7274 0.9098
-6.1368 22.5554 -1.7139 0.9105
-7.1233 22.5617 -1.7348 0.9095
-7.6261 22.5650 -1.7464 0.9089
-8.6532 22.5716 -1.7724 0.9076
-9.1787 22.5749 -1.7868 0.9069
-10.8109 22.5854 -1.8359 0.9045
-10.7624 21.3710 -1.7545 0.9085
-10.5421 19.9267 -1.6529 0.9136
-15.8310 28.5225 -2.3919 0.8774
-11.0615 19.0188 -1.6132 0.9155
-11.0669 18.1778 -1.5604 0.9182
-11.0811 15.9516 -1.4241 0.9251
-11.0395 15.2295 -1.3792 0.9273
-10.9627 14.5013 -1.3329 0.9297
-10.9218 13.3009 -1.2619 0.9333
-10.9027 12.7468 -1.2299 0.9349
-10.8844 12.2197 -1.1999 0.9365
-12.5046 12.9515 -1.3200 0.9303
-11.7054 11.6462 -1.2107 0.9359
-12.1886 11.6493 -1.2362 0.9346
-12.6929 11.6526 -1.2634 0.9332
-14.3515 11.6632 -1.3560 0.9285
-14.9605 11.6671 -1.3911 0.9267
-15.5263 11.6144 -1.4217 0.9252
-16.0700 11.5250 -1.4500 0.9237
-18.0756 11.3804 -1.5661 0.9179
-18.6314 11.2141 -1.5945 0.9165
-27.9683 15.3386 -2.3388 0.8799
-28.2441 14.7598 -2.3366 0.8800
-28.9639 12.9791 -2.3272 0.8805
-30.1966 10.0352 -2.3331 0.8802
-30.7462 8.1983 -2.3331 0.8802
-31.5014 7.7254 -2.3782 0.8780
-33.4529 5.4035 -2.4846 0.8729
-33.5553 4.7305 -2.4847 0.8729
-33.6443 4.0556 -2.4847 0.8729
-33.7198 3.3791 -2.4848 0.8729
-33.7818 2.7012 -2.4849 0.8729
-33.8942 -0.0190 -2.4852 0.8729
-33.8883 -0.6999 -2.4853 0.8729
-33.8359 -2.0606 -2.4855 0.8729
-33.7292 -3.4183 -2.4858 0.8729
-33.6556 -4.0954 -2.4859 0.8729
-33.4678 -5.4444 -2.4862 0.8728
-33.3537 -6.1160 -2.4863 0.8728
-33.2263 -6.7852 -2.4865 0.8728
-32.7640 -8.7758 -2.4870 0.8728
-32.5835 -9.4328 -2.4872 0.8728
-32.3900 -10.0861 -2.4874 0.8728
-32.1833 -10.7356 -2.4876 0.8728
-31.4862 -12.6575 -2.4882 0.8728
-30.3796 -15.1494 -2.4891 0.8727
-30.0720 -15.7580 -2.4893 0.8727
-29.7524 -16.3605 -2.4896 0.8727
-29.4206 -16.9565 -2.4898 0.8727
-28.7217 -18.1282 -2.4903 0.8726
-28.3548 -18.7034 -2.4906 0.8726
-27.9764 -19.2713 -2.4909 0.8726
-27.5867 -19.8315 -2.4911 0.8726
-27.1857 -20.3838 -2.4914 0.8726
-26.3510 -21.4641 -2.4920 0.8726
-25.9175 -21.9916 -2.4923 0.8726
-25.4735 -22.5104 -2.4925 0.8725
-24.0802 -24.0124 -2.4934 0.8725
-23.5959 -24.4942 -2.4937 0.8725
-23.1020 -24.9663 -2.4941 0.8725
-20.7406 -24.3040 -2.3427 0.8797
-20.2509 -24.7188 -2.3430 0.8797
-19.7528 -25.1238 -2.3433 0.8797
-19.2467 -25.5189 -2.3436 0.8797
-18.7326 -25.9037 -2.3439 0.8797
-17.1453 -26.9955 -2.3448 0.8796
-13.8301 -22.7738 -1.9536 0.8986
-16.0515 -27.6698 -2.3455 0.8796
-15.4946 -27.9905 -2.3458 0.8796
-11.1493 -21.1318 -1.7519 0.9086
-9.7965 -19.5074 -1.6006 0.9162
-9.3328 -19.5537 -1.5887 0.9168
-8.5710 -21.1483 -1.6731 0.9125
-6.5180 -19.3578 -1.4977 0.9213
-6.1915 -21.1635 -1.6168 0.9154
-4.4646 -19.5654 -1.4715 0.9227
-3.6525 -19.6071 -1.4624 0.9231
-3.2413 -19.5763 -1.4549 0.9235
-3.0716 -21.1835 -1.5695 0.9177
-2.6387 -21.1863 -1.5654 0.9179
-2.2078 -21.1891 -1.5620 0.9181
-1.7786 -21.1918 -1.5593 0.9182
-0.9239 -21.1973 -1.5557 0.9184
-0.4976 -21.2000 -1.5549 0.9185
0.3543 -21.2055 -1.5551 0.9185
2.0657 -21.2165 -1.5630 0.9181
2.4972 -21.2192 -1.5666 0.9179
3.9279 -19.6290 -1.4678 0.9229
3.8955 -17.6199 -1.3231 0.9302
4.2788 -17.6626 -1.3325 0.9297
5.3982 -17.5791 -1.3483 0.9289
5.3569 -15.2351 -1.1841 0.9373
5.7041 -15.2373 -1.1929 0.9368
8.4483 -21.2573 -1.6772 0.9123
8.9481 -21.2605 -1.6913 0.9116
9.4567 -21.2638 -1.7063 0.9109
4.8652 -10.3733 -0.8401 0.9551
5.2599 -10.1348 -0.8372 0.9552
5.5856 -10.2533 -0.8561 0.9543
14.0564 -22.4663 -1.9431 0.8992
15.9360 -21.4292 -1.9581 0.8984
16.6182 -21.4336 -1.9886 0.8969
17.3222 -21.4381 -2.0209 0.8953
18.8027 -21.4475 -2.0913 0.8919
19.5830 -21.4525 -2.1298 0.8900
21.1848 -21.4128 -2.2086 0.8862
22.9708 -21.4242 -2.3031 0.8816
23.9794 -21.4807 -2.3605 0.8789
24.4445 -21.0277 -2.3642 0.8787
25.6707 -19.5205 -2.3646 0.8787
15.1532 -9.2842 -1.3030 0.9312
15.8363 -9.2704 -1.3455 0.9290
28.4723 -15.1660 -2.3653 0.8786
29.0599 -14.0109 -2.3655 0.8786
29.3361 -13.4246 -2.3655 0.8786
29.6003 -12.8329 -2.3656 0.8786
29.8526 -12.2359 -2.3656 0.8786
32.9366 -9.7769 -2.5191 0.8713
33.1263 -9.1133 -2.5191 0.8713
33.3026 -8.4460 -2.5191 0.8713
33.4652 -7.7753 -2.5191 0.8713
26.0830 -2.4063 -2.5147 0.9001
26.1256 -1.8818 -2.5147 0.9001
26.1574 -1.3566 -2.5146 0.9001
26.1788 -0.8309 -2.5146 0.9001
26.1895 0.2212 -2.5144 0.9001
26.1577 1.2728 -2.5142 0.9001
26.1259 1.7979 -2.5141 0.9001
26.0835 2.3223 -2.5141 0.9001
25.9671 3.3678 -2.5138 0.9001
25.8930 3.8885 -2.5137 0.9001
25.8085 4.4076 -2.5136 0.9001
25.7135 4.9249 -2.5135 0.9001
25.6081 5.4401 -2.5134 0.9001
24.9586 5.8284 -2.4606 0.9021
18.8559 6.0352 -1.9007 0.9235
23.0855 8.4253 -2.3593 0.9060
22.9101 8.8867 -2.3592 0.9060
22.7255 9.3445 -2.3590 0.9060
14.8417 8.7106 -1.6522 0.9332
20.9252 12.8529 -2.3576 0.9060
20.3887 13.6808 -2.3572 0.9060
20.1146 14.0909 -2.3578 0.9060
19.8387 14.5003 -2.3591 0.9060
19.5543 14.9041 -2.3604 0.9059
18.6509 16.0804 -2.3642 0.9058
18.3335 16.4602 -2.3654 0.9057
17.8591 16.6942 -2.3470 0.9064
17.1596 16.6987 -2.2987 0.9083
16.4880 16.7029 -2.2532 0.9100
15.7951 16.6574 -2.2038 0.9119
15.2204 16.7111 -2.1700 0.9132
14.3094 17.0381 -2.1361 0.9145
14.2827 17.7171 -2.1848 0.9126
13.9453 20.4657 -2.3776 0.9053
13.5361 20.7488 -2.3784 0.9052
13.1208 21.0234 -2.3792 0.9052
5.7585 10.5989 -1.1580 0.9527
5.8962 11.3920 -1.2315 0.9498
5.2223 10.6063 -1.1348 0.9536
4.9623 10.6113 -1.1246 0.9540
4.7100 10.6227 -1.1156 0.9544
4.1653 10.5149 -1.0858 0.9556
8.4917 22.7616 -2.3323 0.9070
7.9758 22.7649 -2.3158 0.9076
7.4670 22.7682 -2.3004 0.9082
6.9646 22.7714 -2.2861 0.9087
3.8095 13.4132 -1.3387 0.9455
5.4917 22.7809 -2.2497 0.9101
4.5332 22.7870 -2.2305 0.9109
3.5895 22.7931 -2.2152 0.9114
2.6572 22.7991 -2.2036 0.9119
2.1943 22.8020 -2.1992 0.9121
1.7330 22.8050 -2.1957 0.9122
0.3269 20.9723 -2.0137 0.9192
-0.0945 20.9753 -2.0137 0.9192
-1.4804 22.8256 -2.1960 0.9122
-1.7863 21.0011 -2.0235 0.9188
-2.4048 22.8315 -2.2041 0.9119
-3.0735 21.0305 -2.0405 0.9181
-3.6351 21.8030 -2.1221 0.9150
-4.2819 22.8436 -2.2313 0.9108
-4.7594 22.8466 -2.2405 0.9105
-5.0026 21.8102 -2.1483 0.9140
-6.6271 22.5586 -2.2573 0.9098
-7.1234 22.5618 -2.2714 0.9093
-8.1359 22.5683 -2.3032 0.9081
-9.1787 22.5750 -2.3396 0.9067
-10.2223 22.5057 -2.3731 0.9054
-10.6678 22.2864 -2.3721 0.9055
-11.1084 22.0580 -2.3711 0.9055
-11.9746 21.5745 -2.3689 0.9056
-11.0618 19.0192 -2.1123 0.9154
-11.0671 18.1782 -2.0432 0.9180
-11.0769 16.6496 -1.9199 0.9228
-11.0398 15.2299 -1.8059 0.9272
-10.8428 13.7593 -1.6818 0.9320
-10.8256 13.1838 -1.6377 0.9337
-10.2959 12.0373 -1.5207 0.9383
-10.5450 11.8387 -1.5221 0.9383
-12.7114 13.7063 -1.7947 0.9276
-12.6972 13.1510 -1.7550 0.9292
-12.1887 11.6494 -1.6187 0.9345
-12.6930 11.6526 -1.6542 0.9331
-13.7723 11.6596 -1.7324 0.9301
-16.0576 11.5162 -1.8971 0.9237
-16.6096 11.4139 -1.9348 0.9222
-17.2346 11.3406 -1.9807 0.9204
-17.7664 11.1857 -2.0156 0.9191
-14.9718 9.0115 -1.6776 0.9322
-21.3454 11.7064 -2.3372 0.9068
-21.7975 10.8392 -2.3371 0.9068
-22.0104 10.3990 -2.3371 0.9068
-22.2145 9.9546 -2.3370 0.9068
-22.9410 8.1392 -2.3369 0.9068
-24.7183 7.1258 -2.4697 0.9018
-25.1750 6.1739 -2.4885 0.9011
-25.2941 5.6670 -2.4886 0.9011
-25.4031 5.1579 -2.4886 0.9011
-25.5018 4.6466 -2.4886 0.9011
-25.5903 4.1335 -2.4886 0.9011
-25.7365 3.1024 -2.4887 0.9011
-25.7941 2.5849 -2.4888 0.9011
-25.8414 2.0663 -2.4888 0.9011
-25.8782 1.5468 -2.4889 0.9011
-25.8811 -1.5762 -2.4893 0.9011
-25.8452 -2.0958 -2.4894 0.9010
-25.6753 -3.6490 -2.4897 0.9010
-25.5103 -4.6778 -2.4899 0.9010
-25.4125 -5.1895 -2.4901 0.9010
-25.3044 -5.6992 -2.4902 0.9010
-24.6123 -8.2101 -2.4909 0.9010
-24.4439 -8.7033 -2.4911 0.9010
-23.8800 -10.1616 -2.4915 0.9010
-23.4559 -11.1141 -2.4919 0.9010
-22.9939 -12.0490 -2.4922 0.9009
-22.2315 -13.4150 -2.4928 0.9009
-21.9593 -13.8600 -2.4930 0.9009
-21.6782 -14.2994 -2.4932 0.9009
-19.8051 -14.2375 -2.3417 0.9066
-17.6250 -16.8831 -2.3432 0.9066
-16.9358 -17.5807 -2.3436 0.9066
-16.5809 -17.9190 -2.3438 0.9066
-15.8508 -18.5740 -2.3443 0.9065
-15.4760 -18.8905 -2.3445 0.9065
-11.0941 -21.0272 -2.2825 0.9089
-10.5615 -21.0306 -2.2593 0.9098
-10.0393 -21.0340 -2.2376 0.9106
-9.5268 -21.0372 -2.2171 0.9114
-8.0415 -21.0468 -2.1631 0.9134
-6.5541 -19.4649 -1.9718 0.9208
-5.2540 -21.0646 -2.0843 0.9165
-4.3624 -19.1174 -1.8825 0.9242
-3.9619 -19.1258 -1.8752 0.9245
-3.1695 -19.1425 -1.8628 0.9250
-2.6263 -21.0870 -2.0401 0.9182
-1.7776 -21.1799 -2.0405 0.9181
-0.9257 -21.2386 -2.0409 0.9181
1.6357 -21.2088 -2.0422 0.9181
2.9163 -21.1170 -2.0466 0.9179
3.1749 -17.7076 -1.7271 0.9303
3.8356 -19.1680 -1.8767 0.9245
3.8955 -17.6199 -1.7324 0.9301
5.0146 -15.2328 -1.5396 0.9376
7.4352 -21.1459 -2.1520 0.9139
3.9777 -9.4509 -0.9844 0.9596
4.4057 -9.3935 -0.9961 0.9592
4.8690 -9.3815 -1.0147 0.9584
5.3518 -9.3708 -1.0360 0.9576
5.8625 -9.3700 -1.0611 0.9566
13.8589 -20.2899 -2.3590 0.9060
14.2646 -20.0088 -2.3591 0.9060
14.6646 -19.7195 -2.3593 0.9060
15.4467 -19.1169 -2.3596 0.9060
16.2040 -18.4833 -2.3598 0.9059
16.9351 -17.8195 -2.3601 0.9059
17.2905 -17.4766 -2.3602 0.9059
17.6390 -17.1267 -2.3604 0.9059
17.9803 -16.7697 -2.3605 0.9059
18.3144 -16.4060 -2.3606 0.9059
18.6411 -16.0355 -2.3607 0.9059
12.9308 -10.2492 -1.5841 0.9358
14.8511 -9.0990 -1.6721 0.9324
15.5528 -9.1045 -1.7302 0.9301
21.7102 -11.5641 -2.3615 0.9059
22.0946 -11.2050 -2.3784 0.9052
23.7916 -10.8874 -2.5119 0.9002
24.4336 -9.4462 -2.5149 0.9001
24.7936 -8.4572 -2.5150 0.9001
25.1134 -7.4546 -2.5150 0.9001
25.2581 -6.9487 -2.5150 0.9001
25.3924 -6.4399 -2.5150 0.9001
25.5166 -5.9285 -2.5150 0.9001
21.0941 -1.5194 -2.5122 0.9183
21.1200 -1.0954 -2.5121 0.9183
21.1373 -0.6709 -2.5121 0.9183
21.1460 -0.2462 -2.5120 0.9183
21.1378 0.6033 -2.5119 0.9183
21.0612 1.8751 -2.5117 0.9184
20.9675 2.7194 -2.5115 0.9184
20.9079 3.1398 -2.5114 0.9184
20.6784 4.3928 -2.5111 0.9184
20.4836 5.2194 -2.5109 0.9184
20.3737 5.6296 -2.5108 0.9184
20.2555 6.0374 -2.5107 0.9184
20.1292 6.4427 -2.5106 0.9184
18.7652 7.7161 -2.4101 0.9215
17.8618 8.6366 -2.3567 0.9232
17.6837 8.9931 -2.3566 0.9232
17.4984 9.3459 -2.3565 0.9232
17.3061 9.6949 -2.3563 0.9232
14.4484 8.4798 -1.9900 0.9347
16.9006 10.3809 -2.3560 0.9232
16.4679 11.0499 -2.3557 0.9232
16.0086 11.7008 -2.3554 0.9232
15.7693 12.0192 -2.3552 0.9232
15.2716 12.6411 -2.3549 0.9232
14.2036 13.8220 -2.3542 0.9233
13.0661 14.9378 -2.3574 0.9232
12.7677 15.2024 -2.3582 0.9231
11.8402 15.9590 -2.3605 0.9231
10.8669 16.6574 -2.3625 0.9230
10.5329 16.8767 -2.3631 0.9230
10.1943 17.0891 -2.3637 0.9230
5.4866 10.6007 -1.4179 0.9531
4.9589 10.6040 -1.3905 0.9539
4.7098 10.6224 -1.3803 0.9543
4.4599 10.6299 -1.3693 0.9546
3.4982 13.3304 -1.6371 0.9460
3.1033 19.7054 -2.3696 0.9228
1.9108 19.8562 -2.3695 0.9228
1.1116 19.9154 -2.3694 0.9228
0.3108 19.9415 -2.3691 0.9228
-0.0898 19.9421 -2.3689 0.9228
-0.4903 19.9344 -2.3686 0.9228
-0.8905 19.9184 -2.3684 0.9228
-1.6894 19.8616 -2.3678 0.9228
-2.0877 19.8208 -2.3675 0.9229
-2.4851 19.7718 -2.3671 0.9229
-2.8812 19.7146 -2.3667 0.9229
-3.2760 19.6492 -2.3663 0.9229
-3.6694 19.5757 -2.3658 0.9229
-4.4508 19.4043 -2.3648 0.9229
-4.8386 19.3066 -2.3643 0.9230
-5.2241 19.2010 -2.3637 0.9230
-5.9880 18.9659 -2.3625 0.9230
-7.1134 18.5550 -2.3605 0.9231
-8.2101 18.0757 -2.3582 0.9231
-9.2742 17.5301 -2.3558 0.9232
-9.6209 17.3338 -2.3549 0.9232
-10.3014 16.9204 -2.3531 0.9233
-10.6350 16.7035 -2.3522 0.9233
-11.2880 16.2494 -2.3502 0.9234
-10.6192 12.9324 -1.9877 0.9348
-10.2769 12.0152 -1.8781 0.9383
-10.5233 11.8143 -1.8794 0.9383
-11.7055 11.6463 -1.9614 0.9357
-13.7723 11.6596 -2.1435 0.9299
-15.7736 11.7994 -2.3399 0.9237
-16.0070 11.4799 -2.3398 0.9237
-14.9552 9.0015 -2.0734 0.9321
-17.2687 9.4707 -2.3395 0.9237
-17.4552 9.1217 -2.3395 0.9237
-17.6346 8.7691 -2.3394 0.9237
-17.8070 8.4130 -2.3394 0.9237
-19.2362 7.7079 -2.4616 0.9199
-19.3030 7.2882 -2.4509 0.9202
-20.3674 4.9949 -2.4911 0.9190
-20.4638 4.5848 -2.4911 0.9190
-20.6317 3.7592 -2.4911 0.9190
-20.7033 3.3441 -2.4911 0.9190
-20.7665 2.9276 -2.4912 0.9190
-20.8214 2.5099 -2.4912 0.9190
-20.8679 2.0912 -2.4912 0.9190
-20.9571 0.8306 -2.4914 0.9190
-20.9701 0.4095 -2.4914 0.9190
-20.9746 -0.0118 -2.4915 0.9190
-20.9583 -0.8542 -2.4916 0.9190
-20.9082 -1.6955 -2.4918 0.9190
-20.8246 -2.5340 -2.4919 0.9190
-20.7703 -2.9519 -2.4920 0.9190
-20.7075 -3.3686 -2.4921 0.9190
-20.6365 -3.7841 -2.4922 0.9190
-20.4695 -4.6102 -2.4924 0.9190
-20.1573 -5.8354 -2.4927 0.9189
-19.7721 -7.0399 -2.4931 0.9189
-19.6278 -7.4360 -2.4932 0.9189
-19.1474 -8.6060 -2.4936 0.9189
-18.7884 -9.3692 -2.4939 0.9189
-18.5975 -9.7453 -2.4940 0.9189
-18.3991 -10.1175 -2.4942 0.9189
-18.1933 -10.4857 -2.4944 0.9189
-17.9801 -10.8497 -2.4945 0.9189
-17.7597 -11.2094 -2.4947 0.9189
-17.5321 -11.5646 -2.4948 0.9189
-16.0167 -11.5141 -2.3432 0.9236
-15.5435 -12.1498 -2.3435 0.9236
-15.2974 -12.4604 -2.3436 0.9236
-15.0451 -12.7661 -2.3438 0.9236
-14.5223 -13.3620 -2.3442 0.9236
-12.8162 -15.0181 -2.3452 0.9236
-12.5129 -15.2737 -2.3454 0.9235
-11.8912 -15.7664 -2.3458 0.9235
-11.5731 -16.0034 -2.3460 0.9235
-7.9168 -11.9286 -1.7006 0.9440
-10.2546 -16.8862 -2.3467 0.9235
-9.5697 -17.2874 -2.3471 0.9235
-8.1540 -18.0058 -2.3479 0.9235
-7.7913 -18.1674 -2.3481 0.9235
-7.4255 -18.3218 -2.3483 0.9235
-7.0566 -18.4689 -2.3485 0.9234
-6.3102 -18.7406 -2.3489 0.9234
-5.9330 -18.8652 -2.3491 0.9234
-5.5533 -18.9822 -2.3493 0.9234
-2.5339 -9.3545 -1.1512 0.9617
-2.3037 -9.2360 -1.1307 0.9624
-2.1094 -9.2441 -1.1263 0.9625
-1.7224 -9.2462 -1.1172 0.9628
-0.9794 -9.3997 -1.1226 0.9626
1.5231 -19.7491 -2.3529 0.9233
1.9196 -19.7161 -2.3531 0.9233
2.3155 -19.6751 -2.3533 0.9233
2.7104 -19.6262 -2.3534 0.9233
3.4971 -19.5045 -2.3538 0.9233
3.8884 -19.4318 -2.3540 0.9233
3.8911 -17.5998 -2.1411 0.9300
4.2694 -17.6239 -2.1540 0.9296
3.4905 -10.6029 -1.3260 0.9560
3.5072 -9.9744 -1.2559 0.9583
3.5954 -9.6045 -1.2182 0.9595
4.8098 -9.2676 -1.2403 0.9588
5.0445 -9.2600 -1.2526 0.9584
5.2842 -9.2526 -1.2657 0.9580
5.5294 -9.2456 -1.2797 0.9575
5.7830 -9.2430 -1.2951 0.9570
11.8425 -15.9246 -2.3574 0.9232
12.4738 -15.4377 -2.3576 0.9232
13.0851 -14.9256 -2.3578 0.9232
13.3828 -14.6605 -2.3579 0.9232
13.6752 -14.3893 -2.3580 0.9232
14.5188 -13.5412 -2.3583 0.9231
14.7884 -13.2474 -2.3584 0.9231
12.6697 -10.0422 -1.9204 0.9370
12.7106 -9.6654 -1.8968 0.9377
13.5943 -9.0996 -1.9432 0.9362
15.5446 -9.0997 -2.1396 0.9300
18.8624 -9.5659 -2.5123 0.9183
19.2320 -8.8008 -2.5123 0.9183
19.8770 -7.2290 -2.5124 0.9183
20.0183 -6.8283 -2.5124 0.9183
20.1514 -6.4249 -2.5124 0.9183
20.5018 -5.1996 -2.5124 0.9183
20.6020 -4.7867 -2.5124 0.9183
17.5643 -2.3351 -2.5106 0.9309
17.6075 -1.9818 -2.5105 0.9309
17.6435 -1.6277 -2.5105 0.9309
17.7161 -0.2063 -2.5103 0.9309
17.7163 0.1496 -2.5103 0.9309
17.6952 0.8611 -2.5102 0.9309
17.6738 1.2163 -2.5101 0.9309
17.5671 2.2783 -2.5099 0.9309
17.3963 3.3319 -2.5097 0.9309
17.3253 3.6805 -2.5096 0.9309
17.2473 4.0276 -2.5095 0.9309
17.1623 4.3731 -2.5094 0.9309
17.0703 4.7168 -2.5093 0.9310
16.8658 5.3982 -2.5091 0.9310
16.7533 5.7356 -2.5090 0.9310
16.6340 6.0707 -2.5089 0.9310
16.5080 6.4034 -2.5088 0.9310
15.8904 7.6834 -2.5009 0.9312
15.1636 7.7115 -2.4104 0.9336
14.5016 8.1239 -2.3552 0.9351
14.1622 8.6989 -2.3549 0.9351
13.6103 9.5344 -2.3545 0.9351
13.0091 10.3350 -2.3541 0.9351
12.5820 10.8479 -2.3538 0.9351
12.3608 11.0978 -2.3537 0.9351
12.1346 11.3431 -2.3536 0.9351
11.9036 11.5838 -2.3534 0.9351
11.6678 11.8199 -2.3533 0.9351
10.9326 12.4987 -2.3528 0.9351
10.4204 12.9260 -2.3525 0.9351
10.1580 13.1318 -2.3523 0.9351
9.3467 13.7170 -2.3519 0.9351
9.0687 13.9010 -2.3517 0.9351
8.7898 14.0839 -2.3523 0.9351
7.9304 14.5964 -2.3537 0.9351
7.6370 14.7555 -2.3541 0.9351
4.7024 10.6057 -1.6438 0.9542
4.4598 10.6296 -1.6333 0.9545
4.7624 12.7655 -1.9305 0.9464
3.8990 16.1742 -2.3574 0.9350
2.5885 16.4370 -2.3577 0.9350
2.2579 16.4858 -2.3577 0.9350
1.5939 16.5629 -2.3576 0.9350
1.2608 16.5911 -2.3576 0.9350
0.2593 16.6346 -2.3572 0.9350
-0.0749 16.6353 -2.3571 0.9350
-0.4090 16.6292 -2.3569 0.9350
-1.4094 16.5694 -2.3562 0.9350
-2.7333 16.3940 -2.3549 0.9351
-3.0616 16.3331 -2.3545 0.9351
-3.7138 16.1913 -2.3537 0.9351
-4.0375 16.1104 -2.3533 0.9351
-4.3594 16.0229 -2.3528 0.9351
-4.9973 15.8280 -2.3518 0.9351
-5.3130 15.7209 -2.3513 0.9352
-6.2456 15.3610 -2.3495 0.9352
-6.8538 15.0896 -2.3482 0.9352
-8.0334 14.4737 -2.3455 0.9353
-8.6027 14.1303 -2.3440 0.9354
-9.1589 13.7667 -2.3428 0.9354
-9.7036 13.3866 -2.3426 0.9354
-9.9701 13.1884 -2.3425 0.9354
-10.4909 12.7762 -2.3423 0.9354
-10.2902 12.0307 -2.2431 0.9380
-10.5405 11.8336 -2.2454 0.9380
-11.4808 11.8912 -2.3420 0.9354
-11.7169 11.6578 -2.3419 0.9354
-11.9483 11.4197 -2.3418 0.9354
-12.3966 10.9298 -2.3417 0.9354
-12.6132 10.6783 -2.3416 0.9354
-12.8248 10.4225 -2.3415 0.9354
-14.1567 8.5209 -2.3412 0.9354
-14.3248 8.2347 -2.3411 0.9354
-14.7830 7.7253 -2.3634 0.9348
-15.5023 7.7088 -2.4531 0.9324
-15.8809 7.5030 -2.4886 0.9315
-16.3311 6.5439 -2.4928 0.9314
-16.4592 6.2145 -2.4928 0.9314
-16.5806 5.8826 -2.4928 0.9314
-16.8034 5.2118 -2.4928 0.9314
-16.9047 4.8733 -2.4928 0.9314
-16.9992 4.5327 -2.4928 0.9314
-17.0869 4.1904 -2.4928 0.9314
-17.2416 3.5007 -2.4928 0.9314
-17.3685 2.8055 -2.4928 0.9314
-17.4676 2.1056 -2.4929 0.9314
-17.5385 1.4024 -2.4930 0.9314
-17.5634 1.0498 -2.4930 0.9314
-17.5813 0.6968 -2.4930 0.9314
-17.5957 -0.0099 -2.4931 0.9314
-17.5924 -0.3633 -2.4932 0.9314
-17.4695 -2.1258 -2.4935 0.9314
-17.4237 -2.4763 -2.4936 0.9314
-17.3710 -2.8259 -2.4936 0.9314
-17.0905 -4.2116 -2.4940 0.9314
-17.0031 -4.5542 -2.4941 0.9314
-16.9088 -4.8950 -2.4942 0.9314
-16.8077 -5.2339 -2.4943 0.9314
-16.6999 -5.5707 -2.4944 0.9313
-16.4641 -6.2374 -2.4946 0.9313
-16.3362 -6.5672 -2.4947 0.9313
-16.2017 -6.8943 -2.4948 0.9313
-16.0607 -7.2187 -2.4949 0.9313
-15.9132 -7.5402 -2.4950 0.9313
-15.7593 -7.8587 -2.4952 0.9313
-15.5990 -8.1740 -2.4953 0.9313
-15.4325 -8.4861 -2.4954 0.9313
-15.0807 -9.1001 -2.4957 0.9313
-14.7046 -9.6995 -2.4959 0.9313
-14.5077 -9.9935 -2.4961 0.9313
-14.3048 -10.2834 -2.4962 0.9313
-14.0962 -10.5693 -2.4964 0.9313
-13.8727 -10.8438 -2.4949 0.9313
-13.6291 -11.1015 -2.4907 0.9314
-12.2009 -11.2260 -2.3492 0.9352
-11.9523 -11.4492 -2.3451 0.9353
-11.7207 -11.6877 -2.3453 0.9353
-10.9976 -12.3747 -2.3457 0.9353
-10.7475 -12.5940 -2.3459 0.9353
-10.4931 -12.8082 -2.3460 0.9353
-10.2344 -13.0172 -2.3462 0.9353
-9.9715 -13.2211 -2.3463 0.9353
-9.7046 -13.4196 -2.3465 0.9353
-9.4337 -13.6127 -2.3467 0.9353
-7.9076 -11.9148 -2.0262 0.9439
-8.8806 -13.9826 -2.3470 0.9353
-8.5985 -14.1591 -2.3472 0.9353
-8.0240 -14.4951 -2.3475 0.9353
-7.7318 -14.6544 -2.3476 0.9353
-7.4364 -14.8078 -2.3478 0.9352
-6.8366 -15.0967 -2.3481 0.9352
-4.0297 -9.9431 -1.5201 0.9576
-3.7062 -9.7002 -1.4713 0.9589
-3.4846 -9.7002 -1.4604 0.9592
-3.2834 -9.7513 -1.4579 0.9593
-2.8963 -9.2094 -1.3679 0.9617
-2.4743 -9.1346 -1.3409 0.9625
-2.2791 -9.1375 -1.3344 0.9627
-2.0861 -9.1421 -1.3286 0.9628
-1.8946 -9.1461 -1.3234 0.9630
-1.7043 -9.1491 -1.3186 0.9631
-1.5150 -9.1501 -1.3141 0.9632
-0.9543 -9.1587 -1.3047 0.9635
-0.7687 -9.1595 -1.3024 0.9635
-0.4084 -9.3715 -1.3291 0.9628
-0.0330 -9.7613 -1.3831 0.9613
0.9438 -16.5739 -2.3521 0.9351
1.2766 -16.5527 -2.3523 0.9351
1.9407 -16.4903 -2.3526 0.9351
2.2716 -16.4490 -2.3528 0.9351
2.8843 -16.0866 -2.3156 0.9361
2.4694 -10.1933 -1.4861 0.9585
2.7238 -9.5497 -1.4071 0.9607
2.8802 -9.3794 -1.3902 0.9611
3.2440 -9.2259 -1.3857 0.9613
3.4399 -9.1891 -1.3902 0.9611
3.6457 -9.1731 -1.3986 0.9609
3.8543 -9.1577 -1.4078 0.9607
4.0669 -9.1447 -1.4181 0.9604
4.2827 -9.1313 -1.4290 0.9601
4.5028 -9.1195 -1.4411 0.9597
4.7273 -9.1085 -1.4540 0.9594
4.9568 -9.0990 -1.4681 0.9590
5.1910 -9.0894 -1.4831 0.9586
6.1930 -9.0668 -1.5558 0.9566
9.9227 -13.3431 -2.3560 0.9350
10.1892 -13.1417 -2.3561 0.9350
10.7097 -12.7229 -2.3563 0.9350
11.2129 -12.2834 -2.3565 0.9350
11.9336 -11.5870 -2.3568 0.9350
12.1643 -11.3453 -2.3569 0.9350
12.5313 -11.2255 -2.3838 0.9343
13.0383 -11.2158 -2.4369 0.9329
13.4847 -10.6882 -2.4380 0.9328
12.8139 -9.3438 -2.2470 0.9379
13.7506 -9.2042 -2.3445 0.9353
15.6383 -8.3299 -2.5105 0.9309
15.8026 -8.0142 -2.5105 0.9309
16.1121 -7.3731 -2.5106 0.9309
16.2571 -7.0481 -2.5106 0.9309
16.6524 -6.0563 -2.5107 0.9309
17.1759 -4.3561 -2.5107 0.9309
15.1674 -1.3992 -2.5093 0.9401
15.1923 -1.0943 -2.5092 0.9401
15.2110 -0.7889 -2.5092 0.9401
15.2299 -0.1773 -2.5091 0.9401
15.1938 1.0456 -2.5089 0.9401
15.0594 2.2616 -2.5087 0.9401
15.0105 2.5635 -2.5086 0.9401
14.8946 3.1642 -2.5085 0.9401
14.8276 3.4626 -2.5084 0.9401
14.6756 4.0551 -2.5082 0.9401
14.5907 4.3489 -2.5082 0.9401
14.4999 4.6410 -2.5081 0.9401
14.3008 5.2192 -2.5079 0.9402
14.0786 5.7890 -2.5077 0.9402
13.9589 6.0703 -2.5076 0.9402
13.8336 6.3492 -2.5075 0.9402
13.4244 7.1700 -2.5072 0.9402
13.2606 7.4286 -2.5040 0.9402
11.7023 8.1978 -2.3538 0.9437
11.3625 8.6604 -2.3536 0.9437
11.1857 8.8864 -2.3535 0.9437
11.0044 9.1088 -2.3533 0.9437
10.8186 9.3276 -2.3532 0.9437
10.4341 9.7535 -2.3530 0.9437
10.0329 10.1637 -2.3527 0.9437
9.8262 10.3626 -2.3526 0.9438
9.6155 10.5572 -2.3524 0.9438
9.4010 10.7476 -2.3523 0.9438
9.1827 10.9337 -2.3522 0.9438
8.9607 11.1153 -2.3520 0.9438
8.2735 11.6328 -2.3516 0.9438
7.3114 12.2564 -2.3511 0.9438
7.0633 12.4001 -2.3509 0.9438
6.8124 12.5387 -2.3508 0.9438
4.1653 10.5150 -1.8632 0.9552
4.5615 12.2269 -2.1499 0.9485
3.8960 13.7176 -2.3492 0.9438
3.6194 13.7923 -2.3491 0.9438
3.0624 13.9257 -2.3489 0.9438
2.5007 14.0382 -2.3491 0.9438
2.2183 14.0858 -2.3491 0.9438
1.9349 14.1276 -2.3491 0.9438
1.6507 14.1636 -2.3491 0.9438
1.3659 14.1937 -2.3491 0.9438
0.7946 14.2363 -2.3489 0.9438
0.5085 14.2488 -2.3488 0.9438
-0.3505 14.2511 -2.3484 0.9438
-1.2079 14.2005 -2.3478 0.9439
-1.4927 14.1719 -2.3476 0.9439
-1.7769 14.1375 -2.3473 0.9439
-2.0603 14.0973 -2.3470 0.9439
-2.6241 13.9994 -2.3464 0.9439
-2.9044 13.9418 -2.3461 0.9439
-3.1833 13.8786 -2.3457 0.9439
-3.4613 13.8112 -2.3456 0.9439
-4.0128 13.6596 -2.3454 0.9439
-4.2862 13.5755 -2.3452 0.9439
-4.5577 13.4860 -2.3451 0.9439
-5.6244 13.0741 -2.3447 0.9439
-5.8856 12.9579 -2.3446 0.9439
-6.9054 12.4414 -2.3441 0.9439
-7.3989 12.1530 -2.3439 0.9440
-7.8805 11.8451 -2.3437 0.9440
-8.3492 11.5181 -2.3436 0.9440
-9.4604 10.6210 -2.3432 0.9440
-9.6715 10.4285 -2.3431 0.9440
-9.8787 10.2318 -2.3430 0.9440
-10.2811 9.8262 -2.3429 0.9440
-11.0355 8.9684 -2.3426 0.9440
-11.8779 7.8158 -2.3424 0.9440
-12.2625 7.7205 -2.3872 0.9429
-13.5562 6.7411 -2.4941 0.9405
-13.6888 6.4674 -2.4941 0.9405
-13.8158 6.1910 -2.4941 0.9405
-13.9373 5.9122 -2.4941 0.9405
-14.1633 5.3476 -2.4940 0.9405
-14.2678 5.0620 -2.4940 0.9405
-14.3666 4.7744 -2.4940 0.9405
-14.4596 4.4849 -2.4940 0.9405
-14.5467 4.1935 -2.4940 0.9405
-14.6280 3.9005 -2.4940 0.9405
-14.7035 3.6059 -2.4940 0.9405
-14.8366 3.0124 -2.4940 0.9405
-14.9914 2.1134 -2.4941 0.9405
-15.0310 1.8119 -2.4941 0.9405
-15.1379 0.2956 -2.4943 0.9405
-15.1410 -0.0085 -2.4943 0.9405
-15.1381 -0.3126 -2.4944 0.9405
-15.1139 -0.9204 -2.4945 0.9405
-15.0927 -1.2239 -2.4945 0.9405
-15.0321 -1.8292 -2.4946 0.9405
-14.9473 -2.4316 -2.4948 0.9405
-14.8957 -2.7315 -2.4948 0.9405
-14.7749 -3.3277 -2.4950 0.9405
-14.7056 -3.6239 -2.4951 0.9404
-14.6303 -3.9187 -2.4951 0.9404
-14.5491 -4.2119 -2.4952 0.9404
-14.3691 -4.7932 -2.4954 0.9404
-14.2705 -5.0810 -2.4955 0.9404
-13.9402 -5.9320 -2.4958 0.9404
-13.6918 -6.4876 -2.4960 0.9404
-13.5593 -6.7616 -2.4961 0.9404
-13.2779 -7.3014 -2.4963 0.9404
-12.9750 -7.8295 -2.4965 0.9404
-12.4817 -8.5979 -2.4969 0.9404
-12.3071 -8.8473 -2.4970 0.9404
-12.1275 -9.0932 -2.4971 0.9404
-11.9430 -9.3354 -2.4972 0.9404
-11.7537 -9.5739 -2.4974 0.9404
-11.5596 -9.8086 -2.4975 0.9404
-11.3608 -10.0393 -2.4976 0.9404
-11.1574 -10.2660 -2.4977 0.9404
-10.9496 -10.4886 -2.4979 0.9404
-10.2748 -11.1040 -2.4923 0.9405
-9.5661 -11.2096 -2.4277 0.9420
-9.1895 -11.2169 -2.3888 0.9429
-8.5778 -11.3732 -2.3468 0.9439
-7.6391 -12.0278 -2.3473 0.9439
-7.1507 -12.3264 -2.3476 0.9439
-6.1397 -12.8637 -2.3482 0.9439
-3.6509 -9.0083 -1.6013 0.9614
-3.4406 -9.0049 -1.5881 0.9617
-2.8319 -9.0048 -1.5551 0.9625
-2.6358 -9.0095 -1.5464 0.9627
-2.2484 -9.0144 -1.5305 0.9630
-1.4909 -9.0046 -1.5036 0.9637
-1.1214 -9.0036 -1.4947 0.9639
-0.9387 -9.0092 -1.4922 0.9639
-0.3935 -9.0283 -1.4887 0.9640
0.1527 -9.1377 -1.5055 0.9636
0.5251 -14.2651 -2.3516 0.9438
0.8116 -14.2525 -2.3517 0.9438
1.0978 -14.2341 -2.3519 0.9438
1.6688 -14.1802 -2.3522 0.9438
1.9534 -14.1446 -2.3523 0.9438
2.5202 -14.0563 -2.3525 0.9438
2.1926 -9.9175 -1.6733 0.9597
2.3048 -9.5141 -1.6127 0.9611
2.6022 -9.1231 -1.5629 0.9623
2.9669 -9.0124 -1.5631 0.9623
3.3812 -9.0323 -1.5888 0.9617
3.5875 -9.0267 -1.6002 0.9614
3.7975 -9.0227 -1.6127 0.9611
4.0110 -9.0190 -1.6261 0.9608
4.4533 -9.0192 -1.6571 0.9600
4.6817 -9.0208 -1.6743 0.9596
4.9142 -9.0208 -1.6923 0.9592
5.9119 -9.0399 -1.7794 0.9572
6.1781 -9.0450 -1.8045 0.9566
8.7600 -11.2983 -2.3552 0.9437
9.0703 -11.2254 -2.3775 0.9432
9.8286 -11.2111 -2.4562 0.9413
10.7045 -10.8197 -2.5073 0.9402
10.9248 -10.6075 -2.5085 0.9401
12.1229 -9.2184 -2.5089 0.9401
12.3058 -8.9733 -2.5090 0.9401
12.4838 -8.7244 -2.5090 0.9401
12.6568 -8.4721 -2.5091 0.9401
12.9873 -7.9572 -2.5092 0.9401
13.2968 -7.4293 -2.5092 0.9401
13.8509 -6.3383 -2.5093 0.9401
13.9755 -6.0589 -2.5094 0.9401
14.0945 -5.7770 -2.5094 0.9401
14.2078 -5.4928 -2.5094 0.9401
14.3153 -5.2063 -2.5094 0.9401
14.6029 -4.3347 -2.5094 0.9401
14.6871 -4.0405 -2.5094 0.9401
14.7652 -3.7447 -2.5094 0.9401
14.8374 -3.4473 -2.5094 0.9401
13.3104 -0.9587 -2.5083 0.9471
13.3268 -0.6912 -2.5083 0.9471
13.3378 -0.4233 -2.5082 0.9471
13.3434 -0.1553 -2.5082 0.9471
13.3385 0.3807 -2.5081 0.9471
13.3119 0.9161 -2.5080 0.9471
13.1943 1.9814 -2.5078 0.9471
13.0501 2.7723 -2.5076 0.9471
12.9914 3.0338 -2.5076 0.9471
12.9275 3.2941 -2.5075 0.9472
12.8584 3.5530 -2.5074 0.9472
12.7840 3.8104 -2.5074 0.9472
12.7045 4.0663 -2.5073 0.9472
12.6199 4.3205 -2.5072 0.9472
12.4354 4.8236 -2.5070 0.9472
12.2308 5.3188 -2.5069 0.9472
12.1210 5.5632 -2.5068 0.9472
11.6337 6.5172 -2.5064 0.9472
11.3616 6.9787 -2.5062 0.9472
10.8910 7.6295 -2.4994 0.9473
10.5406 7.7042 -2.4540 0.9482
10.1231 7.7157 -2.3924 0.9495
9.3135 8.3619 -2.3526 0.9503
9.1433 8.5469 -2.3525 0.9503
8.9693 8.7284 -2.3524 0.9503
8.6107 9.0808 -2.3522 0.9503
8.4262 9.2514 -2.3521 0.9503
8.2382 9.4183 -2.3519 0.9503
8.0470 9.5815 -2.3518 0.9503
7.6549 9.8959 -2.3516 0.9504
7.2505 10.1944 -2.3513 0.9504
7.0439 10.3374 -2.3512 0.9504
6.6223 10.6109 -2.3510 0.9504
6.4075 10.7412 -2.3509 0.9504
6.1901 10.8671 -2.3507 0.9504
5.5235 11.2185 -2.3504 0.9504
5.2125 11.1464 -2.3128 0.9512
4.4504 10.6074 -2.1622 0.9543
4.1574 10.4951 -2.1218 0.9551
3.8333 11.6884 -2.3121 0.9512
3.5975 11.7625 -2.3120 0.9512
3.3604 11.8317 -2.3118 0.9512
3.1219 11.8962 -2.3117 0.9512
2.8821 11.9558 -2.3116 0.9512
2.6839 12.2048 -2.3488 0.9504
2.4381 12.2556 -2.3487 0.9504
1.4462 12.4091 -2.3482 0.9504
1.1966 12.4349 -2.3481 0.9504
0.9466 12.4558 -2.3480 0.9504
0.6961 12.4717 -2.3478 0.9504
0.4455 12.4825 -2.3477 0.9504
0.1946 12.4882 -2.3476 0.9504
-0.0562 12.4890 -2.3475 0.9504
-0.3071 12.4847 -2.3473 0.9504
-2.0531 12.3141 -2.3465 0.9505
-2.2999 12.2698 -2.3464 0.9505
-2.5458 12.2205 -2.3463 0.9505
-2.7906 12.1663 -2.3462 0.9505
-3.0343 12.1072 -2.3461 0.9505
-3.2767 12.0433 -2.3460 0.9505
-3.5178 11.9745 -2.3458 0.9505
-3.7574 11.9009 -2.3457 0.9505
-3.9955 11.8225 -2.3456 0.9505
-4.2320 11.7393 -2.3455 0.9505
-4.4668 11.6514 -2.3454 0.9505
-4.6997 11.5589 -2.3453 0.9505
-4.9307 11.4616 -2.3452 0.9505
-5.3867 11.2534 -2.3450 0.9505
-5.8339 11.0271 -2.3449 0.9505
-6.0539 10.9073 -2.3448 0.9505
-6.2716 10.7831 -2.3447 0.9505
-6.4867 10.6546 -2.3446 0.9505
-6.9089 10.3847 -2.3444 0.9505
-7.5210 9.9488 -2.3442 0.9505
-7.7191 9.7954 -2.3441 0.9505
-7.9141 9.6381 -2.3440 0.9505
-8.1058 9.4768 -2.3440 0.9505
-8.2943 9.3118 -2.3439 0.9505
-8.8393 8.7947 -2.3437 0.9505
-9.0140 8.6151 -2.3437 0.9505
-9.1850 8.4321 -2.3436 0.9505
-9.3523 8.2458 -2.3435 0.9505
-9.9055 7.7249 -2.3611 0.9502
-11.2340 7.0729 -2.4952 0.9474
-11.3736 6.8457 -2.4952 0.9474
-12.0021 5.6705 -2.4950 0.9474
-12.1135 5.4282 -2.4950 0.9474
-12.3216 4.9372 -2.4950 0.9474
-12.5098 4.4383 -2.4950 0.9474
-12.5964 4.1861 -2.4950 0.9474
-12.6780 3.9323 -2.4950 0.9474
-13.0085 2.6413 -2.4950 0.9474
-13.0590 2.3794 -2.4950 0.9474
-13.1042 2.1167 -2.4950 0.9474
-13.1442 1.8530 -2.4950 0.9474
-13.1789 1.5887 -2.4950 0.9474
-13.2083 1.3236 -2.4951 0.9474
-13.2645 0.5257 -2.4952 0.9474
-13.2753 -0.0075 -2.4952 0.9474
-13.2727 -0.2741 -2.4953 0.9474
-13.2647 -0.5407 -2.4953 0.9474
-13.2328 -1.0731 -2.4954 0.9474
-13.2088 -1.3387 -2.4955 0.9474
-13.1795 -1.6037 -2.4955 0.9474
-13.1450 -1.8682 -2.4956 0.9474
-13.1051 -2.1319 -2.4956 0.9474
-13.0599 -2.3948 -2.4957 0.9474
-13.0095 -2.6567 -2.4957 0.9474
-12.9539 -2.9175 -2.4958 0.9474
-12.4197 -4.7052 -2.4963 0.9474
-12.2215 -5.2006 -2.4965 0.9474
-12.0036 -5.6877 -2.4967 0.9474
-11.7663 -6.1657 -2.4969 0.9474
-11.3750 -6.8639 -2.4971 0.9474
-10.7891 -7.7561 -2.4976 0.9474
-10.3038 -8.3929 -2.4979 0.9473
-10.1336 -8.5986 -2.4980 0.9473
-9.9592 -8.8008 -2.4981 0.9473
-9.7809 -8.9995 -2.4982 0.9473
-9.4124 -9.3860 -2.4985 0.9473
-9.2225 -9.5736 -2.4986 0.9473
-8.8313 -9.9372 -2.4988 0.9473
-8.0068 -10.6162 -2.4993 0.9473
-7.7911 -10.7736 -2.4990 0.9473
-7.5661 -10.9178 -2.4967 0.9474
-6.8039 -11.2039 -2.4638 0.9480
-3.4233 -8.9596 -1.8028 0.9617
-3.0172 -8.9609 -1.7772 0.9622
-2.8210 -8.9701 -1.7674 0.9625
-2.6293 -8.9874 -1.7601 0.9626
-2.2424 -8.9904 -1.7416 0.9630
-1.8641 -8.9989 -1.7273 0.9633
-1.6754 -8.9940 -1.7196 0.9634
-0.9364 -8.9873 -1.6984 0.9639
-0.2115 -9.0099 -1.6940 0.9640
0.1521 -9.1049 -1.7116 0.9636
0.7112 -12.4900 -2.3514 0.9504
0.9620 -12.4739 -2.3516 0.9504
1.2124 -12.4526 -2.3517 0.9504
1.7118 -12.3951 -2.3519 0.9503
2.2085 -12.3176 -2.3521 0.9503
2.4011 -9.1080 -1.7704 0.9624
2.5706 -9.0125 -1.7616 0.9626
2.8067 -9.1401 -1.7972 0.9618
3.2921 -9.3627 -1.8654 0.9604
4.4551 -9.0228 -1.8914 0.9599
4.6847 -9.0264 -1.9115 0.9595
4.9193 -9.0302 -1.9328 0.9590
5.1586 -9.0326 -1.9551 0.9585
5.3990 -9.0275 -1.9771 0.9581
5.9085 -9.0346 -2.0291 0.9570
7.9596 -10.7033 -2.5071 0.9472
8.1732 -10.5416 -2.5072 0.9472
8.3836 -10.3756 -2.5073 0.9472
8.5906 -10.2054 -2.5073 0.9472
9.1904 -9.6703 -2.5076 0.9471
9.5719 -9.2939 -2.5077 0.9471
10.2880 -8.4964 -2.5079 0.9471
10.4568 -8.2882 -2.5080 0.9471
10.6213 -8.0766 -2.5080 0.9471
10.9376 -7.6438 -2.5081 0.9471
11.0891 -7.4227 -2.5082 0.9471
11.3786 -6.9715 -2.5082 0.9471
11.5165 -6.7417 -2.5083 0.9471
11.7783 -6.2738 -2.5083 0.9471
12.2443 -5.3083 -2.5084 0.9471
12.3485 -5.0614 -2.5084 0.9471
12.5419 -4.5613 -2.5085 0.9471
12.6310 -4.3085 -2.5085 0.9471
12.7151 -4.0539 -2.5085 0.9471
12.7939 -3.7977 -2.5085 0.9471
12.8676 -3.5400 -2.5085 0.9471
12.9361 -3.2808 -2.5085 0.9471
12.9994 -3.0203 -2.5085 0.9471
11.7887 -1.3268 -2.5076 0.9527
11.8128 -1.0898 -2.5076 0.9527
11.8322 -0.8523 -2.5076 0.9527
11.8566 -0.3763 -2.5075 0.9527
11.8617 -0.1381 -2.5075 0.9527
11.8619 0.1002 -2.5075 0.9527
11.8479 0.5765 -2.5074 0.9527
11.8148 1.0519 -2.5073 0.9527
11.7626 1.5255 -2.5072 0.9527
11.7293 1.7615 -2.5071 0.9527
11.6913 1.9967 -2.5071 0.9527
11.6486 2.2310 -2.5070 0.9527
11.4309 3.1585 -2.5068 0.9527
11.3648 3.3874 -2.5067 0.9527
11.2942 3.6149 -2.5067 0.9527
11.2190 3.8409 -2.5066 0.9527
11.1392 4.0654 -2.5065 0.9527
11.0550 4.2882 -2.5065 0.9527
10.7757 4.9458 -2.5062 0.9527
10.6738 5.1610 -2.5061 0.9527
10.5677 5.3742 -2.5061 0.9527
10.2237 6.0003 -2.5058 0.9527
10.1008 6.2042 -2.5057 0.9527
9.9738 6.4056 -2.5056 0.9527
9.8427 6.6045 -2.5055 0.9527
9.4260 7.1844 -2.5052 0.9527
7.9744 7.7602 -2.3521 0.9555
7.8166 7.9185 -2.3520 0.9555
7.6557 8.0736 -2.3519 0.9555
7.4916 8.2254 -2.3517 0.9555
7.3246 8.3738 -2.3516 0.9555
7.1546 8.5189 -2.3515 0.9555
6.8060 8.7986 -2.3513 0.9555
6.2629 9.1913 -2.3510 0.9555
6.0768 9.3148 -2.3509 0.9555
5.6972 9.5505 -2.3507 0.9556
5.3085 9.7707 -2.3505 0.9556
4.9113 9.9750 -2.3502 0.9556
3.8757 10.3887 -2.3438 0.9557
3.6430 10.3980 -2.3289 0.9560
3.4185 10.4236 -2.3188 0.9561
3.1990 10.4592 -2.3120 0.9563
2.9881 10.5209 -2.3119 0.9563
2.6043 10.8032 -2.3490 0.9556
1.9486 10.9389 -2.3487 0.9556
1.7284 10.9753 -2.3485 0.9556
1.2861 11.0348 -2.3483 0.9556
1.0641 11.0579 -2.3482 0.9556
0.8417 11.0765 -2.3481 0.9556
0.6191 11.0907 -2.3480 0.9556
0.3961 11.1003 -2.3479 0.9556
0.1731 11.1055 -2.3478 0.9556
-0.2731 11.1025 -2.3476 0.9556
-0.9411 11.0644 -2.3472 0.9556
-1.3847 11.0167 -2.3470 0.9556
-1.8259 10.9512 -2.3468 0.9556
-2.2640 10.8681 -2.3466 0.9556
-2.6985 10.7675 -2.3464 0.9556
-2.9141 10.7107 -2.3463 0.9556
-3.1285 10.6496 -2.3462 0.9556
-3.3417 10.5842 -2.3461 0.9556
-3.5535 10.5145 -2.3460 0.9556
-3.7638 10.4406 -2.3460 0.9556
-3.9726 10.3625 -2.3459 0.9556
-4.3853 10.1938 -2.3457 0.9556
-5.1886 9.8075 -2.3453 0.9557
-5.3844 9.7010 -2.3453 0.9557
-5.5780 9.5905 -2.3452 0.9557
-5.9583 9.3581 -2.3450 0.9557
-6.3289 9.1107 -2.3449 0.9557
-6.6894 8.8486 -2.3448 0.9557
-7.8621 7.8224 -2.3443 0.9557
-8.4042 7.7153 -2.4115 0.9544
-8.7399 7.7058 -2.4630 0.9535
-9.3112 7.2614 -2.4959 0.9529
-9.5956 6.8818 -2.4960 0.9529
-10.1165 6.0890 -2.4959 0.9529
-10.2366 5.8845 -2.4959 0.9529
-11.2042 3.7234 -2.4957 0.9529
-11.4081 3.0419 -2.4957 0.9529
-11.6156 2.1164 -2.4957 0.9529
-11.7483 1.1773 -2.4958 0.9529
-11.7697 0.9411 -2.4958 0.9529
-11.7864 0.7045 -2.4959 0.9529
-11.7983 0.4676 -2.4959 0.9529
-11.8055 -0.2438 -2.4960 0.9529
-11.7866 -0.7178 -2.4961 0.9529
-11.7486 -1.1907 -2.4961 0.9529
-11.7226 -1.4264 -2.4962 0.9529
-11.6918 -1.6617 -2.4962 0.9529
-11.6563 -1.8962 -2.4963 0.9529
-11.4675 -2.8259 -2.4965 0.9529
-11.4087 -3.0558 -2.4966 0.9529
-11.2774 -3.5117 -2.4967 0.9529
-11.2048 -3.7377 -2.4968 0.9529
-11.1278 -3.9621 -2.4968 0.9529
-10.9603 -4.4061 -2.4970 0.9529
-10.8700 -4.6255 -2.4971 0.9529
-10.6761 -5.0587 -2.4972 0.9528
-10.5727 -5.2723 -2.4973 0.9528
-10.4650 -5.4837 -2.4974 0.9528
-10.3531 -5.6930 -2.4975 0.9528
-10.2370 -5.9000 -2.4976 0.9528
-9.9924 -6.3069 -2.4977 0.9528
-9.8641 -6.5066 -2.4978 0.9528
-9.7318 -6.7037 -2.4979 0.9528
-9.5955 -6.8980 -2.4980 0.9528
-9.4554 -7.0897 -2.4981 0.9528
-8.3708 -8.3473 -2.4988 0.9528
-8.0295 -8.6775 -2.4990 0.9528
-7.8539 -8.8374 -2.4991 0.9528
-7.6752 -8.9938 -2.4993 0.9528
-7.3084 -9.2956 -2.4995 0.9528
-7.1205 -9.4410 -2.4996 0.9528
-6.5399 -9.8540 -2.4999 0.9528
-5.9353 -10.2314 -2.5003 0.9528
-5.7289 -10.3491 -2.5004 0.9528
-5.5201 -10.4625 -2.5005 0.9528
-3.8453 -8.9662 -2.0622 0.9609
-2.8183 -8.9613 -1.9857 0.9623
-2.6276 -8.9815 -1.9781 0.9625
-2.2408 -8.9838 -1.9572 0.9629
-1.8620 -8.9887 -1.9404 0.9632
-1.4869 -8.9801 -1.9241 0.9635
-1.3017 -8.9775 -1.9175 0.9636
-0.9682 -9.2919 -1.9748 0.9625
-0.3935 -9.0276 -1.9101 0.9637
-0.2108 -8.9822 -1.8992 0.9639
-0.0305 -9.0167 -1.9060 0.9638
0.3435 -9.3325 -1.9740 0.9625
0.6391 -11.2227 -2.3761 0.9551
0.8655 -11.2222 -2.3792 0.9550
1.0926 -11.2216 -2.3832 0.9550
1.5495 -11.2197 -2.3941 0.9547
1.7796 -11.2185 -2.4010 0.9546
2.2486 -9.2821 -2.0188 0.9617
2.3875 -9.0564 -1.9797 0.9624
2.7706 -9.0224 -1.9951 0.9621
3.1677 -9.0091 -2.0186 0.9617
3.3745 -9.0143 -2.0346 0.9614
3.7977 -9.0232 -2.0694 0.9608
4.6837 -9.0245 -2.1492 0.9593
5.1502 -9.0180 -2.1952 0.9584
5.3971 -9.0243 -2.2227 0.9579
6.1672 -9.0290 -2.3113 0.9563
7.0760 -9.5151 -2.5065 0.9527
7.8178 -8.9175 -2.5068 0.9527
7.9955 -8.7589 -2.5068 0.9527
8.1701 -8.5967 -2.5069 0.9527
8.3413 -8.4310 -2.5070 0.9527
8.6736 -8.0896 -2.5071 0.9527
8.8345 -7.9139 -2.5071 0.9527
8.9919 -7.7350 -2.5072 0.9527
9.1456 -7.5530 -2.5072 0.9527
9.2957 -7.3679 -2.5073 0.9527
9.9884 -6.3992 -2.5075 0.9527
10.2376 -5.9930 -2.5075 0.9527
10.3560 -5.7862 -2.5076 0.9527
10.8845 -4.7188 -2.5077 0.9527
10.9771 -4.4993 -2.5077 0.9527
11.1490 -4.0548 -2.5077 0.9527
11.3029 -3.6037 -2.5077 0.9527
11.4386 -3.1468 -2.5077 0.9527
11.5557 -2.6849 -2.5077 0.9527
10.6002 -1.1931 -2.5070 0.9571
10.6219 -0.9799 -2.5070 0.9571
10.6394 -0.7663 -2.5070 0.9571
10.6614 -0.3384 -2.5069 0.9571
10.6659 -0.1242 -2.5069 0.9571
10.6238 0.9458 -2.5067 0.9571
10.6025 1.1590 -2.5067 0.9571
10.5769 1.3718 -2.5066 0.9571
10.4745 2.0062 -2.5065 0.9571
10.4319 2.2161 -2.5064 0.9571
10.3340 2.6332 -2.5063 0.9571
10.2194 3.0460 -2.5062 0.9571
10.1560 3.2506 -2.5062 0.9571
10.0884 3.4538 -2.5061 0.9571
9.9410 3.8561 -2.5060 0.9571
9.7776 4.2520 -2.5058 0.9571
9.5029 4.8327 -2.5056 0.9571
9.3006 5.2102 -2.5055 0.9571
9.1937 5.3958 -2.5054 0.9571
9.0832 5.5792 -2.5053 0.9571
8.8512 5.9391 -2.5051 0.9571
8.6049 6.2894 -2.5050 0.9571
8.3448 6.6295 -2.5048 0.9572
8.2097 6.7955 -2.5047 0.9572
7.9295 7.1193 -2.5045 0.9572
7.6275 7.4226 -2.5014 0.9572
7.2991 7.6975 -2.4931 0.9573
7.0183 7.7056 -2.4496 0.9581
6.7468 7.7133 -2.4084 0.9588
6.4841 7.7205 -2.3695 0.9594
6.2788 7.7885 -2.3512 0.9597
5.7976 8.1516 -2.3509 0.9597
5.6325 8.2660 -2.3508 0.9597
5.2955 8.4849 -2.3506 0.9597
5.1238 8.5892 -2.3505 0.9597
4.9500 8.6900 -2.3504 0.9597
4.7742 8.7873 -2.3503 0.9597
4.4171 8.9712 -2.3501 0.9597
3.6821 9.2952 -2.3497 0.9598
3.1152 9.4988 -2.3494 0.9598
2.9236 9.5591 -2.3493 0.9598
2.5371 9.6679 -2.3491 0.9598
1.7526 9.8387 -2.3487 0.9598
1.5546 9.8715 -2.3486 0.9598
0.9571 9.9459 -2.3483 0.9598
0.7571 9.9627 -2.3482 0.9598
0.3563 9.9843 -2.3480 0.9598
0.1557 9.9890 -2.3479 0.9598
-0.0450 9.9897 -2.3478 0.9598
-0.2456 9.9863 -2.3477 0.9598
-0.4462 9.9790 -2.3476 0.9598
-0.6465 9.9676 -2.3475 0.9598
-1.0462 9.9328 -2.3473 0.9598
-1.2455 9.9094 -2.3473 0.9598
-1.4442 9.8820 -2.3472 0.9598
-1.6424 9.8506 -2.3471 0.9598
-2.0365 9.7759 -2.3469 0.9598
-2.2324 9.7327 -2.3468 0.9598
-2.4273 9.6855 -2.3467 0.9598
-2.6213 9.6344 -2.3466 0.9598
-2.8142 9.5795 -2.3465 0.9598
-3.0059 9.5207 -2.3465 0.9598
-3.3857 9.3916 -2.3463 0.9598
-3.5735 9.3214 -2.3462 0.9598
-3.7599 9.2474 -2.3461 0.9598
-4.1280 9.0883 -2.3460 0.9598
-4.3096 9.0033 -2.3459 0.9598
-4.6674 8.8223 -2.3457 0.9598
-4.8435 8.7265 -2.3457 0.9598
-5.3598 8.4183 -2.3455 0.9598
-6.0176 7.9600 -2.3452 0.9598
-6.1761 7.8373 -2.3452 0.9598
-6.3459 7.7283 -2.3502 0.9597
-6.6027 7.7195 -2.3874 0.9591
-7.8261 7.1846 -2.4968 0.9573
-7.9687 7.0258 -2.4968 0.9573
-8.1080 6.8642 -2.4968 0.9573
-8.3769 6.5328 -2.4967 0.9573
-8.5063 6.3631 -2.4966 0.9573
-8.6323 6.1909 -2.4966 0.9573
-8.7548 6.0162 -2.4966 0.9573
-8.8737 5.8390 -2.4965 0.9573
-9.3134 5.1077 -2.4964 0.9573
-9.5108 4.7294 -2.4964 0.9573
-10.0795 3.3497 -2.4963 0.9573
-10.1447 3.1465 -2.4963 0.9573
-10.2629 2.7365 -2.4963 0.9573
-10.3158 2.5299 -2.4963 0.9573
-10.3646 2.3221 -2.4963 0.9573
-10.4496 1.9040 -2.4963 0.9573
-10.5178 1.4828 -2.4964 0.9573
-10.6203 0.2074 -2.4965 0.9573
-10.6032 -0.6458 -2.4966 0.9573
-10.5883 -0.8586 -2.4967 0.9573
-10.5456 -1.2832 -2.4967 0.9573
-10.3648 -2.3344 -2.4970 0.9573
-10.3160 -2.5422 -2.4970 0.9573
-10.2631 -2.7489 -2.4971 0.9573
-10.1449 -3.1591 -2.4972 0.9573
-9.9370 -3.7646 -2.4974 0.9573
-9.8596 -3.9636 -2.4975 0.9573
-9.6930 -4.3566 -2.4976 0.9573
-9.6038 -4.5506 -2.4977 0.9573
-9.4138 -4.9329 -2.4978 0.9573
-9.2087 -5.3074 -2.4980 0.9573
-9.1005 -5.4915 -2.4981 0.9573
-8.8732 -5.8529 -2.4982 0.9573
-8.7541 -6.0302 -2.4983 0.9573
-8.3759 -6.5471 -2.4986 0.9573
