ply
format ascii 1.0
element vertex 1590
property float32 x
property float32 y
property float32 z
property float32 I
end_header
9.9886 -11.5023 -2.5096 0.9401
10.2182 -11.2995 -2.5097 0.9401
10.4437 -11.0920 -2.5098 0.9401
10.6649 -10.8799 -2.5098 0.9401
10.8819 -10.6635 -2.5099 0.9401
12.0880 -9.2770 -2.5102 0.9401
12.2724 -9.0321 -2.5103 0.9401
12.7952 -8.2759 -2.5104 0.9401
13.4194 -7.2210 -2.5104 0.9401
13.5619 -6.9496 -2.5104 0.9401
13.6990 -6.6755 -2.5104 0.9401
13.9564 -6.1191 -2.5104 0.9401
14.0766 -5.8372 -2.5104 0.9401
14.1912 -5.5529 -2.5104 0.9401
14.4999 -4.6869 -2.5104 0.9401
14.5911 -4.3942 -2.5104 0.9401
14.6764 -4.0998 -2.5103 0.9401
14.7557 -3.8038 -2.5103 0.9401
14.8291 -3.5062 -2.5103 0.9401
14.8964 -3.2072 -2.5102 0.9401
14.9576 -2.9069 -2.5102 0.9401
15.0128 -2.6054 -2.5102 0.9401
15.0619 -2.3029 -2.5101 0.9401
15.1417 -1.6952 -2.5100 0.9401
15.1724 -1.3903 -2.5100 0.9401
15.2334 -0.1663 -2.5097 0.9401
15.2143 0.7526 -2.5095 0.9401
15.1956 1.0584 -2.5094 0.9401
15.1396 1.6686 -2.5092 0.9401
15.0591 2.2759 -2.5090 0.9401
14.9542 2.8795 -2.5088 0.9401
14.8927 3.1796 -2.5087 0.9401
14.8251 3.4783 -2.5086 0.9401
14.7514 3.7756 -2.5085 0.9401
14.6718 4.0713 -2.5084 0.9401
14.5863 4.3654 -2.5082 0.9401
14.3976 4.9480 -2.5080 0.9401
14.2944 5.2364 -2.5079 0.9402
14.0655 5.8042 -2.5067 0.9402
13.9242 6.0765 -2.5028 0.9403
13.2845 6.4452 -2.4325 0.9419
12.5959 6.7499 -2.3542 0.9437
12.4569 7.0015 -2.3541 0.9437
12.3128 7.2502 -2.3539 0.9437
12.1638 7.4960 -2.3538 0.9437
11.6874 8.2144 -2.3534 0.9437
11.5192 8.4473 -2.3532 0.9437
11.3462 8.6767 -2.3531 0.9437
11.1687 8.9026 -2.3529 0.9437
10.6094 9.5581 -2.3525 0.9438
10.2151 9.9757 -2.3522 0.9438
10.0117 10.1785 -2.3520 0.9438
9.5930 10.5714 -2.3517 0.9438
9.1588 10.9472 -2.3514 0.9438
8.9361 11.1284 -2.3512 0.9438
8.7099 11.3051 -2.3510 0.9438
8.2470 11.6446 -2.3507 0.9438
8.0106 11.8073 -2.3505 0.9438
7.7709 11.9652 -2.3504 0.9438
7.5282 12.1182 -2.3502 0.9438
7.2824 12.2663 -2.3500 0.9438
7.0337 12.4094 -2.3499 0.9438
6.7822 12.5475 -2.3497 0.9438
4.9518 13.3684 -2.3485 0.9438
4.6815 13.4644 -2.3484 0.9438
4.1357 13.6398 -2.3480 0.9439
3.8602 13.7192 -2.3479 0.9439
2.0571 8.6278 -1.4612 0.9647
3.0252 13.9241 -2.3474 0.9439
2.4620 14.0301 -2.3466 0.9439
2.1793 14.0769 -2.3466 0.9439
1.6113 14.1526 -2.3466 0.9439
1.0408 14.2055 -2.3465 0.9439
0.4686 14.2349 -2.3463 0.9439
-0.1042 14.2409 -2.3461 0.9439
-0.3906 14.2351 -2.3460 0.9439
-0.9627 14.2059 -2.3456 0.9439
-1.5330 14.1535 -2.3453 0.9439
-2.1006 14.0778 -2.3448 0.9439
-2.3831 14.0312 -2.3446 0.9439
-2.9449 13.9216 -2.3442 0.9439
-3.2241 13.8587 -2.3440 0.9439
-3.5020 13.7903 -2.3439 0.9440
-4.0534 13.6368 -2.3437 0.9440
-4.8676 13.3654 -2.3433 0.9440
-11.6849 -6.3183 -2.4968 0.9474
-11.2843 -7.0126 -2.4972 0.9474
-11.1416 -7.2385 -2.4973 0.9474
-10.9943 -7.4616 -2.4975 0.9474
-10.8426 -7.6816 -2.4976 0.9474
-10.3613 -8.3228 -2.4980 0.9473
-10.1924 -8.5300 -2.4982 0.9473
-10.0194 -8.7338 -2.4983 0.9473
-9.8422 -8.9341 -2.4984 0.9473
-9.6611 -9.1308 -2.4986 0.9473
-9.4761 -9.3238 -2.4987 0.9473
-9.0945 -9.6985 -2.4990 0.9473
-8.8981 -9.8800 -2.4992 0.9473
-8.0772 -10.5657 -2.4998 0.9473
-7.8635 -10.7267 -2.4999 0.9473
-7.6467 -10.8834 -2.5001 0.9473
-7.4267 -11.0357 -2.5002 0.9473
-7.2000 -11.1777 -2.4991 0.9473
-6.9670 -11.3095 -2.4967 0.9474
-6.4591 -11.4960 -2.4785 0.9477
-5.2581 -11.4215 -2.3634 0.9501
-4.9972 -11.4561 -2.3492 0.9504
-4.7661 -11.5550 -2.3494 0.9504
-4.2981 -11.7388 -2.3497 0.9504
-3.5830 -11.9789 -2.3501 0.9504
-3.0987 -12.1148 -2.3504 0.9504
-2.1156 -12.3276 -2.3510 0.9504
-1.3685 -12.4350 -2.3514 0.9504
-0.6162 -12.4971 -2.3518 0.9503
-0.1131 -12.5133 -2.3521 0.9503
0.1386 -12.5137 -2.3522 0.9503
0.3903 -12.5091 -2.3524 0.9503
1.3947 -12.4400 -2.3529 0.9503
2.1427 -12.3352 -2.3533 0.9503
2.3905 -12.2903 -2.3534 0.9503
3.8539 -11.9166 -2.3541 0.9503
4.0930 -11.8372 -2.3542 0.9503
5.4897 -11.2612 -2.3548 0.9503
6.7706 -11.4490 -2.5001 0.9473
7.0084 -11.3249 -2.5033 0.9472
7.2436 -11.1953 -2.5063 0.9472
7.6939 -10.9034 -2.5083 0.9471
7.9119 -10.7467 -2.5083 0.9471
8.1267 -10.5858 -2.5084 0.9471
8.5463 -10.2509 -2.5086 0.9471
9.5335 -9.3422 -2.5089 0.9471
9.7197 -9.1488 -2.5089 0.9471
10.2543 -8.5464 -2.5091 0.9471
10.4243 -8.3386 -2.5091 0.9471
10.7515 -7.9128 -2.5092 0.9471
10.9087 -7.6951 -2.5092 0.9471
11.0613 -7.4742 -2.5092 0.9471
11.2095 -7.2503 -2.5093 0.9471
11.3532 -7.0234 -2.5093 0.9471
11.4922 -6.7937 -2.5093 0.9471
11.6266 -6.5612 -2.5093 0.9471
11.8812 -6.0884 -2.5093 0.9471
12.0013 -5.8482 -2.5093 0.9471
12.1165 -5.6056 -2.5093 0.9471
12.3321 -5.1138 -2.5093 0.9471
12.5277 -4.6136 -2.5093 0.9471
12.6179 -4.3607 -2.5093 0.9471
12.9271 -3.3324 -2.5092 0.9471
13.0504 -2.8097 -2.5092 0.9471
13.1954 -2.0175 -2.5091 0.9471
13.2331 -1.7517 -2.5090 0.9471
13.2654 -1.4851 -2.5090 0.9471
13.2923 -1.2180 -2.5089 0.9471
13.3139 -0.9504 -2.5089 0.9471
13.3407 -0.4141 -2.5087 0.9471
13.3404 0.3911 -2.5085 0.9471
13.3131 0.9273 -2.5084 0.9471
13.2913 1.1948 -2.5083 0.9471
13.2317 1.7283 -2.5082 0.9471
13.1938 1.9940 -2.5081 0.9471
13.1020 2.5228 -2.5079 0.9471
12.9890 3.0475 -2.5077 0.9471
12.8549 3.5671 -2.5075 0.9472
12.6148 4.3353 -2.5072 0.9472
12.1130 5.5787 -2.5066 0.9472
11.8777 6.0608 -2.5064 0.9472
11.7528 6.2981 -2.5063 0.9472
11.4633 6.7500 -2.5004 0.9473
11.2368 6.9247 -2.4809 0.9477
10.2412 7.1979 -2.3528 0.9503
10.0939 7.4021 -2.3527 0.9503
9.9424 7.6031 -2.3526 0.9503
9.4642 8.1875 -2.3522 0.9503
9.2971 8.3757 -2.3521 0.9503
9.1262 8.5605 -2.3519 0.9503
8.4067 9.2641 -2.3514 0.9504
8.2182 9.4308 -2.3512 0.9504
6.3824 10.7503 -2.3499 0.9504
6.1645 10.8759 -2.3498 0.9504
5.9441 10.9970 -2.3496 0.9504
5.4964 11.2257 -2.3493 0.9504
5.2691 11.3333 -2.3492 0.9504
5.0398 11.4363 -2.3490 0.9504
4.3401 11.7172 -2.3486 0.9504
4.1033 11.8014 -2.3485 0.9504
3.8649 11.8808 -2.3483 0.9504
1.9105 12.3405 -2.3472 0.9504
1.6618 12.3756 -2.3470 0.9504
1.1626 12.4310 -2.3467 0.9505
0.9123 12.4511 -2.3466 0.9505
0.6616 12.4662 -2.3465 0.9505
-0.0914 12.4813 -2.3461 0.9505
-0.3424 12.4762 -2.3459 0.9505
-0.8438 12.4509 -2.3457 0.9505
-1.0939 12.4308 -2.3455 0.9505
-1.3437 12.4056 -2.3454 0.9505
-1.5928 12.3754 -2.3453 0.9505
-1.8413 12.3402 -2.3452 0.9505
-2.0890 12.3000 -2.3450 0.9505
-2.3359 12.2549 -2.3449 0.9505
-3.0702 12.0899 -2.3446 0.9505
-3.7932 11.8811 -2.3442 0.9505
-4.0312 11.8018 -2.3441 0.9505
-4.2676 11.7178 -2.3440 0.9505
-10.5029 -5.4091 -2.4972 0.9528
-10.2778 -5.8277 -2.4975 0.9528
-10.1590 -6.0335 -2.4976 0.9528
-10.0360 -6.2369 -2.4977 0.9528
-9.6430 -6.8317 -2.4980 0.9528
-9.3614 -7.2147 -2.4983 0.9528
-9.2148 -7.4019 -2.4984 0.9528
-9.0645 -7.5861 -2.4985 0.9528
-8.9106 -7.7673 -2.4987 0.9528
-8.4272 -8.2918 -2.4990 0.9528
-8.0878 -8.6249 -2.4993 0.9528
-7.5541 -9.0984 -2.4997 0.9528
-7.3700 -9.2490 -2.4998 0.9528
-7.1829 -9.3959 -2.5000 0.9528
-6.9928 -9.5390 -2.5001 0.9528
-6.6043 -9.8136 -2.5004 0.9528
-6.4059 -9.9450 -2.5005 0.9528
-6.2049 -10.0723 -2.5007 0.9528
-6.0014 -10.1957 -2.5008 0.9528
-5.3765 -10.5408 -2.5012 0.9528
-5.1637 -10.6474 -2.5014 0.9528
-4.5114 -10.9375 -2.5009 0.9528
-4.0630 -11.0967 -2.4979 0.9528
-3.8368 -11.1698 -2.4965 0.9529
-2.6256 -11.1986 -2.4314 0.9541
-1.9133 -11.1492 -2.3912 0.9548
0.3470 -11.1215 -2.3520 0.9555
1.0172 -11.0820 -2.3524 0.9555
1.2399 -11.0598 -2.3525 0.9555
1.4622 -11.0332 -2.3526 0.9555
1.6839 -11.0020 -2.3527 0.9555
1.9061 -10.9732 -2.3542 0.9555
2.1334 -10.9683 -2.3619 0.9553
3.3176 -11.0098 -2.4306 0.9541
3.5652 -11.0238 -2.4490 0.9537
4.0743 -11.0578 -2.4910 0.9530
4.3114 -11.0133 -2.5000 0.9528
4.5354 -10.9325 -2.5019 0.9528
4.7580 -10.8474 -2.5038 0.9527
5.1968 -10.6604 -2.5069 0.9527
5.4104 -10.5540 -2.5070 0.9527
5.8308 -10.3286 -2.5071 0.9527
6.0376 -10.2096 -2.5072 0.9527
6.4437 -9.9591 -2.5074 0.9527
6.8394 -9.6925 -2.5075 0.9527
7.0332 -9.5532 -2.5076 0.9527
7.2241 -9.4101 -2.5077 0.9527
7.4121 -9.2631 -2.5077 0.9527
7.7790 -8.9579 -2.5078 0.9527
8.4745 -8.3045 -2.5081 0.9526
8.8020 -7.9572 -2.5081 0.9526
8.9604 -7.7787 -2.5082 0.9526
9.2663 -7.4122 -2.5083 0.9526
9.4136 -7.2245 -2.5083 0.9526
9.5571 -7.0338 -2.5083 0.9526
9.8325 -6.6438 -2.5084 0.9526
9.9642 -6.4448 -2.5084 0.9526
10.0919 -6.2431 -2.5084 0.9526
10.2155 -6.0389 -2.5084 0.9526
10.5612 -5.4120 -2.5085 0.9526
10.6679 -5.1985 -2.5085 0.9526
10.8684 -4.7652 -2.5085 0.9526
10.9620 -4.5456 -2.5085 0.9526
11.0512 -4.3242 -2.5085 0.9526
11.1359 -4.1011 -2.5085 0.9526
11.2917 -3.6499 -2.5084 0.9526
11.4292 -3.1927 -2.5084 0.9526
11.7631 -1.5571 -2.5082 0.9526
11.7919 -1.3201 -2.5081 0.9526
11.8158 -1.0827 -2.5081 0.9526
11.8636 -0.1295 -2.5079 0.9527
11.8636 0.1091 -2.5078 0.9527
11.8490 0.5861 -2.5077 0.9527
11.8345 0.8243 -2.5076 0.9527
11.8152 1.0621 -2.5076 0.9527
11.7623 1.5364 -2.5074 0.9527
11.7286 1.7726 -2.5073 0.9527
11.5467 2.7091 -2.5070 0.9527
11.4895 2.9407 -2.5069 0.9527
11.4276 3.1711 -2.5069 0.9527
11.3611 3.4002 -2.5068 0.9527
11.2900 3.6279 -2.5067 0.9527
11.2144 3.8541 -2.5066 0.9527
11.1341 4.0787 -2.5065 0.9527
11.0494 4.3016 -2.5064 0.9527
10.6662 5.1749 -2.5060 0.9527
10.5595 5.3881 -2.5058 0.9527
10.4485 5.5992 -2.5057 0.9527
10.2139 6.0143 -2.5055 0.9527
10.0904 6.2183 -2.5054 0.9527
9.9629 6.4196 -2.5053 0.9527
9.8313 6.6184 -2.5052 0.9527
9.1840 7.3206 -2.4826 0.9531
8.8853 7.3796 -2.4415 0.9539
7.9589 7.7724 -2.3515 0.9555
7.4745 8.2369 -2.3511 0.9555
6.4264 9.0739 -2.3504 0.9556
6.0556 9.3240 -2.3501 0.9556
5.8665 9.4434 -2.3500 0.9556
5.4813 9.6706 -2.3497 0.9556
5.0874 9.8821 -2.3494 0.9556
4.8874 9.9819 -2.3493 0.9556
4.6853 10.0776 -2.3492 0.9556
4.0684 10.3401 -2.3488 0.9556
2.2153 8.5276 -1.8624 0.9646
2.3581 10.8536 -2.3478 0.9556
2.1392 10.8982 -2.3476 0.9556
1.9195 10.9385 -2.3475 0.9556
1.6990 10.9742 -2.3474 0.9556
1.2561 11.0325 -2.3471 0.9556
0.8113 11.0730 -2.3469 0.9556
0.5884 11.0865 -2.3468 0.9556
0.3653 11.0955 -2.3466 0.9556
0.1420 11.1000 -2.3465 0.9556
-0.0813 11.1001 -2.3464 0.9556
-0.7504 11.0733 -2.3460 0.9556
-0.9729 11.0554 -2.3459 0.9556
-1.4166 11.0063 -2.3457 0.9556
-1.8579 10.9394 -2.3455 0.9556
-2.2962 10.8548 -2.3453 0.9557
-2.5139 10.8060 -2.3452 0.9557
-2.7307 10.7528 -2.3451 0.9557
-2.9462 10.6952 -2.3450 0.9557
-3.3737 10.5672 -2.3448 0.9557
-3.5854 10.4968 -2.3447 0.9557
-3.7957 10.4221 -2.3446 0.9557
-4.0044 10.3432 -2.3445 0.9557
-9.5436 -4.6746 -2.4976 0.9573
-9.3486 -5.0550 -2.4978 0.9573
-9.2454 -5.2422 -2.4979 0.9573
-8.9135 -5.7910 -2.4982 0.9573
-8.7956 -5.9693 -2.4983 0.9573
-8.5492 -6.3188 -2.4985 0.9573
-8.4207 -6.4898 -2.4986 0.9573
-8.1536 -6.8238 -2.4988 0.9573
-7.5802 -7.4584 -2.4993 0.9572
-7.4290 -7.6097 -2.4994 0.9572
-7.1176 -7.9031 -2.4996 0.9572
-6.9576 -8.0450 -2.4998 0.9572
-6.6290 -8.3191 -2.5000 0.9572
-6.4607 -8.4512 -2.5001 0.9572
-6.1162 -8.7050 -2.5004 0.9572
-5.9402 -8.8267 -2.5005 0.9572
-5.5809 -9.0594 -2.5007 0.9572
-5.0252 -9.3809 -2.5011 0.9572
-4.8357 -9.4805 -2.5012 0.9572
-4.6443 -9.5763 -2.5014 0.9572
-4.2558 -9.7564 -2.5016 0.9572
-4.0589 -9.8405 -2.5017 0.9572
-3.2556 -10.1369 -2.5022 0.9572
-2.8455 -10.2606 -2.5025 0.9572
-2.4308 -10.3678 -2.5027 0.9572
-1.5900 -10.5317 -2.5032 0.9572
-1.3779 -10.5620 -2.5034 0.9572
-1.1653 -10.5881 -2.5035 0.9572
-0.7383 -10.6246 -2.5030 0.9572
0.3320 -10.6413 -2.5022 0.9572
0.5460 -10.6330 -2.5023 0.9572
0.7598 -10.6208 -2.5025 0.9572
0.9734 -10.6046 -2.5028 0.9572
1.8240 -10.5008 -2.5049 0.9572
2.2452 -10.4204 -2.5052 0.9571
2.4544 -10.3736 -2.5053 0.9571
2.6627 -10.3225 -2.5054 0.9571
2.8699 -10.2673 -2.5055 0.9571
3.0759 -10.2079 -2.5056 0.9571
3.4842 -10.0767 -2.5058 0.9571
3.8870 -9.9291 -2.5060 0.9571
4.0860 -9.8493 -2.5061 0.9571
4.2834 -9.7654 -2.5062 0.9571
4.4791 -9.6776 -2.5063 0.9571
4.8650 -9.4903 -2.5064 0.9571
5.0551 -9.3908 -2.5065 0.9571
5.4290 -9.1804 -2.5066 0.9571
5.7941 -8.9551 -2.5068 0.9571
5.9732 -8.8370 -2.5069 0.9571
6.8311 -8.1936 -2.5072 0.9571
7.1554 -7.9126 -2.5073 0.9571
7.3133 -7.7672 -2.5073 0.9571
7.6200 -7.4671 -2.5074 0.9571
7.9144 -7.1548 -2.5075 0.9571
8.0568 -6.9943 -2.5075 0.9571
8.4643 -6.4960 -2.5076 0.9571
8.5933 -6.3245 -2.5076 0.9571
8.7189 -6.1504 -2.5077 0.9571
9.0741 -5.6135 -2.5077 0.9571
9.1853 -5.4299 -2.5077 0.9571
9.2927 -5.2441 -2.5078 0.9571
9.4961 -4.8662 -2.5078 0.9571
10.1530 -3.2818 -2.5077 0.9571
10.2168 -3.0769 -2.5077 0.9571
10.2766 -2.8707 -2.5077 0.9571
10.3322 -2.6635 -2.5077 0.9571
10.3835 -2.4551 -2.5077 0.9571
10.5124 -1.8244 -2.5076 0.9571
10.5468 -1.6125 -2.5075 0.9571
10.5769 -1.4000 -2.5075 0.9571
10.6630 0.3126 -2.5071 0.9571
10.6544 0.5270 -2.5071 0.9571
10.6413 0.7412 -2.5070 0.9571
10.6240 0.9550 -2.5070 0.9571
10.6024 1.1685 -2.5069 0.9571
10.5765 1.3815 -2.5068 0.9571
10.4730 2.0166 -2.5066 0.9571
10.4301 2.2268 -2.5065 0.9571
10.2161 3.0575 -2.5062 0.9571
9.8557 4.0670 -2.5058 0.9571
9.7716 4.2643 -2.5057 0.9571
8.8410 5.9517 -2.5048 0.9572
8.5937 6.3019 -2.5046 0.9572
7.9122 7.1281 -2.5029 0.9572
7.7601 7.2791 -2.5006 0.9572
7.1980 7.6185 -2.4633 0.9578
6.9472 7.6558 -2.4297 0.9584
6.6992 7.6877 -2.3966 0.9590
6.4576 7.7186 -2.3652 0.9595
6.2621 7.7984 -2.3506 0.9597
6.1037 7.9224 -2.3505 0.9597
5.6140 8.2748 -2.3501 0.9597
5.1040 8.5971 -2.3498 0.9598
4.9298 8.6975 -2.3496 0.9598
4.0306 9.1463 -2.3491 0.9598
3.0912 9.5024 -2.3485 0.9598
2.7062 9.6180 -2.3482 0.9598
2.0279 8.5055 -2.0550 0.9647
1.7265 9.8387 -2.3477 0.9598
1.3293 9.8992 -2.3474 0.9598
1.1298 9.9235 -2.3473 0.9598
0.9300 9.9438 -2.3472 0.9598
0.7297 9.9600 -2.3471 0.9598
0.3286 9.9804 -2.3469 0.9598
0.1277 9.9845 -2.3468 0.9598
-0.0731 9.9846 -2.3467 0.9598
-0.2739 9.9806 -2.3466 0.9598
-0.4745 9.9727 -2.3465 0.9598
-0.6750 9.9607 -2.3464 0.9598
-0.8752 9.9446 -2.3462 0.9598
-1.2743 9.9005 -2.3460 0.9598
-1.4731 9.8725 -2.3459 0.9598
-1.6713 9.8404 -2.3459 0.9598
-1.8688 9.8044 -2.3458 0.9598
-2.0655 9.7645 -2.3457 0.9598
-2.2614 9.7206 -2.3456 0.9598
-2.6503 9.6210 -2.3454 0.9598
-2.8432 9.5654 -2.3453 0.9598
-3.0349 9.5059 -2.3452 0.9598
-3.2254 9.4426 -2.3451 0.9598
-3.6023 9.3046 -2.3450 0.9598
-8.2962 -4.9271 -2.4983 0.9609
-8.0919 -5.2572 -2.4985 0.9609
-7.8745 -5.5788 -2.4987 0.9609
-7.7611 -5.7363 -2.4988 0.9609
-7.6444 -5.8915 -2.4989 0.9609
-7.4019 -6.1947 -2.4991 0.9609
-7.2761 -6.3425 -2.4992 0.9609
-7.1474 -6.4879 -2.4993 0.9609
-6.8812 -6.7706 -2.4995 0.9609
-6.4612 -7.1742 -2.4998 0.9609
-6.3159 -7.3030 -2.4999 0.9609
-6.1680 -7.4289 -2.5000 0.9609
-6.0176 -7.5518 -2.5001 0.9609
-5.8648 -7.6717 -2.5003 0.9609
-5.7095 -7.7884 -2.5004 0.9609
-4.8998 -8.3242 -2.5009 0.9609
-4.5615 -8.5153 -2.5012 0.9609
-4.2157 -8.6926 -2.5014 0.9609
-4.0402 -8.7761 -2.5015 0.9609
-3.8630 -8.8559 -2.5016 0.9609
-3.5041 -9.0049 -2.5018 0.9609
-3.3224 -9.0740 -2.5020 0.9609
-2.5828 -9.3133 -2.5024 0.9609
-2.2064 -9.4106 -2.5026 0.9608
-1.6351 -9.5277 -2.5030 0.9608
-1.2507 -9.5866 -2.5032 0.9608
-1.0576 -9.6103 -2.5033 0.9608
-0.4762 -9.6578 -2.5036 0.9608
-0.2819 -9.6658 -2.5037 0.9608
0.1071 -9.6701 -2.5039 0.9608
0.3016 -9.6664 -2.5040 0.9608
0.6902 -9.6473 -2.5042 0.9608
1.0777 -9.6125 -2.5044 0.9608
1.2708 -9.5892 -2.5045 0.9608
2.2276 -9.4149 -2.5050 0.9608
2.4166 -9.3686 -2.5051 0.9608
2.6047 -9.3184 -2.5052 0.9608
2.7916 -9.2644 -2.5053 0.9608
3.1622 -9.1453 -2.5054 0.9608
3.3456 -9.0801 -2.5055 0.9608
3.8875 -8.8627 -2.5057 0.9608
4.0651 -8.7830 -2.5058 0.9608
4.4152 -8.6129 -2.5060 0.9608
4.5877 -8.5226 -2.5060 0.9608
4.7583 -8.4288 -2.5061 0.9608
4.9270 -8.3316 -2.5062 0.9608
5.0937 -8.2310 -2.5062 0.9608
5.2584 -8.1271 -2.5063 0.9608
5.5812 -7.9094 -2.5064 0.9608
6.0485 -7.5589 -2.5066 0.9608
6.1994 -7.4359 -2.5066 0.9608
6.3478 -7.3099 -2.5067 0.9608
6.4937 -7.1808 -2.5067 0.9608
6.6369 -7.0489 -2.5068 0.9608
6.7775 -6.9141 -2.5068 0.9608
6.9153 -6.7765 -2.5069 0.9608
7.5612 -6.0484 -2.5070 0.9608
7.7985 -5.7395 -2.5071 0.9608
7.9125 -5.5815 -2.5071 0.9608
8.0232 -5.4213 -2.5071 0.9608
8.1306 -5.2589 -2.5071 0.9608
8.2348 -5.0943 -2.5072 0.9608
8.4331 -4.7591 -2.5072 0.9608
8.5272 -4.5885 -2.5072 0.9608
8.6178 -4.4161 -2.5072 0.9608
8.7048 -4.2418 -2.5072 0.9608
8.7884 -4.0659 -2.5072 0.9608
8.8684 -3.8883 -2.5072 0.9608
8.9448 -3.7092 -2.5072 0.9608
9.2139 -2.9782 -2.5072 0.9608
9.2718 -2.7923 -2.5071 0.9608
9.3765 -2.4171 -2.5071 0.9608
9.4231 -2.2280 -2.5071 0.9608
9.4660 -2.0380 -2.5071 0.9608
9.5049 -1.8472 -2.5070 0.9608
9.5401 -1.6556 -2.5070 0.9608
9.5987 -1.2706 -2.5070 0.9608
9.6418 -0.8835 -2.5069 0.9608
9.6574 -0.6894 -2.5068 0.9608
9.6770 -0.3004 -2.5068 0.9608
9.6809 0.0890 -2.5067 0.9608
9.6573 0.6726 -2.5065 0.9608
9.6220 1.0604 -2.5064 0.9608
9.5985 1.2537 -2.5063 0.9608
9.5711 1.4465 -2.5063 0.9608
9.5399 1.6387 -2.5062 0.9608
9.3763 2.3999 -2.5059 0.9608
9.2716 2.7748 -2.5058 0.9608
9.2137 2.9607 -2.5057 0.9608
9.0866 3.3286 -2.5056 0.9608
9.0175 3.5106 -2.5055 0.9608
8.9448 3.6911 -2.5054 0.9608
8.7885 4.0476 -2.5052 0.9608
8.6180 4.3975 -2.5051 0.9608
8.5275 4.5697 -2.5050 0.9608
8.4335 4.7402 -2.5049 0.9608
8.3362 4.9086 -2.5048 0.9608
8.1314 5.2395 -2.5046 0.9608
8.0241 5.4018 -2.5045 0.9608
7.9135 5.5619 -2.5044 0.9608
7.4397 6.1789 -2.5040 0.9608
7.3136 6.3270 -2.5039 0.9608
7.1846 6.4726 -2.5038 0.9608
6.7803 6.8932 -2.5035 0.9608
6.4970 7.1597 -2.5033 0.9608
6.1975 7.4077 -2.5007 0.9609
5.8861 7.6399 -2.4971 0.9609
5.7273 7.7515 -2.4954 0.9610
5.5208 7.7952 -2.4732 0.9613
5.3025 7.8157 -2.4454 0.9617
4.6745 7.8735 -2.3708 0.9629
4.4760 7.8969 -2.3503 0.9632
3.8251 8.2273 -2.3492 0.9632
3.6587 8.3022 -2.3491 0.9632
3.4908 8.3737 -2.3490 0.9632
3.3215 8.4419 -2.3489 0.9632
3.1509 8.5066 -2.3487 0.9632
2.8060 8.6256 -2.3485 0.9632
2.6318 8.6799 -2.3484 0.9632
2.2107 8.5097 -2.2765 0.9643
1.9253 8.8618 -2.3480 0.9632
1.7466 8.8983 -2.3479 0.9632
1.0256 9.0083 -2.3475 0.9632
0.4804 9.0526 -2.3472 0.9632
0.2983 9.0601 -2.3471 0.9632
-0.0663 9.0640 -2.3469 0.9632
-0.4308 9.0532 -2.3467 0.9632
-0.6128 9.0424 -2.3466 0.9632
-1.3373 8.9625 -2.3462 0.9633
-1.5173 8.9335 -2.3462 0.9633
-1.6966 8.9008 -2.3461 0.9633
-2.2300 8.7813 -2.3458 0.9633
-2.7552 8.6299 -2.3456 0.9633
-3.2703 8.4473 -2.3453 0.9633
-7.8458 -4.0406 -2.4983 0.9640
-7.6774 -4.3532 -2.4985 0.9640
-7.4017 -4.8087 -2.4987 0.9640
-7.2028 -5.1029 -2.4989 0.9640
-7.0989 -5.2469 -2.4990 0.9640
-6.9922 -5.3889 -2.4991 0.9640
-6.6553 -5.8014 -2.4994 0.9640
-6.4171 -6.0648 -2.4996 0.9640
-6.2940 -6.1929 -2.4997 0.9640
-6.1684 -6.3185 -2.4998 0.9640
-6.0403 -6.4415 -2.4999 0.9640
-5.7769 -6.6797 -2.5001 0.9640
-5.6416 -6.7949 -2.5002 0.9640
-5.5040 -6.9072 -2.5003 0.9639
-4.7836 -7.4265 -2.5008 0.9639
-4.6335 -7.5215 -2.5009 0.9639
-4.3276 -7.7024 -2.5011 0.9639
-3.8557 -7.9503 -2.5014 0.9639
-3.6952 -8.0266 -2.5015 0.9639
-3.5331 -8.0996 -2.5016 0.9639
-3.3697 -8.1694 -2.5017 0.9639
-2.7026 -8.4152 -2.5021 0.9639
-2.5329 -8.4682 -2.5022 0.9639
-2.3622 -8.5178 -2.5023 0.9639
-2.1905 -8.5639 -2.5024 0.9639
-2.0179 -8.6066 -2.5025 0.9639
-1.4954 -8.7137 -2.5028 0.9639
-1.3199 -8.7423 -2.5029 0.9639
-0.7903 -8.8071 -2.5032 0.9639
-0.2578 -8.8397 -2.5035 0.9639
-0.0799 -8.8435 -2.5036 0.9639
0.0979 -8.8436 -2.5037 0.9639
0.2758 -8.8402 -2.5038 0.9639
0.8085 -8.8085 -2.5041 0.9639
0.9855 -8.7907 -2.5042 0.9639
1.1622 -8.7694 -2.5043 0.9639
1.3384 -8.7446 -2.5044 0.9639
1.5141 -8.7162 -2.5044 0.9639
1.6891 -8.6843 -2.5045 0.9639
2.0371 -8.6099 -2.5047 0.9639
2.3819 -8.5216 -2.5049 0.9639
2.5529 -8.4722 -2.5049 0.9639
3.0595 -8.3036 -2.5052 0.9639
3.2260 -8.2406 -2.5052 0.9639
3.3912 -8.1743 -2.5053 0.9639
3.5550 -8.1047 -2.5054 0.9639
3.7174 -8.0317 -2.5055 0.9639
3.8783 -7.9556 -2.5055 0.9639
4.0376 -7.8761 -2.5056 0.9639
4.1953 -7.7936 -2.5057 0.9639
4.3513 -7.7078 -2.5057 0.9639
4.8086 -7.4319 -2.5059 0.9639
5.2483 -7.1288 -2.5061 0.9639
5.5310 -6.9122 -2.5062 0.9639
5.6690 -6.7997 -2.5062 0.9639
5.8047 -6.6845 -2.5062 0.9639
5.9381 -6.5665 -2.5063 0.9639
6.0691 -6.4458 -2.5063 0.9639
6.3236 -6.1967 -2.5064 0.9639
6.5679 -5.9375 -2.5065 0.9639
6.9142 -5.5308 -2.5066 0.9639
7.0241 -5.3907 -2.5066 0.9639
7.1312 -5.2484 -2.5066 0.9639
7.3366 -4.9574 -2.5066 0.9639
7.4349 -4.8089 -2.5067 0.9639
7.5302 -4.6584 -2.5067 0.9639
7.7975 -4.1958 -2.5067 0.9639
7.8803 -4.0382 -2.5067 0.9639
7.9599 -3.8789 -2.5067 0.9639
8.0364 -3.7180 -2.5067 0.9639
8.3091 -3.0600 -2.5067 0.9639
8.3690 -2.8923 -2.5067 0.9639
8.4254 -2.7234 -2.5067 0.9639
8.4784 -2.5533 -2.5067 0.9639
8.5280 -2.3823 -2.5067 0.9639
8.6560 -1.8636 -2.5066 0.9639
8.7774 -1.1618 -2.5065 0.9639
8.7989 -0.9851 -2.5065 0.9639
8.8311 -0.6304 -2.5064 0.9639
8.8491 -0.2747 -2.5063 0.9639
8.8526 0.0814 -2.5062 0.9639
8.8491 0.2595 -2.5062 0.9639
8.8419 0.4374 -2.5061 0.9639
8.8311 0.6151 -2.5061 0.9639
8.8168 0.7926 -2.5060 0.9639
8.7524 1.3228 -2.5059 0.9639
8.6917 1.6736 -2.5058 0.9639
8.5743 2.1946 -2.5056 0.9639
8.4256 2.7074 -2.5054 0.9639
8.2463 3.2104 -2.5051 0.9639
7.9606 3.8622 -2.5048 0.9639
7.8811 4.0215 -2.5048 0.9639
7.7984 4.1790 -2.5047 0.9639
7.7125 4.3349 -2.5046 0.9639
7.6235 4.4890 -2.5045 0.9639
7.5314 4.6412 -2.5044 0.9639
7.4362 4.7916 -2.5043 0.9639
7.2370 5.0864 -2.5042 0.9639
7.1330 5.2308 -2.5041 0.9639
6.2009 6.3042 -2.5033 0.9639
6.0726 6.4273 -2.5032 0.9639
5.9419 6.5479 -2.5031 0.9639
5.8087 6.6658 -2.5030 0.9639
5.6732 6.7810 -2.5029 0.9639
5.3955 7.0032 -2.5027 0.9639
5.1091 7.2139 -2.5025 0.9639
4.9627 7.3149 -2.5024 0.9639
4.8137 7.4119 -2.5019 0.9639
4.0343 7.8364 -2.4952 0.9640
3.3075 7.9342 -2.4335 0.9649
3.1256 7.9439 -2.4167 0.9651
2.9460 7.9534 -2.4011 0.9654
2.5932 7.9716 -2.3731 0.9658
2.4190 7.9779 -2.3600 0.9659
2.2471 7.9865 -2.3487 0.9661
2.0857 8.0286 -2.3483 0.9661
1.7610 8.1054 -2.3481 0.9661
1.4335 8.1690 -2.3479 0.9661
1.2688 8.1958 -2.3478 0.9661
0.9381 8.2396 -2.3476 0.9661
0.7722 8.2564 -2.3475 0.9661
0.6059 8.2700 -2.3474 0.9661
0.4394 8.2801 -2.3474 0.9661
0.1061 8.2905 -2.3472 0.9661
-0.0607 8.2906 -2.3471 0.9661
-0.2274 8.2874 -2.3470 0.9661
-0.5605 8.2710 -2.3468 0.9661
-0.7267 8.2577 -2.3467 0.9661
-0.8926 8.2411 -2.3467 0.9661
-1.0582 8.2212 -2.3466 0.9661
-1.2232 8.1980 -2.3465 0.9661
-1.5519 8.1416 -2.3463 0.9661
-2.2009 7.9895 -2.3460 0.9661
-2.5203 7.8940 -2.3459 0.9661
-2.6785 7.8415 -2.3458 0.9661
-2.8365 7.7882 -2.3465 0.9661
-3.0069 7.7669 -2.3578 0.9660
-7.2950 -3.5732 -2.4985 0.9666
-7.2219 -3.7193 -2.4986 0.9666
-7.1459 -3.8640 -2.4987 0.9666
-7.0669 -4.0070 -2.4987 0.9666
-6.9005 -4.2883 -2.4989 0.9666
-6.8130 -4.4263 -2.4990 0.9666
-6.7229 -4.5626 -2.4990 0.9666
-6.1259 -5.3399 -2.4996 0.9666
-6.0175 -5.4622 -2.4996 0.9666
-5.9066 -5.5823 -2.4997 0.9666
-5.5598 -5.9290 -2.5000 0.9666
-5.3172 -6.1483 -2.5002 0.9666
-5.0660 -6.3576 -2.5004 0.9666
-4.8066 -6.5567 -2.5006 0.9665
-4.6739 -6.6523 -2.5006 0.9665
-4.5394 -6.7452 -2.5007 0.9665
-4.2647 -6.9229 -2.5009 0.9665
-3.6951 -7.2443 -2.5013 0.9665
-3.5488 -7.3175 -2.5014 0.9665
-3.1014 -7.5190 -2.5017 0.9665
-2.7967 -7.6383 -2.5019 0.9665
-2.1741 -7.8395 -2.5023 0.9665
-2.0160 -7.8819 -2.5024 0.9665
-1.8572 -7.9212 -2.5025 0.9665
-1.5372 -7.9901 -2.5026 0.9665
-1.3763 -8.0197 -2.5027 0.9665
-1.2147 -8.0460 -2.5028 0.9665
-1.0527 -8.0691 -2.5029 0.9665
-0.7274 -8.1055 -2.5031 0.9665
-0.5642 -8.1188 -2.5032 0.9665
-0.0736 -8.1389 -2.5035 0.9665
0.4174 -8.1294 -2.5037 0.9665
0.5809 -8.1196 -2.5038 0.9665
1.2317 -8.0477 -2.5041 0.9665
1.3934 -8.0216 -2.5042 0.9665
1.5545 -7.9922 -2.5043 0.9665
1.7150 -7.9596 -2.5044 0.9665
2.0338 -7.8846 -2.5045 0.9665
2.1921 -7.8423 -2.5046 0.9665
2.3494 -7.7969 -2.5047 0.9665
2.5058 -7.7483 -2.5047 0.9665
2.6613 -7.6966 -2.5048 0.9665
2.8156 -7.6417 -2.5049 0.9665
2.9688 -7.5837 -2.5049 0.9665
3.2716 -7.4586 -2.5051 0.9665
3.4210 -7.3914 -2.5051 0.9665
3.5691 -7.3213 -2.5052 0.9665
3.7157 -7.2482 -2.5053 0.9665
3.8608 -7.1722 -2.5053 0.9665
4.0044 -7.0933 -2.5054 0.9665
4.1463 -7.0114 -2.5054 0.9665
4.2866 -6.9268 -2.5055 0.9665
5.0900 -6.3610 -2.5058 0.9665
5.4646 -6.0428 -2.5059 0.9665
5.8193 -5.7025 -2.5060 0.9665
5.9329 -5.5844 -2.5060 0.9665
6.2591 -5.2166 -2.5061 0.9665
6.4639 -4.9608 -2.5062 0.9665
6.6583 -4.6968 -2.5062 0.9665
6.7515 -4.5620 -2.5062 0.9665
6.8419 -4.4253 -2.5062 0.9665
6.9296 -4.2868 -2.5063 0.9665
7.1756 -3.8612 -2.5063 0.9665
7.5270 -3.1212 -2.5063 0.9665
7.6464 -2.8160 -2.5063 0.9665
7.7015 -2.6616 -2.5063 0.9665
7.7534 -2.5062 -2.5063 0.9665
7.8479 -2.1923 -2.5062 0.9665
7.9296 -1.8749 -2.5062 0.9665
7.9656 -1.7150 -2.5062 0.9665
7.9984 -1.5544 -2.5062 0.9665
8.0543 -1.2314 -2.5061 0.9665
8.0971 -0.9065 -2.5061 0.9665
8.1136 -0.7435 -2.5060 0.9665
8.1367 -0.4165 -2.5060 0.9665
8.1434 -0.2528 -2.5059 0.9665
8.1467 -0.0889 -2.5059 0.9665
8.1467 0.0749 -2.5059 0.9665
8.1368 0.4025 -2.5058 0.9665
8.1137 0.7294 -2.5057 0.9665
8.0973 0.8924 -2.5056 0.9665
8.0545 1.2173 -2.5055 0.9665
7.9659 1.7007 -2.5054 0.9665
7.8907 2.0196 -2.5052 0.9665
7.8483 2.1778 -2.5052 0.9665
7.8027 2.3352 -2.5051 0.9665
7.7540 2.4916 -2.5051 0.9665
7.7021 2.6470 -2.5050 0.9665
7.6471 2.8013 -2.5049 0.9665
7.5890 2.9545 -2.5049 0.9665
7.4636 3.2571 -2.5047 0.9665
7.0978 3.9894 -2.5043 0.9665
7.0159 4.1312 -2.5043 0.9665
6.9312 4.2714 -2.5042 0.9665
6.7534 4.5464 -2.5040 0.9665
6.6603 4.6811 -2.5039 0.9665
6.4662 4.9449 -2.5038 0.9665
5.7069 5.8020 -2.5032 0.9665
5.5889 5.9154 -2.5031 0.9665
5.4686 6.0264 -2.5030 0.9665
5.3461 6.1349 -2.5029 0.9665
5.2214 6.2410 -2.5028 0.9665
4.7022 6.6394 -2.5024 0.9665
4.4310 6.8227 -2.5022 0.9665
3.7229 7.2317 -2.5018 0.9665
3.2797 7.4422 -2.5015 0.9665
3.1287 7.5051 -2.5009 0.9665
2.9759 7.5635 -2.5000 0.9666
2.8221 7.6189 -2.4990 0.9666
2.6674 7.6714 -2.4981 0.9666
2.5117 7.7209 -2.4973 0.9666
2.3551 7.7672 -2.4964 0.9666
1.7212 7.9220 -2.4935 0.9666
1.5611 7.9530 -2.4929 0.9667
1.3965 7.9583 -2.4852 0.9668
0.9065 7.9617 -2.4647 0.9670
0.7443 7.9579 -2.4584 0.9671
0.2616 7.9459 -2.4453 0.9673
-0.3772 7.9276 -2.4411 0.9673
-0.8559 7.9025 -2.4449 0.9673
-1.3367 7.8701 -2.4553 0.9671
-1.6600 7.8475 -2.4671 0.9670
-1.8229 7.8358 -2.4745 0.9669
-1.9869 7.8238 -2.4828 0.9668
-2.1508 7.8076 -2.4909 0.9667
-2.3078 7.7642 -2.4914 0.9667
-2.6193 7.6684 -2.4924 0.9667
-2.9271 7.5607 -2.4937 0.9666
-6.1352 -4.3466 -2.4993 0.9688
-5.8625 -4.7091 -2.4995 0.9688
-5.7667 -4.8262 -2.4996 0.9688
-5.6687 -4.9414 -2.4997 0.9688
-5.3609 -5.2747 -2.4999 0.9688
-5.1448 -5.4864 -2.5001 0.9688
-5.0335 -5.5890 -2.5002 0.9688
-4.6878 -5.8830 -2.5005 0.9688
-4.5687 -5.9763 -2.5005 0.9688
-4.4477 -6.0672 -2.5006 0.9688
-4.3249 -6.1556 -2.5007 0.9688
-4.2004 -6.2416 -2.5008 0.9688
-3.9463 -6.4059 -2.5010 0.9688
-3.5531 -6.6329 -2.5012 0.9688
-3.4191 -6.7033 -2.5013 0.9688
-3.0090 -6.8980 -2.5016 0.9688
-2.8697 -6.9574 -2.5017 0.9688
-2.3016 -7.1665 -2.5020 0.9688
-2.1571 -7.2116 -2.5021 0.9688
-1.7184 -7.3294 -2.5024 0.9688
-1.5707 -7.3627 -2.5025 0.9688
-1.4224 -7.3931 -2.5026 0.9688
-1.2734 -7.4204 -2.5026 0.9688
-1.1240 -7.4448 -2.5027 0.9688
-0.9740 -7.4661 -2.5028 0.9688
-0.5221 -7.5121 -2.5031 0.9688
-0.3709 -7.5213 -2.5032 0.9688
-0.2195 -7.5275 -2.5032 0.9688
0.0834 -7.5307 -2.5034 0.9688
0.2349 -7.5277 -2.5035 0.9688
0.5375 -7.5127 -2.5036 0.9688
0.6885 -7.5006 -2.5037 0.9687
1.1396 -7.4461 -2.5039 0.9687
1.2892 -7.4219 -2.5040 0.9687
1.4383 -7.3947 -2.5041 0.9687
2.1737 -7.2139 -2.5044 0.9687
2.6050 -7.0702 -2.5046 0.9687
2.7468 -7.0166 -2.5047 0.9687
2.8874 -6.9601 -2.5048 0.9687
3.0269 -6.9008 -2.5048 0.9687
3.1652 -6.8386 -2.5049 0.9687
3.3021 -6.7737 -2.5049 0.9687
3.4378 -6.7061 -2.5050 0.9687
3.5720 -6.6357 -2.5050 0.9687
3.7049 -6.5627 -2.5051 0.9687
3.8362 -6.4870 -2.5051 0.9687
3.9660 -6.4087 -2.5052 0.9687
4.2207 -6.2442 -2.5053 0.9687
4.3455 -6.1582 -2.5053 0.9687
5.1673 -5.4880 -2.5056 0.9687
5.3839 -5.2759 -2.5057 0.9687
5.5919 -5.0552 -2.5057 0.9687
5.6925 -4.9418 -2.5058 0.9687
5.7908 -4.8263 -2.5058 0.9687
5.9803 -4.5896 -2.5058 0.9687
6.2463 -4.2207 -2.5059 0.9687
6.4111 -3.9661 -2.5059 0.9687
6.4896 -3.8364 -2.5059 0.9687
6.5655 -3.7051 -2.5059 0.9687
6.8421 -3.1654 -2.5059 0.9687
6.9043 -3.0272 -2.5059 0.9687
6.9638 -2.8877 -2.5059 0.9687
7.0205 -2.7471 -2.5059 0.9687
7.2607 -2.0283 -2.5059 0.9687
7.3000 -1.8818 -2.5059 0.9687
7.4731 -0.9892 -2.5058 0.9687
7.5066 -0.6878 -2.5057 0.9687
7.5342 -0.2339 -2.5056 0.9687
7.5372 -0.0823 -2.5056 0.9687
7.5281 0.3724 -2.5054 0.9687
7.5190 0.5237 -2.5054 0.9687
7.4733 0.9761 -2.5053 0.9687
7.4520 1.1262 -2.5052 0.9687
7.3701 1.5735 -2.5051 0.9687
7.3368 1.7214 -2.5050 0.9687
7.1741 2.3053 -2.5048 0.9687
7.0752 2.5918 -2.5047 0.9687
7.0215 2.7335 -2.5046 0.9687
6.9649 2.8741 -2.5045 0.9687
6.9055 3.0135 -2.5045 0.9687
6.8433 3.1517 -2.5044 0.9687
6.7783 3.2886 -2.5043 0.9687
6.7106 3.4242 -2.5043 0.9687
6.6402 3.5584 -2.5042 0.9687
6.5671 3.6911 -2.5041 0.9687
6.4914 3.8223 -2.5041 0.9687
6.2485 4.2065 -2.5038 0.9687
5.7937 4.8118 -2.5034 0.9688
5.3875 5.2613 -2.5031 0.9688
5.2804 5.3683 -2.5030 0.9688
5.1712 5.4733 -2.5030 0.9688
4.9466 5.6765 -2.5028 0.9688
4.2263 6.2294 -2.5023 0.9688
4.1000 6.3129 -2.5022 0.9688
3.9721 6.3939 -2.5021 0.9688
3.7114 6.5480 -2.5019 0.9688
3.4449 6.6915 -2.5017 0.9688
2.8955 6.9457 -2.5014 0.9688
2.4711 7.1070 -2.5011 0.9688
2.0378 7.2423 -2.5009 0.9688
1.8916 7.2815 -2.5008 0.9688
1.4489 7.3816 -2.5005 0.9688
1.3001 7.4090 -2.5004 0.9688
-0.0550 7.5177 -2.4990 0.9688
-0.3573 7.5089 -2.4988 0.9688
-0.5083 7.5002 -2.4988 0.9688
-0.6590 7.4884 -2.4988 0.9688
-0.8095 7.4737 -2.4988 0.9688
-1.2589 7.4120 -2.4991 0.9688
-1.5558 7.3549 -2.4989 0.9688
-1.7034 7.3219 -2.4988 0.9688
-1.8503 7.2860 -2.4988 0.9688
-1.9964 7.2471 -2.4987 0.9688
-2.2861 7.1606 -2.4986 0.9688
-2.4296 7.1129 -2.4985 0.9688
-2.5721 7.0624 -2.4984 0.9688
-2.7136 7.0091 -2.4984 0.9688
-6.2755 -3.0739 -2.4989 0.9708
-6.2126 -3.1995 -2.4990 0.9708
-6.0088 -3.5687 -2.4992 0.9707
-5.8607 -3.8077 -2.4993 0.9707
-5.7831 -3.9249 -2.4994 0.9707
-5.4496 -4.3775 -2.4997 0.9707
-5.3606 -4.4863 -2.4998 0.9707
-5.2695 -4.5934 -2.4998 0.9707
-5.1762 -4.6986 -2.4999 0.9707
-5.0808 -4.8018 -2.5000 0.9707
-4.9833 -4.9032 -2.5001 0.9707
-4.6790 -5.1953 -2.5003 0.9707
-4.5737 -5.2885 -2.5004 0.9707
-4.4665 -5.3796 -2.5004 0.9707
-4.3576 -5.4686 -2.5005 0.9707
-4.1344 -5.6397 -2.5007 0.9707
-3.7871 -5.8794 -2.5009 0.9707
-3.6682 -5.9546 -2.5010 0.9707
-3.5478 -6.0273 -2.5011 0.9707
-2.9252 -6.3541 -2.5015 0.9707
-2.7969 -6.4119 -2.5016 0.9707
-2.5370 -6.5196 -2.5018 0.9707
-2.4054 -6.5695 -2.5018 0.9707
-2.2728 -6.6168 -2.5019 0.9707
-2.0050 -6.7033 -2.5021 0.9707
-1.8699 -6.7425 -2.5022 0.9707
-1.5973 -6.8127 -2.5023 0.9707
-0.9054 -6.9397 -2.5027 0.9707
-0.6256 -6.9710 -2.5029 0.9707
-0.4852 -6.9824 -2.5030 0.9707
-0.3447 -6.9909 -2.5030 0.9707
0.0775 -6.9996 -2.5033 0.9707
0.2183 -6.9968 -2.5033 0.9707
0.6399 -6.9716 -2.5036 0.9707
0.9198 -6.9406 -2.5037 0.9707
1.1983 -6.8983 -2.5038 0.9707
1.4748 -6.8449 -2.5040 0.9707
1.7490 -6.7804 -2.5041 0.9707
1.8851 -6.7441 -2.5042 0.9707
2.1549 -6.6631 -2.5043 0.9707
2.2885 -6.6186 -2.5044 0.9707
2.5530 -6.5215 -2.5045 0.9707
2.6837 -6.4690 -2.5045 0.9707
3.0691 -6.2958 -2.5047 0.9707
3.3200 -6.1675 -2.5048 0.9707
3.4434 -6.0996 -2.5048 0.9707
3.8052 -5.8812 -2.5050 0.9707
4.0388 -5.7236 -2.5051 0.9707
4.3768 -5.4699 -2.5052 0.9707
4.9042 -5.0031 -2.5054 0.9707
5.2907 -4.5929 -2.5055 0.9707
5.3821 -4.4857 -2.5055 0.9707
5.6429 -4.1530 -2.5055 0.9707
5.8832 -3.8052 -2.5056 0.9707
6.0315 -3.5656 -2.5056 0.9707
6.1020 -3.4435 -2.5056 0.9707
6.1701 -3.3201 -2.5056 0.9707
6.2986 -3.0693 -2.5056 0.9707
6.5249 -2.5531 -2.5056 0.9707
6.7089 -2.0204 -2.5056 0.9707
6.7847 -1.7490 -2.5056 0.9707
6.8494 -1.4747 -2.5055 0.9707
6.8777 -1.3366 -2.5055 0.9707
6.9456 -0.9194 -2.5055 0.9707
6.9882 -0.4988 -2.5054 0.9707
6.9967 -0.3582 -2.5053 0.9707
7.0053 -0.0765 -2.5053 0.9707
7.0053 0.0644 -2.5052 0.9707
6.9883 0.4867 -2.5051 0.9707
6.9770 0.6272 -2.5051 0.9707
6.9459 0.9073 -2.5050 0.9707
6.8782 1.3244 -2.5049 0.9707
6.8500 1.4625 -2.5048 0.9707
6.7854 1.7367 -2.5047 0.9707
6.7489 1.8728 -2.5047 0.9707
6.6233 2.2762 -2.5045 0.9707
6.5760 2.4089 -2.5044 0.9707
6.4735 2.6713 -2.5043 0.9707
6.4183 2.8009 -2.5043 0.9707
6.1039 3.4307 -2.5039 0.9707
6.0335 3.5527 -2.5039 0.9707
5.9606 3.6733 -2.5038 0.9707
5.8854 3.7923 -2.5037 0.9707
5.7278 4.0257 -2.5036 0.9707
5.6455 4.1400 -2.5035 0.9707
5.5609 4.2526 -2.5035 0.9707
5.4741 4.3634 -2.5034 0.9707
5.3851 4.4725 -2.5033 0.9707
5.2005 4.6852 -2.5032 0.9707
5.1051 4.7887 -2.5031 0.9707
4.5978 5.2762 -2.5027 0.9707
4.3816 5.4565 -2.5025 0.9707
4.2708 5.5434 -2.5025 0.9707
4.1583 5.6280 -2.5024 0.9707
3.9284 5.7903 -2.5022 0.9707
3.6921 5.9432 -2.5021 0.9707
3.4499 6.0865 -2.5019 0.9707
3.3266 6.1544 -2.5018 0.9707
3.2021 6.2199 -2.5017 0.9707
3.0762 6.2828 -2.5016 0.9707
2.9491 6.3432 -2.5016 0.9707
2.8208 6.4011 -2.5015 0.9707
2.5610 6.5089 -2.5013 0.9707
2.4294 6.5589 -2.5012 0.9707
2.2970 6.6062 -2.5011 0.9707
1.6218 6.8023 -2.5007 0.9707
1.4846 6.8333 -2.5007 0.9707
1.3468 6.8616 -2.5006 0.9707
1.0697 6.9098 -2.5004 0.9707
0.9305 6.9297 -2.5003 0.9707
0.6510 6.9611 -2.5002 0.9707
0.5109 6.9725 -2.5001 0.9707
0.3705 6.9812 -2.5000 0.9707
0.0894 6.9900 -2.4999 0.9707
-0.3322 6.9821 -2.4997 0.9707
-0.4726 6.9737 -2.4996 0.9707
-0.7526 6.9487 -2.4994 0.9707
-1.0314 6.9124 -2.4993 0.9707
-1.1702 6.8901 -2.4992 0.9707
-1.5835 6.8064 -2.4990 0.9707
-1.7200 6.7730 -2.4990 0.9708
-2.1252 6.6565 -2.4988 0.9708
-2.5226 6.5158 -2.4986 0.9708
-5.7978 -2.9859 -2.4992 0.9725
-5.7367 -3.1020 -2.4992 0.9725
-5.6733 -3.2168 -2.4993 0.9724
-5.5396 -3.4426 -2.4994 0.9724
-5.3970 -3.6628 -2.4995 0.9724
-5.3223 -3.7707 -2.4996 0.9724
-5.2456 -3.8771 -2.4997 0.9724
-5.1667 -3.9819 -2.4997 0.9724
-5.0857 -4.0851 -2.4998 0.9724
-5.0026 -4.1867 -2.4999 0.9724
-4.9175 -4.2866 -2.4999 0.9724
-4.8305 -4.3847 -2.5000 0.9724
-4.7414 -4.4811 -2.5001 0.9724
-4.6505 -4.5757 -2.5002 0.9724
-4.3664 -4.8483 -2.5004 0.9724
-4.1682 -5.0202 -2.5005 0.9724
-4.0665 -5.1032 -2.5006 0.9724
-3.8582 -5.2629 -2.5007 0.9724
-3.7516 -5.3396 -2.5008 0.9724
-3.6436 -5.4142 -2.5009 0.9724
-3.1971 -5.6902 -2.5012 0.9724
-2.9658 -5.8145 -2.5014 0.9724
-2.6100 -5.9834 -2.5016 0.9724
-2.4892 -6.0348 -2.5017 0.9724
-2.2446 -6.1304 -2.5018 0.9724
-1.9964 -6.2161 -2.5020 0.9724
-1.6180 -6.3258 -2.5022 0.9724
-1.3624 -6.3861 -2.5023 0.9724
-1.1045 -6.4361 -2.5025 0.9724
-0.9749 -6.4572 -2.5026 0.9724
-0.8448 -6.4757 -2.5026 0.9724
-0.7144 -6.4916 -2.5027 0.9724
-0.5837 -6.5049 -2.5028 0.9724
-0.4528 -6.5155 -2.5029 0.9724
-0.3217 -6.5234 -2.5029 0.9724
0.2037 -6.5289 -2.5032 0.9724
0.3350 -6.5237 -2.5033 0.9724
0.5971 -6.5053 -2.5034 0.9724
1.5044 -6.3582 -2.5039 0.9724
2.0107 -6.2174 -2.5041 0.9724
2.1354 -6.1758 -2.5042 0.9724
2.3822 -6.0852 -2.5043 0.9724
2.5041 -6.0362 -2.5043 0.9724
2.8638 -5.8745 -2.5045 0.9724
3.0978 -5.7548 -2.5046 0.9724
3.2130 -5.6914 -2.5046 0.9724
3.3269 -5.6258 -2.5047 0.9724
3.4394 -5.5578 -2.5047 0.9724
3.5506 -5.4876 -2.5047 0.9724
3.8752 -5.2638 -2.5049 0.9724
4.2860 -4.9356 -2.5050 0.9724
4.3845 -4.8484 -2.5050 0.9724
4.6690 -4.5753 -2.5051 0.9724
4.7601 -4.4805 -2.5052 0.9724
4.8493 -4.3839 -2.5052 0.9724
4.9366 -4.2855 -2.5052 0.9724
5.1862 -3.9802 -2.5053 0.9724
5.4894 -3.5505 -2.5053 0.9724
5.5597 -3.4394 -2.5053 0.9724
5.7571 -3.0979 -2.5053 0.9724
5.8182 -2.9815 -2.5054 0.9724
5.8770 -2.8639 -2.5054 0.9724
5.9875 -2.6252 -2.5054 0.9724
6.0390 -2.5042 -2.5054 0.9724
6.0882 -2.3822 -2.5053 0.9724
6.2207 -2.0107 -2.5053 0.9724
6.2599 -1.8852 -2.5053 0.9724
6.2965 -1.7589 -2.5053 0.9724
6.3306 -1.6319 -2.5053 0.9724
6.4173 -1.2471 -2.5052 0.9724
6.5205 -0.4654 -2.5051 0.9724
6.5338 -0.2028 -2.5051 0.9724
6.5364 -0.0714 -2.5050 0.9724
6.5101 0.5852 -2.5049 0.9724
6.4969 0.7160 -2.5048 0.9724
6.4811 0.8465 -2.5048 0.9724
6.3917 1.3646 -2.5046 0.9724
6.3628 1.4929 -2.5046 0.9724
6.1360 2.2478 -2.5043 0.9724
6.0895 2.3707 -2.5042 0.9724
6.0404 2.4926 -2.5041 0.9724
5.9889 2.6135 -2.5041 0.9724
5.9350 2.7334 -2.5040 0.9724
5.8787 2.8522 -2.5040 0.9724
5.6956 3.2013 -2.5038 0.9724
5.6299 3.3151 -2.5037 0.9724
5.5619 3.4276 -2.5037 0.9724
5.4917 3.5387 -2.5036 0.9724
5.4193 3.6483 -2.5035 0.9724
5.3447 3.7564 -2.5035 0.9724
5.1890 3.9682 -2.5033 0.9724
4.9399 4.2735 -2.5031 0.9724
4.8528 4.3719 -2.5031 0.9724
4.6728 4.5632 -2.5029 0.9724
4.5799 4.6562 -2.5028 0.9724
4.4852 4.7472 -2.5028 0.9724
4.3887 4.8363 -2.5027 0.9724
3.9853 5.1728 -2.5024 0.9724
3.5562 5.4757 -2.5021 0.9724
3.4453 5.5459 -2.5020 0.9724
3.3329 5.6139 -2.5019 0.9724
3.2193 5.6797 -2.5019 0.9724
3.1043 5.7431 -2.5018 0.9724
2.8706 5.8629 -2.5016 0.9724
2.6323 5.9733 -2.5015 0.9724
2.5116 6.0248 -2.5014 0.9724
1.8937 6.2456 -2.5010 0.9724
1.7676 6.2822 -2.5009 0.9724
1.5135 6.3478 -2.5008 0.9724
1.3854 6.3768 -2.5007 0.9724
1.1278 6.4270 -2.5006 0.9724
0.8683 6.4668 -2.5004 0.9724
0.7381 6.4827 -2.5003 0.9724
0.6075 6.4961 -2.5003 0.9724
0.4767 6.5068 -2.5002 0.9724
0.2146 6.5203 -2.5001 0.9724
0.0835 6.5231 -2.5000 0.9724
-0.1789 6.5208 -2.4999 0.9724
-0.4410 6.5080 -2.4997 0.9724
-0.5718 6.4977 -2.4996 0.9724
-0.8326 6.4691 -2.4995 0.9724
-0.9626 6.4508 -2.4994 0.9724
-1.2211 6.4066 -2.4993 0.9724
-1.3497 6.3806 -2.4993 0.9724
-1.7319 6.2871 -2.4991 0.9725
-1.9833 6.2121 -2.4990 0.9725
-5.4840 -2.6862 -2.4993 0.9740
-5.3718 -2.9047 -2.4994 0.9740
-5.0536 -3.4297 -2.4997 0.9739
-4.9118 -3.6304 -2.4998 0.9739
-4.8379 -3.7286 -2.4999 0.9739
-4.7621 -3.8252 -2.4999 0.9739
-4.6843 -3.9203 -2.5000 0.9739
-4.6046 -4.0138 -2.5000 0.9739
-4.5231 -4.1058 -2.5001 0.9739
-4.0886 -4.5397 -2.5004 0.9739
-3.9965 -4.6212 -2.5005 0.9739
-3.9029 -4.7007 -2.5006 0.9739
-3.8077 -4.7784 -2.5007 0.9739
-3.5129 -4.9998 -2.5009 0.9739
-3.4117 -5.0696 -2.5009 0.9739
-3.3091 -5.1373 -2.5010 0.9739
-3.1000 -5.2665 -2.5012 0.9739
-2.8859 -5.3872 -2.5013 0.9739
-2.7770 -5.4444 -2.5014 0.9739
-2.6670 -5.4993 -2.5014 0.9739
-2.5559 -5.5520 -2.5015 0.9739
-2.4438 -5.6024 -2.5016 0.9739
-2.3307 -5.6506 -2.5017 0.9739
-2.2167 -5.6965 -2.5017 0.9739
-2.1017 -5.7401 -2.5018 0.9739
-1.9859 -5.7814 -2.5019 0.9739
-1.8692 -5.8203 -2.5019 0.9739
-1.7519 -5.8569 -2.5020 0.9739
-1.6337 -5.8911 -2.5021 0.9739
-1.3956 -5.9524 -2.5022 0.9739
-1.1551 -6.0040 -2.5024 0.9739
-0.9128 -6.0460 -2.5025 0.9739
0.1907 -6.1130 -2.5031 0.9739
0.3136 -6.1081 -2.5032 0.9739
0.5591 -6.0908 -2.5033 0.9739
0.6815 -6.0785 -2.5034 0.9739
1.1679 -6.0046 -2.5036 0.9739
1.5280 -5.9237 -2.5038 0.9739
1.8826 -5.8212 -2.5039 0.9739
1.9993 -5.7822 -2.5040 0.9739
2.3445 -5.6515 -2.5041 0.9739
2.4578 -5.6033 -2.5042 0.9739
2.5700 -5.5528 -2.5042 0.9739
3.1148 -5.2672 -2.5045 0.9739
3.2202 -5.2036 -2.5045 0.9739
3.3243 -5.1378 -2.5045 0.9739
3.5283 -5.0001 -2.5046 0.9739
3.6282 -4.9282 -2.5047 0.9739
3.7267 -4.8543 -2.5047 0.9739
3.8236 -4.7784 -2.5047 0.9739
3.9190 -4.7006 -2.5048 0.9739
4.0128 -4.6209 -2.5048 0.9739
4.1049 -4.5393 -2.5048 0.9739
4.2843 -4.3707 -2.5049 0.9739
4.3714 -4.2836 -2.5049 0.9739
4.4567 -4.1949 -2.5049 0.9739
4.5402 -4.1044 -2.5049 0.9739
4.6219 -4.0123 -2.5050 0.9739
4.7796 -3.8233 -2.5050 0.9739
4.8555 -3.7264 -2.5050 0.9739
5.0015 -3.5281 -2.5050 0.9739
5.0715 -3.4268 -2.5051 0.9739
5.2690 -3.1148 -2.5051 0.9739
5.3306 -3.0082 -2.5051 0.9739
5.3900 -2.9004 -2.5051 0.9739
5.4473 -2.7914 -2.5051 0.9739
5.7000 -2.2304 -2.5051 0.9739
5.7437 -2.1153 -2.5051 0.9739
5.7851 -1.9993 -2.5051 0.9739
5.8608 -1.7650 -2.5051 0.9739
6.0304 -1.0466 -2.5050 0.9739
6.0502 -0.9250 -2.5050 0.9739
6.0824 -0.6810 -2.5049 0.9739
6.0948 -0.5585 -2.5049 0.9739
6.1048 -0.4358 -2.5049 0.9739
6.1197 -0.0668 -2.5048 0.9739
6.1124 0.3024 -2.5047 0.9739
6.1050 0.4252 -2.5047 0.9739
6.0828 0.6704 -2.5046 0.9739
6.0310 1.0360 -2.5045 0.9739
6.0089 1.1570 -2.5044 0.9739
5.9573 1.3977 -2.5044 0.9739
5.9278 1.5172 -2.5043 0.9739
5.8618 1.7543 -2.5042 0.9739
5.8252 1.8718 -2.5042 0.9739
5.7863 1.9886 -2.5041 0.9739
5.7014 2.2196 -2.5040 0.9739
5.6073 2.4470 -2.5039 0.9739
5.5568 2.5592 -2.5039 0.9739
5.3327 2.9973 -2.5036 0.9739
5.2076 3.2092 -2.5035 0.9739
5.0740 3.4158 -2.5034 0.9739
5.0042 3.5171 -2.5033 0.9739
4.9323 3.6170 -2.5033 0.9739
4.8584 3.7153 -2.5032 0.9739
4.7826 3.8122 -2.5032 0.9739
4.7048 3.9075 -2.5031 0.9739
4.6252 4.0013 -2.5030 0.9739
4.4603 4.1838 -2.5029 0.9739
4.3751 4.2726 -2.5028 0.9739
4.2882 4.3596 -2.5028 0.9739
3.8283 4.7674 -2.5024 0.9739
3.7315 4.8433 -2.5023 0.9739
3.4323 5.0591 -2.5021 0.9739
3.1207 5.2565 -2.5019 0.9739
2.3517 5.6413 -2.5014 0.9739
2.1228 5.7309 -2.5013 0.9739
2.0070 5.7723 -2.5012 0.9739
1.7732 5.8480 -2.5011 0.9739
1.6551 5.8823 -2.5010 0.9739
1.5364 5.9143 -2.5009 0.9739
1.4171 5.9438 -2.5008 0.9739
1.2973 5.9709 -2.5008 0.9739
1.1769 5.9957 -2.5007 0.9739
0.6911 6.0702 -2.5004 0.9739
0.3238 6.1003 -2.5002 0.9739
-0.1676 6.1060 -2.5000 0.9739
-0.4130 6.0940 -2.4998 0.9739
-0.5354 6.0843 -2.4998 0.9739
-0.6577 6.0721 -2.4997 0.9739
-0.7797 6.0575 -2.4996 0.9739
-1.2639 5.9747 -2.4994 0.9740
-1.6218 5.8872 -2.4992 0.9740
-1.8571 5.8170 -2.4991 0.9740
-1.9737 5.7783 -2.4991 0.9740
-2.0895 5.7373 -2.4990 0.9740
-5.1503 -2.5227 -2.4994 0.9753
-5.0986 -2.6258 -2.4994 0.9753
-5.0449 -2.7279 -2.4995 0.9753
-4.8715 -3.0274 -2.4997 0.9753
-4.6804 -3.3159 -2.4998 0.9753
-4.3244 -3.7695 -2.5001 0.9753
-4.2478 -3.8558 -2.5002 0.9753
-4.1695 -3.9406 -2.5003 0.9753
-4.0078 -4.1053 -2.5004 0.9753
-3.6653 -4.4146 -2.5006 0.9753
-3.4850 -4.5586 -2.5008 0.9753
-3.1076 -4.8245 -2.5010 0.9753
-3.0100 -4.8861 -2.5011 0.9753
-2.9112 -4.9458 -2.5012 0.9753
-2.6079 -5.1128 -2.5014 0.9753
-2.2950 -5.2612 -2.5016 0.9753
-2.0817 -5.3496 -2.5017 0.9753
-1.9737 -5.3905 -2.5018 0.9753
-1.7554 -5.4658 -2.5019 0.9753
-1.5342 -5.5322 -2.5020 0.9753
-1.4227 -5.5621 -2.5021 0.9753
-0.9712 -5.6591 -2.5024 0.9753
-0.5132 -5.7194 -2.5026 0.9753
-0.3981 -5.7287 -2.5027 0.9753
-0.2828 -5.7357 -2.5028 0.9753
-0.1674 -5.7404 -2.5028 0.9753
0.0636 -5.7428 -2.5030 0.9753
0.1791 -5.7405 -2.5030 0.9753
0.4098 -5.7289 -2.5031 0.9753
0.6399 -5.7081 -2.5033 0.9752
1.0967 -5.6387 -2.5035 0.9752
1.3227 -5.5902 -2.5036 0.9752
1.5465 -5.5328 -2.5037 0.9752
1.7678 -5.4663 -2.5038 0.9752
2.0944 -5.3500 -2.5039 0.9752
2.2016 -5.3070 -2.5040 0.9752
2.3079 -5.2617 -2.5040 0.9752
2.4134 -5.2143 -2.5041 0.9752
2.6212 -5.1132 -2.5042 0.9752
2.7236 -5.0595 -2.5042 0.9752
2.8248 -5.0038 -2.5042 0.9752
2.9249 -4.9461 -2.5043 0.9752
3.0239 -4.8863 -2.5043 0.9752
3.1216 -4.8246 -2.5044 0.9752
3.2180 -4.7609 -2.5044 0.9752
3.3132 -4.6952 -2.5044 0.9752
3.4070 -4.6277 -2.5045 0.9752
3.5904 -4.4871 -2.5045 0.9752
3.7681 -4.3391 -2.5046 0.9752
3.8546 -4.2625 -2.5046 0.9752
4.3400 -3.7677 -2.5048 0.9752
4.4881 -3.5901 -2.5048 0.9752
4.6289 -3.4067 -2.5048 0.9752
4.7622 -3.2179 -2.5048 0.9752
4.8260 -3.1214 -2.5049 0.9752
4.8878 -3.0238 -2.5049 0.9752
5.0055 -2.8247 -2.5049 0.9752
5.1151 -2.6212 -2.5049 0.9752
5.1668 -2.5178 -2.5049 0.9752
5.2164 -2.4133 -2.5049 0.9752
5.5034 -1.6574 -2.5049 0.9752
5.5932 -1.3225 -2.5048 0.9752
5.6418 -1.0964 -2.5048 0.9752
5.6627 -0.9827 -2.5048 0.9752
5.6976 -0.7542 -2.5047 0.9752
5.7115 -0.6394 -2.5047 0.9752
5.7232 -0.5244 -2.5047 0.9752
5.7395 -0.2938 -2.5047 0.9752
5.7466 -0.0627 -2.5046 0.9752
5.7443 0.1684 -2.5045 0.9752
5.7397 0.2839 -2.5045 0.9752
5.7235 0.5145 -2.5045 0.9752
5.7119 0.6295 -2.5044 0.9752
5.6425 1.0865 -2.5043 0.9752
5.5941 1.3125 -2.5042 0.9752
5.4701 1.7577 -2.5040 0.9752
5.4335 1.8674 -2.5040 0.9752
5.3538 2.0843 -2.5039 0.9752
5.3107 2.1915 -2.5038 0.9752
5.2655 2.2978 -2.5038 0.9752
5.2181 2.4032 -2.5037 0.9752
5.1686 2.5076 -2.5037 0.9752
4.9499 2.9147 -2.5035 0.9752
4.7648 3.2077 -2.5033 0.9752
4.6992 3.3028 -2.5032 0.9752
4.6317 3.3965 -2.5032 0.9752
4.4912 3.5799 -2.5031 0.9753
4.2668 3.8439 -2.5029 0.9753
4.1885 3.9289 -2.5028 0.9753
3.6845 4.4039 -2.5024 0.9753
3.5950 4.4770 -2.5024 0.9753
3.5042 4.5483 -2.5023 0.9753
3.3182 4.6853 -2.5022 0.9753
3.1270 4.8147 -2.5020 0.9753
2.7296 5.0499 -2.5018 0.9753
2.6274 5.1036 -2.5017 0.9753
2.4199 5.2049 -2.5016 0.9753
2.2085 5.2977 -2.5014 0.9753
1.9935 5.3820 -2.5013 0.9753
1.7754 5.4575 -2.5012 0.9753
1.4429 5.5542 -2.5009 0.9753
1.3309 5.5819 -2.5009 0.9753
0.9917 5.6516 -2.5007 0.9753
0.7636 5.6866 -2.5006 0.9753
0.6490 5.7006 -2.5005 0.9753
0.5342 5.7124 -2.5004 0.9753
0.4192 5.7218 -2.5004 0.9753
0.3040 5.7290 -2.5003 0.9753
-0.0420 5.7365 -2.5001 0.9753
-0.2727 5.7299 -2.5000 0.9753
-0.3878 5.7231 -2.4999 0.9753
-0.9604 5.6546 -2.4996 0.9753
-1.0739 5.6340 -2.4996 0.9753
-1.1870 5.6111 -2.4995 0.9753
-1.4116 5.5586 -2.4994 0.9753
-1.6339 5.4971 -2.4993 0.9753
-1.7442 5.4630 -2.4993 0.9753
-1.8536 5.4267 -2.4992 0.9753
-1.9624 5.3882 -2.4992 0.9753
-4.7501 -2.5685 -2.4996 0.9765
-4.6432 -2.7576 -2.4997 0.9765
-4.5869 -2.8505 -2.4998 0.9765
-4.5287 -2.9422 -2.4998 0.9765
-4.4687 -3.0328 -2.4999 0.9765
-4.4069 -3.1221 -2.4999 0.9765
-4.3433 -3.2102 -2.5000 0.9765
-4.1421 -3.4665 -2.5002 0.9765
-4.0716 -3.5492 -2.5002 0.9765
-3.9995 -3.6305 -2.5003 0.9765
-3.9258 -3.7102 -2.5003 0.9765
-3.6951 -3.9405 -2.5005 0.9765
-3.1061 -4.4209 -2.5009 0.9765
-3.0166 -4.4825 -2.5010 0.9765
-2.9259 -4.5424 -2.5011 0.9765
-2.8341 -4.6005 -2.5011 0.9765
-2.7410 -4.6567 -2.5012 0.9765
-2.5517 -4.7634 -2.5013 0.9765
-2.2599 -4.9090 -2.5015 0.9765
-2.0608 -4.9961 -2.5016 0.9765
-1.9599 -5.0367 -2.5017 0.9765
-1.7559 -5.1117 -2.5018 0.9765
-1.6527 -5.1461 -2.5019 0.9765
-1.5489 -5.1785 -2.5020 0.9765
-1.3395 -5.2368 -2.5021 0.9765
-1.2339 -5.2628 -2.5021 0.9765
-1.1278 -5.2867 -2.5022 0.9765
-1.0213 -5.3085 -2.5023 0.9765
-0.5914 -5.3739 -2.5025 0.9765
-0.2663 -5.4002 -2.5027 0.9765
-0.1576 -5.4046 -2.5028 0.9764
0.0599 -5.4068 -2.5029 0.9764
0.3859 -5.3937 -2.5030 0.9764
0.6025 -5.3741 -2.5032 0.9764
0.7105 -5.3610 -2.5032 0.9764
0.9255 -5.3283 -2.5033 0.9764
1.2453 -5.2631 -2.5035 0.9764
1.3509 -5.2371 -2.5035 0.9764
1.5605 -5.1787 -2.5036 0.9764
1.8701 -5.0755 -2.5038 0.9764
1.9718 -5.0369 -2.5038 0.9764
2.0728 -4.9963 -2.5038 0.9764
2.6595 -4.7109 -2.5041 0.9764
2.8469 -4.6003 -2.5042 0.9764
3.0297 -4.4822 -2.5042 0.9764
3.1192 -4.4204 -2.5043 0.9764
3.2946 -4.2915 -2.5043 0.9764
3.3802 -4.2244 -2.5044 0.9764
3.5475 -4.0851 -2.5044 0.9764
3.7875 -3.8639 -2.5045 0.9764
4.0137 -3.6285 -2.5045 0.9764
4.0859 -3.5471 -2.5046 0.9764
4.2925 -3.2943 -2.5046 0.9764
4.4215 -3.1190 -2.5046 0.9764
4.6016 -2.8467 -2.5047 0.9764
4.6580 -2.7536 -2.5047 0.9764
4.8156 -2.4677 -2.5047 0.9764
4.9109 -2.2720 -2.5047 0.9764
5.1811 -1.5604 -2.5047 0.9764
5.2115 -1.4558 -2.5047 0.9764
5.2657 -1.2450 -2.5046 0.9764
5.2897 -1.1389 -2.5046 0.9764
5.3311 -0.9252 -2.5046 0.9764
5.3640 -0.7100 -2.5046 0.9764
5.3771 -0.6020 -2.5045 0.9764
5.4035 -0.2766 -2.5045 0.9764
5.4102 0.0497 -2.5044 0.9764
5.4080 0.1586 -2.5044 0.9764
5.3884 0.4844 -2.5043 0.9764
5.3775 0.5927 -2.5042 0.9764
5.3644 0.7007 -2.5042 0.9764
5.2666 1.2357 -2.5040 0.9764
5.2125 1.4464 -2.5040 0.9764
5.1823 1.5509 -2.5039 0.9764
5.1499 1.6548 -2.5039 0.9764
5.0790 1.8606 -2.5038 0.9764
5.0405 1.9623 -2.5037 0.9764
4.9999 2.0633 -2.5037 0.9764
4.8175 2.4582 -2.5035 0.9764
4.6602 2.7441 -2.5033 0.9764
4.6040 2.8372 -2.5033 0.9764
4.5459 2.9292 -2.5032 0.9764
4.4860 3.0200 -2.5032 0.9764
4.3607 3.1978 -2.5031 0.9764
4.2954 3.2848 -2.5030 0.9764
4.0171 3.6191 -2.5028 0.9764
3.9435 3.6990 -2.5027 0.9764
3.6330 4.0036 -2.5025 0.9765
3.4689 4.1463 -2.5024 0.9765
3.3847 4.2151 -2.5023 0.9765
3.2123 4.3476 -2.5022 0.9765
3.1242 4.4112 -2.5021 0.9765
2.9441 4.5331 -2.5020 0.9765
2.8522 4.5913 -2.5019 0.9765
2.4737 4.8052 -2.5017 0.9765
2.2784 4.9005 -2.5016 0.9765
2.1793 4.9452 -2.5015 0.9765
2.0793 4.9879 -2.5014 0.9765
1.8769 5.0673 -2.5013 0.9765
1.4635 5.2012 -2.5010 0.9765
1.3585 5.2295 -2.5010 0.9765
1.2531 5.2556 -2.5009 0.9765
1.1471 5.2796 -2.5009 0.9765
0.8265 5.3388 -2.5007 0.9765
0.6111 5.3674 -2.5006 0.9765
0.5030 5.3785 -2.5005 0.9765
0.3947 5.3874 -2.5004 0.9765
0.2863 5.3941 -2.5004 0.9765
0.1777 5.3987 -2.5003 0.9765
-0.1482 5.3992 -2.5001 0.9765
-0.3652 5.3886 -2.5000 0.9765
-0.5816 5.3693 -2.4999 0.9765
-0.6894 5.3564 -2.4999 0.9765
-0.9043 5.3241 -2.4998 0.9765
-1.1176 5.2833 -2.4997 0.9765
-1.2236 5.2596 -2.4996 0.9765
-1.3291 5.2338 -2.4995 0.9765
-1.5385 5.1759 -2.4995 0.9765
-1.7453 5.1097 -2.4994 0.9765
-1.8477 5.0734 -2.4993 0.9765
-4.5764 -2.2416 -2.4996 0.9776
-4.4827 -2.4239 -2.4997 0.9776
-4.3286 -2.6900 -2.4999 0.9776
-4.2171 -2.8620 -2.5000 0.9775
-3.9737 -3.1920 -2.5002 0.9775
-3.8423 -3.3493 -2.5003 0.9775
-3.7743 -3.4260 -2.5003 0.9775
-3.7047 -3.5013 -2.5004 0.9775
