ply
format ascii 1.0
element vertex 1549
property float32 x
property float32 y
property float32 z
property float32 I
end_header
10.5675 -47.7930 -2.4823 0.8220
11.5119 -47.5170 -2.4795 0.8222
12.4495 -47.2226 -2.4767 0.8223
14.3031 -46.5795 -2.4711 0.8227
15.2185 -46.2313 -2.4683 0.8229
17.9147 -45.0816 -2.4602 0.8234
18.7958 -44.6642 -2.4575 0.8236
22.0523 -42.4987 -2.4282 0.8255
23.2959 -38.9615 -2.3022 0.8338
23.9319 -38.2594 -2.2886 0.8346
24.6706 -37.7335 -2.2863 0.8348
25.3982 -37.1939 -2.2841 0.8349
26.8191 -36.0743 -2.2797 0.8352
27.5119 -35.4948 -2.2775 0.8354
28.8611 -34.2979 -2.2733 0.8357
30.7911 -32.4112 -2.2672 0.8361
31.4086 -31.7590 -2.2652 0.8362
32.0128 -31.0956 -2.2633 0.8363
32.6035 -30.4212 -2.2614 0.8364
34.8288 -27.6198 -2.2543 0.8369
31.3266 -23.8337 -1.9962 0.8541
36.3484 -25.4169 -2.2493 0.8372
7.3665 11.3304 -0.9909 0.9472
7.1030 11.4204 -0.9861 0.9475
6.8419 11.5097 -0.9818 0.9477
6.0708 11.7732 -0.9712 0.9483
5.8171 11.8599 -0.9686 0.9484
5.5647 11.9462 -0.9663 0.9485
5.3134 12.0321 -0.9644 0.9486
4.5638 12.2883 -0.9611 0.9488
4.3148 12.3734 -0.9608 0.9488
3.3171 12.7144 -0.9635 0.9487
2.8147 12.8862 -0.9671 0.9485
2.0473 13.1191 -0.9736 0.9481
1.2654 13.3408 -0.9826 0.9477
1.0011 13.4158 -0.9864 0.9475
0.1944 13.6453 -1.0006 0.9467
-0.0801 13.7226 -1.0062 0.9464
-0.6388 13.8781 -1.0186 0.9458
-0.9235 13.9568 -1.0256 0.9454
-1.8329 14.4336 -1.0668 0.9433
-2.4540 14.6043 -1.0858 0.9423
-2.7731 14.6918 -1.0963 0.9418
-3.4306 14.8718 -1.1191 0.9406
-3.7700 14.9646 -1.1315 0.9400
-4.4726 15.1563 -1.1587 0.9386
-5.7184 15.8032 -1.2322 0.9348
-6.5653 16.0927 -1.2744 0.9327
-7.0112 16.2451 -1.2973 0.9315
-7.4736 16.4032 -1.3217 0.9303
-7.5486 15.7233 -1.2788 0.9324
-8.8059 15.1015 -1.2818 0.9323
-9.9427 16.2902 -1.3993 0.9263
-10.6540 15.9757 -1.4080 0.9259
-11.0722 15.9016 -1.4207 0.9252
-19.0219 24.0853 -2.2503 0.8842
-8.3935 10.1998 -0.9685 0.9484
-8.5677 9.9955 -0.9653 0.9486
-21.2276 22.8414 -2.2864 0.8824
-18.7730 18.6399 -1.9397 0.8993
-25.5208 21.5623 -2.4497 0.8746
-19.9243 14.8742 -1.8231 0.9051
-27.1760 19.4504 -2.4504 0.8746
-27.5546 18.8965 -2.4498 0.8746
-21.3092 12.7988 -1.8226 0.9051
-28.9811 16.6243 -2.4497 0.8746
-29.6364 15.4531 -2.4507 0.8745
-30.2407 14.2544 -2.4513 0.8745
-31.0434 12.4078 -2.4512 0.8745
-31.2957 11.7855 -2.4520 0.8745
-29.1431 9.6577 -2.2511 0.8841
-28.6176 8.8500 -2.1963 0.8868
-30.1117 8.0026 -2.2845 0.8825
-31.0409 7.5857 -2.3430 0.8797
-27.4631 6.1296 -2.0632 0.8933
-27.9101 3.9125 -2.0664 0.8931
-33.1285 3.9677 -2.4464 0.8747
-33.2708 2.6352 -2.4471 0.8747
-33.3211 1.9668 -2.4474 0.8747
-33.3573 1.2975 -2.4477 0.8747
-33.3796 0.6276 -2.4479 0.8747
-33.3878 -0.0428 -2.4481 0.8747
-35.4003 -2.1806 -2.6005 0.8674
-35.3730 -3.6092 -2.6071 0.8671
-35.0866 -5.7315 -2.6067 0.8671
-34.8221 -7.1343 -2.6063 0.8671
-34.6678 -7.8311 -2.6060 0.8671
-34.3160 -9.2142 -2.6052 0.8672
-33.9067 -10.5808 -2.6044 0.8672
-33.6809 -11.2573 -2.6038 0.8672
-33.4409 -11.9288 -2.6033 0.8673
-32.6381 -13.9102 -2.6014 0.8674
-32.3433 -14.5587 -2.6007 0.8674
-31.7137 -15.8361 -2.5991 0.8675
-30.6716 -17.6986 -2.5965 0.8676
-30.2989 -18.3041 -2.5955 0.8676
-26.5328 -19.9137 -2.4324 0.8754
-26.1157 -20.4332 -2.4313 0.8755
-25.6881 -20.9436 -2.4302 0.8755
-19.9301 -17.6274 -1.9509 0.8988
-16.8884 -16.1912 -1.7154 0.9104
-13.3745 -15.0611 -1.4769 0.9224
-12.8347 -15.0514 -1.4504 0.9237
-11.5036 -14.6426 -1.3653 0.9280
-10.4264 -14.4284 -1.3052 0.9311
-8.6889 -14.3183 -1.2280 0.9350
-7.8694 -14.2261 -1.1920 0.9369
-7.5770 -14.3713 -1.1912 0.9369
-7.0730 -14.0943 -1.1563 0.9387
-6.8322 -14.3250 -1.1637 0.9383
-6.4250 -14.1981 -1.1427 0.9394
-5.8248 -14.3830 -1.1378 0.9397
-5.5408 -14.5128 -1.1390 0.9396
-5.2102 -14.5147 -1.1307 0.9400
-4.6617 -14.8346 -1.1402 0.9395
-3.6375 -14.5964 -1.1030 0.9415
-3.3490 -14.6899 -1.1047 0.9414
-3.0690 -14.8296 -1.1104 0.9411
-2.4649 -14.9029 -1.1076 0.9412
-2.1591 -14.9078 -1.1045 0.9414
-1.8776 -15.0951 -1.1153 0.9408
-0.9635 -15.1498 -1.1131 0.9409
-0.6679 -15.3683 -1.1279 0.9402
-0.3573 -15.2988 -1.1220 0.9405
0.2699 -16.0585 -1.1776 0.9376
0.6064 -16.4333 -1.2057 0.9362
0.9523 -16.6991 -1.2264 0.9351
2.0908 -17.7564 -1.3109 0.9308
2.9663 -18.6934 -1.3878 0.9269
3.9678 -19.8251 -1.4824 0.9221
7.9851 -32.9595 -2.4866 0.8728
8.6384 -32.7667 -2.4846 0.8729
7.1323 -25.0058 -1.9066 0.9010
11.2046 -31.8687 -2.4769 0.8733
12.4560 -31.3451 -2.4731 0.8735
13.0730 -31.0651 -2.4712 0.8736
13.6838 -30.7732 -2.4694 0.8736
14.2883 -30.4696 -2.4675 0.8737
14.8862 -30.1543 -2.4657 0.8738
15.4773 -29.8274 -2.4639 0.8739
16.0614 -29.4892 -2.4621 0.8740
17.2078 -28.7794 -2.4586 0.8742
17.7697 -28.4081 -2.4569 0.8742
18.8698 -27.6335 -2.4535 0.8744
20.4580 -26.3941 -2.4485 0.8746
20.9701 -25.9611 -2.4469 0.8747
21.4734 -25.5184 -2.4454 0.8748
21.9674 -25.0662 -2.4438 0.8749
22.9278 -24.1341 -2.4408 0.8750
23.3936 -23.6546 -2.4393 0.8751
23.8497 -23.1664 -2.4379 0.8752
24.7320 -22.1646 -2.4351 0.8753
25.1580 -21.6514 -2.4337 0.8754
25.5736 -21.1303 -2.4324 0.8754
25.9787 -20.6015 -2.4311 0.8755
26.7571 -19.5216 -2.4285 0.8756
27.1301 -18.9709 -2.4273 0.8757
11.6305 21.4848 -2.3455 0.9065
6.0710 11.7735 -1.2717 0.9482
5.8173 11.8603 -1.2682 0.9483
5.5649 11.9465 -1.2653 0.9484
4.5639 12.2886 -1.2585 0.9487
4.3149 12.3738 -1.2581 0.9487
4.0659 12.4589 -1.2582 0.9487
3.3172 12.7148 -1.2615 0.9486
2.2991 13.0118 -1.2685 0.9483
2.0380 13.0596 -1.2690 0.9483
1.5204 13.2040 -1.2760 0.9480
1.2593 13.2767 -1.2804 0.9478
0.7310 13.4233 -1.2906 0.9474
-0.0796 13.6474 -1.3102 0.9466
-0.3557 13.7235 -1.3180 0.9463
-0.6342 13.7801 -1.3244 0.9461
-0.9129 13.7960 -1.3274 0.9460
-2.4395 14.5185 -1.4134 0.9426
-2.7566 14.6047 -1.4269 0.9420
-4.0917 14.9662 -1.4896 0.9396
-4.4232 14.9889 -1.5004 0.9391
-5.1247 15.1034 -1.5312 0.9379
-5.8237 15.1370 -1.5571 0.9369
-6.3374 15.5341 -1.6107 0.9348
-7.0114 16.2457 -1.6987 0.9314
-7.4738 16.4038 -1.7306 0.9301
-7.4338 15.4841 -1.6490 0.9333
-7.5898 15.0280 -1.6163 0.9346
-7.8623 14.8203 -1.6106 0.9348
-8.3276 14.9637 -1.6441 0.9335
-9.8921 15.4986 -1.7652 0.9288
-10.6584 15.9822 -1.8443 0.9257
-15.5772 19.7236 -2.4129 0.9039
-8.3943 10.2007 -1.2683 0.9483
-8.9028 9.9740 -1.2835 0.9477
-17.1214 18.4230 -2.4146 0.9039
-17.8483 17.7217 -2.4147 0.9039
-18.8863 16.6181 -2.4151 0.9039
-19.8540 15.4521 -2.4153 0.9038
-20.1599 15.0501 -2.4153 0.9038
-20.7460 14.2272 -2.4151 0.9039
-22.2884 11.6217 -2.4132 0.9039
-22.5219 11.1741 -2.4137 0.9039
-22.7489 10.7231 -2.4145 0.9039
-22.9666 10.2673 -2.4152 0.9039
-23.1750 9.8070 -2.4159 0.9038
-23.5632 8.8736 -2.4173 0.9038
-24.2228 6.9612 -2.4196 0.9037
-24.4930 5.9855 -2.4206 0.9036
-24.8222 4.5025 -2.4219 0.9036
-26.7966 2.1224 -2.5807 0.8976
-26.8363 1.5841 -2.5809 0.8976
-26.8649 1.0450 -2.5811 0.8976
-26.8672 -1.1141 -2.5816 0.8976
-26.6908 -3.2661 -2.5816 0.8976
-26.6189 -3.8012 -2.5815 0.8976
-26.4420 -4.8663 -2.5812 0.8976
-26.0943 -6.4478 -2.5805 0.8976
-24.6965 -10.5255 -2.5773 0.8977
-24.0021 -11.9853 -2.5756 0.8978
-23.4898 -12.9328 -2.5743 0.8979
-22.9391 -13.8579 -2.5729 0.8979
-22.6496 -14.3116 -2.5722 0.8979
-22.3510 -14.7590 -2.5714 0.8980
-21.6338 -15.5678 -2.5588 0.8984
-20.0979 -15.0841 -2.4125 0.9040
-16.5898 -13.5257 -2.0550 0.9176
-18.4510 -16.9916 -2.4081 0.9041
-14.8947 -15.4744 -2.0620 0.9173
-13.9232 -15.0589 -1.9690 0.9209
-13.2461 -14.9166 -1.9152 0.9230
-12.2254 -14.9341 -1.8529 0.9254
-11.9688 -15.2348 -1.8600 0.9251
-9.0244 -14.2194 -1.6169 0.9346
-8.5637 -14.1119 -1.5848 0.9358
-8.3128 -14.3401 -1.5913 0.9356
-7.8046 -14.1089 -1.5480 0.9373
-7.4436 -14.1184 -1.5323 0.9379
-7.0959 -14.1399 -1.5188 0.9384
-6.0858 -14.2010 -1.4833 0.9398
-5.8185 -14.3675 -1.4882 0.9396
-5.5112 -14.4350 -1.4834 0.9398
-4.2689 -14.6037 -1.4607 0.9407
-3.6330 -14.5783 -1.4424 0.9414
-3.0598 -14.7849 -1.4495 0.9411
-2.7477 -14.7649 -1.4418 0.9414
-1.8637 -14.9831 -1.4495 0.9411
-1.5666 -15.0570 -1.4533 0.9410
-0.9630 -15.1418 -1.4566 0.9409
-0.6680 -15.3721 -1.4772 0.9400
-0.3595 -15.3930 -1.4782 0.9400
-0.0510 -15.5928 -1.4970 0.9393
0.6064 -16.4325 -1.5787 0.9361
0.9489 -16.6386 -1.6000 0.9352
1.3173 -17.0639 -1.6431 0.9335
1.7137 -17.5877 -1.6965 0.9315
2.0907 -17.7556 -1.7164 0.9307
3.3849 -18.8748 -1.8410 0.9258
4.4124 -19.9555 -1.9621 0.9212
7.1378 -23.2450 -2.3345 0.9069
7.5986 -23.0833 -2.3331 0.9070
8.0558 -22.9126 -2.3317 0.9070
9.5397 -24.0062 -2.4800 0.9014
10.0139 -23.7959 -2.4786 0.9015
10.9487 -23.3479 -2.4757 0.9016
11.8639 -22.8637 -2.4729 0.9017
12.3137 -22.6083 -2.4716 0.9017
12.7581 -22.3442 -2.4702 0.9018
14.0574 -21.5007 -2.4662 0.9019
14.8937 -20.8970 -2.4636 0.9020
15.3024 -20.5832 -2.4624 0.9021
15.7046 -20.2615 -2.4611 0.9021
16.1002 -19.9321 -2.4599 0.9022
16.8709 -19.2507 -2.4575 0.9023
17.9738 -18.1744 -2.4540 0.9024
19.0099 -17.0364 -2.4507 0.9025
19.3398 -16.6441 -2.4496 0.9025
19.6618 -16.2456 -2.4486 0.9026
19.9757 -15.8410 -2.4476 0.9026
7.3670 11.3310 -1.6054 0.9470
6.5834 11.5988 -1.5842 0.9477
5.8174 11.8606 -1.5692 0.9482
4.3150 12.3741 -1.5567 0.9486
3.5673 12.6297 -1.5589 0.9485
3.3173 12.7151 -1.5609 0.9484
2.8148 12.8869 -1.5669 0.9483
2.2991 13.0120 -1.5696 0.9482
1.7738 13.0859 -1.5686 0.9482
1.5123 13.1329 -1.5703 0.9481
1.2525 13.2050 -1.5756 0.9480
0.9908 13.2774 -1.5816 0.9478
0.7270 13.3503 -1.5882 0.9476
-0.0792 13.5720 -1.6122 0.9468
-0.3522 13.5888 -1.6147 0.9467
-1.7175 19.8860 -2.3710 0.9227
-2.1240 14.4053 -1.7296 0.9430
-2.4277 14.4481 -1.7403 0.9427
-2.7403 14.5183 -1.7550 0.9422
-3.0615 14.6046 -1.7725 0.9417
-4.0391 14.7739 -1.8193 0.9402
-4.3637 14.7873 -1.8314 0.9398
-5.0262 14.8133 -1.8581 0.9389
-7.4308 15.4778 -2.0395 0.9332
-7.7057 15.2574 -2.0304 0.9335
-7.8621 14.8200 -1.9928 0.9347
-8.8251 15.1343 -2.0811 0.9319
-9.3459 15.3124 -2.1309 0.9303
-9.8925 15.4993 -2.1841 0.9286
-12.4716 15.7914 -2.3902 0.9221
-8.5518 9.9769 -1.5609 0.9484
-13.9969 14.4672 -2.3911 0.9221
-14.2852 14.1839 -2.3913 0.9221
-14.5675 13.8946 -2.3913 0.9221
-14.8438 13.5995 -2.3914 0.9221
-15.1139 13.2988 -2.3914 0.9221
-15.6477 12.6910 -2.3932 0.9220
-15.9049 12.3786 -2.3940 0.9220
-16.1556 12.0608 -2.3948 0.9220
-16.4000 11.7378 -2.3956 0.9220
-16.6377 11.4098 -2.3964 0.9220
-16.8687 11.0770 -2.3972 0.9219
-17.3103 10.3970 -2.3986 0.9219
-17.7239 9.6992 -2.4000 0.9218
-18.6305 7.8839 -2.4030 0.9217
-18.9405 7.1327 -2.4041 0.9217
-19.2195 6.3691 -2.4051 0.9217
-19.3771 5.9923 -2.4093 0.9215
-21.1539 4.2775 -2.5636 0.9167
-21.2383 3.8524 -2.5640 0.9167
-21.3810 2.9973 -2.5646 0.9167
-21.4391 2.5677 -2.5649 0.9167
-21.5287 1.7052 -2.5653 0.9167
-21.5602 1.2726 -2.5655 0.9167
-21.6012 -0.0277 -2.5659 0.9167
-21.5970 -0.4614 -2.5660 0.9167
-21.5618 -1.3282 -2.5661 0.9167
-21.5308 -1.7608 -2.5661 0.9167
-21.4910 -2.1928 -2.5661 0.9167
-21.4423 -2.6238 -2.5660 0.9167
-21.2429 -3.9095 -2.5657 0.9167
-21.1589 -4.3350 -2.5656 0.9167
-20.9647 -5.1803 -2.5652 0.9167
-20.4729 -6.8428 -2.5641 0.9167
-19.8465 -8.4585 -2.5627 0.9168
-19.6693 -8.8538 -2.5622 0.9168
-19.4841 -9.2453 -2.5618 0.9168
-19.2910 -9.6328 -2.5613 0.9168
-18.4403 -11.1402 -2.5591 0.9169
-18.2087 -11.5055 -2.5585 0.9169
-17.7234 -12.2213 -2.5573 0.9169
-17.4698 -12.5714 -2.5566 0.9170
-17.1998 -12.9090 -2.5545 0.9170
-15.6525 -12.7615 -2.3989 0.9219
-14.8423 -13.6683 -2.3968 0.9219
-14.5603 -13.9591 -2.3960 0.9220
-14.2724 -14.2440 -2.3952 0.9220
-13.6798 -14.7956 -2.3936 0.9220
-12.6419 -14.8253 -2.3144 0.9245
-12.0649 -14.7381 -2.2625 0.9261
-11.5130 -14.6546 -2.2137 0.9277
-9.0658 -14.2846 -2.0097 0.9341
-8.2052 -14.1545 -1.9434 0.9362
-6.3780 -14.0943 -1.8376 0.9396
-5.8019 -14.3263 -1.8360 0.9396
-5.5105 -14.4333 -1.8352 0.9397
-5.1767 -14.4216 -1.8201 0.9401
-4.6091 -14.6673 -1.8263 0.9399
-3.9776 -14.6970 -1.8086 0.9405
-3.6542 -14.6635 -1.7951 0.9409
-2.7772 -14.9235 -1.8031 0.9407
-2.4738 -14.9568 -1.8008 0.9408
-2.1490 -14.8382 -1.7809 0.9414
-0.9675 -15.2129 -1.8107 0.9404
-0.6652 -15.3066 -1.8199 0.9402
-0.0501 -15.3163 -1.8194 0.9402
0.5879 -15.9316 -1.8937 0.9378
0.9290 -16.2904 -1.9382 0.9364
1.6624 -17.0617 -2.0363 0.9333
4.2567 -19.2514 -2.3420 0.9237
5.4001 -18.9325 -2.3386 0.9238
6.5206 -18.5463 -2.3352 0.9239
7.6146 -18.0944 -2.3319 0.9240
9.6104 -18.5209 -2.4786 0.9194
9.9759 -18.3160 -2.4775 0.9194
10.3370 -18.1039 -2.4764 0.9195
11.3932 -17.4258 -2.4731 0.9196
11.7358 -17.1862 -2.4720 0.9196
12.0734 -16.9400 -2.4710 0.9196
12.7332 -16.4279 -2.4690 0.9197
13.0552 -16.1624 -2.4680 0.9197
13.3717 -15.8906 -2.4670 0.9197
14.2875 -15.0392 -2.4641 0.9198
14.5811 -14.7438 -2.4632 0.9199
14.8687 -14.4427 -2.4623 0.9199
15.1502 -14.1361 -2.4614 0.9199
15.6944 -13.5069 -2.4596 0.9200
16.2131 -12.8572 -2.4580 0.9200
16.4626 -12.5250 -2.4571 0.9201
16.9414 -11.8464 -2.4556 0.9201
7.1036 11.4214 -1.9058 0.9471
6.5835 11.5991 -1.8897 0.9475
7.8269 14.4584 -2.3295 0.9357
5.5652 11.9472 -1.8674 0.9481
5.3138 12.0331 -1.8638 0.9482
5.0633 12.1187 -1.8609 0.9483
4.5642 12.2893 -1.8575 0.9484
4.3151 12.3744 -1.8569 0.9484
4.0661 12.4596 -1.8570 0.9484
3.8169 12.5447 -1.8579 0.9484
3.5674 12.6300 -1.8596 0.9484
3.0666 12.8012 -1.8651 0.9482
2.8149 12.8872 -1.8690 0.9481
2.5562 12.9444 -1.8695 0.9481
2.2991 13.0122 -1.8722 0.9480
1.7738 13.0861 -1.8711 0.9480
1.5111 13.1231 -1.8717 0.9480
1.2482 13.1601 -1.8730 0.9480
0.9854 13.2055 -1.8763 0.9479
0.7231 13.2776 -1.8841 0.9477
-0.3478 13.4170 -1.9017 0.9472
-0.6182 13.4321 -1.9052 0.9471
-1.1626 13.4611 -1.9144 0.9469
-1.8240 14.3633 -2.0515 0.9432
-2.1241 14.4055 -2.0632 0.9429
-3.7510 16.2607 -2.3645 0.9348
-4.0780 16.1870 -2.3652 0.9348
-4.5439 15.3977 -2.2747 0.9372
-5.0493 15.9255 -2.3672 0.9347
-5.6065 15.4938 -2.3346 0.9356
-5.8384 15.1752 -2.3038 0.9364
-6.6280 15.3573 -2.3700 0.9347
-6.9365 15.2245 -2.3705 0.9346
-8.1419 14.6300 -2.3723 0.9346
-8.7255 14.2959 -2.3731 0.9346
-9.0121 14.1198 -2.3734 0.9346
-7.7642 11.1507 -1.9252 0.9466
-10.1308 13.3709 -2.3769 0.9345
-10.4009 13.1694 -2.3777 0.9345
-9.8067 10.1362 -1.9983 0.9446
-11.9323 11.8477 -2.3825 0.9343
-9.6893 9.2417 -1.8972 0.9473
-12.4061 11.3662 -2.3840 0.9343
-12.6357 11.1182 -2.3847 0.9343
-12.8602 10.8655 -2.3855 0.9342
-13.0797 10.6082 -2.3862 0.9342
-13.2938 10.3464 -2.3868 0.9342
-13.7062 9.8098 -2.3882 0.9342
-14.2831 8.9739 -2.3901 0.9341
-14.8082 8.1036 -2.3918 0.9341
-14.9713 7.8064 -2.3923 0.9341
-15.2793 7.2022 -2.3934 0.9340
-15.5757 6.9632 -2.4174 0.9334
-16.6647 6.6607 -2.5428 0.9301
-16.9731 6.0055 -2.5510 0.9298
-17.0931 5.6645 -2.5514 0.9298
-17.2061 5.3210 -2.5518 0.9298
-17.3121 4.9752 -2.5522 0.9298
-17.5875 3.9255 -2.5533 0.9298
-17.8534 2.5028 -2.5544 0.9298
-17.9016 2.1440 -2.5546 0.9298
-17.9424 1.7843 -2.5548 0.9297
-18.0357 -0.0231 -2.5555 0.9297
-18.0210 -0.7472 -2.5556 0.9297
-18.0026 -1.1089 -2.5556 0.9297
-17.9435 -1.8308 -2.5556 0.9297
-17.9029 -2.1907 -2.5556 0.9297
-17.8548 -2.5497 -2.5555 0.9297
-17.6668 -3.6195 -2.5552 0.9297
-17.3146 -5.0239 -2.5545 0.9298
-17.2086 -5.3701 -2.5542 0.9298
-16.9756 -6.0554 -2.5537 0.9298
-16.8487 -6.3943 -2.5534 0.9298
-16.7148 -6.7305 -2.5531 0.9298
-16.5741 -7.0638 -2.5528 0.9298
-16.4266 -7.3941 -2.5524 0.9298
-16.2724 -7.7213 -2.5520 0.9298
-16.1116 -8.0452 -2.5516 0.9298
-15.9442 -8.3657 -2.5512 0.9298
-15.7703 -8.6827 -2.5508 0.9299
-15.4033 -9.3054 -2.5498 0.9299
-15.0113 -9.9124 -2.5488 0.9299
-14.8062 -10.2097 -2.5483 0.9299
-14.5950 -10.5027 -2.5477 0.9299
-14.1551 -11.0751 -2.5466 0.9300
-13.9266 -11.3544 -2.5460 0.9300
-13.4220 -11.8712 -2.5389 0.9302
-12.8763 -11.8578 -2.4802 0.9317
-12.2073 -11.7033 -2.3961 0.9340
-11.6837 -12.1384 -2.3872 0.9342
-11.1805 -12.5905 -2.3858 0.9342
-10.9222 -12.8086 -2.3851 0.9343
-10.6596 -13.0214 -2.3844 0.9343
-10.1219 -13.4305 -2.3829 0.9343
-9.8470 -13.6267 -2.3821 0.9343
-9.5683 -13.8172 -2.3813 0.9344
-8.6284 -14.2186 -2.3565 0.9350
-8.2053 -14.1546 -2.3182 0.9360
-7.3984 -14.0326 -2.2477 0.9379
-7.0127 -13.9743 -2.2153 0.9388
-6.6555 -13.9546 -2.1906 0.9395
-5.1196 -14.2625 -2.1471 0.9406
-4.8188 -14.3227 -2.1412 0.9408
-4.5196 -14.3827 -2.1361 0.9409
-3.9248 -14.5019 -2.1287 0.9411
-3.3332 -14.6204 -2.1247 0.9412
-2.4475 -14.7979 -2.1252 0.9412
-2.1518 -14.8572 -2.1271 0.9412
-1.8554 -14.9166 -2.1298 0.9411
-0.9600 -15.0960 -2.1433 0.9407
-0.6586 -15.1564 -2.1495 0.9406
-0.3554 -15.2171 -2.1567 0.9404
0.2620 -15.5876 -2.2089 0.9390
0.5879 -15.9304 -2.2587 0.9376
0.9290 -16.2891 -2.3117 0.9362
1.6078 -16.5017 -2.3492 0.9352
1.9380 -16.4592 -2.3482 0.9352
3.2470 -16.2237 -2.3443 0.9353
3.5706 -16.1486 -2.3433 0.9354
4.2126 -15.9791 -2.3414 0.9354
4.5308 -15.8848 -2.3405 0.9354
5.1607 -15.6775 -2.3386 0.9355
5.4723 -15.5644 -2.3376 0.9355
5.7814 -15.4452 -2.3367 0.9355
6.0879 -15.3200 -2.3358 0.9356
6.6928 -15.0514 -2.3340 0.9356
6.9910 -14.9081 -2.3330 0.9356
8.0672 -15.5470 -2.4817 0.9317
8.3769 -15.3803 -2.4815 0.9317
9.2773 -14.8315 -2.4787 0.9318
10.4225 -14.0193 -2.4752 0.9319
10.6982 -13.8024 -2.4743 0.9319
11.4981 -13.1201 -2.4718 0.9319
11.7554 -12.8824 -2.4710 0.9320
12.0078 -12.6396 -2.4702 0.9320
12.7352 -11.8827 -2.4679 0.9321
12.9673 -11.6211 -2.4672 0.9321
13.1942 -11.3551 -2.4665 0.9321
13.6316 -10.8101 -2.4651 0.9321
13.8421 -10.5313 -2.4644 0.9321
7.3585 11.3181 -2.2240 0.9467
7.1006 11.4166 -2.2149 0.9470
6.8426 11.5109 -2.2060 0.9472
6.7265 12.4258 -2.3277 0.9443
5.8177 11.8612 -2.1764 0.9479
5.5653 11.9475 -2.1713 0.9480
5.3140 12.0334 -2.1671 0.9481
5.0635 12.1190 -2.1637 0.9481
4.8136 12.2044 -2.1613 0.9482
4.5643 12.2896 -2.1597 0.9482
3.8170 12.5450 -2.1602 0.9482
3.5675 12.6303 -2.1621 0.9482
3.0667 12.8015 -2.1686 0.9480
2.5561 12.9440 -2.1736 0.9479
1.6269 14.1283 -2.3429 0.9440
1.3434 14.1632 -2.3437 0.9440
0.4697 13.6779 -2.2546 0.9460
-0.3694 14.2510 -2.3485 0.9438
-0.6557 14.2452 -2.3492 0.9438
-0.9418 14.2336 -2.3500 0.9438
-1.5135 14.1928 -2.3514 0.9438
-2.0833 14.1288 -2.3527 0.9437
-2.6512 14.0462 -2.3548 0.9437
-2.9338 13.9951 -2.3557 0.9437
-3.2153 13.9384 -2.3565 0.9437
-3.4958 13.8759 -2.3573 0.9436
-3.7750 13.8078 -2.3582 0.9436
-4.0529 13.7341 -2.3590 0.9436
-4.3294 13.6547 -2.3598 0.9436
-4.8775 13.4793 -2.3615 0.9435
-5.1490 13.3833 -2.3623 0.9435
-5.4185 13.2817 -2.3631 0.9435
-6.9896 12.5595 -2.3679 0.9434
-7.2427 12.4207 -2.3686 0.9434
-7.7536 11.1355 -2.2354 0.9465
-6.6238 9.1169 -1.8565 0.9553
-7.7172 9.7713 -2.0512 0.9508
-7.6777 9.3299 -1.9905 0.9522
-7.9714 9.2998 -2.0178 0.9516
-8.2914 9.2890 -2.0512 0.9508
-8.9650 9.2662 -2.1240 0.9491
-9.6893 9.2417 -2.2059 0.9472
-11.0377 9.3257 -2.3805 0.9431
-11.2256 9.1044 -2.3811 0.9431
-11.4089 8.8794 -2.3816 0.9431
-11.9312 8.1822 -2.3833 0.9430
-12.0958 7.9428 -2.3839 0.9430
-12.2555 7.7000 -2.3844 0.9430
-12.5386 7.5310 -2.4095 0.9424
-13.4462 7.3583 -2.5251 0.9398
-13.9578 6.5792 -2.5420 0.9394
-14.0895 6.2988 -2.5425 0.9394
-14.5588 5.1513 -2.5441 0.9393
-14.7581 4.5639 -2.5448 0.9393
-14.8487 4.2672 -2.5452 0.9393
-14.9332 3.9687 -2.5455 0.9393
-15.0116 3.6685 -2.5458 0.9393
-15.3522 1.8387 -2.5472 0.9392
-15.3871 1.5301 -2.5474 0.9392
-15.4378 0.9112 -2.5476 0.9392
-15.4537 0.6011 -2.5478 0.9392
-15.4665 -0.0198 -2.5479 0.9392
-15.4633 -0.3304 -2.5480 0.9392
-15.4380 -0.9509 -2.5481 0.9392
-15.3873 -1.5700 -2.5480 0.9392
-15.3525 -1.8786 -2.5480 0.9392
-15.2639 -2.4934 -2.5479 0.9392
-14.6615 -4.9004 -2.5467 0.9393
-14.4502 -5.4841 -2.5462 0.9393
-14.2152 -6.0585 -2.5456 0.9393
-14.0890 -6.3419 -2.5453 0.9393
-13.6762 -7.1757 -2.5443 0.9393
-13.2132 -7.9824 -2.5431 0.9393
-11.3335 -10.4370 -2.5382 0.9395
-10.9003 -10.8786 -2.5370 0.9395
-8.6888 -11.5289 -2.3782 0.9432
-8.4532 -11.6978 -2.3776 0.9432
-7.7271 -12.1752 -2.3756 0.9432
-7.2277 -12.4683 -2.3742 0.9433
-5.9325 -13.1097 -2.3705 0.9433
-5.6663 -13.2220 -2.3698 0.9434
-5.3979 -13.3288 -2.3690 0.9434
-5.1275 -13.4301 -2.3682 0.9434
-4.8552 -13.5259 -2.3675 0.9434
-4.5812 -13.6162 -2.3667 0.9434
-4.0281 -13.7799 -2.3651 0.9435
-3.1879 -13.9831 -2.3627 0.9435
-2.6221 -14.0901 -2.3610 0.9436
-2.0529 -14.1741 -2.3594 0.9436
-1.4811 -14.2350 -2.3577 0.9436
-0.6207 -14.2832 -2.3552 0.9437
-0.3337 -14.2876 -2.3544 0.9437
0.2400 -14.2793 -2.3527 0.9437
0.5265 -14.2665 -2.3518 0.9438
1.0981 -14.2237 -2.3502 0.9438
1.6671 -14.1580 -2.3485 0.9438
3.0723 -13.8948 -2.3443 0.9439
3.6251 -13.7505 -2.3427 0.9440
4.4417 -13.4932 -2.3402 0.9440
4.9764 -13.2949 -2.3386 0.9441
5.6457 -13.4158 -2.3978 0.9427
6.1187 -13.7603 -2.4809 0.9408
6.4033 -13.6550 -2.4846 0.9407
6.6802 -13.5317 -2.4860 0.9407
6.9482 -13.3905 -2.4852 0.9407
7.2134 -13.2439 -2.4844 0.9407
7.4754 -13.0922 -2.4836 0.9407
8.2422 -12.6064 -2.4813 0.9408
8.4911 -12.4346 -2.4805 0.9408
8.7363 -12.2578 -2.4797 0.9408
9.4500 -11.6992 -2.4775 0.9409
9.9064 -11.3038 -2.4761 0.9409
10.7696 -10.4610 -2.4734 0.9410
10.9746 -10.2400 -2.4727 0.9410
11.3710 -9.7861 -2.4715 0.9410
11.5623 -9.5534 -2.4708 0.9410
12.2800 -8.5869 -2.4685 0.9411
6.5431 10.5203 -2.3287 0.9508
6.3322 10.6522 -2.3292 0.9508
5.9025 10.9035 -2.3305 0.9508
5.6838 11.0227 -2.3311 0.9508
4.7863 11.4557 -2.3336 0.9507
4.5566 11.5527 -2.3343 0.9507
4.3249 11.6451 -2.3349 0.9507
3.6191 11.8946 -2.3369 0.9507
3.1405 12.0374 -2.3383 0.9506
2.4123 12.2156 -2.3404 0.9506
1.9210 12.3100 -2.3418 0.9506
1.6740 12.3499 -2.3425 0.9505
0.6785 12.4598 -2.3454 0.9505
0.4284 12.4747 -2.3461 0.9505
-0.3237 12.4896 -2.3483 0.9504
-0.5746 12.4845 -2.3491 0.9504
-1.0761 12.4592 -2.3506 0.9504
-1.5764 12.4137 -2.3520 0.9503
-2.3231 12.3079 -2.3542 0.9503
-2.8171 12.2123 -2.3557 0.9503
-3.0627 12.1571 -2.3565 0.9503
-3.3072 12.0969 -2.3572 0.9502
-4.0332 11.8868 -2.3594 0.9502
-4.2724 11.8070 -2.3601 0.9502
-5.4424 11.3362 -2.3636 0.9501
-5.8966 11.1151 -2.3650 0.9501
-6.1204 10.9976 -2.3657 0.9501
-6.3418 10.8756 -2.3663 0.9501
-6.5607 10.7492 -2.3670 0.9500
-6.6163 9.1066 -2.1158 0.9552
-7.9027 9.2197 -2.2824 0.9518
-8.2200 9.2090 -2.3202 0.9510
-9.3190 8.5379 -2.3756 0.9499
-10.0872 7.8508 -2.4026 0.9493
-10.8232 7.7464 -2.5017 0.9473
-11.2572 7.3921 -2.5313 0.9467
-11.8351 6.4766 -2.5358 0.9466
-11.9648 6.2387 -2.5363 0.9466
-12.0896 5.9982 -2.5367 0.9466
-12.2096 5.7552 -2.5371 0.9465
-12.4346 5.2619 -2.5379 0.9465
-12.7341 4.5056 -2.5389 0.9465
-12.8236 4.2496 -2.5392 0.9465
-13.0606 3.4710 -2.5401 0.9465
-13.1290 3.2084 -2.5404 0.9465
-13.1921 2.9444 -2.5406 0.9465
-13.2497 2.6792 -2.5408 0.9465
-13.3019 2.4128 -2.5410 0.9465
-13.4563 1.3381 -2.5417 0.9464
-13.4812 1.0678 -2.5419 0.9464
-13.5005 0.7969 -2.5420 0.9464
-13.5226 0.2542 -2.5422 0.9464
-13.5254 -0.0173 -2.5422 0.9464
-13.5226 -0.2889 -2.5423 0.9464
-13.5143 -0.5604 -2.5423 0.9464
-13.5004 -0.8316 -2.5424 0.9464
-13.4561 -1.3730 -2.5423 0.9464
-13.4256 -1.6429 -2.5423 0.9464
-13.3897 -1.9121 -2.5423 0.9464
-13.3483 -2.1805 -2.5422 0.9464
-13.3014 -2.4480 -2.5421 0.9464
-13.2491 -2.7145 -2.5420 0.9464
-13.1913 -2.9798 -2.5419 0.9464
-13.0597 -3.5067 -2.5417 0.9465
-12.7326 -4.5419 -2.5409 0.9465
-12.6377 -4.7962 -2.5407 0.9465
-12.2072 -5.7923 -2.5397 0.9465
-12.0870 -6.0356 -2.5394 0.9465
-11.8320 -6.5143 -2.5387 0.9465
-11.5577 -6.9822 -2.5380 0.9465
-11.4135 -7.2118 -2.5377 0.9465
-10.9534 -7.8821 -2.5365 0.9466
-10.2784 -8.7294 -2.5347 0.9466
-9.9159 -9.1315 -2.5337 0.9466
-9.7286 -9.3269 -2.5332 0.9466
-9.1437 -9.8895 -2.5316 0.9467
-8.9413 -10.0689 -2.5311 0.9467
-8.3113 -10.5793 -2.5287 0.9467
-8.0858 -10.7289 -2.5252 0.9468
-6.5978 -10.8723 -2.3904 0.9496
-5.8804 -11.1534 -2.3699 0.9500
-5.4249 -11.3743 -2.3686 0.9500
-5.1940 -11.4778 -2.3680 0.9500
-4.0117 -11.9236 -2.3646 0.9501
-3.7704 -11.9983 -2.3639 0.9501
-2.7922 -12.2475 -2.3611 0.9502
-2.5450 -12.2974 -2.3604 0.9502
-2.2969 -12.3423 -2.3597 0.9502
-2.0480 -12.3821 -2.3590 0.9502
-1.2976 -12.4714 -2.3568 0.9502
-0.7953 -12.5057 -2.3553 0.9503
-0.2924 -12.5197 -2.3539 0.9503
-0.0409 -12.5191 -2.3531 0.9503
0.2104 -12.5135 -2.3524 0.9503
0.7121 -12.4871 -2.3509 0.9504
0.9624 -12.4664 -2.3502 0.9504
1.2122 -12.4407 -2.3494 0.9504
1.4612 -12.4099 -2.3487 0.9504
1.6341 -11.8280 -2.2443 0.9526
2.2037 -12.2879 -2.3465 0.9505
2.4492 -12.2374 -2.3458 0.9505
2.9367 -12.1216 -2.3443 0.9505
3.7340 -12.1603 -2.3910 0.9495
4.3857 -12.4739 -2.4853 0.9476
4.6402 -12.3967 -2.4880 0.9476
5.1390 -12.2116 -2.4903 0.9475
6.5580 -11.4855 -2.4859 0.9476
6.7854 -11.3483 -2.4853 0.9476
7.0099 -11.2067 -2.4846 0.9476
7.2316 -11.0606 -2.4839 0.9476
7.4502 -10.9102 -2.4832 0.9476
7.6657 -10.7555 -2.4825 0.9477
8.0870 -10.4336 -2.4812 0.9477
8.2928 -10.2665 -2.4806 0.9477
8.6939 -9.9202 -2.4793 0.9477
8.8891 -9.7413 -2.4787 0.9477
9.0807 -9.5585 -2.4781 0.9478
9.4527 -9.1819 -2.4769 0.9478
9.6329 -8.9881 -2.4764 0.9478
9.8092 -8.7909 -2.4758 0.9478
9.9815 -8.5903 -2.4753 0.9478
10.7810 -7.5387 -2.4727 0.9479
6.0097 9.2433 -2.3305 0.9559
5.8241 9.3642 -2.3310 0.9559
5.4459 9.5949 -2.3321 0.9559
5.2534 9.7045 -2.3326 0.9559
4.8618 9.9123 -2.3337 0.9559
4.6629 10.0103 -2.3343 0.9559
4.2594 10.1944 -2.3354 0.9558
4.0548 10.2805 -2.3360 0.9558
3.2202 10.5834 -2.3384 0.9558
3.0078 10.6487 -2.3390 0.9558
2.3631 10.8190 -2.3408 0.9557
2.1460 10.8672 -2.3415 0.9557
1.9279 10.9110 -2.3421 0.9557
1.7089 10.9505 -2.3427 0.9557
1.4891 10.9856 -2.3434 0.9557
-0.0648 11.1073 -2.3479 0.9556
-0.9568 11.0786 -2.3505 0.9556
-1.1794 11.0603 -2.3512 0.9555
-1.4017 11.0374 -2.3518 0.9555
-1.6234 11.0102 -2.3525 0.9555
-1.8447 10.9784 -2.3531 0.9555
-2.0653 10.9422 -2.3538 0.9555
-2.2853 10.9015 -2.3545 0.9555
-3.7973 10.4940 -2.3590 0.9554
-4.0083 10.4184 -2.3596 0.9554
-4.2178 10.3386 -2.3602 0.9554
-4.6319 10.1663 -2.3615 0.9554
-5.0390 9.9774 -2.3627 0.9553
-5.4383 9.7721 -2.3639 0.9553
-5.6349 9.6633 -2.3645 0.9553
-6.0213 9.4340 -2.3657 0.9553
-6.5832 9.0610 -2.3675 0.9552
-7.2958 8.5116 -2.3697 0.9552
-7.8002 8.0623 -2.3713 0.9552
-8.9519 7.8768 -2.5205 0.9524
-9.1196 7.7051 -2.5236 0.9524
-9.2843 7.5300 -2.5268 0.9523
-9.4402 7.3472 -2.5286 0.9523
-9.7312 6.9649 -2.5296 0.9523
-9.8709 6.7693 -2.5300 0.9522
-10.0066 6.5709 -2.5305 0.9522
-10.1382 6.3697 -2.5309 0.9522
-10.2658 6.1659 -2.5313 0.9522
-10.3892 5.9595 -2.5317 0.9522
-10.5084 5.7506 -2.5321 0.9522
-10.6233 5.5393 -2.5325 0.9522
-10.7340 5.3256 -2.5329 0.9522
-10.8403 5.1098 -2.5332 0.9522
-10.9422 4.8918 -2.5336 0.9522
-11.0397 4.6717 -2.5339 0.9522
-11.1327 4.4496 -2.5342 0.9522
-11.3051 4.0000 -2.5348 0.9522
-11.4590 3.5437 -2.5354 0.9521
-11.5944 3.0814 -2.5359 0.9521
-11.6549 2.8482 -2.5361 0.9521
-11.7108 2.6138 -2.5363 0.9521
-11.7619 2.3783 -2.5365 0.9521
-11.8495 1.9045 -2.5369 0.9521
-11.8861 1.6663 -2.5371 0.9521
-11.9839 0.7074 -2.5376 0.9521
-12.0034 0.2257 -2.5377 0.9521
-11.9836 -0.7382 -2.5379 0.9521
-11.9442 -1.2187 -2.5379 0.9521
-11.9172 -1.4583 -2.5379 0.9521
-11.8854 -1.6972 -2.5378 0.9521
-11.8071 -2.1729 -2.5377 0.9521
-11.7095 -2.6451 -2.5375 0.9521
-11.6535 -2.8795 -2.5374 0.9521
-11.5927 -3.1128 -2.5373 0.9521
-11.4571 -3.5753 -2.5370 0.9521
-11.3822 -3.8043 -2.5368 0.9521
-11.0368 -4.7038 -2.5360 0.9521
-10.8370 -5.1422 -2.5355 0.9521
-10.5043 -5.7833 -2.5347 0.9522
-10.3848 -5.9924 -2.5344 0.9522
-10.1332 -6.4029 -2.5337 0.9522
-9.8653 -6.8027 -2.5330 0.9522
-9.7253 -6.9984 -2.5327 0.9522
-9.5814 -7.1912 -2.5323 0.9522
-9.4336 -7.3809 -2.5319 0.9522
-9.2820 -7.5677 -2.5315 0.9522
-9.1267 -7.7513 -2.5311 0.9522
-8.9677 -7.9316 -2.5307 0.9522
-8.6390 -8.2824 -2.5298 0.9522
-8.2965 -8.6194 -2.5288 0.9523
-8.1202 -8.7825 -2.5284 0.9523
-7.9407 -8.9421 -2.5279 0.9523
-7.7580 -9.0979 -2.5274 0.9523
-7.1918 -9.5426 -2.5258 0.9523
-6.9972 -9.6830 -2.5253 0.9523
-6.7999 -9.8194 -2.5247 0.9523
-6.5999 -9.9518 -2.5242 0.9524
-6.3974 -10.0800 -2.5236 0.9524
-5.9848 -10.3240 -2.5225 0.9524
-5.1187 -10.7324 -2.5134 0.9525
-4.8836 -10.7919 -2.5039 0.9527
-4.3709 -10.7928 -2.4614 0.9535
-4.1238 -10.8011 -2.4439 0.9538
-3.8811 -10.8121 -2.4283 0.9541
-3.1697 -10.8434 -2.3880 0.9549
-2.9374 -10.8532 -2.3767 0.9551
-2.4828 -10.8902 -2.3610 0.9554
-1.3762 -11.0639 -2.3567 0.9554
-0.7071 -11.1175 -2.3548 0.9555
-0.0364 -11.1306 -2.3528 0.9555
1.0976 -11.2649 -2.3925 0.9548
1.3320 -11.3127 -2.4078 0.9545
2.3125 -11.5546 -2.4908 0.9530
2.5454 -11.5117 -2.4921 0.9529
2.7776 -11.4649 -2.4935 0.9529
3.2384 -11.3537 -2.4956 0.9529
3.4647 -11.2833 -2.4950 0.9529
3.6896 -11.2084 -2.4943 0.9529
3.9128 -11.1290 -2.4936 0.9529
4.1344 -11.0453 -2.4930 0.9529
4.3542 -10.9571 -2.4923 0.9529
4.7881 -10.7678 -2.4910 0.9530
5.2138 -10.5614 -2.4897 0.9530
5.6308 -10.3383 -2.4884 0.9530
6.0383 -10.0988 -2.4872 0.9530
6.4357 -9.8434 -2.4859 0.9531
6.6304 -9.7098 -2.4853 0.9531
6.8224 -9.5725 -2.4847 0.9531
7.1979 -9.2865 -2.4836 0.9531
7.3812 -9.1380 -2.4830 0.9531
7.9126 -8.6712 -2.4813 0.9531
8.2509 -8.3429 -2.4803 0.9532
8.8864 -7.6478 -2.4783 0.9532
9.0364 -7.4664 -2.4778 0.9532
9.3254 -7.0949 -2.4769 0.9532
9.5993 -6.7124 -2.4760 0.9532
5.2425 8.4291 -2.3329 0.9600
4.9019 8.6363 -2.3339 0.9600
4.7285 8.7348 -2.3344 0.9600
4.5531 8.8299 -2.3349 0.9600
4.0159 9.0939 -2.3364 0.9600
3.8333 9.1747 -2.3369 0.9600
3.6491 9.2519 -2.3374 0.9600
2.5142 9.6367 -2.3407 0.9599
2.1263 9.7346 -2.3418 0.9599
1.9308 9.7776 -2.3423 0.9599
1.7346 9.8168 -2.3429 0.9599
1.1412 9.9107 -2.3446 0.9598
0.7428 9.9534 -2.3458 0.9598
-0.0583 9.9909 -2.3481 0.9598
-0.2589 9.9902 -2.3487 0.9598
-0.4596 9.9855 -2.3493 0.9598
-0.6602 9.9768 -2.3499 0.9597
-0.8606 9.9640 -2.3505 0.9597
-1.0607 9.9472 -2.3511 0.9597
-1.4600 9.9016 -2.3523 0.9597
-1.6589 9.8727 -2.3528 0.9597
-2.0550 9.8031 -2.3540 0.9597
-2.2520 9.7623 -2.3546 0.9597
-2.6434 9.6688 -2.3558 0.9596
-2.8377 9.6161 -2.3564 0.9596
-3.0310 9.5596 -2.3569 0.9596
-4.3477 9.0559 -2.3609 0.9596
-4.8884 8.7838 -2.3626 0.9595
-5.0649 8.6859 -2.3631 0.9595
-5.2395 8.5844 -2.3636 0.9595
-5.4120 8.4793 -2.3642 0.9595
-5.5824 8.3708 -2.3647 0.9595
-5.7506 8.2589 -2.3652 0.9595
-5.9165 8.1435 -2.3657 0.9595
-6.3991 8.1025 -2.4265 0.9585
-6.6548 8.0869 -2.4614 0.9579
-7.1267 7.9842 -2.5153 0.9570
-8.0646 7.0961 -2.5246 0.9568
-8.3460 6.7690 -2.5255 0.9568
-8.4817 6.6012 -2.5260 0.9568
-8.6140 6.4307 -2.5264 0.9568
-8.7428 6.2574 -2.5268 0.9568
-8.8681 6.0816 -2.5272 0.9568
-9.1080 5.7224 -2.5280 0.9568
-9.3331 5.3537 -2.5288 0.9568
-9.4400 5.1659 -2.5291 0.9567
-9.5432 4.9760 -2.5295 0.9567
-9.7378 4.5901 -2.5301 0.9567
-9.8292 4.3942 -2.5304 0.9567
-9.9166 4.1964 -2.5307 0.9567
-10.1546 3.5930 -2.5316 0.9567
-10.2927 3.1830 -2.5321 0.9567
-10.3555 2.9759 -2.5323 0.9567
-10.4684 2.5582 -2.5327 0.9567
-10.5642 2.1362 -2.5331 0.9567
-10.6057 1.9238 -2.5333 0.9567
-10.6756 1.4966 -2.5336 0.9567
-10.7282 1.0669 -2.5338 0.9567
-10.7479 0.8513 -2.5339 0.9567
-10.7741 0.4191 -2.5341 0.9567
-10.7807 0.2027 -2.5342 0.9567
-10.7828 -0.0138 -2.5342 0.9567
-10.7805 -0.2303 -2.5342 0.9567
-10.7473 -0.8789 -2.5343 0.9567
-10.7274 -1.0946 -2.5343 0.9567
-10.7032 -1.3097 -2.5343 0.9567
-10.6416 -1.7383 -2.5342 0.9567
-10.6043 -1.9516 -2.5341 0.9567
-10.4120 -2.7957 -2.5337 0.9567
-10.3533 -3.0041 -2.5336 0.9567
-10.2903 -3.2112 -2.5335 0.9567
-10.2231 -3.4169 -2.5333 0.9567
-10.0764 -3.8241 -2.5330 0.9567
-9.9132 -4.2249 -2.5326 0.9567
-9.7339 -4.6188 -2.5322 0.9567
-9.6383 -4.8128 -2.5319 0.9567
-9.5388 -5.0049 -2.5317 0.9567
-9.3282 -5.3827 -2.5311 0.9567
-9.2172 -5.5683 -2.5309 0.9567
-9.1024 -5.7515 -2.5306 0.9567
-8.9840 -5.9324 -2.5303 0.9567
-8.8620 -6.1108 -2.5299 0.9567
-8.6072 -6.4600 -2.5293 0.9567
-8.4746 -6.6306 -2.5289 0.9567
-8.1992 -6.9635 -2.5282 0.9568
-7.9106 -7.2849 -2.5274 0.9568
-7.1346 -8.0344 -2.5253 0.9568
-6.9706 -8.1745 -2.5249 0.9568
-6.8038 -8.3114 -2.5244 0.9568
-6.4623 -8.5746 -2.5235 0.9568
-6.1104 -8.8237 -2.5225 0.9569
-5.7489 -9.0583 -2.5215 0.9569
-5.1899 -9.3822 -2.5199 0.9569
-4.9994 -9.4825 -2.5194 0.9569
-4.6127 -9.6714 -2.5183 0.9569
-4.4166 -9.7599 -2.5177 0.9569
-4.2188 -9.8444 -2.5172 0.9569
-3.6160 -10.0737 -2.5155 0.9570
-3.0009 -10.2659 -2.5137 0.9570
-2.7935 -10.3216 -2.5131 0.9570
-2.3756 -10.4202 -2.5118 0.9570
-2.1650 -10.4616 -2.5108 0.9571
-1.9538 -10.4989 -2.5099 0.9571
-1.7420 -10.5323 -2.5090 0.9571
-1.3169 -10.5871 -2.5074 0.9571
-1.1038 -10.6087 -2.5067 0.9571
-0.6767 -10.6401 -2.5057 0.9571
-0.2489 -10.6555 -2.5050 0.9572
-0.0349 -10.6572 -2.5047 0.9572
0.1791 -10.6547 -2.5045 0.9572
0.3929 -10.6463 -2.5038 0.9572
0.6064 -10.6336 -2.5032 0.9572
0.8196 -10.6166 -2.5026 0.9572
1.4562 -10.5401 -2.5007 0.9572
1.8773 -10.4679 -2.4994 0.9572
2.0865 -10.4255 -2.4988 0.9573
2.2949 -10.3789 -2.4982 0.9573
2.5022 -10.3282 -2.4976 0.9573
2.7084 -10.2733 -2.4970 0.9573
2.9134 -10.2143 -2.4963 0.9573
3.1171 -10.1513 -2.4957 0.9573
3.3195 -10.0842 -2.4951 0.9573
4.1140 -9.7760 -2.4927 0.9574
4.3084 -9.6891 -2.4921 0.9574
4.5010 -9.5984 -2.4916 0.9574
4.6917 -9.5038 -2.4910 0.9574
4.8805 -9.4056 -2.4904 0.9574
5.2518 -9.1978 -2.4893 0.9574
5.4342 -9.0885 -2.4887 0.9574
5.6143 -8.9755 -2.4882 0.9574
6.4787 -8.3586 -2.4855 0.9575
6.6439 -8.2252 -2.4850 0.9575
6.8063 -8.0885 -2.4845 0.9575
6.9659 -7.9486 -2.4840 0.9575
7.8618 -7.0457 -2.4811 0.9575
8.0003 -6.8852 -2.4807 0.9576
8.2674 -6.5562 -2.4798 0.9576
8.3960 -6.3878 -2.4794 0.9576
8.5211 -6.2169 -2.4790 0.9576
8.6429 -6.0436 -2.4786 0.9576
4.9138 7.5579 -2.3341 0.9634
4.6081 7.7519 -2.3350 0.9634
4.4524 7.8443 -2.3354 0.9634
4.2948 7.9336 -2.3358 0.9634
4.1354 8.0198 -2.3363 0.9634
3.9743 8.1028 -2.3367 0.9634
3.8116 8.1826 -2.3372 0.9634
3.6472 8.2591 -2.3377 0.9634
3.4814 8.3323 -2.3381 0.9634
3.3140 8.4023 -2.3386 0.9634
2.9752 8.5320 -2.3396 0.9634
2.8039 8.5919 -2.3401 0.9633
2.4577 8.7012 -2.3410 0.9633
2.1073 8.7966 -2.3420 0.9633
1.7532 8.8780 -2.3431 0.9633
1.5749 8.9134 -2.3436 0.9633
1.3959 8.9452 -2.3441 0.9633
1.2163 8.9734 -2.3446 0.9633
1.0361 8.9980 -2.3451 0.9633
0.8554 9.0190 -2.3457 0.9633
0.6743 9.0364 -2.3462 0.9633
-0.0529 9.0696 -2.3483 0.9632
-0.2351 9.0688 -2.3489 0.9632
-0.7811 9.0444 -2.3505 0.9632
-1.3251 8.9871 -2.3521 0.9632
-1.6857 8.9307 -2.3531 0.9631
-2.2218 8.8190 -2.3547 0.9631
-2.3989 8.7746 -2.3553 0.9631
-2.5752 8.7266 -2.3558 0.9631
-3.0980 8.5614 -2.3574 0.9631
-3.6101 8.3648 -2.3589 0.9631
-3.7782 8.2924 -2.3594 0.9630
-3.9448 8.2167 -2.3599 0.9630
-4.1140 8.1459 -2.3628 0.9630
-4.5259 8.1326 -2.4098 0.9623
-4.7393 8.1275 -2.4360 0.9619
-5.1805 8.1166 -2.4931 0.9610
-5.7075 7.8558 -2.5142 0.9607
-6.0289 7.6336 -2.5186 0.9606
-6.1821 7.5125 -2.5190 0.9606
-6.4811 7.2609 -2.5200 0.9606
-6.9102 6.8612 -2.5213 0.9606
-7.0478 6.7222 -2.5217 0.9606
-7.1825 6.5805 -2.5222 0.9605
-7.4434 6.2889 -2.5230 0.9605
-7.5694 6.1391 -2.5234 0.9605
-7.6923 5.9868 -2.5238 0.9605
-7.8122 5.8321 -2.5242 0.9605
-7.9289 5.6749 -2.5246 0.9605
-8.6539 4.5123 -2.5270 0.9605
-8.7438 4.3382 -2.5273 0.9605
-9.1395 3.4418 -2.5286 0.9605
-9.2720 3.0726 -2.5291 0.9604
-9.3895 2.6984 -2.5295 0.9604
-9.4917 2.3196 -2.5299 0.9604
-9.5371 2.1287 -2.5301 0.9604
-9.5785 1.9369 -2.5302 0.9604
-9.6160 1.7442 -2.5304 0.9604
-9.6794 1.3569 -2.5307 0.9604
-9.7051 1.1624 -2.5308 0.9604
-9.7586 0.5760 -2.5311 0.9604
-9.7685 0.3800 -2.5311 0.9604
-9.7744 0.1838 -2.5312 0.9604
-9.7681 -0.4050 -2.5313 0.9604
-9.7441 -0.7969 -2.5313 0.9604
-9.7261 -0.9924 -2.5313 0.9604
-9.7041 -1.1875 -2.5313 0.9604
-9.6483 -1.5761 -2.5312 0.9604
-9.6145 -1.7694 -2.5312 0.9604
-9.5352 -2.1539 -2.5310 0.9604
-9.4403 -2.5348 -2.5308 0.9604
-9.3300 -2.9115 -2.5306 0.9604
-9.2046 -3.2834 -2.5303 0.9604
-9.1362 -3.4673 -2.5302 0.9604
-8.9090 -4.0102 -2.5296 0.9604
-8.8259 -4.1879 -2.5294 0.9604
-8.7393 -4.3639 -2.5292 0.9604
-8.3578 -5.0491 -2.5282 0.9605
-8.2539 -5.2154 -2.5280 0.9605
-7.9222 -5.7009 -2.5271 0.9605
-7.6851 -6.0129 -2.5265 0.9605
-7.5618 -6.1652 -2.5261 0.9605
-7.4355 -6.3149 -2.5258 0.9605
-7.1740 -6.6065 -2.5251 0.9605
-7.0389 -6.7483 -2.5247 0.9605
-6.9009 -6.8872 -2.5244 0.9605
-6.6168 -7.1565 -2.5236 0.9605
-6.4708 -7.2868 -2.5232 0.9605
-6.3221 -7.4140 -2.5228 0.9605
-5.8614 -7.7773 -2.5215 0.9606
-5.5424 -8.0035 -2.5206 0.9606
-5.0478 -8.3182 -2.5193 0.9606
-4.8788 -8.4163 -2.5188 0.9606
-4.7080 -8.5109 -2.5183 0.9606
-4.5352 -8.6020 -2.5178 0.9606
-4.3608 -8.6897 -2.5173 0.9606
-4.1846 -8.7737 -2.5168 0.9606
-4.0068 -8.8542 -2.5163 0.9606
-3.8274 -8.9311 -2.5158 0.9606
-3.6466 -9.0043 -2.5153 0.9607
-3.0959 -9.2018 -2.5137 0.9607
-2.9099 -9.2601 -2.5132 0.9607
-2.7228 -9.3147 -2.5127 0.9607
-1.7736 -9.5303 -2.5099 0.9607
-1.5815 -9.5619 -2.5094 0.9607
-1.1958 -9.6134 -2.5083 0.9608
-0.6144 -9.6614 -2.5066 0.9608
-0.4202 -9.6696 -2.5060 0.9608
-0.2259 -9.6739 -2.5054 0.9608
0.7440 -9.6368 -2.5026 0.9609
1.1298 -9.5948 -2.5014 0.9609
1.3219 -9.5680 -2.5009 0.9609
1.5134 -9.5374 -2.5003 0.9609
2.0834 -9.4226 -2.4986 0.9609
2.2717 -9.3767 -2.4980 0.9609
2.4590 -9.3271 -2.4975 0.9609
2.6451 -9.2738 -2.4969 0.9609
2.8302 -9.2168 -2.4964 0.9609
3.0140 -9.1561 -2.4958 0.9610
3.3777 -9.0237 -2.4947 0.9610
3.7357 -8.8770 -2.4936 0.9610
3.9123 -8.7983 -2.4931 0.9610
4.0873 -8.7161 -2.4926 0.9610
4.6017 -8.4489 -2.4910 0.9610
5.2605 -8.0459 -2.4890 0.9611
5.8845 -7.5920 -2.4870 0.9611
6.3274 -7.2200 -2.4857 0.9611
6.6098 -6.9576 -2.4848 0.9611
6.7470 -6.8223 -2.4843 0.9611
6.8815 -6.6843 -2.4839 0.9611
7.0131 -6.5437 -2.4835 0.9611
7.2678 -6.2548 -2.4827 0.9612
7.3908 -6.1067 -2.4823 0.9612
7.6276 -5.8032 -2.4815 0.9612
7.7415 -5.6481 -2.4812 0.9612
7.8522 -5.4907 -2.4808 0.9612
4.7216 7.2623 -2.4522 0.9646
4.5388 7.2976 -2.4329 0.9649
3.6614 7.4648 -2.3537 0.9660
3.4933 7.4993 -2.3420 0.9662
3.3373 7.5572 -2.3387 0.9662
3.0323 7.6880 -2.3396 0.9662
2.4075 7.9125 -2.3414 0.9662
2.2486 7.9608 -2.3418 0.9662
1.7663 8.0865 -2.3432 0.9662
1.6039 8.1220 -2.3437 0.9662
1.4408 8.1542 -2.3441 0.9662
1.1127 8.2088 -2.3451 0.9661
0.9478 8.2311 -2.3456 0.9661
0.7825 8.2502 -2.3461 0.9661
0.6168 8.2659 -2.3465 0.9661
0.4508 8.2784 -2.3470 0.9661
0.1182 8.2932 -2.3480 0.9661
-0.0484 8.2957 -2.3485 0.9661
-0.5481 8.2829 -2.3499 0.9661
-0.8806 8.2576 -2.3509 0.9661
-1.0464 8.2400 -2.3514 0.9661
-1.3770 8.1948 -2.3524 0.9660
-1.5415 8.1671 -2.3529 0.9660
-1.7056 8.1362 -2.3534 0.9660
-2.9313 8.1009 -2.4388 0.9648
-3.1170 8.1017 -2.4574 0.9646
-3.8321 7.9820 -2.5066 0.9639
-3.9945 7.9091 -2.5084 0.9638
-4.1555 7.8330 -2.5102 0.9638
-4.3150 7.7536 -2.5120 0.9638
-4.4732 7.6711 -2.5139 0.9638
-4.7796 7.4885 -2.5149 0.9637
-5.0782 7.2932 -2.5158 0.9637
-5.3688 7.0860 -2.5167 0.9637
-5.5110 6.9779 -2.5172 0.9637
-5.7887 6.7534 -2.5181 0.9637
-5.9241 6.6369 -2.5185 0.9637
-6.4417 6.1441 -2.5201 0.9637
-6.6852 5.8824 -2.5209 0.9637
-6.8030 5.7478 -2.5212 0.9637
-7.2463 5.1864 -2.5227 0.9636
-7.3500 5.0405 -2.5230 0.9636
-7.9083 4.1236 -2.5249 0.9636
-8.2171 3.4772 -2.5259 0.9636
-8.4726 2.8077 -2.5268 0.9636
-8.5279 2.6372 -2.5270 0.9636
-8.6282 2.2931 -2.5274 0.9636
-8.6731 2.1195 -2.5275 0.9636
-8.7145 1.9450 -2.5277 0.9636
-8.7523 1.7698 -2.5279 0.9636
-8.8443 1.2399 -2.5282 0.9636
-8.8877 0.8838 -2.5284 0.9636
-8.9039 0.7052 -2.5285 0.9635
-8.9309 0.1679 -2.5287 0.9635
-8.9252 -0.3701 -2.5288 0.9635
-8.9160 -0.5492 -2.5289 0.9635
-8.9032 -0.7281 -2.5289 0.9635
-8.8868 -0.9068 -2.5288 0.9635
-8.8430 -1.2628 -2.5288 0.9635
-8.7849 -1.6168 -2.5287 0.9635
-8.6258 -2.3161 -2.5284 0.9636
-8.4696 -2.8308 -2.5281 0.9636
-8.4106 -3.0002 -2.5279 0.9636
-8.2823 -3.3350 -2.5276 0.9636
-8.1407 -3.6644 -2.5273 0.9636
-8.0649 -3.8268 -2.5271 0.9636
-7.6374 -4.6139 -2.5260 0.9636
-7.4445 -4.9159 -2.5255 0.9636
-7.2397 -5.2097 -2.5250 0.9636
-7.1328 -5.3534 -2.5247 0.9636
-6.9105 -5.6342 -2.5241 0.9636
-6.6771 -5.9056 -2.5235 0.9636
-6.5563 -6.0377 -2.5232 0.9636
-6.3069 -6.2944 -2.5225 0.9636
-5.7783 -6.7762 -2.5211 0.9637
-5.6402 -6.8899 -2.5207 0.9637
-5.3574 -7.1086 -2.5199 0.9637
-5.2127 -7.2135 -2.5195 0.9637
-5.0660 -7.3156 -2.5191 0.9637
-4.7666 -7.5106 -2.5183 0.9637
-4.6141 -7.6035 -2.5178 0.9637
-4.4597 -7.6933 -2.5174 0.9637
-4.1458 -7.8634 -2.5165 0.9637
-3.9864 -7.9436 -2.5161 0.9637
-3.8254 -8.0206 -2.5156 0.9637
-3.3337 -8.2318 -2.5142 0.9638
-2.8305 -8.4128 -2.5128 0.9638
-2.3175 -8.5629 -2.5113 0.9638
-2.1447 -8.6060 -2.5108 0.9638
-1.6217 -8.7143 -2.5093 0.9638
-1.4461 -8.7433 -2.5088 0.9638
-1.2700 -8.7688 -2.5083 0.9638
-1.0935 -8.7907 -2.5078 0.9638
-0.7393 -8.8239 -2.5067 0.9639
-0.5619 -8.8352 -2.5062 0.9639
-0.3843 -8.8428 -2.5057 0.9639
-0.0289 -8.8475 -2.5047 0.9639
0.3262 -8.8378 -2.5036 0.9639
0.5034 -8.8276 -2.5031 0.9639
0.6804 -8.8139 -2.5026 0.9639
0.8571 -8.7966 -2.5021 0.9639
1.2091 -8.7515 -2.5010 0.9639
1.3843 -8.7236 -2.5005 0.9639
1.9058 -8.6191 -2.4989 0.9640
2.2494 -8.5321 -2.4979 0.9640
3.0901 -8.2554 -2.4954 0.9640
3.4177 -8.1214 -2.4944 0.9640
3.5794 -8.0496 -2.4939 0.9640
3.7396 -7.9745 -2.4934 0.9640
4.0364 -7.7788 -2.4809 0.9642
4.1894 -7.6919 -2.4795 0.9642
4.5157 -7.5524 -2.4911 0.9641
4.9595 -7.2628 -2.4897 0.9641
5.3849 -6.9474 -2.4884 0.9641
5.6575 -6.7233 -2.4875 0.9641
5.7904 -6.6072 -2.4871 0.9641
5.9210 -6.4886 -2.4867 0.9641
6.1747 -6.2436 -2.4859 0.9642
6.4184 -5.9888 -2.4851 0.9642
6.6517 -5.7246 -2.4844 0.9642
6.7643 -5.5890 -2.4840 0.9642
6.8742 -5.4513 -2.4837 0.9642
6.9813 -5.3115 -2.4833 0.9642
7.1870 -5.0255 -2.4827 0.9642
3.9922 7.0335 -2.4875 0.9667
3.8494 7.1109 -2.4871 0.9667
3.5596 7.2574 -2.4863 0.9667
3.2646 7.3926 -2.4857 0.9667
2.6487 7.5956 -2.4742 0.9669
2.0070 7.6928 -2.4453 0.9673
1.6896 7.7356 -2.4354 0.9674
1.5314 7.7548 -2.4313 0.9675
1.3736 7.7738 -2.4281 0.9675
1.2161 7.7926 -2.4258 0.9675
0.9016 7.8296 -2.4241 0.9676
0.7444 7.8479 -2.4247 0.9675
0.2710 7.8916 -2.4287 0.9675
-0.0462 7.9199 -2.4360 0.9674
-0.2056 7.9339 -2.4411 0.9673
-0.3658 7.9478 -2.4472 0.9673
-0.5267 7.9603 -2.4538 0.9672
-0.6884 7.9704 -2.4606 0.9671
-0.8510 7.9803 -2.4685 0.9670
-1.1796 7.9998 -2.4872 0.9667
-1.6672 7.9532 -2.4994 0.9666
-2.3044 7.8089 -2.5043 0.9665
-2.7749 7.6687 -2.5084 0.9664
-3.2342 7.4937 -2.5104 0.9664
-3.6814 7.2893 -2.5118 0.9664
-3.8277 7.2152 -2.5122 0.9664
-3.9725 7.1382 -2.5126 0.9664
-4.3974 6.8896 -2.5139 0.9664
-4.6720 6.7098 -2.5148 0.9664
-5.0699 6.4195 -2.5160 0.9663
-5.1986 6.3174 -2.5164 0.9663
-5.6922 5.8835 -2.5180 0.9663
-5.8101 5.7689 -2.5183 0.9663
-6.1495 5.4109 -2.5194 0.9663
-6.2577 5.2871 -2.5198 0.9663
-6.3635 5.1611 -2.5201 0.9663
-6.5673 4.9027 -2.5207 0.9663
-6.6652 4.7705 -2.5211 0.9663
-6.8530 4.5001 -2.5217 0.9663
-6.9428 4.3621 -2.5220 0.9663
-7.0298 4.2223 -2.5223 0.9663
-7.1952 3.9375 -2.5228 0.9663
-7.2736 3.7926 -2.5231 0.9663
-7.3490 3.6462 -2.5233 0.9663
-7.4215 3.4982 -2.5236 0.9662
-7.5573 3.1980 -2.5240 0.9662
-7.7381 2.7379 -2.5247 0.9662
-7.7921 2.5822 -2.5249 0.9662
-7.8906 2.2676 -2.5252 0.9662
-7.9763 1.9492 -2.5255 0.9662
-8.0143 1.7888 -2.5257 0.9662
-8.0491 1.6276 -2.5258 0.9662
-8.0805 1.4657 -2.5260 0.9662
-8.1087 1.3033 -2.5261 0.9662
-8.1552 0.9767 -2.5263 0.9662
-8.2000 0.4840 -2.5265 0.9662
-8.2131 0.1544 -2.5266 0.9662
-8.2147 -0.0105 -2.5267 0.9662
-8.2079 -0.3404 -2.5267 0.9662
-8.1876 -0.6696 -2.5267 0.9662
-8.1725 -0.8339 -2.5267 0.9662
-8.1072 -1.3243 -2.5267 0.9662
-7.9740 -1.9704 -2.5264 0.9662
-7.8401 -2.4466 -2.5261 0.9662
-7.7890 -2.6034 -2.5260 0.9662
-7.6169 -3.0671 -2.5256 0.9662
-7.4867 -3.3700 -2.5253 0.9662
-6.9370 -4.3833 -2.5239 0.9662
-6.7541 -4.6574 -2.5234 0.9662
-6.6586 -4.7916 -2.5232 0.9663
-6.3560 -5.1821 -2.5224 0.9663
-5.9170 -5.6727 -2.5212 0.9663
-5.5626 -6.0163 -2.5202 0.9663
-5.3151 -6.2331 -2.5196 0.9663
-5.0592 -6.4397 -2.5189 0.9663
-4.9282 -6.5391 -2.5185 0.9663
-4.3850 -6.9092 -2.5170 0.9663
-4.2447 -6.9948 -2.5166 0.9663
-4.1028 -7.0775 -2.5162 0.9663
-3.8141 -7.2342 -2.5154 0.9664
-3.5194 -7.3790 -2.5146 0.9664
-3.3699 -7.4470 -2.5141 0.9664
-2.9140 -7.6324 -2.5128 0.9664
-2.7597 -7.6880 -2.5124 0.9664
-2.6043 -7.7405 -2.5120 0.9664
-2.4479 -7.7899 -2.5115 0.9664
-2.2906 -7.8360 -2.5111 0.9664
-1.9734 -7.9188 -2.5102 0.9664
-1.6533 -7.9887 -2.5092 0.9664
-1.3307 -8.0457 -2.5083 0.9664
-0.5171 -8.1309 -2.5059 0.9665
0.4634 -8.1247 -2.5031 0.9665
1.1129 -8.0552 -2.5011 0.9665
2.3834 -7.7617 -2.4973 0.9666
2.5383 -7.7108 -2.4969 0.9666
2.8448 -7.5999 -2.4960 0.9666
2.9962 -7.5399 -2.4955 0.9666
3.1464 -7.4768 -2.4950 0.9666
3.2953 -7.4108 -2.4946 0.9666
3.7335 -7.1951 -2.4933 0.9666
4.2958 -6.8676 -2.4915 0.9667
4.5665 -6.6874 -2.4907 0.9667
5.0851 -6.2954 -2.4891 0.9667
5.3321 -6.0842 -2.4883 0.9667
5.5704 -5.8635 -2.4876 0.9667
5.6862 -5.7496 -2.4872 0.9667
5.9107 -5.5151 -2.4865 0.9667
6.1257 -5.2719 -2.4858 0.9667
6.3308 -5.0204 -2.4852 0.9668
6.5256 -4.7609 -2.4845 0.9668
6.6190 -4.6284 -2.4842 0.9668
3.6981 6.5154 -2.4903 0.9689
3.3006 6.7292 -2.4914 0.9689
3.0287 6.8585 -2.4922 0.9689
2.8908 6.9190 -2.4926 0.9689
2.6115 7.0317 -2.4934 0.9689
2.4702 7.0838 -2.4938 0.9689
2.0403 7.2233 -2.4950 0.9689
1.8949 7.2632 -2.4951 0.9689
1.7488 7.3002 -2.4953 0.9689
1.4545 7.3654 -2.4956 0.9688
0.7094 7.4792 -2.4973 0.9688
0.5592 7.4933 -2.4977 0.9688
0.2580 7.5127 -2.4988 0.9688
-0.0439 7.5208 -2.5000 0.9688
-0.3460 7.5172 -2.5014 0.9688
-0.4970 7.5111 -2.5022 0.9688
-0.7985 7.4883 -2.5033 0.9688
-0.9489 7.4721 -2.5037 0.9687
-1.2486 7.4306 -2.5046 0.9687
-1.3978 7.4053 -2.5050 0.9687
-1.5464 7.3771 -2.5055 0.9687
-1.8420 7.3116 -2.5064 0.9687
-1.9888 7.2744 -2.5068 0.9687
-2.1348 7.2343 -2.5072 0.9687
-2.2800 7.1912 -2.5077 0.9687
-2.4244 7.1452 -2.5081 0.9687
-2.5678 7.0963 -2.5085 0.9687
-2.7102 7.0445 -2.5090 0.9687
-2.8516 6.9899 -2.5094 0.9687
-2.9919 6.9324 -2.5098 0.9687
-3.1310 6.8721 -2.5102 0.9687
-3.2689 6.8090 -2.5107 0.9687
-3.4055 6.7430 -2.5111 0.9687
-3.5408 6.6744 -2.5115 0.9687
-3.8072 6.5290 -2.5123 0.9686
-3.9381 6.4522 -2.5127 0.9686
-4.4459 6.1193 -2.5143 0.9686
-4.5685 6.0297 -2.5146 0.9686
-4.9254 5.7462 -2.5157 0.9686
-5.0405 5.6470 -2.5161 0.9686
-5.1536 5.5454 -2.5165 0.9686
-5.3736 5.3355 -2.5172 0.9686
-5.4804 5.2272 -2.5175 0.9686
-5.5850 5.1168 -2.5178 0.9686
-5.7874 4.8897 -2.5185 0.9686
-6.4206 4.0340 -2.5205 0.9685
-6.5787 3.7737 -2.5210 0.9685
-6.6538 3.6412 -2.5213 0.9685
-6.7959 3.3718 -2.5218 0.9685
-6.8629 3.2349 -2.5220 0.9685
-6.9270 3.0968 -2.5222 0.9685
-7.1026 2.6747 -2.5228 0.9685
-7.1554 2.5318 -2.5230 0.9685
-7.4106 1.6540 -2.5239 0.9685
-7.4718 1.3553 -2.5242 0.9685
-7.4978 1.2051 -2.5243 0.9685
-7.5208 1.0543 -2.5244 0.9685
-7.5407 0.9031 -2.5245 0.9685
-7.5576 0.7516 -2.5246 0.9685
-7.5714 0.5997 -2.5247 0.9685
-7.5821 0.4475 -2.5247 0.9685
-7.5943 0.1428 -2.5248 0.9685
-7.5893 -0.3147 -2.5249 0.9685
-7.5815 -0.4670 -2.5249 0.9685
-7.5706 -0.6192 -2.5249 0.9685
-7.5567 -0.7710 -2.5249 0.9685
-7.5396 -0.9226 -2.5249 0.9685
-7.4085 -1.6735 -2.5247 0.9685
-7.3732 -1.8219 -2.5246 0.9685
-7.2494 -2.2622 -2.5244 0.9685
-7.2022 -2.4072 -2.5242 0.9685
-7.0991 -2.6942 -2.5240 0.9685
-6.9229 -3.1162 -2.5236 0.9685
-6.7214 -3.5266 -2.5231 0.9685
-6.6487 -3.6606 -2.5229 0.9685
-6.4954 -3.9240 -2.5225 0.9685
-6.1575 -4.4310 -2.5216 0.9685
-6.0667 -4.5533 -2.5214 0.9685
-5.9735 -4.6737 -2.5212 0.9685
-5.7798 -4.9088 -2.5206 0.9685
-5.6795 -5.0233 -2.5204 0.9685
-5.5769 -5.1358 -2.5201 0.9685
-5.4720 -5.2461 -2.5198 0.9686
-5.3650 -5.3543 -2.5195 0.9686
-5.1444 -5.5641 -2.5189 0.9686
-5.0311 -5.6655 -2.5186 0.9686
-4.9157 -5.7647 -2.5183 0.9686
-4.6791 -5.9559 -2.5176 0.9686
-4.5579 -6.0478 -2.5173 0.9686
-4.3103 -6.2242 -2.5166 0.9686
-4.1838 -6.3086 -2.5163 0.9686
-3.7948 -6.5462 -2.5152 0.9686
-3.6621 -6.6201 -2.5148 0.9686
-3.5279 -6.6913 -2.5144 0.9686
-3.1172 -6.8884 -2.5133 0.9686
-2.9778 -6.9485 -2.5129 0.9686
-2.8372 -7.0058 -2.5125 0.9686
-2.6955 -7.0602 -2.5121 0.9686
-2.5528 -7.1118 -2.5117 0.9687
-2.1190 -7.2489 -2.5104 0.9687
-1.9727 -7.2888 -2.5100 0.9687
-1.6779 -7.3597 -2.5092 0.9687
-1.2311 -7.4435 -2.5079 0.9687
-1.0812 -7.4654 -2.5074 0.9687
-0.4784 -7.5228 -2.5057 0.9687
-0.3272 -7.5296 -2.5052 0.9687
0.5795 -7.5064 -2.5026 0.9688
0.7300 -7.4919 -2.5021 0.9688
1.0298 -7.4539 -2.5012 0.9688
1.1791 -7.4304 -2.5008 0.9688
1.3278 -7.4039 -2.5004 0.9688
1.4759 -7.3745 -2.4999 0.9688
1.7702 -7.3067 -2.4990 0.9688
2.2057 -7.1831 -2.4977 0.9688
2.7730 -6.9782 -2.4960 0.9688
2.9121 -6.9200 -2.4956 0.9688
3.1865 -6.7952 -2.4948 0.9689
3.3218 -6.7287 -2.4944 0.9689
3.5881 -6.5878 -2.4936 0.9689
3.7190 -6.5134 -2.4932 0.9689
3.9763 -6.3568 -2.4924 0.9689
4.1025 -6.2747 -2.4920 0.9689
4.4707 -6.0136 -2.4908 0.9689
4.7072 -5.8275 -2.4901 0.9689
4.9359 -5.6322 -2.4894 0.9689
5.0473 -5.5312 -2.4890 0.9689
5.1567 -5.4280 -2.4887 0.9689
5.3690 -5.2152 -2.4880 0.9689
5.4719 -5.1056 -2.4877 0.9689
5.5726 -4.9941 -2.4874 0.9690
5.6710 -4.8806 -2.4871 0.9690
5.7672 -4.7651 -2.4868 0.9690
