ply
format ascii 1.0
element vertex 1524
property float32 x
property float32 y
property float32 z
property float32 I
end_header
-61.3904 -5.8071 9.4466 0.7792
-60.3857 -6.9379 9.3116 0.7819
-69.4561 -12.2538 10.8046 0.7517
-73.3660 -14.4681 11.4557 0.7389
-61.2689 -51.2592 12.2377 0.7238
-45.4679 -42.9488 9.5816 0.7764
-41.1165 -40.4311 8.8339 0.7919
-37.7095 -38.6005 8.2668 0.8038
-37.0554 -39.4868 8.2956 0.8032
-34.8528 -43.6923 8.5621 0.7976
-34.2700 -44.7771 8.6381 0.7960
-33.6766 -45.8818 8.7190 0.7943
-33.0716 -47.0079 8.8050 0.7925
-40.5672 -60.1950 11.1202 0.7455
-37.9132 -58.7694 10.7140 0.7535
-31.9527 -54.1889 9.6371 0.7753
-23.0203 -52.6330 8.8006 0.7926
-19.0558 -48.8192 8.0284 0.8089
-16.4927 -47.8398 7.7521 0.8148
-13.7468 -45.7603 7.3197 0.8242
-12.6586 -45.4293 7.2246 0.8263
-11.5005 -44.7273 7.0749 0.8295
-10.3934 -44.0723 6.9368 0.8326
-9.3517 -43.5513 6.8239 0.8351
-8.3347 -43.0049 6.7107 0.8376
-7.3173 -42.2833 6.5738 0.8406
-5.3959 -40.8913 6.3186 0.8463
-3.6081 -39.5214 6.0796 0.8516
-1.1617 -37.6977 5.7778 0.8585
0.3575 -38.2269 5.8564 0.8567
1.1134 -37.8208 5.7964 0.8580
1.7811 -35.9443 5.5133 0.8645
3.1704 -35.2624 5.4238 0.8665
6.6747 -34.6949 5.4125 0.8668
7.3255 -34.3454 5.3799 0.8675
9.8742 -33.0340 5.2819 0.8698
10.5163 -32.7694 5.2723 0.8700
10.6998 -31.1756 5.0494 0.8751
11.8743 -30.5446 5.0204 0.8758
12.8662 -31.2248 5.1736 0.8723
14.1668 -30.8079 5.1947 0.8718
14.7672 -30.4858 5.1893 0.8719
15.1589 -29.7564 5.1159 0.8736
15.3203 -28.6367 4.9753 0.8768
16.5463 -28.1494 5.0021 0.8762
17.7369 -28.8337 5.1860 0.8720
18.9399 -28.1872 5.2024 0.8716
87.8054 -43.1871 14.9903 0.6730
53.1724 -24.8398 8.9907 0.7886
55.4622 -23.2448 9.2125 0.7840
56.7288 -17.3295 9.0870 0.7866
77.5311 -18.6644 12.2166 0.7242
66.3920 -11.8073 10.3305 0.7612
97.2822 -9.3371 14.9716 0.6734
55.6446 2.4982 8.5330 0.7982
55.0628 3.5810 8.4531 0.7999
54.6442 4.6573 8.4015 0.8010
53.9303 5.6891 8.3077 0.8030
55.2260 6.9495 8.5270 0.7983
54.5305 9.0990 8.4693 0.7995
52.9418 12.1491 8.3212 0.8027
49.8215 13.5599 7.9100 0.8114
48.8573 15.4292 7.8490 0.8127
49.4095 21.2570 8.2400 0.8044
53.1120 24.1249 8.9365 0.7897
50.0265 25.1933 8.5807 0.7972
49.4943 26.1839 8.5779 0.7972
-6.0633 61.0725 7.9920 0.7807
-8.3773 59.8295 7.8671 0.7837
-11.7244 58.0316 7.7096 0.7876
-12.8120 57.4474 7.6646 0.7887
-13.8874 56.8698 7.6232 0.7897
-14.9516 56.2981 7.5853 0.7906
-16.0058 55.7318 7.5508 0.7914
-17.0508 55.1705 7.5196 0.7922
-20.1405 53.5108 7.4454 0.7940
-23.1808 51.8776 7.3993 0.7952
-24.1871 51.3370 7.3900 0.7954
-26.1944 50.2588 7.3803 0.7956
-48.2934 80.4392 12.2177 0.6849
-36.6366 55.8159 8.6943 0.7639
-37.8245 55.1778 8.7115 0.7635
-39.0174 54.5370 8.7322 0.7630
-40.2166 53.8928 8.7566 0.7624
-47.6007 49.9260 8.9828 0.7571
-58.2893 44.1837 9.5247 0.7445
-59.7255 43.4122 9.6150 0.7424
-61.1898 42.6256 9.7110 0.7402
-67.3708 39.3049 10.1570 0.7301
-69.0091 38.4247 10.2856 0.7272
-64.1526 0.3902 8.3542 0.7720
-62.1888 -3.3711 8.1102 0.7778
-61.5411 -4.5768 8.0361 0.7796
-60.9049 -5.7612 7.9665 0.7813
-60.2794 -6.9257 7.9013 0.7829
-65.1693 -10.1528 8.5888 0.7664
-66.1827 -15.8362 8.8617 0.7600
-60.6302 -18.4301 8.2520 0.7744
-58.2076 -22.9400 8.1473 0.7770
-56.5150 -26.3066 8.1177 0.7777
-55.8305 -27.3650 8.0966 0.7782
-52.9532 -32.9139 8.1191 0.7776
-51.7889 -35.1489 8.1505 0.7769
-51.0884 -36.1927 8.1530 0.7768
-51.2737 -41.1755 8.5634 0.7670
-41.1356 -40.4499 7.5127 0.7924
-37.7077 -38.5986 7.0268 0.8044
-36.8079 -40.8359 7.1591 0.8011
-35.4950 -42.7093 7.2316 0.7993
-33.1363 -47.0999 7.4992 0.7927
-40.5659 -60.1931 9.4523 0.7462
-37.9120 -58.7676 9.1071 0.7542
-31.9527 -54.1891 8.1919 0.7759
-30.8779 -54.8543 8.1971 0.7758
-29.0595 -54.1390 8.0014 0.7805
-27.1228 -53.0606 7.7600 0.7863
-25.4076 -52.2689 7.5680 0.7910
-24.0508 -52.1134 7.4741 0.7933
-22.3024 -50.9917 7.2475 0.7989
-17.6899 -48.1524 6.6802 0.8131
-13.7262 -45.6919 6.2127 0.8249
-12.5754 -45.1304 6.1008 0.8278
-11.0022 -42.7894 5.7533 0.8368
-9.9869 -42.3483 5.6659 0.8390
-8.2971 -42.8106 5.6786 0.8387
-7.3175 -42.2842 5.5881 0.8411
-5.4432 -41.2496 5.4181 0.8455
-4.5491 -40.7693 5.3420 0.8475
-3.6739 -40.2415 5.2621 0.8496
-2.8324 -39.8468 5.2020 0.8512
-1.9441 -38.1733 4.9774 0.8571
-1.1610 -37.6770 4.9087 0.8589
-0.4114 -38.3540 4.9948 0.8567
0.3575 -38.2208 4.9774 0.8571
1.7807 -35.9367 4.6855 0.8649
3.1704 -35.2625 4.6104 0.8669
3.9610 -35.9476 4.7095 0.8643
5.3946 -35.7168 4.7038 0.8644
6.0247 -35.1009 4.6377 0.8662
6.6847 -34.7467 4.6077 0.8670
8.6178 -33.7081 4.5307 0.8691
9.3016 -33.5601 4.5350 0.8689
9.8740 -33.0335 4.4897 0.8702
11.3722 -31.0876 4.3106 0.8750
11.8741 -30.5442 4.2675 0.8762
12.8561 -31.2005 4.3944 0.8727
14.7670 -30.4854 4.4110 0.8723
16.5464 -28.1495 4.2520 0.8766
54.5667 -26.8387 7.9187 0.7825
54.4870 -24.1333 7.7602 0.7863
53.7145 -22.5123 7.5842 0.7906
54.3380 -21.5014 7.6098 0.7900
53.8533 -20.0686 7.4839 0.7931
80.2651 -17.6255 10.7012 0.7179
64.7303 -11.5118 8.5615 0.7670
66.7135 -10.4873 8.7942 0.7615
95.2614 -9.1431 12.4620 0.6798
97.8860 -7.4152 12.7833 0.6730
55.0622 3.5810 7.1854 0.8005
54.5387 4.6483 7.1278 0.8019
53.9297 5.6890 7.0617 0.8035
53.4345 11.1378 7.1078 0.8024
53.0388 12.1713 7.0863 0.8029
50.2216 12.5914 6.7423 0.8115
48.2282 16.3024 6.6294 0.8144
47.2531 18.1175 6.5901 0.8153
46.8105 19.0343 6.5804 0.8156
49.4089 21.2567 7.0042 0.8050
53.1114 24.1246 7.5963 0.7903
52.5566 25.1575 7.5876 0.7905
-7.2295 60.4470 6.5372 0.7828
-8.3774 59.8305 6.4874 0.7842
-10.6237 58.6239 6.3977 0.7869
-11.7246 58.0325 6.3575 0.7881
-16.0060 55.7326 6.2266 0.7919
-17.0511 55.1713 6.2009 0.7927
-18.0880 54.6143 6.1778 0.7934
-21.1586 52.9649 6.1245 0.7950
-24.1875 51.3378 6.0939 0.7959
-25.1918 50.7983 6.0887 0.7960
-26.1947 50.2595 6.0860 0.7961
-48.2940 80.4404 10.0750 0.6856
-37.8250 55.1786 7.1837 0.7640
-39.0180 54.5377 7.2008 0.7636
-40.2172 53.8935 7.2209 0.7630
-41.4236 53.2455 7.2441 0.7623
-45.0966 51.2723 7.3323 0.7598
-50.1621 48.5510 7.4963 0.7551
-51.4667 47.8502 7.5462 0.7537
-55.4945 45.6864 7.7187 0.7489
-56.8802 44.9420 7.7843 0.7470
-58.2903 44.1844 7.8543 0.7451
-61.1908 42.6262 8.0079 0.7408
-62.6852 41.8234 8.0919 0.7385
-64.2119 41.0032 8.1811 0.7360
-65.7734 40.1643 8.2756 0.7334
-67.3719 39.3055 8.3757 0.7307
-70.6913 37.5222 8.5940 0.7247
-99.0051 2.5907 10.6350 0.6714
-62.8495 -2.1425 6.7528 0.7765
-63.3423 -8.5693 6.8638 0.7733
-61.8163 -16.1101 6.8597 0.7734
-58.7575 -21.8042 6.7299 0.7771
-56.3742 -26.2411 6.6772 0.7787
-55.7829 -27.3417 6.6709 0.7789
-54.6027 -29.5388 6.6663 0.7790
-52.8306 -32.8377 6.6796 0.7786
-50.4443 -37.2797 6.7355 0.7770
-46.2416 -37.1344 6.3684 0.7877
-46.1744 -38.6308 6.4647 0.7849
-47.4818 -43.0805 6.8845 0.7727
-45.4688 -42.9498 6.7164 0.7775
-41.1361 -40.4504 6.1951 0.7929
-37.4171 -39.8721 5.8716 0.8025
-36.8652 -40.8995 5.9126 0.8013
-36.3053 -41.9418 5.9567 0.8000
-34.5709 -45.1702 6.1080 0.7955
-33.9722 -46.2846 6.1652 0.7938
-40.5566 -60.1792 7.7926 0.7468
-35.5683 -57.6434 7.2734 0.7615
-26.9830 -52.7872 6.3660 0.7878
-24.7728 -50.9630 6.0848 0.7962
-23.5626 -51.0556 6.0381 0.7975
-12.6470 -45.3875 5.0595 0.8273
-11.0431 -42.9482 4.7619 0.8366
-9.2412 -43.0370 4.7267 0.8377
-6.3943 -41.9452 4.5562 0.8431
-5.4431 -41.2489 4.4678 0.8459
-3.7004 -40.5321 4.3705 0.8490
1.7804 -35.9299 3.8629 0.8653
2.4952 -35.7991 3.8535 0.8656
3.9648 -35.9814 3.8871 0.8645
4.6801 -35.8464 3.8819 0.8646
6.0246 -35.1004 3.8243 0.8665
6.6846 -34.7462 3.7995 0.8673
8.6177 -33.7076 3.7360 0.8694
11.2774 -30.8283 3.5249 0.8763
13.5646 -31.1303 3.6464 0.8723
14.1664 -30.8071 3.6411 0.8725
14.7668 -30.4849 3.6373 0.8726
15.2353 -29.9063 3.6041 0.8737
15.3050 -28.6080 3.4840 0.8776
15.8789 -28.2997 3.4845 0.8776
17.7364 -28.8329 3.6350 0.8727
18.3368 -28.5100 3.6400 0.8725
70.2081 -54.2525 9.5277 0.6998
70.6631 -50.2060 9.3081 0.7056
75.2819 -51.2448 9.7790 0.6932
88.8232 -43.6878 10.6293 0.6715
52.1807 -24.3765 6.1845 0.7932
55.3448 -24.5132 6.4999 0.7839
52.6504 -22.0663 6.1301 0.7948
54.7084 -20.3873 6.2693 0.7907
58.5977 -17.9004 6.5794 0.7815
75.2765 -21.3527 8.4022 0.7299
75.4596 -19.7766 8.3766 0.7306
66.9891 -14.7102 7.3648 0.7589
65.3588 -10.2744 7.1045 0.7663
93.1465 -10.8317 10.0696 0.6857
98.6048 -7.4696 10.6187 0.6718
88.4414 -3.1365 9.5030 0.7005
57.5054 -0.8840 6.1758 0.7934
56.8416 0.2676 6.1038 0.7956
56.2856 1.3954 6.0459 0.7973
54.6429 4.6571 5.8889 0.8020
53.9291 5.6890 5.8231 0.8040
53.4339 11.1377 5.8611 0.8029
53.0382 12.1712 5.8434 0.8034
50.2211 12.5913 5.5597 0.8120
49.2160 14.4625 5.5084 0.8135
48.7199 15.3859 5.4863 0.8142
48.1351 16.2709 5.4561 0.8151
49.4084 21.2565 5.7757 0.8054
50.9925 23.1622 6.0141 0.7983
50.4598 24.1538 6.0072 0.7985
44.6919 22.5067 5.3733 0.8177
-6.0635 61.0744 5.1955 0.7816
-7.2296 60.4480 5.1536 0.7832
-8.3776 59.8314 5.1143 0.7846
-10.6238 58.6247 5.0436 0.7873
-12.8124 57.4491 4.9827 0.7896
-13.8878 56.8714 4.9558 0.7906
-16.0063 55.7334 4.9087 0.7923
-18.0882 54.6151 4.8703 0.7938
-21.1589 52.9656 4.8282 0.7954
-23.1814 51.8791 4.8102 0.7960
-25.1921 50.7990 4.8000 0.7964
-37.8256 55.1794 5.6632 0.7645
-39.0186 54.5385 5.6767 0.7640
-40.2178 53.8943 5.6926 0.7634
-41.4242 53.2462 5.7108 0.7628
-42.6389 52.5937 5.7315 0.7620
-43.8628 51.9362 5.7547 0.7612
-45.0973 51.2730 5.7804 0.7602
-46.3433 50.6037 5.8087 0.7592
-50.1628 48.5518 5.9097 0.7556
-55.4953 45.6871 6.0850 0.7493
-56.8811 44.9427 6.1368 0.7475
-58.2912 44.1851 6.1919 0.7456
-59.7274 43.4136 6.2506 0.7435
-61.1918 42.6269 6.3130 0.7413
-69.0114 38.4260 6.6866 0.7283
-70.6925 37.5229 6.7751 0.7252
-64.2109 0.3905 5.4357 0.7728
-63.5235 -0.8892 5.3780 0.7749
-60.2808 -6.9258 5.1365 0.7838
-62.0741 -8.3978 5.3026 0.7777
-65.0289 -10.1309 5.5713 0.7678
-59.3060 -10.4630 5.0979 0.7853
-57.6876 -11.3762 4.9775 0.7898
-61.1953 -17.2676 5.3826 0.7747
-60.5792 -18.4146 5.3599 0.7756
-59.4567 -20.7154 5.3299 0.7767
-58.8528 -21.8396 5.3140 0.7772
-56.4656 -26.2836 5.2724 0.7788
-55.8734 -27.3860 5.2674 0.7790
-55.2821 -28.4867 5.2646 0.7791
-54.6912 -29.5867 5.2638 0.7791
-54.1003 -30.6868 5.2652 0.7791
-51.7261 -35.1063 5.2920 0.7781
-50.5261 -37.3402 5.3184 0.7771
-44.7280 -35.9189 4.8561 0.7943
-44.1725 -36.9559 4.8754 0.7936
-40.9828 -40.2997 4.8656 0.7940
-37.7041 -38.5949 4.5675 0.8053
-37.0926 -39.5264 4.5886 0.8045
-35.9904 -41.5781 4.6552 0.8019
-35.4268 -42.6273 4.6920 0.8005
-34.8540 -43.6937 4.7314 0.7990
-34.2378 -44.7350 4.7688 0.7976
-33.0726 -47.0095 4.8656 0.7940
-40.5635 -60.1895 6.1443 0.7472
-35.2567 -57.1383 5.6836 0.7637
-31.9529 -54.1893 5.3254 0.7768
-27.8488 -51.8834 4.9848 0.7895
-26.8141 -52.4567 4.9871 0.7894
-23.6969 -51.3465 4.7872 0.7969
-21.9516 -50.1897 4.6373 0.8026
-19.7595 -47.7678 4.3760 0.8126
-18.5548 -47.5355 4.3197 0.8148
-16.2786 -47.2190 4.2281 0.8183
-15.0639 -46.7192 4.1554 0.8211
-13.7459 -45.7575 4.0445 0.8255
-11.0356 -42.9192 3.7514 0.8370
-9.2467 -43.0625 3.7285 0.8379
-7.3172 -42.2827 3.6325 0.8418
-6.3930 -41.9367 3.5911 0.8434
-5.4430 -41.2482 3.5220 0.8462
-3.7036 -40.5672 3.4484 0.8491
-1.9373 -38.0401 3.2244 0.8582
-1.1617 -37.6980 3.1928 0.8595
0.3575 -38.2249 3.2360 0.8577
1.7803 -35.9293 3.0453 0.8655
3.1704 -35.2627 2.9971 0.8675
6.0245 -35.0999 3.0147 0.8668
7.3362 -34.3954 2.9772 0.8683
7.9803 -34.0493 2.9605 0.8690
8.6175 -33.7070 2.9452 0.8697
11.8803 -30.5603 2.7756 0.8767
12.8401 -31.1615 2.8531 0.8735
13.5645 -31.1302 2.8746 0.8726
14.7666 -30.4844 2.8674 0.8729
16.5662 -28.1832 2.7674 0.8770
17.7361 -28.8325 2.8656 0.8729
18.9391 -28.1860 2.8746 0.8726
67.8697 -52.4455 7.2608 0.7087
69.4201 -51.4511 7.3147 0.7069
71.6240 -48.7548 7.3346 0.7062
86.6483 -42.6180 8.1742 0.6787
55.3161 -25.8412 5.1684 0.7826
56.1270 -22.2093 5.1098 0.7848
54.9826 -20.4895 4.9671 0.7901
55.6292 -19.4676 4.9892 0.7893
77.9120 -23.8005 6.8963 0.7211
75.2484 -21.3448 6.6213 0.7305
75.4580 -19.7762 6.6035 0.7311
67.4033 -14.8011 5.8418 0.7580
64.4065 -12.7933 5.5587 0.7683
66.8368 -9.1357 5.7105 0.7628
64.9983 -7.5584 5.5394 0.7690
96.9737 -9.3075 8.2469 0.6763
94.2536 -5.2393 7.9911 0.6846
56.8124 0.2675 4.8094 0.7961
54.8970 3.5703 4.6570 0.8018
53.8450 5.6801 4.5834 0.8046
53.2937 6.7064 4.5470 0.8060
52.7653 7.7190 4.5143 0.8073
52.2605 8.7202 4.4852 0.8084
50.7749 11.6518 4.4100 0.8113
49.7581 13.5426 4.3654 0.8130
47.7788 17.2270 4.2995 0.8156
47.2509 18.1167 4.2839 0.8162
44.2188 23.3930 4.2348 0.8181
-7.2298 60.4489 3.7752 0.7835
-9.5086 59.2247 3.7196 0.7863
-11.7249 58.0342 3.6714 0.7888
-18.0885 54.6159 3.5677 0.7941
-19.1181 54.0628 3.5559 0.7947
-20.1414 53.5131 3.5456 0.7952
-22.1724 52.4221 3.5295 0.7960
-23.1818 51.8799 3.5236 0.7963
-24.1882 51.3392 3.5192 0.7966
-26.1955 50.2609 3.5146 0.7968
-48.2954 80.4426 5.8182 0.6866
-35.4546 56.4541 4.1339 0.7655
-40.2183 53.8951 4.1700 0.7638
-41.4248 53.2470 4.1834 0.7631
-42.6395 52.5944 4.1986 0.7623
-46.3440 50.6044 4.2551 0.7596
-48.8756 49.2444 4.3024 0.7573
-50.1636 48.5525 4.3291 0.7559
-54.1330 46.4201 4.4220 0.7514
-55.4962 45.6878 4.4575 0.7497
-56.8819 44.9433 4.4954 0.7479
-58.2921 44.1858 4.5358 0.7459
-62.6872 41.8247 4.6730 0.7393
-65.7755 40.1656 4.7791 0.7343
-64.4394 0.3919 3.9960 0.7724
-63.7495 -0.8924 3.9535 0.7745
-62.8509 -2.1425 3.8997 0.7772
-62.3012 -3.3772 3.8690 0.7788
-61.3067 -5.7992 3.8186 0.7813
-54.6320 -8.5112 3.4286 0.8012
-59.7116 -13.0261 3.7898 0.7828
-59.3618 -20.6823 3.8981 0.7773
-58.7588 -21.8047 3.8864 0.7779
-55.1938 -28.4412 3.8503 0.7797
-54.6038 -29.5394 3.8497 0.7797
-54.0138 -30.6378 3.8507 0.7797
-52.8317 -32.8384 3.8574 0.7793
-51.6435 -35.0502 3.8703 0.7787
-51.0459 -36.1626 3.8792 0.7782
-49.8413 -38.4050 3.9018 0.7771
-41.3993 -33.2458 3.2925 0.8083
-47.3795 -42.9877 3.9671 0.7738
-45.4698 -42.9506 3.8786 0.7783
-37.7023 -38.5931 3.3456 0.8056
-37.4178 -39.8730 3.3908 0.8032
-36.3060 -41.9427 3.4399 0.8007
-33.1374 -47.1014 3.5712 0.7939
-39.9699 -59.3088 4.4350 0.7508
-36.4191 -56.4534 4.1659 0.7640
-35.2721 -57.1633 4.1652 0.7640
-31.9450 -54.1759 3.9000 0.7772
-25.2740 -51.9940 3.5849 0.7932
-19.7079 -47.6430 3.1971 0.8133
-14.9647 -46.4114 3.0239 0.8225
-12.5746 -45.1277 2.9050 0.8288
-10.9787 -42.6978 2.7338 0.8380
-9.9701 -42.2774 2.6936 0.8402
-9.1798 -42.7510 2.7114 0.8393
-5.4415 -41.2369 2.5793 0.8465
-4.5489 -40.7674 2.5437 0.8484
-2.8323 -39.8452 2.4770 0.8521
-1.9560 -38.4076 2.3848 0.8572
-1.1842 -38.4302 2.3842 0.8572
-0.4128 -38.4793 2.3862 0.8571
0.3575 -38.2245 2.3704 0.8580
1.1134 -37.8185 2.3462 0.8593
1.8515 -37.3648 2.3198 0.8608
2.5772 -36.9751 2.2984 0.8620
3.2900 -36.5923 2.2782 0.8631
3.9906 -36.2160 2.2594 0.8641
5.3590 -35.4810 2.2251 0.8661
6.0245 -35.0997 2.2084 0.8670
7.9803 -34.0491 2.1686 0.8692
8.6175 -33.7068 2.1574 0.8699
10.5155 -32.7672 2.1340 0.8712
11.1323 -32.4358 2.1265 0.8716
11.7450 -32.1067 2.1200 0.8720
13.5644 -31.1298 2.1057 0.8728
14.7664 -30.4841 2.1004 0.8731
15.3427 -30.1173 2.0960 0.8733
17.1367 -29.1539 2.0970 0.8733
18.3365 -28.5095 2.1020 0.8730
69.3985 -53.6269 5.4386 0.7036
69.5142 -49.3897 5.2878 0.7105
74.3810 -48.4752 5.5054 0.7006
53.6115 -23.7455 3.6360 0.7906
54.6198 -22.8917 3.6724 0.7887
54.9056 -21.7260 3.6616 0.7893
55.7131 -20.7617 3.6869 0.7880
57.2937 -20.0501 3.7641 0.7841
56.9717 -18.6622 3.7175 0.7864
75.3613 -21.3767 4.8575 0.7306
64.7126 -14.2103 4.1085 0.7668
65.9517 -10.3676 4.1399 0.7652
96.9403 -9.3043 6.0389 0.6769
93.9160 -5.2205 5.8327 0.6859
89.8709 -3.1873 5.5764 0.6974
57.5087 -0.8841 3.5665 0.7941
56.3923 1.3981 3.4980 0.7977
55.0602 3.5809 3.4215 0.8016
54.6415 4.6570 3.4006 0.8027
53.5250 6.7355 3.3453 0.8056
52.8319 7.7288 3.3110 0.8074
52.2961 8.7262 3.2877 0.8086
51.8900 9.7331 3.2738 0.8093
51.2457 10.6815 3.2461 0.8108
49.2137 14.4618 3.1808 0.8142
48.2255 16.3015 3.1567 0.8154
47.2504 18.1165 3.1380 0.8164
49.3890 21.2481 3.3340 0.8062
63.5558 28.8688 4.3286 0.7560
44.6909 22.5062 3.1029 0.8183
44.2183 23.3927 3.1021 0.8183
-9.5088 59.2256 2.3652 0.7865
-10.6242 58.6265 2.3494 0.7878
-12.8127 57.4508 2.3210 0.7901
-13.8882 56.8731 2.3085 0.7911
-17.0518 55.1737 2.2771 0.7936
-18.0887 54.6166 2.2686 0.7943
-19.1184 54.0635 2.2611 0.7949
-20.1417 53.5138 2.2546 0.7954
-21.1595 52.9671 2.2490 0.7959
-22.1727 52.4228 2.2444 0.7962
-24.1885 51.3400 2.2378 0.7968
-25.1928 50.8004 2.2359 0.7969
-26.1958 50.2616 2.2349 0.7970
-48.2961 80.4438 3.6997 0.6869
-35.4551 56.4550 2.6287 0.7658
-36.6387 55.8191 2.6328 0.7655
-39.0196 54.5401 2.6443 0.7646
-40.2189 53.8958 2.6517 0.7640
-41.4254 53.2478 2.6602 0.7633
-42.6401 52.5952 2.6698 0.7626
-43.8641 51.9377 2.6806 0.7617
-48.8763 49.2451 2.7358 0.7575
-50.1643 48.5532 2.7528 0.7562
-52.7917 47.1418 2.7908 0.7533
-54.1338 46.4208 2.8119 0.7517
-55.4970 45.6885 2.8345 0.7499
-56.8828 44.9440 2.8586 0.7481
-59.7293 43.4149 2.9116 0.7441
-62.6882 41.8254 2.9715 0.7396
-64.2151 41.0052 3.0043 0.7371
-65.7766 40.1663 3.0390 0.7345
-69.0137 38.4273 3.1147 0.7289
-86.4585 21.8031 3.5159 0.6998
-84.1654 17.6641 3.3910 0.7087
-83.0780 15.7013 3.3339 0.7129
-82.0264 13.8030 3.2799 0.7168
-81.0078 11.9644 3.2289 0.7205
-80.0201 10.1814 3.1807 0.7240
-77.2211 5.1288 3.0516 0.7336
-75.4740 1.9750 2.9770 0.7392
-64.0319 -0.8963 2.5251 0.7739
-62.0351 -4.6136 2.4529 0.7796
-60.3890 -6.9382 2.3969 0.7840
-63.3500 -8.5704 2.5207 0.7742
-51.9993 -9.1740 2.0821 0.8095
-58.3952 -11.5158 2.3469 0.7880
-57.3793 -12.5173 2.3157 0.7905
-67.4834 -16.1474 2.7361 0.7575
-67.4555 -19.0340 2.7637 0.7553
-66.7585 -20.2930 2.7513 0.7563
-64.1581 -28.3113 2.7652 0.7552
-63.4744 -29.5461 2.7607 0.7556
-62.7926 -30.7774 2.7574 0.7558
-60.7533 -34.4606 2.7541 0.7561
-60.0738 -35.6880 2.7552 0.7560
-59.3933 -36.9169 2.7575 0.7558
-55.3471 -40.9030 2.7137 0.7592
-54.6701 -42.1258 2.7214 0.7586
-39.1500 -32.7540 2.0127 0.8152
-45.4703 -42.9511 2.4664 0.7785
-37.7005 -38.5913 2.1273 0.8058
-37.4183 -39.8734 2.1561 0.8034
-36.8664 -40.9008 2.1712 0.8022
-35.4965 -42.7112 2.1898 0.8007
-34.8547 -43.6946 2.2039 0.7995
-34.5720 -45.1717 2.2430 0.7964
-33.9733 -46.2862 2.2640 0.7947
-33.1378 -47.1020 2.2708 0.7941
-35.2475 -57.1233 2.6467 0.7644
-27.0705 -52.9584 2.3452 0.7881
-25.2737 -51.9933 2.2795 0.7934
-23.5612 -51.0526 2.2171 0.7984
-21.9506 -50.1874 2.1599 0.8031
-20.4204 -49.3653 2.1065 0.8075
-17.6091 -47.9325 2.0135 0.8151
-14.9645 -46.4110 1.9228 0.8227
-13.7455 -45.7561 1.8839 0.8259
-11.4412 -44.4966 1.8116 0.8320
-10.3429 -43.8583 1.7768 0.8349
-9.3087 -43.3513 1.7484 0.8374
-8.3848 -43.2631 1.7377 0.8383
-7.3170 -42.2815 1.6920 0.8422
-6.3632 -41.7414 1.6649 0.8445
-4.5488 -40.7666 1.6174 0.8486
-2.8323 -39.8446 1.5751 0.8522
1.1344 -38.5329 1.5200 0.8570
2.5919 -37.1861 1.4698 0.8614
3.2886 -36.5767 1.4481 0.8633
3.9905 -36.2154 1.4367 0.8643
4.8836 -32.3339 1.2894 0.8773
6.0244 -35.0992 1.4042 0.8671
8.6576 -33.8640 1.3782 0.8694
9.8734 -33.0316 1.3594 0.8711
11.8016 -32.2613 1.3545 0.8715
13.7908 -31.6495 1.3613 0.8709
16.0175 -29.9399 1.3389 0.8729
16.5295 -29.4592 1.3320 0.8735
17.1365 -29.1534 1.3334 0.8734
19.2556 -28.6571 1.3614 0.8709
17.8412 -25.4337 1.2250 0.8831
28.2053 -32.6750 1.7020 0.8413
71.6093 -48.7448 3.4157 0.7070
83.6340 -37.0430 3.6068 0.6934
81.4666 -32.2361 3.4547 0.7042
82.7975 -30.8548 3.4841 0.7021
78.5783 -27.4987 3.2827 0.7166
78.1137 -25.5877 3.2411 0.7196
75.1889 -21.3279 3.0817 0.7313
67.8226 -16.3273 2.7507 0.7563
65.8271 -11.7069 2.6364 0.7652
93.1463 -10.8317 3.6976 0.6870
96.9101 -9.3014 3.8388 0.6772
57.5174 -0.8842 2.2682 0.7943
56.3162 1.3962 2.2213 0.7981
55.0595 3.5808 2.1756 0.8018
54.6409 4.6570 2.1624 0.8029
32.3392 3.4115 1.2822 0.8779
53.3750 6.7166 2.1212 0.8063
51.8875 9.7327 2.0817 0.8095
50.7739 11.6515 2.0541 0.8118
48.8535 15.4281 2.0201 0.8146
48.2249 16.3013 2.0073 0.8156
26.9157 10.9446 1.1457 0.8902
62.8108 28.5304 2.7202 0.7587
44.6904 22.5060 1.9730 0.8185
-6.0638 61.0772 1.0368 0.7823
-7.2300 60.4507 1.0284 0.7838
-8.3779 59.8341 1.0206 0.7853
-9.5089 59.2265 1.0133 0.7866
-10.6243 58.6273 1.0065 0.7879
-12.8129 57.4516 0.9943 0.7902
-13.8884 56.8739 0.9889 0.7912
-17.0520 55.1745 0.9755 0.7937
-19.1187 54.0643 0.9687 0.7950
-20.1420 53.5146 0.9659 0.7955
-21.1598 52.9679 0.9635 0.7960
-22.1730 52.4236 0.9615 0.7964
-23.1824 51.8813 0.9599 0.7967
-48.2968 80.4449 1.5850 0.6870
-36.6392 55.8199 1.1279 0.7656
-39.0202 54.5408 1.1328 0.7647
-40.2195 53.8966 1.1360 0.7641
-42.6407 52.5960 1.1437 0.7627
-43.8648 51.9384 1.1484 0.7619
-47.6041 49.9296 1.1653 0.7588
-50.1651 48.5539 1.1793 0.7563
-52.7925 47.1425 1.1956 0.7534
-54.1347 46.4215 1.2046 0.7518
-55.4979 45.6892 1.2143 0.7501
-56.8837 44.9448 1.2246 0.7482
-59.7302 43.4156 1.2473 0.7442
-61.1947 42.6289 1.2598 0.7420
-62.6892 41.8261 1.2730 0.7397
-65.7777 40.1670 1.3019 0.7347
-67.3764 39.3081 1.3176 0.7319
-70.6961 37.5248 1.3520 0.7260
-91.3930 35.1856 1.6543 0.6758
-90.0335 32.6021 1.6175 0.6818
-87.2002 27.6700 1.5454 0.6935
-85.8622 25.3595 1.5123 0.6990
-83.4754 21.0508 1.4542 0.7086
-87.5857 16.5532 1.5057 0.7001
-93.0996 13.7503 1.5897 0.6863
-99.0098 2.5908 1.6730 0.6729
-64.2131 0.3905 1.0847 0.7735
-62.8523 -2.1426 1.0623 0.7776
-62.1923 -3.3713 1.0521 0.7794
-60.9083 -5.7615 1.0335 0.7829
-53.8674 -10.6229 0.9274 0.8028
-78.2052 -17.0604 1.3521 0.7260
-83.5614 -19.9945 1.4514 0.7091
-78.5208 -53.2917 1.6030 0.6841
-72.8222 -51.5896 1.5075 0.6998
-77.9835 -60.0898 1.6630 0.6745
-37.9991 -31.7911 0.8369 0.8202
-37.0890 -32.3174 0.8310 0.8214
-37.0032 -33.5732 0.8440 0.8188
-37.6988 -38.5894 0.9112 0.8059
-37.0938 -39.5277 0.9157 0.8050
-36.5467 -40.5461 0.9221 0.8038
-35.9916 -41.5794 0.9289 0.8025
-34.8551 -43.6951 0.9442 0.7996
-34.2723 -44.7800 0.9525 0.7980
-33.2022 -56.3079 1.1042 0.7699
-31.0435 -55.1484 1.0690 0.7763
-28.9741 -53.9798 1.0349 0.7826
-27.0697 -52.9569 1.0046 0.7883
-23.6874 -51.3260 0.9549 0.7976
-22.0722 -50.4654 0.9304 0.8022
-19.1096 -48.9570 0.8877 0.8104
-17.6087 -47.9313 0.8626 0.8152
-14.9948 -46.5049 0.8254 0.8224
-12.5548 -45.0567 0.7901 0.8293
-11.4410 -44.4958 0.7761 0.8321
-8.3849 -43.2638 0.7444 0.8384
-5.4766 -41.5028 0.7071 0.8458
-4.5700 -40.9567 0.6961 0.8480
-2.8322 -39.8439 0.6747 0.8523
-0.4145 -38.6380 0.6527 0.8568
0.3600 -38.4908 0.6502 0.8573
1.1330 -38.4848 0.6504 0.8572
3.9905 -36.2147 0.6154 0.8644
12.3539 -31.7785 0.5759 0.8725
13.7993 -31.6688 0.5835 0.8709
14.4158 -31.3494 0.5829 0.8711
16.0455 -29.9923 0.5746 0.8728
16.5379 -29.4742 0.5709 0.8735
17.1362 -29.1529 0.5712 0.8735
17.7354 -28.8312 0.5718 0.8734
19.2553 -28.6567 0.5832 0.8710
17.8410 -25.4334 0.5248 0.8831
28.2028 -32.6720 0.7291 0.8414
71.8290 -53.2365 1.5102 0.6993
88.0229 -41.1203 1.6411 0.6780
82.7960 -30.8542 1.4925 0.7022
78.8529 -27.5948 1.4112 0.7159
79.4968 -24.2847 1.4041 0.7171
80.4842 -17.6736 1.3919 0.7192
87.2235 -13.7115 1.4915 0.7024
93.1237 -10.8290 1.5836 0.6872
96.8799 -9.2985 1.6440 0.6775
55.6406 2.4980 0.9408 0.8003
54.6403 4.6569 0.9263 0.8030
53.4478 5.6382 0.9078 0.8065
52.8865 6.6552 0.9004 0.8080
52.3715 7.6614 0.8941 0.8092
51.2445 10.6813 0.8842 0.8111
50.8708 11.6738 0.8816 0.8116
49.2127 14.4615 0.8664 0.8145
48.8530 15.4279 0.8654 0.8147
47.8691 17.2595 0.8596 0.8158
47.2494 18.1161 0.8548 0.8167
49.3879 21.2477 0.9082 0.8065
63.5288 28.8565 1.1786 0.7564
90.0560 43.1074 1.6865 0.6707
44.6900 22.5058 0.8452 0.8186
-7.2301 60.4516 -0.3428 0.7839
-8.3780 59.8350 -0.3402 0.7853
-9.5091 59.2274 -0.3377 0.7867
-11.7254 58.0368 -0.3334 0.7891
-13.8886 56.8748 -0.3296 0.7912
-18.0893 54.6182 -0.3239 0.7944
-19.1189 54.0651 -0.3229 0.7950
-20.1423 53.5154 -0.3219 0.7955
-22.1733 52.4243 -0.3205 0.7964
-24.1892 51.3414 -0.3195 0.7969
-25.1936 50.8019 -0.3193 0.7971
-35.4561 56.4566 -0.3753 0.7659
-37.8277 55.1825 -0.3767 0.7652
-39.0208 54.5416 -0.3776 0.7647
-41.4266 53.2493 -0.3798 0.7635
-42.6413 52.5967 -0.3812 0.7627
-43.8654 51.9392 -0.3828 0.7619
-45.0999 51.2760 -0.3845 0.7610
-46.3460 50.6066 -0.3864 0.7600
-47.6048 49.9304 -0.3884 0.7588
-48.8777 49.2466 -0.3906 0.7576
-50.1658 48.5547 -0.3931 0.7563
-54.1355 46.4222 -0.4015 0.7518
-55.4987 45.6899 -0.4047 0.7501
-56.8846 44.9454 -0.4082 0.7483
-59.7312 43.4163 -0.4157 0.7443
-39.4325 27.4691 -0.2706 0.8251
-62.6902 41.8267 -0.4243 0.7397
-64.2172 41.0065 -0.4290 0.7373
-65.7788 40.1676 -0.4339 0.7347
-67.3775 39.3088 -0.4392 0.7320
-69.0161 38.4286 -0.4447 0.7291
-70.6973 37.5254 -0.4506 0.7260
-99.0110 2.5908 -0.5576 0.6729
-30.6497 0.1864 -0.1726 0.8846
-30.3273 -0.4245 -0.1708 0.8857
-33.7411 -1.1502 -0.1901 0.8737
-62.3033 -3.3773 -0.3513 0.7791
-52.4265 -7.0926 -0.2979 0.8093
-53.1247 -8.2763 -0.3027 0.8065
-85.4711 -20.4515 -0.4948 0.7036
-70.8643 -56.9078 -0.5117 0.6952
-37.3107 -31.2151 -0.2739 0.8232
-21.8977 -19.0805 -0.1635 0.8903
-21.6134 -19.6099 -0.1643 0.8898
-18.8581 -17.8134 -0.1461 0.9014
-18.5836 -18.2739 -0.1467 0.9010
-37.6970 -38.5876 -0.3037 0.8059
-37.4191 -39.8743 -0.3079 0.8035
-36.3072 -41.9440 -0.3123 0.8010
-34.5728 -45.1727 -0.3203 0.7965
-33.9741 -46.2872 -0.3233 0.7948
-35.0565 -56.8139 -0.3759 0.7656
-33.2014 -56.3066 -0.3680 0.7699
-30.6535 -54.4557 -0.3518 0.7788
-28.9734 -53.9786 -0.3449 0.7827
-23.5601 -51.0502 -0.3166 0.7986
-20.4195 -49.3631 -0.3008 0.8076
-16.1477 -46.8392 -0.2789 0.8202
-10.3556 -43.9120 -0.2540 0.8349
-9.3083 -43.3495 -0.2496 0.8375
-7.5176 -38.7887 -0.2225 0.8538
-5.7712 -37.8576 -0.2156 0.8580
-4.9369 -37.4129 -0.2125 0.8599
-4.1263 -36.9808 -0.2095 0.8617
-3.3378 -36.5604 -0.2067 0.8634
-1.8208 -35.7517 -0.2015 0.8666
-1.0897 -35.3619 -0.1992 0.8680
1.0081 -34.2435 -0.1929 0.8719
1.6791 -33.8859 -0.1910 0.8731
2.9841 -33.1901 -0.1876 0.8752
4.2455 -32.5177 -0.1846 0.8771
7.2262 -30.8317 -0.1783 0.8810
8.3990 -30.3034 -0.1770 0.8818
9.5312 -29.6999 -0.1756 0.8827
11.2000 -28.8102 -0.1740 0.8837
11.7503 -28.5168 -0.1737 0.8839
12.2985 -28.2246 -0.1733 0.8841
13.3900 -27.6427 -0.1729 0.8844
15.0221 -26.7726 -0.1728 0.8844
15.5664 -26.4824 -0.1729 0.8844
16.1117 -26.1917 -0.1731 0.8843
16.6584 -25.9003 -0.1734 0.8841
18.2618 -24.9522 -0.1741 0.8837
28.1993 -32.6680 -0.2430 0.8415
63.3235 -55.3301 -0.4734 0.7144
62.1986 -52.1825 -0.4571 0.7227
87.5396 -40.8946 -0.5440 0.6794
85.3618 -35.7760 -0.5211 0.6906
82.7944 -30.8536 -0.4975 0.7023
75.8277 -26.5361 -0.4523 0.7252
75.5411 -21.4278 -0.4421 0.7305
69.1979 -12.3064 -0.3956 0.7549
92.2855 -10.7316 -0.5231 0.6896
56.3903 1.3980 -0.3176 0.7980
55.6399 2.4980 -0.3136 0.8003
50.4466 6.3481 -0.2863 0.8160
51.8691 8.6549 -0.2961 0.8103
51.8827 9.7318 -0.2970 0.8096
51.2440 10.6812 -0.2947 0.8111
49.7559 13.5420 -0.2903 0.8136
49.2122 14.4613 -0.2888 0.8145
47.8686 17.2593 -0.2865 0.8158
47.2489 18.1159 -0.2849 0.8168
26.9152 10.9444 -0.1636 0.8903
49.3874 21.2475 -0.3027 0.8065
90.0288 43.0945 -0.5620 0.6708
-6.0640 61.0790 -1.7283 0.7822
-8.3782 59.8359 -1.7013 0.7852
-9.5092 59.2283 -1.6891 0.7866
-10.6246 58.6291 -1.6778 0.7879
-12.8133 57.4533 -1.6575 0.7901
-19.1192 54.0658 -1.6148 0.7949
-22.1736 52.4250 -1.6028 0.7963
-23.1830 51.8828 -1.6001 0.7966
-25.1939 50.8026 -1.5967 0.7970
-41.7019 76.2379 -2.4469 0.7063
-35.4566 56.4574 -1.8772 0.7658
-36.6403 55.8215 -1.8802 0.7655
-42.6420 52.5975 -1.9066 0.7627
-43.8660 51.9399 -1.9143 0.7618
-45.1006 51.2767 -1.9229 0.7609
-48.8784 49.2473 -1.9538 0.7576
-50.1666 48.5554 -1.9659 0.7563
-51.4714 47.8545 -1.9789 0.7549
-54.1363 46.4229 -2.0081 0.7517
-56.8854 44.9461 -2.0414 0.7482
-58.2957 44.1886 -2.0598 0.7462
-38.5953 26.8859 -1.3244 0.8284
-38.5176 25.6988 -1.3038 0.8309
-72.8730 46.5337 -2.4346 0.7075
-73.7877 45.0583 -2.4345 0.7075
-74.6735 43.5654 -2.4343 0.7075
-76.3566 40.5293 -2.4341 0.7076
-78.6551 35.8579 -2.4341 0.7076
-81.2871 29.4349 -2.4343 0.7076
-83.3299 22.8030 -2.4327 0.7077
-84.2094 15.9151 -2.4131 0.7097
-84.4867 10.7497 -2.3981 0.7112
-84.5064 9.0321 -2.3931 0.7117
-84.4413 5.6083 -2.3829 0.7127
-84.3552 3.9032 -2.3778 0.7133
-84.2332 2.2040 -2.3726 0.7138
-30.7054 0.1868 -0.8646 0.8844
-30.3276 -0.4245 -0.8540 0.8857
-33.7415 -1.1502 -0.9506 0.8736
-62.1937 -3.3714 -1.7538 0.7794
-61.5460 -4.5772 -1.7378 0.7812
-60.9097 -5.7616 -1.7227 0.7828
-60.2841 -6.9262 -1.7086 0.7844
-51.6386 -6.9860 -1.4673 0.8118
-51.1460 -7.9681 -1.4575 0.8129
-77.8575 -16.9846 -2.2439 0.7270
-61.9631 -20.2030 -1.8351 0.7704
-68.8771 -23.9975 -2.0538 0.7469
-80.4783 -33.5991 -2.4557 0.7054
-79.1300 -36.8335 -2.4577 0.7052
-76.8676 -41.5836 -2.4608 0.7049
-76.0511 -43.1378 -2.4619 0.7048
-73.9357 -45.9560 -2.4513 0.7058
-68.9437 -44.7967 -2.3151 0.7196
-67.1527 -47.5732 -2.3173 0.7194
-64.2604 -51.6045 -2.3207 0.7191
-37.3111 -31.2154 -1.3698 0.8231
-21.6533 -19.6461 -0.8233 0.8896
-18.8739 -17.8282 -0.7311 0.9013
-18.5838 -18.2741 -0.7339 0.9010
-37.6953 -38.5859 -1.5189 0.8059
-34.8559 -43.6961 -1.5739 0.7996
-34.4065 -44.9553 -1.5940 0.7973
-40.5578 -60.1810 -2.0435 0.7480
-34.8464 -54.0156 -1.8100 0.7732
-32.7477 -53.0722 -1.7560 0.7792
-27.1141 -50.5146 -1.6143 0.7950
-24.9493 -51.3260 -1.6069 0.7958
-23.5596 -51.0490 -1.5831 0.7985
-22.0731 -50.4673 -1.5510 0.8022
-20.4190 -49.3620 -1.5042 0.8075
-18.0773 -46.3123 -1.3999 0.8196
-16.1479 -46.8399 -1.3951 0.8202
-14.9636 -46.4082 -1.3730 0.8227
-13.7447 -45.7534 -1.3452 0.8260
-12.6447 -45.3793 -1.3265 0.8282
-9.0318 -42.0616 -1.2114 0.8419
-7.5175 -38.7880 -1.1125 0.8538
-4.1263 -36.9801 -1.0477 0.8617
-2.5625 -36.0496 -1.0176 0.8654
-1.8208 -35.7511 -1.0080 0.8665
0.3237 -34.6079 -0.9745 0.8707
2.3309 -33.4409 -0.9439 0.8745
2.9840 -33.1896 -0.9383 0.8752
4.2454 -32.5172 -0.9234 0.8770
6.6609 -31.2295 -0.8991 0.8800
7.2261 -30.8313 -0.8917 0.8810
7.8036 -30.5234 -0.8871 0.8816
9.5311 -29.6994 -0.8783 0.8827
10.0908 -29.4010 -0.8753 0.8830
10.6468 -29.1046 -0.8726 0.8834
12.8089 -27.8550 -0.8633 0.8845
13.3898 -27.6423 -0.8649 0.8843
13.9341 -27.3522 -0.8644 0.8844
14.4779 -27.0622 -0.8642 0.8844
15.0219 -26.7722 -0.8644 0.8844
15.5662 -26.4821 -0.8650 0.8843
17.2066 -25.6076 -0.8687 0.8839
17.7078 -25.2434 -0.8682 0.8839
18.2615 -24.9519 -0.8707 0.8836
58.1434 -70.1571 -2.5657 0.6945
28.1958 -32.6639 -1.2150 0.8414
62.3042 -66.5752 -2.5675 0.6943
63.6413 -65.3243 -2.5680 0.6942
64.9527 -64.0458 -2.5685 0.6942
67.3112 -52.0140 -2.3953 0.7115
63.4839 -45.1052 -2.1928 0.7323
61.8064 -42.0720 -2.1053 0.7414
57.0217 -32.4476 -1.8474 0.7691
55.6744 -30.2176 -1.7837 0.7761
55.1781 -28.5292 -1.7491 0.7799
53.2772 -24.8887 -1.6558 0.7903
51.7879 -22.9378 -1.5949 0.7972
51.2487 -21.4788 -1.5647 0.8006
50.1013 -19.8250 -1.5172 0.8060
52.2693 -19.4783 -1.5707 0.7999
54.0618 -17.7090 -1.6019 0.7964
57.2061 -16.2270 -1.6744 0.7882
62.1420 -13.6459 -1.7915 0.7752
67.6669 -10.6373 -1.9288 0.7603
69.8729 -9.5507 -1.9858 0.7541
61.7642 -4.6788 -1.7441 0.7805
56.7059 0.2669 -1.5967 0.7970
55.4903 2.4912 -1.5641 0.8007
54.9102 3.5711 -1.5494 0.8024
53.4853 5.6422 -1.5144 0.8064
51.8671 8.6546 -1.4807 0.8102
51.6607 9.6901 -1.4800 0.8103
51.1569 10.6630 -1.4714 0.8113
50.1621 12.5765 -1.4562 0.8131
49.6694 13.5184 -1.4495 0.8138
15.8660 5.0105 -0.4685 0.9356
47.2484 18.1157 -1.4249 0.8167
26.9149 10.9443 -0.8181 0.8902
63.5020 28.8443 -1.9639 0.7565
85.5454 40.9483 -2.6705 0.6842
44.6890 22.5053 -1.4089 0.8185
-4.7523 47.8667 -2.4395 0.8248
-6.6692 47.6304 -2.4391 0.8248
-7.6244 47.4884 -2.4392 0.8248
-8.5708 47.2953 -2.4376 0.8249
-12.3363 46.4506 -2.4374 0.8249
-13.2588 46.1671 -2.4360 0.8250
-14.1813 45.8857 -2.4357 0.8250
-17.8022 44.5632 -2.4336 0.8251
-19.5700 43.7968 -2.4328 0.8252
-20.4320 43.3668 -2.4312 0.8253
-21.2912 42.9328 -2.4303 0.8254
-22.9829 42.0165 -2.4288 0.8255
-24.6387 41.0391 -2.4275 0.8255
-25.4503 40.5244 -2.4268 0.8256
-29.3184 37.6856 -2.4215 0.8259
-30.0493 37.0649 -2.4198 0.8260
-31.4822 35.7935 -2.4175 0.8262
-32.1776 35.1357 -2.4162 0.8263
-32.8559 34.4609 -2.4147 0.8264
-33.5215 33.7745 -2.4133 0.8265
-34.8081 32.3621 -2.4103 0.8267
-36.0282 30.8949 -2.4069 0.8269
-37.7419 28.6086 -2.4018 0.8272
-38.2800 27.8243 -2.4000 0.8273
-39.3053 26.2244 -2.3963 0.8276
-39.7914 25.4091 -2.3943 0.8277
-40.2597 24.5845 -2.3923 0.8278
-41.5598 22.0595 -2.3862 0.8282
-43.3572 17.6997 -2.3750 0.8290
-44.2101 15.0120 -2.3678 0.8294
-44.8928 12.2848 -2.3604 0.8299
-45.0822 11.3688 -2.3579 0.8301
-45.7392 6.7554 -2.3448 0.8310
-45.8679 4.9024 -2.3394 0.8313
-45.9037 3.9758 -2.3367 0.8315
-45.9204 3.0499 -2.3339 0.8317
-30.7058 0.1868 -1.5572 0.8843
-33.7419 -1.1502 -1.7122 0.8735
-45.5807 -3.3899 -2.3180 0.8327
-45.5103 -4.3050 -2.3183 0.8327
-45.4219 -5.2187 -2.3187 0.8327
-45.3153 -6.1306 -2.3191 0.8326
-47.4000 -11.3419 -2.4717 0.8227
-46.9247 -13.2408 -2.4727 0.8226
-46.6589 -14.1831 -2.4732 0.8226
-46.3742 -15.1202 -2.4737 0.8225
-45.7492 -16.9770 -2.4747 0.8225
-45.4090 -17.8960 -2.4753 0.8224
-44.2796 -20.6113 -2.4770 0.8223
-42.5245 -24.1208 -2.4794 0.8222
-42.0422 -24.9759 -2.4800 0.8221
-41.0266 -26.6574 -2.4813 0.8220
-40.4937 -27.4829 -2.4819 0.8220
-37.5108 -26.5739 -2.3313 0.8318
-36.9795 -27.3289 -2.3319 0.8318
-36.4333 -28.0735 -2.3326 0.8318
-35.8721 -28.8072 -2.3332 0.8317
-35.2963 -29.5298 -2.3339 0.8317
-21.9384 -19.1160 -1.4757 0.8900
-18.8741 -17.8284 -1.3167 0.9012
-32.2047 -32.9655 -2.3372 0.8315
-31.5454 -33.6152 -2.3379 0.8314
-30.1882 -34.8751 -2.3392 0.8313
-29.4907 -35.4847 -2.3399 0.8313
-28.0590 -36.6618 -2.3413 0.8312
-27.3255 -37.2290 -2.3420 0.8311
-26.5806 -37.7816 -2.3427 0.8311
-25.0577 -38.8420 -2.3442 0.8310
-23.4923 -39.8409 -2.3456 0.8309
-21.8874 -40.7771 -2.3470 0.8308
-20.2452 -41.6486 -2.3485 0.8307
-19.4109 -42.0597 -2.3492 0.8307
-18.5682 -42.4540 -2.3499 0.8306
-17.7177 -42.8313 -2.3507 0.8306
-15.9936 -43.5351 -2.3521 0.8305
-14.9854 -43.4679 -2.3318 0.8318
-12.7339 -42.3886 -2.2446 0.8376
-12.1362 -43.5541 -2.2930 0.8344
-11.4155 -44.3967 -2.3248 0.8323
-9.6281 -40.8273 -2.1273 0.8454
-7.5174 -38.7873 -2.0037 0.8536
-5.7709 -37.8563 -1.9420 0.8578
-2.5625 -36.0490 -1.8328 0.8652
-1.8207 -35.7505 -1.8154 0.8664
2.3308 -33.4404 -1.7000 0.8744
5.4692 -31.8643 -1.6396 0.8785
7.2260 -30.8308 -1.6059 0.8809
8.9671 -29.9996 -1.5879 0.8821
10.6467 -29.1042 -1.5717 0.8833
12.2981 -28.2238 -1.5613 0.8840
12.8087 -27.8547 -1.5548 0.8844
13.3896 -27.6419 -1.5576 0.8843
13.9339 -27.3518 -1.5567 0.8843
16.6579 -25.8996 -1.5617 0.8840
17.2063 -25.6072 -1.5646 0.8838
18.2613 -24.9515 -1.5681 0.8835
28.4895 -37.3305 -2.3815 0.8285
28.1305 -32.5883 -2.1833 0.8416
37.7005 -32.9415 -2.5390 0.8183
39.6244 -30.6193 -2.5396 0.8183
41.4033 -28.1835 -2.5400 0.8182
41.9628 -27.3478 -2.5402 0.8182
42.5051 -26.5008 -2.5403 0.8182
43.0301 -25.6430 -2.5404 0.8182
44.4953 -21.8851 -2.5147 0.8199
43.0131 -19.0513 -2.3858 0.8283
44.7011 -14.6427 -2.3855 0.8283
44.9841 -13.7417 -2.3854 0.8283
45.4951 -11.9235 -2.3852 0.8283
30.6414 -7.3765 -1.5983 0.8814
48.0528 -6.5682 -2.4596 0.8235
25.4427 -2.9586 -1.2990 0.9025
25.1329 -1.9039 -1.2782 0.9040
48.7687 -0.7497 -2.4736 0.8225
48.7728 1.2092 -2.4742 0.8225
48.7451 2.1884 -2.4746 0.8225
48.6976 3.1671 -2.4749 0.8225
48.5434 5.1209 -2.4755 0.8224
48.3100 7.0674 -2.4761 0.8224
48.1638 8.0367 -2.4764 0.8224
47.8129 9.9660 -2.4769 0.8223
47.6081 10.9251 -2.4772 0.8223
47.1403 12.8301 -2.4776 0.8223
15.8619 5.0092 -0.8436 0.9355
46.2948 15.6489 -2.4783 0.8222
45.6368 17.4978 -2.4787 0.8222
26.9146 10.9441 -1.4735 0.8901
44.9042 19.3189 -2.4791 0.8222
44.5103 20.2178 -2.4793 0.8222
44.0983 21.1086 -2.4794 0.8222
-3.2311 32.5447 -2.3980 0.8771
-3.8843 32.4775 -2.3983 0.8771
-4.5343 32.3833 -2.3976 0.8771
-6.4724 32.0362 -2.3964 0.8771
-7.1111 31.8855 -2.3954 0.8772
-7.7466 31.7228 -2.3943 0.8772
-8.3790 31.5499 -2.3935 0.8773
-9.0110 31.3761 -2.3936 0.8773
-9.6362 31.1794 -2.3928 0.8773
-10.2557 30.9656 -2.3917 0.8774
-10.8749 30.7524 -2.3917 0.8774
-11.4873 30.5203 -2.3911 0.8774
-12.0921 30.2694 -2.3900 0.8775
-13.2925 29.7482 -2.3891 0.8775
-15.0378 28.8528 -2.3856 0.8777
-15.6068 28.5317 -2.3845 0.8777
-16.1690 28.1996 -2.3834 0.8778
-18.3520 26.7716 -2.3799 0.8779
-18.8811 26.3912 -2.3793 0.8780
-19.4020 25.9998 -2.3787 0.8780
-19.9115 25.5940 -2.3776 0.8780
-20.4106 25.1758 -2.3764 0.8781
-20.9011 24.7481 -2.3751 0.8782
-21.3826 24.3108 -2.3739 0.8782
-21.8580 23.8674 -2.3730 0.8783
-22.3246 23.4152 -2.3721 0.8783
-24.8983 20.4978 -2.3647 0.8787
-26.0431 18.9297 -2.3607 0.8789
-26.4036 18.3930 -2.3594 0.8789
-26.7529 17.8494 -2.3581 0.8790
-27.4138 16.7402 -2.3552 0.8791
-28.0286 15.6065 -2.3522 0.8793
-28.8621 13.8644 -2.3477 0.8795
-29.1157 13.2735 -2.3462 0.8796
-29.8023 11.4737 -2.3415 0.8798
-30.0062 10.8656 -2.3399 0.8799
-30.1973 10.2538 -2.3383 0.8799
-30.3756 9.6386 -2.3366 0.8800
-30.5411 9.0203 -2.3350 0.8801
-30.6936 8.3992 -2.3333 0.8802
-30.8333 7.7755 -2.3315 0.8803
-30.9602 7.1496 -2.3298 0.8803
-31.2729 5.2624 -2.3252 0.8806
-31.3741 4.6337 -2.3254 0.8806
-31.6024 2.7372 -2.3258 0.8805
-31.7184 -1.0813 -2.3270 0.8805
-31.6934 -1.7180 -2.3272 0.8805
-33.6221 -3.1804 -2.4763 0.8733
-33.4145 -5.2057 -2.4796 0.8732
-33.3072 -5.8762 -2.4799 0.8731
-33.0527 -7.2104 -2.4805 0.8731
-32.9055 -7.8736 -2.4808 0.8731
-32.1856 -10.4941 -2.4822 0.8730
-31.9731 -11.1398 -2.4825 0.8730
-30.9953 -13.6774 -2.4841 0.8729
-30.4311 -14.9156 -2.4849 0.8729
-30.1306 -15.5262 -2.4853 0.8729
-29.8178 -16.1307 -2.4857 0.8729
-29.1562 -17.3208 -2.4866 0.8728
-28.8076 -17.9058 -2.4870 0.8728
-28.0756 -19.0548 -2.4879 0.8728
-27.6925 -19.6183 -2.4884 0.8727
-27.2981 -20.1741 -2.4888 0.8727
-26.7632 -20.6223 -2.4773 0.8733
-24.4619 -20.4655 -2.3385 0.8799
-23.6298 -21.4395 -2.3394 0.8799
-18.5842 -18.2745 -1.9111 0.9007
-22.3095 -22.8366 -2.3408 0.8798
-21.8510 -23.2847 -2.3413 0.8798
-21.3834 -23.7235 -2.3418 0.8798
-19.9288 -24.9832 -2.3432 0.8797
-19.4272 -25.3835 -2.3437 0.8797
-18.9176 -25.7738 -2.3442 0.8797
-18.4001 -26.1539 -2.3447 0.8796
-17.3426 -26.8828 -2.3457 0.8796
-14.0039 -28.8090 -2.3487 0.8794
-13.4256 -29.0906 -2.3492 0.8794
-12.8415 -29.3605 -2.3497 0.8794
-10.4534 -30.3220 -2.3517 0.8793
-9.8447 -30.5322 -2.3522 0.8793
-9.2316 -30.7302 -2.3527 0.8792
-8.6146 -30.9160 -2.3532 0.8792
-7.3696 -31.2500 -2.3542 0.8792
-6.7421 -31.3983 -2.3547 0.8791
-6.1115 -31.5338 -2.3552 0.8791
-2.9233 -32.0204 -2.3576 0.8790
-1.6361 -32.1248 -2.3585 0.8790
-0.9910 -32.1575 -2.3590 0.8789
-0.3453 -32.1770 -2.3594 0.8789
1.5935 -32.1583 -2.3608 0.8789
2.2392 -32.1259 -2.3613 0.8788
2.8843 -32.0804 -2.3617 0.8788
3.5285 -32.0220 -2.3621 0.8788
4.1714 -31.9505 -2.3626 0.8788
5.4527 -31.7686 -2.3634 0.8787
6.0686 -31.5442 -2.3553 0.8791
7.8034 -30.5225 -2.3100 0.8813
8.3986 -30.3021 -2.3056 0.8815
8.9670 -29.9991 -2.2958 0.8820
10.0905 -29.4002 -2.2791 0.8828
10.6465 -29.1038 -2.2723 0.8831
11.1995 -28.8090 -2.2663 0.8834
12.8086 -27.8543 -2.2479 0.8843
13.9337 -27.3514 -2.2507 0.8842
15.0214 -26.7715 -2.2508 0.8842
17.7072 -25.2427 -2.2608 0.8837
19.6215 -25.7106 -2.3714 0.8783
21.1397 -24.4897 -2.3721 0.8783
22.1096 -23.6252 -2.3725 0.8783
24.5387 -24.1962 -2.5268 0.8709
25.4938 -23.1947 -2.5271 0.8709
26.8486 -21.6216 -2.5276 0.8709
27.2786 -21.0793 -2.5277 0.8709
27.6976 -20.5282 -2.5278 0.8709
28.5016 -19.4012 -2.5280 0.8709
29.2593 -18.2424 -2.5282 0.8708
30.3063 -16.4489 -2.5283 0.8708
30.6308 -15.8373 -2.5284 0.8708
31.5288 -13.9647 -2.5284 0.8708
31.8026 -13.3288 -2.5284 0.8708
32.3113 -12.0409 -2.5283 0.8708
32.5459 -11.3895 -2.5282 0.8708
32.7672 -10.7335 -2.5282 0.8708
32.9752 -10.0733 -2.5281 0.8708
29.4974 -6.4774 -2.2143 0.8859
27.2159 -4.2783 -2.0200 0.8954
24.2605 -0.8604 -1.7799 0.9072
32.3102 1.4506 -2.3714 0.8783
32.2614 2.7496 -2.3741 0.8782
32.1151 4.6981 -2.3798 0.8779
32.0392 5.3461 -2.3817 0.8779
31.8351 6.6356 -2.3844 0.8777
31.5781 7.9172 -2.3870 0.8776
31.4318 8.5548 -2.3885 0.8775
31.2718 9.1896 -2.3899 0.8775
15.8578 5.0079 -1.2193 0.9355
30.7107 11.0729 -2.3937 0.8773
29.2292 14.7199 -2.3996 0.8770
28.9367 15.3084 -2.4003 0.8770
-2.4447 24.6236 -2.3756 0.9054
-2.9384 24.5685 -2.3755 0.9054
-4.4083 24.3256 -2.3734 0.9054
-5.3781 24.1146 -2.3720 0.9055
-6.3404 23.8736 -2.3714 0.9055
-6.8162 23.7340 -2.3707 0.9055
-7.2890 23.5845 -2.3699 0.9056
-7.7597 23.4293 -2.3695 0.9056
-8.2273 23.2654 -2.3691 0.9056
-8.6898 23.0876 -2.3683 0.9056
-9.1483 22.9004 -2.3675 0.9057
-10.0562 22.5054 -2.3665 0.9057
-10.5022 22.2908 -2.3657 0.9057
-11.3800 21.8347 -2.3639 0.9058
-12.2382 21.3442 -2.3621 0.9059
-13.4854 20.5451 -2.3594 0.9060
-13.8897 20.2621 -2.3584 0.9060
-14.2895 19.9733 -2.3577 0.9060
-14.6828 19.6758 -2.3570 0.9061
-15.0687 19.3692 -2.3560 0.9061
-16.1896 18.4067 -2.3534 0.9062
-16.9021 17.7278 -2.3515 0.9063
-17.5842 17.0194 -2.3494 0.9063
-17.9142 16.6554 -2.3483 0.9064
-18.2366 16.2849 -2.3473 0.9064
-18.5511 15.9079 -2.3462 0.9065
-20.0057 13.9362 -2.3407 0.9067
-20.2713 13.5250 -2.3396 0.9067
-20.5285 13.1087 -2.3384 0.9068
-21.6828 10.9568 -2.3323 0.9070
-21.8866 10.5136 -2.3311 0.9070
-22.6509 8.7204 -2.3302 0.9071
-22.8217 8.2640 -2.3302 0.9071
-23.2792 6.8755 -2.3304 0.9071
-23.4131 6.4069 -2.3304 0.9071
-23.5377 5.9357 -2.3305 0.9071
-23.7586 4.9863 -2.3306 0.9071
-23.9416 4.0287 -2.3308 0.9070
-24.0187 3.5474 -2.3309 0.9070
-24.0863 3.0646 -2.3310 0.9070
-24.1441 2.5806 -2.3312 0.9070
-25.3349 1.6827 -2.4376 0.9030
-25.7909 1.1934 -2.4787 0.9015
-25.8643 0.1573 -2.4831 0.9013
-25.8534 -0.8813 -2.4835 0.9013
-25.8324 -1.4003 -2.4837 0.9013
-25.7594 -2.4367 -2.4841 0.9012
-25.6452 -3.4695 -2.4845 0.9012
-25.5726 -3.9840 -2.4847 0.9012
-25.4898 -4.4970 -2.4849 0.9012
-25.3968 -5.0084 -2.4852 0.9012
-25.2936 -5.5178 -2.4854 0.9012
-25.0567 -6.5301 -2.4859 0.9012
-24.9231 -7.0326 -2.4862 0.9012
-24.7796 -7.5324 -2.4864 0.9012
-23.9135 -9.9837 -2.4879 0.9011
-23.4992 -10.9384 -2.4885 0.9011
-23.2777 -11.4094 -2.4888 0.9011
-22.2989 -13.2471 -2.4901 0.9010
-22.0314 -13.6940 -2.4904 0.9010
-21.7550 -14.1355 -2.4908 0.9010
-21.4699 -14.5715 -2.4911 0.9010
-20.5625 -15.8443 -2.4922 0.9009
-19.8834 -16.6350 -2.4889 0.9011
-18.5857 -16.1946 -2.3667 0.9057
-17.7343 -16.7518 -2.3421 0.9066
-17.0527 -17.4556 -2.3428 0.9066
-16.3432 -18.1317 -2.3435 0.9066
-15.9784 -18.4591 -2.3439 0.9066
-15.6070 -18.7791 -2.3442 0.9065
-15.2292 -19.0917 -2.3446 0.9065
-14.0590 -19.9834 -2.3457 0.9065
-13.2496 -20.5383 -2.3465 0.9065
-12.4184 -21.0605 -2.3472 0.9064
-11.5667 -21.5491 -2.3480 0.9064
-6.5765 -23.6018 -2.3522 0.9062
-5.1462 -23.9664 -2.3533 0.9062
-4.6648 -24.0688 -2.3537 0.9062
-2.7204 -24.3807 -2.3552 0.9061
-1.2483 -24.5115 -2.3563 0.9061
-0.7561 -24.5354 -2.3566 0.9061
0.7227 -24.5473 -2.3577 0.9060
1.7081 -24.5056 -2.3584 0.9060
3.1815 -24.3686 -2.3594 0.9060
3.6707 -24.3032 -2.3597 0.9060
4.1585 -24.2278 -2.3600 0.9059
4.6447 -24.1427 -2.3603 0.9059
6.0920 -23.8286 -2.3612 0.9059
7.0455 -23.5707 -2.3618 0.9059
7.5182 -23.4273 -2.3621 0.9059
7.9880 -23.2744 -2.3624 0.9059
9.3779 -22.7591 -2.3632 0.9058
9.8340 -22.5688 -2.3635 0.9058
10.2863 -22.3692 -2.3637 0.9058
12.0526 -21.4805 -2.3647 0.9058
13.3276 -20.7217 -2.3653 0.9057
13.7421 -20.4517 -2.3655 0.9057
14.1512 -20.1733 -2.3657 0.9057
14.5545 -19.8867 -2.3659 0.9057
14.9520 -19.5920 -2.3661 0.9057
15.3435 -19.2893 -2.3663 0.9057
16.8462 -18.0010 -2.3669 0.9057
19.0637 -18.0572 -2.5209 0.8999
19.4234 -17.6717 -2.5210 0.8999
20.4547 -16.4725 -2.5214 0.8998
22.2901 -13.8973 -2.5218 0.8998
22.8309 -12.9917 -2.5219 0.8998
23.0874 -12.5308 -2.5219 0.8998
23.8002 -11.1184 -2.5220 0.8998
24.2272 -10.1539 -2.5220 0.8998
24.6149 -9.1728 -2.5219 0.8998
24.9625 -8.1769 -2.5218 0.8998
25.1211 -7.6740 -2.5218 0.8998
25.4076 -6.6589 -2.5216 0.8998
25.5353 -6.1472 -2.5216 0.8998
25.7597 -5.1167 -2.5214 0.8998
25.8562 -4.5983 -2.5213 0.8998
25.0481 -0.8883 -2.4063 0.9042
24.7536 -0.3805 -2.3767 0.9053
24.6491 0.1160 -2.3665 0.9057
24.6401 0.6109 -2.3663 0.9057
24.6210 1.1054 -2.3661 0.9057
24.5919 1.5993 -2.3659 0.9057
24.3761 3.5660 -2.3651 0.9057
24.2973 4.0543 -2.3649 0.9058
24.1104 5.0255 -2.3645 0.9058
24.0022 5.5080 -2.3642 0.9058
23.7568 6.4659 -2.3637 0.9058
23.6197 6.9408 -2.3635 0.9058
15.8537 5.0066 -1.5961 0.9354
23.3266 7.8850 -2.3640 0.9058
23.1739 8.3555 -2.3650 0.9058
23.0114 8.8229 -2.3660 0.9057
22.8391 9.2870 -2.3670 0.9057
22.6571 9.7476 -2.3680 0.9056
13.9893 6.6963 -1.4890 0.9396
-2.3598 19.7305 -2.3604 0.9231
-3.5410 19.5399 -2.3589 0.9231
-4.3215 19.3770 -2.3583 0.9231
-4.7085 19.2818 -2.3577 0.9232
-5.0935 19.1786 -2.3571 0.9232
-6.2351 18.8259 -2.3557 0.9232
-6.6100 18.6920 -2.3551 0.9232
-7.3510 18.4013 -2.3538 0.9233
-7.7168 18.2448 -2.3531 0.9233
-8.0803 18.0835 -2.3528 0.9233
-8.4393 17.9124 -2.3521 0.9233
-8.7946 17.7339 -2.3514 0.9234
-9.1460 17.5483 -2.3506 0.9234
-9.8370 17.1562 -2.3491 0.9234
-10.1762 16.9499 -2.3484 0.9235
-10.8414 16.5168 -2.3469 0.9235
-11.4882 16.0576 -2.3453 0.9235
-12.1153 15.5729 -2.3437 0.9236
-13.0176 14.8002 -2.3413 0.9237
-13.8696 13.9743 -2.3387 0.9238
-14.6691 13.0992 -2.3361 0.9238
-14.9232 12.7970 -2.3352 0.9239
-15.1710 12.4897 -2.3342 0.9239
-15.8940 11.5527 -2.3340 0.9239
-16.3443 10.9048 -2.3339 0.9239
-16.7683 10.2395 -2.3338 0.9239
-16.9703 9.9007 -2.3338 0.9239
-17.7094 8.5070 -2.3338 0.9239
-18.0367 7.7892 -2.3338 0.9239
-18.1896 7.4255 -2.3338 0.9239
-18.6042 6.3172 -2.3338 0.9239
-20.5272 3.8795 -2.4815 0.9193
-20.6361 3.4725 -2.4857 0.9192
-20.7024 3.0576 -2.4858 0.9192
-20.8846 1.3871 -2.4863 0.9191
-20.9092 0.9675 -2.4864 0.9191
-20.9255 0.5476 -2.4865 0.9191
-20.9240 -0.7133 -2.4869 0.9191
-20.9067 -1.1333 -2.4871 0.9191
-20.8471 -1.9720 -2.4874 0.9191
-20.8047 -2.3903 -2.4876 0.9191
-20.7539 -2.8077 -2.4877 0.9191
-20.6949 -3.2241 -2.4879 0.9191
-20.6275 -3.6392 -2.4881 0.9191
-20.5518 -4.0529 -2.4883 0.9191
-20.4679 -4.4651 -2.4885 0.9191
-20.3758 -4.8755 -2.4887 0.9191
-20.2755 -5.2840 -2.4889 0.9191
-20.1670 -5.6906 -2.4891 0.9191
-20.0504 -6.0949 -2.4893 0.9191
-19.5039 -7.6866 -2.4902 0.9190
-19.1833 -8.4651 -2.4907 0.9190
-19.0114 -8.8494 -2.4910 0.9190
-18.6446 -9.6075 -2.4915 0.9190
-18.4499 -9.9810 -2.4917 0.9190
-17.8213 -11.0771 -2.4925 0.9189
-17.1279 -12.1340 -2.4934 0.9189
-16.6308 -12.8148 -2.4939 0.9189
-15.5470 -14.1058 -2.4936 0.9189
-15.1289 -14.2908 -2.4721 0.9196
-14.0683 -13.8337 -2.3437 0.9236
-13.2149 -14.6611 -2.3446 0.9236
-12.9195 -14.9253 -2.3449 0.9236
-10.5818 -13.2656 -2.0157 0.9339
-11.3658 -16.1554 -2.3464 0.9235
-11.0406 -16.3824 -2.3467 0.9235
-10.7109 -16.6030 -2.3470 0.9235
-10.3767 -16.8169 -2.3473 0.9235
-10.0383 -17.0241 -2.3476 0.9235
-9.6958 -17.2244 -2.3479 0.9235
-8.6447 -17.7839 -2.3488 0.9234
-7.9258 -18.1214 -2.3494 0.9234
-7.1938 -18.4298 -2.3501 0.9234
-6.4498 -18.7087 -2.3507 0.9234
-5.6950 -18.9575 -2.3513 0.9234
-4.9306 -19.1759 -2.3519 0.9233
-4.5452 -19.2735 -2.3522 0.9233
-4.1579 -19.3633 -2.3525 0.9233
-3.7687 -19.4454 -2.3528 0.9233
-2.9858 -19.5860 -2.3534 0.9233
-2.1976 -19.6951 -2.3540 0.9233
-0.6107 -19.8177 -2.3552 0.9232
-0.2127 -19.8284 -2.3555 0.9232
0.9817 -19.8122 -2.3563 0.9232
1.3795 -19.7908 -2.3566 0.9232
2.5692 -19.6786 -2.3574 0.9232
2.9641 -19.6253 -2.3576 0.9232
3.3579 -19.5639 -2.3579 0.9232
3.7505 -19.4947 -2.3582 0.9231
4.1415 -19.4175 -2.3584 0.9231
4.9188 -19.2396 -2.3589 0.9231
5.6884 -19.0304 -2.3594 0.9231
6.4491 -18.7904 -2.3598 0.9231
6.8257 -18.6589 -2.3601 0.9231
8.3036 -18.0575 -2.3609 0.9231
8.6652 -17.8887 -2.3611 0.9231
9.0234 -17.7126 -2.3613 0.9230
10.7573 -16.7254 -2.3622 0.9230
12.6943 -15.3172 -2.3631 0.9230
14.1466 -15.7382 -2.5137 0.9183
14.7860 -15.1770 -2.5169 0.9182
15.3847 -14.5725 -2.5172 0.9182
16.2359 -13.6214 -2.5174 0.9182
16.5067 -13.2931 -2.5175 0.9182
17.0280 -12.6205 -2.5177 0.9182
17.5218 -11.9273 -2.5178 0.9182
17.7581 -11.5733 -2.5178 0.9182
18.4235 -10.4837 -2.5180 0.9182
18.6304 -10.1118 -2.5180 0.9182
18.8298 -9.7357 -2.5180 0.9182
19.0215 -9.3558 -2.5180 0.9182
19.3818 -8.5846 -2.5180 0.9182
19.7106 -7.7995 -2.5180 0.9182
19.8630 -7.4021 -2.5180 0.9182
20.1437 -6.5985 -2.5179 0.9182
20.6064 -4.9607 -2.5177 0.9182
20.7013 -4.5458 -2.5176 0.9182
20.8658 -3.7108 -2.5175 0.9182
20.9964 -2.8699 -2.5173 0.9182
21.0489 -2.4477 -2.5172 0.9182
21.1283 -1.6005 -2.5169 0.9182
21.1735 -0.7509 -2.5167 0.9182
21.1832 -0.3257 -2.5166 0.9182
21.1768 0.5250 -2.5163 0.9182
21.1607 0.9500 -2.5161 0.9182
21.1193 1.3735 -2.5140 0.9183
20.4019 2.1522 -2.4369 0.9207
19.6122 3.2725 -2.3619 0.9230
19.3751 4.4462 -2.3613 0.9230
19.2803 4.8339 -2.3611 0.9231
15.7506 4.9741 -1.9620 0.9356
18.6905 6.7390 -2.3601 0.9231
18.5496 7.1122 -2.3598 0.9231
