ply
format ascii 1.0
element vertex 1592
property float32 x
property float32 y
property float32 z
property float32 I
end_header
-9.6582 -4.5276 -2.5069 0.9571
-9.2604 -5.2890 -2.5064 0.9571
-9.1515 -5.4741 -2.5062 0.9571
-8.5521 -6.3644 -2.5054 0.9571
-8.4217 -6.5349 -2.5053 0.9571
-8.2878 -6.7028 -2.5051 0.9571
-8.0102 -7.0302 -2.5048 0.9572
-7.7195 -7.3461 -2.5045 0.9572
-7.5695 -7.4996 -2.5043 0.9572
-7.4165 -7.6500 -2.5041 0.9572
-7.2604 -7.7973 -2.5040 0.9572
-6.9396 -8.0822 -2.5036 0.9572
-6.7749 -8.2198 -2.5035 0.9572
-6.6076 -8.3540 -2.5033 0.9572
-6.4375 -8.4848 -2.5031 0.9572
-6.2649 -8.6121 -2.5029 0.9572
-6.0898 -8.7360 -2.5028 0.9572
-5.9122 -8.8562 -2.5026 0.9572
-5.3655 -9.1952 -2.5021 0.9572
-4.6069 -9.5945 -2.5014 0.9572
-4.4124 -9.6847 -2.5012 0.9572
-4.2162 -9.7709 -2.5010 0.9572
-3.6177 -10.0056 -2.5005 0.9572
-3.2114 -10.1418 -2.5002 0.9572
-3.0063 -10.2037 -2.5000 0.9572
-2.3842 -10.3646 -2.4995 0.9572
-2.1748 -10.4098 -2.4994 0.9572
-1.9646 -10.4508 -2.4992 0.9572
-1.7536 -10.4875 -2.4990 0.9572
-0.6902 -10.6073 -2.4982 0.9573
-0.4764 -10.6184 -2.4981 0.9573
-0.2624 -10.6252 -2.4979 0.9573
0.1657 -10.6259 -2.4976 0.9573
0.3796 -10.6197 -2.4975 0.9573
0.5934 -10.6093 -2.4973 0.9573
0.8069 -10.5946 -2.4972 0.9573
1.0200 -10.5756 -2.4970 0.9573
1.2327 -10.5523 -2.4969 0.9573
1.4449 -10.5248 -2.4968 0.9573
1.8674 -10.4569 -2.4965 0.9573
2.0775 -10.4166 -2.4964 0.9573
2.9085 -10.2136 -2.4959 0.9573
3.3171 -10.0872 -2.4956 0.9573
3.7203 -9.9446 -2.4954 0.9573
4.1174 -9.7858 -2.4952 0.9573
4.3134 -9.7005 -2.4951 0.9573
4.7002 -9.5181 -2.4949 0.9573
5.6323 -8.9958 -2.4944 0.9573
6.3372 -8.5123 -2.4941 0.9573
6.5071 -8.3827 -2.4940 0.9573
6.6745 -8.2498 -2.4940 0.9573
6.8391 -8.1135 -2.4939 0.9573
7.1599 -7.8311 -2.4938 0.9573
7.3160 -7.6852 -2.4938 0.9573
7.6193 -7.3840 -2.4937 0.9573
7.7663 -7.2290 -2.4936 0.9573
7.9102 -7.0710 -2.4936 0.9573
8.0509 -6.9101 -2.4935 0.9573
8.1883 -6.7465 -2.4935 0.9573
8.4532 -6.4111 -2.4935 0.9573
8.5805 -6.2396 -2.4934 0.9573
8.7044 -6.0654 -2.4934 0.9573
9.0546 -5.5287 -2.4934 0.9573
9.1641 -5.3452 -2.4934 0.9573
9.2699 -5.1595 -2.4934 0.9573
9.6552 -4.3968 -2.4934 0.9573
9.7418 -4.2015 -2.4934 0.9573
9.9033 -3.8059 -2.4935 0.9573
10.0487 -3.4041 -2.4935 0.9573
10.1154 -3.2010 -2.4935 0.9573
10.3409 -2.3768 -2.4937 0.9573
10.5286 -1.3253 -2.4940 0.9573
10.5903 -0.6871 -2.4942 0.9573
10.6135 -0.0464 -2.4944 0.9573
10.6126 0.1674 -2.4945 0.9573
10.5843 0.8080 -2.4948 0.9573
10.5175 1.4458 -2.4951 0.9573
10.3211 2.4964 -2.4956 0.9573
10.2692 2.7039 -2.4958 0.9573
10.2132 2.9103 -2.4959 0.9573
10.0887 3.3196 -2.4961 0.9573
9.8714 3.9234 -2.4965 0.9573
9.7064 4.3182 -2.4968 0.9573
9.4296 4.8973 -2.4972 0.9573
9.2258 5.2736 -2.4975 0.9573
9.1183 5.4587 -2.4977 0.9573
8.8921 5.8222 -2.4980 0.9573
8.6515 6.1763 -2.4983 0.9573
8.5259 6.3497 -2.4984 0.9573
8.3968 6.5205 -2.4986 0.9573
8.2643 6.6887 -2.4987 0.9573
7.9816 7.0102 -2.4967 0.9573
7.6794 7.3132 -2.4923 0.9574
6.9123 7.4288 -2.3848 0.9592
6.3517 7.7120 -2.3481 0.9598
6.1955 7.8389 -2.3483 0.9598
5.8756 8.0831 -2.3486 0.9598
5.7120 8.2004 -2.3487 0.9598
5.0350 8.6358 -2.3494 0.9598
4.8604 8.7361 -2.3496 0.9598
4.3248 9.0155 -2.3500 0.9597
3.7733 9.2621 -2.3505 0.9597
3.5863 9.3369 -2.3507 0.9597
3.3978 9.4079 -2.3508 0.9597
3.2078 9.4750 -2.3510 0.9597
2.0430 9.7966 -2.3520 0.9597
1.4480 9.9040 -2.3524 0.9597
1.0481 9.9556 -2.3527 0.9597
0.8475 9.9753 -2.3529 0.9597
0.6464 9.9910 -2.3530 0.9597
0.4451 10.0026 -2.3532 0.9597
-9.6802 0.4360 -2.5089 0.9608
-9.6867 0.2410 -2.5088 0.9608
-9.6894 0.0458 -2.5088 0.9608
-9.6603 -0.7340 -2.5084 0.9608
-9.6433 -0.9283 -2.5084 0.9608
-9.5358 -1.7011 -2.5080 0.9608
-9.4993 -1.8927 -2.5079 0.9608
-9.4588 -2.0836 -2.5078 0.9608
-9.4145 -2.2735 -2.5077 0.9608
-9.3665 -2.4626 -2.5076 0.9608
-9.0693 -3.3910 -2.5070 0.9608
-8.7653 -4.1090 -2.5065 0.9608
-8.2034 -5.1341 -2.5057 0.9608
-8.0979 -5.2979 -2.5055 0.9608
-7.7619 -5.7763 -2.5051 0.9608
-7.3976 -6.2334 -2.5047 0.9608
-6.8704 -6.8069 -2.5041 0.9608
-5.2031 -8.1447 -2.5024 0.9609
-5.0377 -8.2473 -2.5022 0.9609
-4.7009 -8.4424 -2.5019 0.9609
-4.3566 -8.6238 -2.5016 0.9609
-4.0053 -8.7911 -2.5013 0.9609
-3.4665 -9.0152 -2.5008 0.9609
-3.2840 -9.0827 -2.5007 0.9609
-2.3535 -9.3639 -2.4999 0.9609
-1.9743 -9.4500 -2.4996 0.9609
-1.7835 -9.4873 -2.4994 0.9609
-1.2071 -9.5760 -2.4990 0.9609
-0.8204 -9.6157 -2.4987 0.9609
-0.4325 -9.6398 -2.4984 0.9609
-0.2382 -9.6461 -2.4983 0.9609
-0.0439 -9.6484 -2.4982 0.9609
0.5387 -9.6319 -2.4978 0.9609
1.1192 -9.5803 -2.4974 0.9609
1.6954 -9.4938 -2.4970 0.9609
2.2653 -9.3727 -2.4966 0.9609
2.4534 -9.3248 -2.4965 0.9609
2.6406 -9.2731 -2.4964 0.9609
2.8267 -9.2176 -2.4963 0.9609
3.0117 -9.1584 -2.4962 0.9609
3.3777 -9.0290 -2.4960 0.9610
3.7383 -8.8849 -2.4958 0.9610
4.2675 -8.6420 -2.4955 0.9610
4.4406 -8.5540 -2.4954 0.9610
4.6118 -8.4626 -2.4953 0.9610
4.9485 -8.2694 -2.4952 0.9610
5.1139 -8.1679 -2.4951 0.9610
5.5973 -7.8435 -2.4949 0.9610
5.9083 -7.6113 -2.4948 0.9610
6.0603 -7.4906 -2.4947 0.9610
6.7819 -6.8427 -2.4945 0.9610
7.1824 -6.4204 -2.4943 0.9610
7.5568 -5.9747 -2.4943 0.9610
7.6755 -5.8213 -2.4942 0.9610
7.7911 -5.6655 -2.4942 0.9610
7.9036 -5.5074 -2.4942 0.9610
8.0128 -5.3471 -2.4942 0.9610
8.1189 -5.1846 -2.4942 0.9610
8.3210 -4.8534 -2.4942 0.9610
8.4171 -4.6848 -2.4942 0.9610
8.5097 -4.5144 -2.4942 0.9610
8.5989 -4.3421 -2.4942 0.9610
8.7669 -3.9923 -2.4942 0.9610
8.9207 -3.6361 -2.4942 0.9610
8.9921 -3.4557 -2.4942 0.9610
9.0600 -3.2740 -2.4943 0.9610
9.1242 -3.0909 -2.4943 0.9610
9.2415 -2.7210 -2.4944 0.9610
9.2946 -2.5344 -2.4944 0.9610
9.3894 -2.1581 -2.4945 0.9610
9.5334 -1.3955 -2.4947 0.9610
9.5598 -1.2033 -2.4947 0.9610
9.5823 -1.0105 -2.4948 0.9610
9.6157 -0.6239 -2.4949 0.9610
9.6336 -0.2362 -2.4951 0.9610
9.6367 -0.0421 -2.4951 0.9610
9.6359 0.1520 -2.4952 0.9610
9.6312 0.3460 -2.4953 0.9610
9.6225 0.5400 -2.4954 0.9610
9.5937 0.9271 -2.4955 0.9610
9.5734 1.1201 -2.4956 0.9610
9.5493 1.3128 -2.4957 0.9610
9.5212 1.5049 -2.4958 0.9610
9.4894 1.6964 -2.4959 0.9610
9.4537 1.8872 -2.4960 0.9610
9.4141 2.0773 -2.4961 0.9609
9.3236 2.4550 -2.4963 0.9609
9.1596 3.0139 -2.4967 0.9609
9.0317 3.3806 -2.4969 0.9609
8.9622 3.5620 -2.4970 0.9609
8.8123 3.9204 -2.4973 0.9609
8.5608 4.4461 -2.4977 0.9609
8.4700 4.6178 -2.4978 0.9609
8.2781 4.9557 -2.4981 0.9609
8.0727 5.2856 -2.4983 0.9609
7.3791 6.2224 -2.4992 0.9609
7.2527 6.3701 -2.4993 0.9609
7.1234 6.5153 -2.4995 0.9609
6.9912 6.6578 -2.4996 0.9609
6.8561 6.7977 -2.4998 0.9609
6.7182 6.9348 -2.4999 0.9609
6.5741 7.0653 -2.4987 0.9609
6.1228 7.4341 -2.4936 0.9610
5.7013 7.5201 -2.4434 0.9618
5.2707 7.5668 -2.3876 0.9626
4.8817 7.6476 -2.3491 0.9632
4.7270 7.7448 -2.3493 0.9632
4.4118 7.9299 -2.3496 0.9632
4.0894 8.1021 -2.3498 0.9632
3.5934 8.3358 -2.3503 0.9632
3.4250 8.4070 -2.3504 0.9632
3.2552 8.4748 -2.3506 0.9632
3.0840 8.5392 -2.3507 0.9632
2.9116 8.6001 -2.3509 0.9632
2.3874 8.7618 -2.3513 0.9632
2.2106 8.8087 -2.3514 0.9632
2.0329 8.8520 -2.3516 0.9632
1.6749 8.9277 -2.3519 0.9632
1.3142 8.9890 -2.3521 0.9632
1.1330 9.0142 -2.3523 0.9632
0.9513 9.0357 -2.3524 0.9632
0.7692 9.0535 -2.3526 0.9632
0.4040 9.0782 -2.3528 0.9631
-8.8514 0.3987 -2.5083 0.9638
-8.8574 0.2204 -2.5083 0.9638
-8.8538 -0.3149 -2.5080 0.9638
-8.7987 -1.0263 -2.5077 0.9638
-8.7759 -1.2032 -2.5076 0.9638
-8.6493 -1.9053 -2.5073 0.9639
-8.4666 -2.5947 -2.5069 0.9639
-8.3545 -2.9333 -2.5067 0.9639
-8.2934 -3.1009 -2.5065 0.9639
-8.2289 -3.2671 -2.5064 0.9639
-8.0155 -3.7575 -2.5061 0.9639
-7.9378 -3.9180 -2.5060 0.9639
-7.8569 -4.0769 -2.5059 0.9639
-7.6856 -4.3896 -2.5056 0.9639
-7.5953 -4.5432 -2.5055 0.9639
-7.5019 -4.6950 -2.5054 0.9639
-7.3060 -4.9928 -2.5051 0.9639
-7.0983 -5.2825 -2.5048 0.9639
-6.9901 -5.4240 -2.5047 0.9639
-6.7652 -5.7005 -2.5044 0.9639
-6.5295 -5.9677 -2.5042 0.9639
-6.4076 -6.0977 -2.5040 0.9639
-6.2832 -6.2251 -2.5039 0.9639
-6.1562 -6.3501 -2.5038 0.9639
-6.0267 -6.4724 -2.5036 0.9639
-5.8948 -6.5921 -2.5035 0.9639
-5.6239 -6.8233 -2.5032 0.9639
-5.4851 -6.9348 -2.5031 0.9639
-5.3440 -7.0435 -2.5029 0.9639
-5.0554 -7.2522 -2.5026 0.9639
-4.9081 -7.3521 -2.5025 0.9639
-4.7587 -7.4490 -2.5023 0.9639
-4.6075 -7.5429 -2.5022 0.9639
-4.1429 -7.8060 -2.5018 0.9639
-3.9846 -7.8874 -2.5016 0.9639
-3.6633 -8.0406 -2.5013 0.9639
-3.5004 -8.1123 -2.5012 0.9639
-3.1706 -8.2457 -2.5009 0.9639
-2.4961 -8.4722 -2.5004 0.9639
-2.1527 -8.5649 -2.5001 0.9640
-1.8058 -8.6437 -2.4998 0.9640
-1.6313 -8.6778 -2.4997 0.9640
-1.4561 -8.7084 -2.4995 0.9640
-1.1041 -8.7591 -2.4993 0.9640
-0.9275 -8.7791 -2.4991 0.9640
-0.3956 -8.8177 -2.4987 0.9640
0.1376 -8.8241 -2.4984 0.9640
0.4928 -8.8106 -2.4981 0.9640
0.8471 -8.7828 -2.4979 0.9640
1.0238 -8.7635 -2.4978 0.9640
1.3757 -8.7144 -2.4975 0.9640
1.5509 -8.6845 -2.4974 0.9640
1.7254 -8.6511 -2.4973 0.9640
1.8992 -8.6143 -2.4972 0.9640
2.5858 -8.4321 -2.4968 0.9640
3.2555 -8.1954 -2.4964 0.9640
3.4198 -8.1279 -2.4963 0.9640
3.9040 -7.9057 -2.4961 0.9640
4.2189 -7.7416 -2.4959 0.9640
4.3738 -7.6549 -2.4958 0.9640
4.5270 -7.5650 -2.4958 0.9640
5.2639 -7.0706 -2.4954 0.9640
5.6809 -6.7394 -2.4953 0.9640
5.9474 -6.5050 -2.4952 0.9640
6.0771 -6.3837 -2.4951 0.9640
6.2044 -6.2600 -2.4951 0.9640
6.3291 -6.1337 -2.4951 0.9640
6.4512 -6.0049 -2.4950 0.9640
6.5708 -5.8736 -2.4950 0.9640
6.6877 -5.7400 -2.4950 0.9640
6.8018 -5.6041 -2.4949 0.9640
6.9132 -5.4659 -2.4949 0.9640
7.0219 -5.3256 -2.4949 0.9640
7.2305 -5.0384 -2.4949 0.9640
7.3305 -4.8917 -2.4948 0.9640
7.4275 -4.7431 -2.4948 0.9640
7.8667 -3.9724 -2.4948 0.9640
7.9451 -3.8131 -2.4948 0.9640
8.2264 -3.1614 -2.4949 0.9640
8.3472 -2.8276 -2.4949 0.9640
8.4545 -2.4893 -2.4950 0.9640
8.5030 -2.3185 -2.4950 0.9640
8.6279 -1.8009 -2.4951 0.9640
8.6626 -1.6268 -2.4952 0.9640
8.7455 -1.1008 -2.4953 0.9640
8.7661 -0.9245 -2.4954 0.9640
8.7967 -0.5708 -2.4955 0.9640
8.8066 -0.3935 -2.4956 0.9640
8.8158 -0.0385 -2.4957 0.9640
8.8150 0.1390 -2.4958 0.9640
8.8107 0.3166 -2.4959 0.9640
8.8028 0.4939 -2.4959 0.9640
8.7356 1.2009 -2.4963 0.9640
8.7100 1.3767 -2.4963 0.9640
8.6808 1.5518 -2.4964 0.9640
8.6481 1.7264 -2.4965 0.9640
8.5291 2.2457 -2.4968 0.9640
8.4324 2.5876 -2.4970 0.9640
8.3789 2.7570 -2.4971 0.9640
8.3221 2.9253 -2.4972 0.9640
8.2618 3.0925 -2.4973 0.9640
8.1313 3.4230 -2.4976 0.9640
8.0611 3.5862 -2.4977 0.9640
7.9108 3.9082 -2.4979 0.9640
7.8309 4.0670 -2.4980 0.9640
7.7478 4.2241 -2.4981 0.9640
7.6615 4.3795 -2.4983 0.9640
7.4797 4.6849 -2.4985 0.9640
7.2857 4.9828 -2.4988 0.9640
7.0799 5.2727 -2.4990 0.9640
6.9726 5.4146 -2.4992 0.9640
6.8625 5.5541 -2.4993 0.9640
6.5156 5.9594 -2.4997 0.9640
6.3947 6.0897 -2.4998 0.9640
6.1449 6.3430 -2.5001 0.9640
5.8851 6.5861 -2.5004 0.9639
5.7516 6.7036 -2.5005 0.9639
5.4776 6.9306 -2.5008 0.9639
5.1932 7.1443 -2.5004 0.9639
5.0456 7.2437 -2.4991 0.9640
4.5922 7.5241 -2.4954 0.9640
4.0601 7.6567 -2.4535 0.9646
3.5108 7.7132 -2.3991 0.9654
2.9814 7.7621 -2.3539 0.9660
2.6628 7.8653 -2.3508 0.9661
2.5040 7.9178 -2.3509 0.9661
2.0217 8.0559 -2.3513 0.9661
1.8591 8.0954 -2.3514 0.9661
1.6958 8.1317 -2.3515 0.9661
1.5318 8.1646 -2.3517 0.9661
1.0361 8.2435 -2.3521 0.9661
0.5365 8.2924 -2.3524 0.9660
0.3694 8.3019 -2.3525 0.9660
-8.1451 0.3669 -2.5078 0.9665
-8.1507 0.2028 -2.5078 0.9665
-8.1529 0.0386 -2.5077 0.9665
-8.1287 -0.6176 -2.5074 0.9665
-8.0967 -0.9444 -2.5073 0.9665
-8.0516 -1.2696 -2.5071 0.9665
-8.0241 -1.4315 -2.5070 0.9665
-7.9934 -1.5927 -2.5069 0.9665
-7.9594 -1.7533 -2.5068 0.9665
-7.8818 -2.0723 -2.5067 0.9665
-7.7914 -2.3878 -2.5065 0.9665
-7.6883 -2.6994 -2.5063 0.9665
-7.5727 -3.0066 -2.5061 0.9665
-7.4449 -3.3088 -2.5059 0.9665
-7.3764 -3.4580 -2.5058 0.9665
-7.2306 -3.7519 -2.5055 0.9665
-7.1532 -3.8966 -2.5054 0.9665
-6.9899 -4.1811 -2.5052 0.9665
-6.9039 -4.3208 -2.5051 0.9665
-6.5326 -4.8615 -2.5046 0.9665
-6.3309 -5.1201 -2.5044 0.9665
-6.2262 -5.2463 -2.5042 0.9665
-6.0093 -5.4922 -2.5040 0.9665
-5.6658 -5.8442 -2.5036 0.9665
-5.4253 -6.0670 -2.5034 0.9665
-5.0482 -6.3825 -2.5030 0.9665
-4.9184 -6.4826 -2.5028 0.9665
-4.7866 -6.5800 -2.5027 0.9665
-4.3798 -6.8559 -2.5023 0.9665
-4.2407 -6.9424 -2.5022 0.9665
-3.9572 -7.1068 -2.5019 0.9665
-3.5203 -7.3316 -2.5015 0.9665
-3.3718 -7.4006 -2.5014 0.9665
-2.9183 -7.5895 -2.5010 0.9665
-2.7647 -7.6463 -2.5009 0.9665
-2.6100 -7.7001 -2.5007 0.9665
-2.4543 -7.7507 -2.5006 0.9665
-2.2975 -7.7981 -2.5005 0.9666
-2.1399 -7.8424 -2.5003 0.9666
-1.8222 -7.9214 -2.5001 0.9666
-1.0163 -8.0625 -2.4995 0.9666
-0.8537 -8.0809 -2.4993 0.9666
-0.5275 -8.1080 -2.4991 0.9666
-0.3641 -8.1165 -2.4990 0.9666
0.2902 -8.1180 -2.4985 0.9666
0.4536 -8.1102 -2.4984 0.9666
0.7798 -8.0846 -2.4982 0.9666
1.2664 -8.0218 -2.4979 0.9666
1.4276 -7.9943 -2.4978 0.9666
1.5883 -7.9636 -2.4977 0.9666
1.9075 -7.8926 -2.4975 0.9666
2.2236 -7.8087 -2.4973 0.9666
2.5361 -7.7123 -2.4971 0.9666
2.6908 -7.6594 -2.4970 0.9666
4.3067 -6.8786 -2.4962 0.9666
4.5800 -6.6993 -2.4961 0.9666
4.7139 -6.6055 -2.4960 0.9666
4.9759 -6.4101 -2.4959 0.9666
5.2298 -6.2042 -2.4958 0.9666
5.3535 -6.0976 -2.4958 0.9666
5.4752 -5.9884 -2.4957 0.9666
5.5946 -5.8768 -2.4957 0.9666
5.7117 -5.7629 -2.4956 0.9666
5.9390 -5.5280 -2.4956 0.9666
6.0490 -5.4072 -2.4955 0.9666
6.3643 -5.0320 -2.4955 0.9666
6.5617 -4.7715 -2.4954 0.9666
6.8378 -4.3665 -2.4954 0.9666
7.0080 -4.0876 -2.4954 0.9666
7.0889 -3.9456 -2.4954 0.9666
7.1670 -3.8021 -2.4954 0.9666
7.2421 -3.6569 -2.4954 0.9666
7.3143 -3.5104 -2.4954 0.9666
7.5130 -3.0623 -2.4954 0.9666
7.6304 -2.7573 -2.4955 0.9666
7.6844 -2.6031 -2.4955 0.9666
7.7354 -2.4479 -2.4955 0.9666
7.8278 -2.1344 -2.4956 0.9666
7.8694 -1.9764 -2.4956 0.9666
7.9428 -1.6579 -2.4957 0.9666
7.9747 -1.4976 -2.4957 0.9666
8.0510 -1.0134 -2.4959 0.9666
8.0700 -0.8511 -2.4959 0.9666
8.1130 -0.1989 -2.4961 0.9666
8.1156 -0.0354 -2.4962 0.9666
8.1149 0.1280 -2.4963 0.9666
8.1109 0.2914 -2.4963 0.9666
8.1036 0.4547 -2.4964 0.9666
8.0930 0.6178 -2.4965 0.9666
8.0792 0.7807 -2.4966 0.9666
7.9911 1.4285 -2.4969 0.9666
7.9277 1.7493 -2.4970 0.9666
7.8911 1.9087 -2.4971 0.9666
7.8084 2.2251 -2.4973 0.9666
7.7131 2.5379 -2.4975 0.9666
7.6607 2.6929 -2.4976 0.9666
7.5467 2.9994 -2.4978 0.9666
7.4204 3.3012 -2.4980 0.9666
7.0524 4.0313 -2.4986 0.9666
6.8850 4.3124 -2.4988 0.9666
6.7971 4.4504 -2.4989 0.9666
6.7064 4.5866 -2.4990 0.9666
6.6130 4.7210 -2.4991 0.9666
6.3167 5.1124 -2.4995 0.9666
5.8860 5.6053 -2.5000 0.9666
5.6560 5.8384 -2.5003 0.9666
5.5376 5.9514 -2.5004 0.9666
5.2940 6.1702 -2.5006 0.9665
4.7813 6.5776 -2.5012 0.9665
4.6481 6.6729 -2.5013 0.9665
4.5130 6.7655 -2.5014 0.9665
4.2373 6.9425 -2.5017 0.9665
3.6649 7.2611 -2.5017 0.9665
3.3673 7.3980 -2.5001 0.9666
3.0648 7.5230 -2.4986 0.9666
2.6030 7.6885 -2.4967 0.9666
2.1229 7.7912 -2.4838 0.9668
1.9584 7.8037 -2.4747 0.9669
1.7950 7.8160 -2.4666 0.9670
1.6325 7.8280 -2.4595 0.9671
1.4706 7.8384 -2.4530 0.9672
1.3087 7.8444 -2.4461 0.9673
0.8276 7.8612 -2.4313 0.9675
0.3505 7.8764 -2.4250 0.9675
-7.5355 0.3394 -2.5074 0.9687
-7.5406 0.1876 -2.5073 0.9687
-7.5427 0.0357 -2.5073 0.9687
-7.5417 -0.1162 -2.5072 0.9687
-7.5071 -0.7227 -2.5069 0.9687
-7.4715 -1.0244 -2.5068 0.9687
-7.3295 -1.7700 -2.5064 0.9687
-7.2921 -1.9172 -2.5063 0.9687
-7.2085 -2.2091 -2.5061 0.9687
-7.1623 -2.3538 -2.5060 0.9687
-7.1132 -2.4975 -2.5060 0.9687
-7.0611 -2.6401 -2.5059 0.9687
-7.0063 -2.7817 -2.5058 0.9687
-6.9486 -2.9221 -2.5057 0.9687
-6.8247 -3.1993 -2.5055 0.9687
-6.7586 -3.3360 -2.5054 0.9687
-6.6183 -3.6052 -2.5052 0.9687
-6.5440 -3.7375 -2.5051 0.9687
-6.4672 -3.8684 -2.5050 0.9687
-6.3056 -4.1254 -2.5047 0.9687
-6.2210 -4.2514 -2.5046 0.9687
-6.1338 -4.3756 -2.5045 0.9687
-5.9521 -4.6186 -2.5043 0.9687
-5.8576 -4.7373 -2.5042 0.9687
-5.7608 -4.8541 -2.5041 0.9687
-5.5601 -5.0817 -2.5038 0.9687
-5.4564 -5.1924 -2.5037 0.9687
-5.3504 -5.3010 -2.5036 0.9688
-5.1321 -5.5117 -2.5034 0.9688
-4.9056 -5.7133 -2.5031 0.9688
-4.7893 -5.8107 -2.5030 0.9688
-4.4290 -6.0884 -2.5027 0.9688
-4.1798 -6.2612 -2.5024 0.9688
-4.0527 -6.3438 -2.5023 0.9688
-3.9239 -6.4238 -2.5022 0.9688
-3.6617 -6.5760 -2.5019 0.9688
-3.3936 -6.7174 -2.5017 0.9688
-3.2574 -6.7841 -2.5016 0.9688
-3.1200 -6.8480 -2.5014 0.9688
-2.7004 -7.0229 -2.5011 0.9688
-2.5583 -7.0755 -2.5009 0.9688
-2.4151 -7.1252 -2.5008 0.9688
-1.8335 -7.2951 -2.5003 0.9688
-1.6862 -7.3302 -2.5002 0.9688
-1.3895 -7.3915 -2.5000 0.9688
-1.0906 -7.4407 -2.4998 0.9688
-0.9405 -7.4608 -2.4997 0.9688
-0.7900 -7.4779 -2.4995 0.9688
-0.6392 -7.4920 -2.4994 0.9688
-0.4882 -7.5030 -2.4993 0.9688
-0.3370 -7.5110 -2.4992 0.9688
-0.1856 -7.5159 -2.4991 0.9688
0.2685 -7.5125 -2.4988 0.9688
0.4198 -7.5052 -2.4987 0.9688
0.5708 -7.4950 -2.4986 0.9688
0.7216 -7.4816 -2.4985 0.9688
0.8721 -7.4653 -2.4984 0.9688
1.0222 -7.4459 -2.4983 0.9688
1.3212 -7.3981 -2.4981 0.9688
1.7653 -7.3041 -2.4978 0.9688
1.9120 -7.2668 -2.4977 0.9688
2.0578 -7.2265 -2.4976 0.9688
2.2029 -7.1834 -2.4975 0.9688
2.4902 -7.0884 -2.4974 0.9688
3.0522 -6.8641 -2.4971 0.9688
3.3260 -6.7353 -2.4969 0.9688
3.5943 -6.5955 -2.4968 0.9688
3.7263 -6.5216 -2.4967 0.9688
3.8568 -6.4451 -2.4967 0.9688
3.9857 -6.3659 -2.4966 0.9688
4.2387 -6.2000 -2.4965 0.9688
4.3626 -6.1133 -2.4965 0.9688
4.6050 -5.9324 -2.4964 0.9688
4.7235 -5.8383 -2.4963 0.9688
5.1777 -5.4389 -2.4961 0.9688
5.7952 -4.7747 -2.4960 0.9688
5.8901 -4.6570 -2.4959 0.9688
6.3283 -4.0412 -2.4959 0.9688
6.4084 -3.9129 -2.4959 0.9688
6.4859 -3.7830 -2.4959 0.9688
6.7025 -3.3845 -2.4959 0.9688
6.8334 -3.1118 -2.4959 0.9688
7.0089 -2.6936 -2.4959 0.9688
7.1118 -2.4092 -2.4960 0.9688
7.1590 -2.2655 -2.4960 0.9688
7.2446 -1.9754 -2.4961 0.9688
7.3184 -1.6821 -2.4961 0.9688
7.4070 -1.2371 -2.4962 0.9688
7.4305 -1.0877 -2.4963 0.9688
7.4511 -0.9379 -2.4963 0.9688
7.4945 -0.4863 -2.4965 0.9688
7.5030 -0.3352 -2.4965 0.9688
7.5084 -0.1841 -2.4966 0.9688
7.5107 -0.0328 -2.4966 0.9688
7.5100 0.1185 -2.4967 0.9688
7.4996 0.4208 -2.4968 0.9688
7.4898 0.5718 -2.4969 0.9688
7.3675 1.4708 -2.4973 0.9688
7.3366 1.6189 -2.4974 0.9688
7.2262 2.0592 -2.4977 0.9688
7.1835 2.2044 -2.4977 0.9688
7.0381 2.6344 -2.4980 0.9688
6.9839 2.7757 -2.4981 0.9688
6.9268 2.9159 -2.4982 0.9688
6.8669 3.0550 -2.4983 0.9688
6.8043 3.1928 -2.4984 0.9688
6.4502 3.8614 -2.4989 0.9688
6.2060 4.2444 -2.4992 0.9688
6.1196 4.3688 -2.4993 0.9688
5.9392 4.6121 -2.4996 0.9688
5.8454 4.7309 -2.4997 0.9688
5.7492 4.8479 -2.4998 0.9688
5.6506 4.9630 -2.4999 0.9688
5.5497 5.0760 -2.5000 0.9688
5.4467 5.1870 -2.5001 0.9688
5.2339 5.4026 -2.5004 0.9688
5.1243 5.5072 -2.5005 0.9688
5.0125 5.6095 -2.5006 0.9688
4.8988 5.7096 -2.5007 0.9688
4.6653 5.9028 -2.5010 0.9688
4.3010 6.1747 -2.5013 0.9688
4.1760 6.2603 -2.5015 0.9688
4.0493 6.3435 -2.5016 0.9688
3.9209 6.4241 -2.5017 0.9688
3.7909 6.5020 -2.5018 0.9688
3.6593 6.5774 -2.5019 0.9688
2.9803 6.9136 -2.5026 0.9688
2.5577 7.0820 -2.5029 0.9688
2.4147 7.1324 -2.5030 0.9688
1.0894 7.4510 -2.5031 0.9688
0.9390 7.4710 -2.5029 0.9688
0.7883 7.4881 -2.5028 0.9688
0.6374 7.5023 -2.5028 0.9688
0.4861 7.5136 -2.5028 0.9688
0.3347 7.5220 -2.5028 0.9688
-7.0101 0.0332 -2.5069 0.9707
-7.0092 -0.1080 -2.5068 0.9707
-7.0054 -0.2491 -2.5068 0.9707
-6.9988 -0.3902 -2.5067 0.9707
-6.9619 -0.8120 -2.5065 0.9707
-6.9232 -1.0917 -2.5064 0.9707
-6.8732 -1.3695 -2.5062 0.9707
-6.7774 -1.7819 -2.5060 0.9707
-6.7399 -1.9179 -2.5059 0.9707
-6.6568 -2.1877 -2.5058 0.9707
-6.5628 -2.4538 -2.5056 0.9707
-6.2817 -3.1006 -2.5051 0.9707
-6.2178 -3.2263 -2.5050 0.9707
-6.0823 -3.4738 -2.5048 0.9707
-5.8608 -3.8343 -2.5045 0.9707
-5.7821 -3.9514 -2.5044 0.9707
-5.1680 -4.7233 -2.5037 0.9707
-4.8727 -5.0261 -2.5034 0.9707
-4.7703 -5.1230 -2.5033 0.9707
-4.2301 -5.5754 -2.5027 0.9707
-4.0018 -5.7407 -2.5025 0.9707
-3.7670 -5.8967 -2.5023 0.9707
-3.6474 -5.9711 -2.5021 0.9707
-3.2797 -6.1796 -2.5018 0.9707
-3.1544 -6.2441 -2.5017 0.9707
-3.0279 -6.3060 -2.5016 0.9707
-2.7712 -6.4223 -2.5014 0.9707
-2.1111 -6.6669 -2.5008 0.9707
-1.9763 -6.7077 -2.5007 0.9707
-1.8407 -6.7459 -2.5006 0.9707
-1.5674 -6.8139 -2.5003 0.9707
-1.4298 -6.8438 -2.5002 0.9707
-1.2916 -6.8709 -2.5001 0.9707
-1.1530 -6.8953 -2.5000 0.9707
-0.8688 -6.8921 -2.4841 0.9709
-0.7304 -6.9131 -2.4859 0.9709
-0.4518 -6.9433 -2.4882 0.9709
-0.3132 -6.9822 -2.4994 0.9707
-0.1726 -6.9868 -2.4993 0.9707
-0.0318 -6.9886 -2.4992 0.9707
0.3902 -6.9769 -2.4989 0.9708
0.5306 -6.9674 -2.4988 0.9708
0.9503 -6.9219 -2.4985 0.9708
1.2282 -6.8775 -2.4984 0.9708
1.5040 -6.8220 -2.4982 0.9708
1.7774 -6.7554 -2.4980 0.9708
2.0479 -6.6780 -2.4979 0.9708
2.1819 -6.6352 -2.4978 0.9708
2.4472 -6.5415 -2.4976 0.9708
2.7085 -6.4373 -2.4975 0.9708
2.8375 -6.3813 -2.4974 0.9708
2.9654 -6.3227 -2.4974 0.9708
3.2174 -6.1978 -2.4972 0.9708
3.3415 -6.1316 -2.4972 0.9708
3.5855 -5.9918 -2.4970 0.9708
3.7054 -5.9182 -2.4970 0.9708
4.4997 -5.3381 -2.4967 0.9708
5.1099 -4.7564 -2.4965 0.9708
5.2046 -4.6524 -2.4964 0.9708
5.2972 -4.5466 -2.4964 0.9708
5.3877 -4.4390 -2.4964 0.9708
5.4759 -4.3296 -2.4964 0.9708
5.5620 -4.2184 -2.4964 0.9708
5.6458 -4.1055 -2.4963 0.9708
5.7273 -3.9909 -2.4963 0.9708
5.8833 -3.7570 -2.4963 0.9708
5.9578 -3.6378 -2.4963 0.9708
6.0298 -3.5170 -2.4963 0.9708
6.0994 -3.3949 -2.4963 0.9708
6.2933 -3.0204 -2.4963 0.9708
6.3529 -2.8930 -2.4963 0.9708
6.4099 -2.7645 -2.4963 0.9708
6.4643 -2.6349 -2.4963 0.9708
6.5653 -2.3725 -2.4964 0.9708
6.6967 -1.9717 -2.4964 0.9708
6.7351 -1.8365 -2.4965 0.9708
6.7708 -1.7005 -2.4965 0.9708
6.8861 -1.1501 -2.4966 0.9708
6.9080 -1.0112 -2.4967 0.9708
6.9433 -0.7322 -2.4968 0.9708
6.9568 -0.5923 -2.4968 0.9708
6.9825 -0.0305 -2.4970 0.9708
6.9783 0.2507 -2.4971 0.9708
6.9720 0.3912 -2.4972 0.9708
6.9629 0.5316 -2.4972 0.9708
6.9187 0.9511 -2.4974 0.9708
6.8983 1.0903 -2.4975 0.9708
6.8492 1.3673 -2.4976 0.9708
6.7890 1.6421 -2.4978 0.9708
6.6357 2.1834 -2.4981 0.9708
6.5906 2.3167 -2.4982 0.9708
6.5428 2.4490 -2.4983 0.9708
6.3837 2.8399 -2.4986 0.9708
6.3254 2.9680 -2.4986 0.9708
6.2646 3.0950 -2.4987 0.9708
6.2012 3.2206 -2.4988 0.9708
6.0670 3.4680 -2.4990 0.9707
5.9228 3.7098 -2.4992 0.9707
5.6887 4.0612 -2.4995 0.9707
5.5210 4.2873 -2.4997 0.9707
5.1590 4.7185 -2.5002 0.9707
4.9652 4.9229 -2.5004 0.9707
4.6595 5.2144 -2.5007 0.9707
4.5537 5.3074 -2.5008 0.9707
4.4461 5.3983 -2.5009 0.9707
4.3367 5.4870 -2.5010 0.9707
3.9980 5.7396 -2.5014 0.9707
3.8817 5.8192 -2.5015 0.9707
3.7639 5.8965 -2.5016 0.9707
3.5237 6.0438 -2.5018 0.9707
3.4014 6.1138 -2.5019 0.9707
3.2778 6.1814 -2.5021 0.9707
2.8989 6.3689 -2.5024 0.9707
2.5094 6.5332 -2.5027 0.9707
2.3774 6.5827 -2.5029 0.9707
2.2445 6.6296 -2.5030 0.9707
1.9758 6.7152 -2.5032 0.9707
1.7040 6.7899 -2.5034 0.9707
1.4293 6.8536 -2.5036 0.9707
0.7332 6.9641 -2.5042 0.9707
-6.5344 0.2943 -2.5066 0.9724
-6.5389 0.1627 -2.5066 0.9724
-6.5364 -0.2325 -2.5064 0.9724
-6.5100 -0.6267 -2.5063 0.9724
-6.4598 -1.0186 -2.5061 0.9724
-6.4131 -1.2778 -2.5059 0.9724
-6.3561 -1.5350 -2.5058 0.9724
-6.3237 -1.6626 -2.5057 0.9724
-6.2888 -1.7896 -2.5057 0.9724
-6.2513 -1.9158 -2.5056 0.9724
-6.1236 -2.2896 -2.5053 0.9724
-6.0761 -2.4124 -2.5053 0.9724
-5.9736 -2.6549 -2.5051 0.9724
-5.8614 -2.8931 -2.5049 0.9724
-5.7397 -3.1266 -2.5047 0.9724
-5.6754 -3.2414 -2.5047 0.9724
-5.4687 -3.5779 -2.5044 0.9724
-5.1622 -4.0057 -2.5040 0.9724
-5.0803 -4.1087 -2.5039 0.9724
-4.9104 -4.3096 -2.5037 0.9724
-4.5469 -4.6900 -2.5033 0.9724
-4.4513 -4.7805 -2.5032 0.9724
-4.1540 -5.0399 -2.5029 0.9724
-4.0515 -5.1223 -2.5028 0.9724
-3.9473 -5.2027 -2.5027 0.9724
-3.8416 -5.2809 -2.5026 0.9724
-3.7343 -5.3570 -2.5024 0.9724
-3.6255 -5.4309 -2.5023 0.9724
-3.5152 -5.5025 -2.5022 0.9724
-3.2905 -5.6392 -2.5020 0.9724
-3.1762 -5.7040 -2.5019 0.9724
-2.7064 -5.9401 -2.5015 0.9724
-2.4647 -6.0438 -2.5013 0.9724
-2.2192 -6.1376 -2.5011 0.9724
-2.0950 -6.1808 -2.5010 0.9724
-1.7178 -6.2953 -2.5007 0.9724
-1.3343 -6.3867 -2.5004 0.9724
-1.2054 -6.4121 -2.5003 0.9724
-1.0760 -6.4348 -2.5002 0.9724
-0.9461 -6.4549 -2.5001 0.9724
-0.8159 -6.4724 -2.5000 0.9724
-0.4235 -6.5091 -2.4997 0.9724
-0.2923 -6.5160 -2.4996 0.9724
-0.0297 -6.5220 -2.4994 0.9724
0.1017 -6.5211 -2.4993 0.9724
0.2330 -6.5174 -2.4992 0.9725
0.6260 -6.4908 -2.4989 0.9725
0.7566 -6.4767 -2.4988 0.9725
0.8869 -6.4599 -2.4988 0.9725
1.4037 -6.3667 -2.4984 0.9725
1.6588 -6.3046 -2.4983 0.9725
1.7854 -6.2698 -2.4982 0.9725
2.0363 -6.1924 -2.4981 0.9725
2.1606 -6.1500 -2.4980 0.9725
2.2839 -6.1050 -2.4979 0.9725
2.4063 -6.0577 -2.4978 0.9725
2.5278 -6.0078 -2.4978 0.9725
2.6482 -5.9555 -2.4977 0.9725
3.2331 -5.6584 -2.4974 0.9725
3.3463 -5.5921 -2.4974 0.9725
3.4582 -5.5234 -2.4973 0.9725
3.5687 -5.4525 -2.4973 0.9725
3.6777 -5.3795 -2.4972 0.9725
3.7852 -5.3042 -2.4972 0.9725
4.0984 -5.0657 -2.4970 0.9725
4.1995 -4.9821 -2.4970 0.9725
4.6788 -4.5343 -2.4969 0.9725
4.8575 -4.3421 -2.4968 0.9725
4.9439 -4.2434 -2.4968 0.9725
5.0284 -4.1429 -2.4968 0.9725
5.4192 -3.6163 -2.4967 0.9725
5.4909 -3.5064 -2.4967 0.9725
5.7553 -3.0532 -2.4967 0.9725
5.9824 -2.5801 -2.4967 0.9725
6.0332 -2.4592 -2.4967 0.9725
6.1274 -2.2142 -2.4967 0.9725
6.1708 -2.0904 -2.4968 0.9725
6.2859 -1.7140 -2.4968 0.9725
6.3192 -1.5871 -2.4969 0.9725
6.3500 -1.4595 -2.4969 0.9725
6.4038 -1.2026 -2.4969 0.9725
6.4802 -0.6834 -2.4971 0.9725
6.4928 -0.5528 -2.4971 0.9725
6.5027 -0.4219 -2.4972 0.9725
6.5146 -0.1597 -2.4973 0.9725
6.5167 -0.0285 -2.4973 0.9725
6.5128 0.2340 -2.4974 0.9725
6.5069 0.3651 -2.4975 0.9725
6.4735 0.7574 -2.4977 0.9725
6.4571 0.8877 -2.4977 0.9725
6.4380 1.0176 -2.4978 0.9725
6.3922 1.2761 -2.4979 0.9725
6.1928 2.0377 -2.4984 0.9725
6.1507 2.1621 -2.4985 0.9725
6.1061 2.2856 -2.4985 0.9725
6.0095 2.5298 -2.4987 0.9725
5.9576 2.6504 -2.4988 0.9725
5.8464 2.8884 -2.4990 0.9725
5.7873 3.0056 -2.4990 0.9725
5.6619 3.2365 -2.4992 0.9725
5.4568 3.5729 -2.4995 0.9724
5.3839 3.6822 -2.4996 0.9724
5.3089 3.7900 -2.4997 0.9724
5.1523 4.0010 -2.4999 0.9724
5.0709 4.1041 -2.5000 0.9724
4.7249 4.4996 -2.5004 0.9724
4.6335 4.5941 -2.5005 0.9724
4.4451 4.7773 -2.5007 0.9724
3.7308 5.3561 -2.5014 0.9724
3.6224 5.4304 -2.5015 0.9724
3.5124 5.5025 -2.5016 0.9724
3.4010 5.5723 -2.5017 0.9724
3.2882 5.6399 -2.5018 0.9724
3.0587 5.7683 -2.5021 0.9724
2.9421 5.8289 -2.5022 0.9724
2.8242 5.8873 -2.5023 0.9724
2.4638 6.0478 -2.5026 0.9724
1.7172 6.3023 -2.5032 0.9724
1.5900 6.3359 -2.5033 0.9724
1.4622 6.3669 -2.5034 0.9724
1.0752 6.4443 -2.5037 0.9724
0.5531 6.5110 -2.5041 0.9724
0.4219 6.5210 -2.5042 0.9724
0.2905 6.5285 -2.5043 0.9724
-6.1177 0.2756 -2.5063 0.9739
-6.1219 0.1523 -2.5063 0.9739
-6.1228 -0.0944 -2.5062 0.9739
-6.1138 -0.3408 -2.5061 0.9739
-6.0042 -1.1963 -2.5057 0.9739
-5.9509 -1.4371 -2.5056 0.9739
-5.9206 -1.5566 -2.5055 0.9739
-5.7754 -2.0278 -2.5052 0.9739
-5.7332 -2.1436 -2.5051 0.9739
-5.6887 -2.2586 -2.5050 0.9739
-5.6419 -2.3726 -2.5050 0.9739
-5.5928 -2.4857 -2.5049 0.9739
-5.4878 -2.7087 -2.5047 0.9739
-5.4320 -2.8186 -2.5046 0.9739
-5.2513 -3.1411 -2.5044 0.9739
-5.1868 -3.2462 -2.5043 0.9739
-5.1202 -3.3498 -2.5042 0.9739
-4.8333 -3.7505 -2.5039 0.9739
-4.6780 -3.9418 -2.5037 0.9739
-4.5152 -4.1267 -2.5035 0.9739
-4.3450 -4.3048 -2.5033 0.9739
-4.2572 -4.3913 -2.5032 0.9739
-4.1678 -4.4760 -2.5031 0.9739
-4.0766 -4.5588 -2.5030 0.9739
-3.9838 -4.6398 -2.5029 0.9739
-3.7935 -4.7961 -2.5027 0.9739
-3.4965 -5.0158 -2.5024 0.9739
-3.2914 -5.1522 -2.5022 0.9739
-3.0810 -5.2801 -2.5020 0.9739
-2.7562 -5.4559 -2.5017 0.9739
-2.6457 -5.5101 -2.5016 0.9739
-2.5341 -5.5620 -2.5015 0.9739
-2.4215 -5.6117 -2.5014 0.9739
-2.1933 -5.7042 -2.5012 0.9739
-2.0779 -5.7470 -2.5011 0.9739
-1.7269 -5.8613 -2.5008 0.9739
-1.4894 -5.9256 -2.5006 0.9739
-1.3697 -5.9542 -2.5005 0.9739
-1.2494 -5.9804 -2.5005 0.9739
-1.1287 -6.0041 -2.5004 0.9739
-1.0075 -6.0254 -2.5003 0.9739
-0.6417 -6.0745 -2.5000 0.9739
-0.5193 -6.0860 -2.4999 0.9739
-0.2737 -6.1015 -2.4997 0.9739
-0.1508 -6.1056 -2.4996 0.9739
-0.0278 -6.1072 -2.4995 0.9739
0.0952 -6.1063 -2.4995 0.9740
0.2181 -6.1029 -2.4994 0.9740
0.4637 -6.0888 -2.4992 0.9740
0.7085 -6.0648 -2.4990 0.9740
0.8305 -6.0491 -2.4990 0.9740
0.9521 -6.0309 -2.4989 0.9740
1.1941 -5.9874 -2.4987 0.9740
1.5533 -5.9038 -2.4985 0.9740
1.7897 -5.8361 -2.4984 0.9740
2.1387 -5.7169 -2.4982 0.9740
2.2534 -5.6726 -2.4981 0.9740
2.3671 -5.6259 -2.4980 0.9740
2.5916 -5.5258 -2.4979 0.9740
2.9204 -5.3588 -2.4978 0.9740
3.0276 -5.2988 -2.4977 0.9740
3.1337 -5.2366 -2.4977 0.9740
3.4440 -5.0376 -2.4975 0.9740
3.6439 -4.8946 -2.4974 0.9740
3.7417 -4.8202 -2.4974 0.9740
3.9327 -4.6654 -2.4973 0.9740
4.1172 -4.5032 -2.4973 0.9740
4.2951 -4.3336 -2.4972 0.9740
4.4661 -4.1570 -2.4971 0.9740
4.5489 -4.0662 -2.4971 0.9740
4.6298 -3.9737 -2.4971 0.9740
4.7088 -3.8797 -2.4971 0.9740
4.7860 -3.7840 -2.4971 0.9740
4.8612 -3.6869 -2.4971 0.9740
4.9344 -3.5882 -2.4970 0.9740
5.0057 -3.4881 -2.4970 0.9740
5.1421 -3.2836 -2.4970 0.9740
5.3309 -2.9671 -2.4970 0.9740
5.3896 -2.8592 -2.4970 0.9740
5.5004 -2.6398 -2.4970 0.9740
5.5525 -2.5285 -2.4970 0.9740
5.6023 -2.4162 -2.4970 0.9740
5.6498 -2.3029 -2.4970 0.9740
5.7381 -2.0735 -2.4971 0.9740
5.8865 -1.6051 -2.4972 0.9740
5.9465 -1.3667 -2.4972 0.9740
5.9968 -1.1262 -2.4973 0.9740
6.0184 -1.0052 -2.4973 0.9740
6.0375 -0.8838 -2.4973 0.9740
6.0542 -0.7621 -2.4974 0.9740
6.0684 -0.6400 -2.4974 0.9740
6.0894 -0.3951 -2.4975 0.9740
6.1006 -0.1496 -2.4976 0.9740
6.1025 -0.0267 -2.4976 0.9740
6.0989 0.2191 -2.4977 0.9740
6.0854 0.4646 -2.4978 0.9740
6.0620 0.7093 -2.4979 0.9740
6.0466 0.8312 -2.4980 0.9740
5.9607 1.3153 -2.4983 0.9740
5.9332 1.4351 -2.4983 0.9740
5.8709 1.6730 -2.4985 0.9740
5.7179 2.1403 -2.4987 0.9740
5.6274 2.3689 -2.4989 0.9740
5.5787 2.4819 -2.4990 0.9740
5.5278 2.5938 -2.4991 0.9740
5.4746 2.7047 -2.4991 0.9740
5.3018 3.0306 -2.4994 0.9740
5.2399 3.1369 -2.4995 0.9740
5.1758 3.2419 -2.4996 0.9739
5.1097 3.3456 -2.4997 0.9739
5.0414 3.4479 -2.4997 0.9739
4.8246 3.7465 -2.5000 0.9739
4.7483 3.8430 -2.5001 0.9739
4.5900 4.0314 -2.5003 0.9739
4.4243 4.2133 -2.5005 0.9739
4.3387 4.3017 -2.5006 0.9739
3.8850 4.7170 -2.5011 0.9739
3.7894 4.7945 -2.5012 0.9739
3.6922 4.8700 -2.5013 0.9739
3.5935 4.9436 -2.5014 0.9739
3.4933 5.0152 -2.5014 0.9739
3.3918 5.0847 -2.5015 0.9739
3.2888 5.1522 -2.5016 0.9739
3.0789 5.2809 -2.5018 0.9739
2.8640 5.4010 -2.5020 0.9739
2.6444 5.5124 -2.5022 0.9739
2.5329 5.5648 -2.5023 0.9739
2.4204 5.6149 -2.5024 0.9739
2.3069 5.6627 -2.5025 0.9739
2.1925 5.7082 -2.5026 0.9739
1.9610 5.7923 -2.5028 0.9739
1.8440 5.8309 -2.5029 0.9739
1.7263 5.8671 -2.5030 0.9739
1.4887 5.9323 -2.5032 0.9739
1.2487 5.9879 -2.5034 0.9739
1.1279 6.0120 -2.5035 0.9739
1.0067 6.0338 -2.5036 0.9739
0.8850 6.0530 -2.5037 0.9739
0.6405 6.0842 -2.5039 0.9739
0.5179 6.0961 -2.5040 0.9739
-5.7484 0.1430 -2.5060 0.9752
-5.7493 -0.0886 -2.5059 0.9752
-5.7463 -0.2044 -2.5059 0.9752
-5.7107 -0.6661 -2.5057 0.9752
-5.6960 -0.7809 -2.5056 0.9752
-5.6790 -0.8955 -2.5056 0.9752
-5.6597 -1.0096 -2.5055 0.9752
-5.6381 -1.1234 -2.5055 0.9752
-5.6141 -1.2367 -2.5054 0.9752
-5.5880 -1.3495 -2.5053 0.9752
-5.5595 -1.4617 -2.5053 0.9752
-5.4958 -1.6843 -2.5051 0.9752
-5.4607 -1.7946 -2.5051 0.9752
-5.4233 -1.9041 -2.5050 0.9752
-5.3419 -2.1209 -2.5049 0.9752
-5.2036 -2.4394 -2.5046 0.9752
-5.1533 -2.5436 -2.5046 0.9752
-5.0463 -2.7489 -2.5044 0.9752
-4.9898 -2.8498 -2.5043 0.9752
-4.9312 -2.9497 -2.5042 0.9752
-4.7436 -3.2417 -2.5040 0.9752
-4.6772 -3.3365 -2.5039 0.9752
-4.6089 -3.4299 -2.5038 0.9752
-4.3929 -3.7016 -2.5036 0.9752
-4.3174 -3.7892 -2.5035 0.9752
-3.7411 -4.3571 -2.5028 0.9753
-3.5624 -4.5039 -2.5027 0.9753
-3.4708 -4.5746 -2.5026 0.9753
-3.3779 -4.6434 -2.5025 0.9753
-3.1879 -4.7753 -2.5023 0.9753
-3.0909 -4.8383 -2.5022 0.9753
-2.7928 -5.0156 -2.5019 0.9753
-2.4846 -5.1745 -2.5016 0.9753
-2.2740 -5.2700 -2.5015 0.9753
-2.1673 -5.3145 -2.5014 0.9753
-1.8423 -5.4351 -2.5011 0.9753
-1.7324 -5.4709 -2.5010 0.9753
-1.5105 -5.5358 -2.5008 0.9753
-1.1734 -5.6163 -2.5005 0.9753
-1.0600 -5.6386 -2.5005 0.9753
-0.9462 -5.6586 -2.5004 0.9753
-0.7175 -5.6918 -2.5002 0.9753
-0.6027 -5.7048 -2.5001 0.9753
-0.3724 -5.7241 -2.4999 0.9753
-0.2571 -5.7303 -2.4999 0.9753
0.3203 -5.7261 -2.4994 0.9753
0.5506 -5.7082 -2.4993 0.9753
0.7799 -5.6811 -2.4991 0.9753
0.8942 -5.6641 -2.4991 0.9753
1.0080 -5.6448 -2.4990 0.9753
1.2345 -5.5993 -2.4989 0.9753
1.3469 -5.5731 -2.4988 0.9753
1.5702 -5.5141 -2.4987 0.9753
1.7909 -5.4461 -2.4985 0.9753
2.0086 -5.3693 -2.4984 0.9753
2.1163 -5.3276 -2.4983 0.9753
2.3291 -5.2378 -2.4982 0.9753
2.4340 -5.1897 -2.4982 0.9753
2.5380 -5.1395 -2.4981 0.9753
2.7428 -5.0330 -2.4980 0.9753
2.8435 -4.9766 -2.4980 0.9753
3.0415 -4.8579 -2.4979 0.9753
3.2346 -4.7313 -2.4978 0.9753
3.3291 -4.6651 -2.4977 0.9753
3.5142 -4.5271 -2.4977 0.9753
3.6046 -4.4554 -2.4976 0.9753
3.9513 -4.1506 -2.4975 0.9753
4.0340 -4.0702 -2.4975 0.9753
4.1151 -3.9880 -2.4975 0.9753
4.1946 -3.9043 -2.4974 0.9753
4.2723 -3.8190 -2.4974 0.9753
4.3483 -3.7322 -2.4974 0.9753
4.4226 -3.6438 -2.4974 0.9753
4.4950 -3.5540 -2.4974 0.9753
4.8906 -2.9861 -2.4973 0.9753
5.0069 -2.7868 -2.4973 0.9753
5.0620 -2.6854 -2.4973 0.9753
5.1150 -2.5829 -2.4973 0.9753
5.2149 -2.3748 -2.4973 0.9753
5.4274 -1.8385 -2.4974 0.9753
5.4634 -1.7289 -2.4974 0.9753
5.5579 -1.3959 -2.4975 0.9753
5.6098 -1.1709 -2.4975 0.9753
5.6525 -0.9441 -2.4976 0.9753
5.6994 -0.6011 -2.4977 0.9753
5.7105 -0.4862 -2.4977 0.9753
5.7256 -0.2558 -2.4978 0.9753
5.7297 -0.1404 -2.4978 0.9753
5.7309 0.0904 -2.4979 0.9753
5.7153 0.4363 -2.4981 0.9753
5.6934 0.6662 -2.4982 0.9753
5.6789 0.7807 -2.4982 0.9753
5.6622 0.8949 -2.4983 0.9753
5.6431 1.0088 -2.4984 0.9753
5.5982 1.2353 -2.4985 0.9753
5.5723 1.3478 -2.4985 0.9753
5.5442 1.4598 -2.4986 0.9753
5.5138 1.5712 -2.4987 0.9753
5.4093 1.9015 -2.4989 0.9753
5.3287 2.1179 -2.4990 0.9753
5.2393 2.3309 -2.4992 0.9753
5.1415 2.5401 -2.4993 0.9753
4.9792 2.8462 -2.4995 0.9753
4.8609 3.0446 -2.4997 0.9753
4.7988 3.1420 -2.4998 0.9753
4.7347 3.2381 -2.4999 0.9753
4.3859 3.6984 -2.5003 0.9753
4.2337 3.8722 -2.5005 0.9753
4.0746 4.0399 -2.5007 0.9753
3.9926 4.1213 -2.5007 0.9753
3.5587 4.5026 -2.5012 0.9753
3.2806 4.7098 -2.5015 0.9753
3.1852 4.7751 -2.5016 0.9753
3.0885 4.8384 -2.5017 0.9753
2.9906 4.8998 -2.5018 0.9753
2.8914 4.9593 -2.5019 0.9753
2.6896 5.0721 -2.5020 0.9753
2.5869 5.1254 -2.5021 0.9753
2.4833 5.1767 -2.5022 0.9753
1.9506 5.4011 -2.5027 0.9753
1.8415 5.4395 -2.5028 0.9753
1.5099 5.5413 -2.5031 0.9753
1.2856 5.5980 -2.5032 0.9752
1.1726 5.6230 -2.5033 0.9752
1.0592 5.6457 -2.5034 0.9752
0.7164 5.6999 -2.5037 0.9752
0.4863 5.7246 -2.5038 0.9752
0.3710 5.7334 -2.5039 0.9752
-5.4080 0.2436 -2.5058 0.9764
-5.4133 0.0256 -2.5058 0.9764
-5.4126 -0.0834 -2.5057 0.9764
-5.4097 -0.1924 -2.5057 0.9764
-5.4047 -0.3013 -2.5056 0.9764
-5.3974 -0.4101 -2.5056 0.9764
-5.3879 -0.5187 -2.5055 0.9764
-5.3763 -0.6271 -2.5055 0.9764
-5.3625 -0.7352 -2.5054 0.9764
-5.3464 -0.8430 -2.5054 0.9764
-5.3079 -1.0576 -2.5053 0.9764
-5.2854 -1.1643 -2.5052 0.9764
-5.2608 -1.2704 -2.5051 0.9764
-5.2340 -1.3761 -2.5051 0.9764
-5.2051 -1.4812 -2.5050 0.9764
-5.1741 -1.5857 -2.5050 0.9764
-5.0685 -1.8951 -2.5048 0.9764
-4.9878 -2.0975 -2.5046 0.9764
-4.9444 -2.1975 -2.5045 0.9764
-4.8990 -2.2966 -2.5045 0.9764
-4.8516 -2.3947 -2.5044 0.9764
-4.8023 -2.4918 -2.5043 0.9764
-4.7510 -2.5880 -2.5043 0.9764
-4.6977 -2.6831 -2.5042 0.9764
-4.4660 -3.0520 -2.5039 0.9764
-4.3392 -3.2292 -2.5037 0.9764
-4.2054 -3.4011 -2.5036 0.9764
-4.1359 -3.4850 -2.5035 0.9764
-3.7640 -3.8825 -2.5031 0.9764
-3.6849 -3.9574 -2.5030 0.9764
-3.6043 -4.0306 -2.5029 0.9764
-3.5223 -4.1023 -2.5028 0.9764
-3.3540 -4.2405 -2.5026 0.9765
-3.2678 -4.3070 -2.5025 0.9765
-3.1803 -4.3718 -2.5024 0.9765
-3.0915 -4.4348 -2.5024 0.9765
-3.0014 -4.4960 -2.5023 0.9765
-2.9102 -4.5554 -2.5022 0.9765
-2.8177 -4.6129 -2.5021 0.9765
-2.7242 -4.6686 -2.5020 0.9765
-2.6295 -4.7223 -2.5019 0.9765
-2.5338 -4.7742 -2.5018 0.9765
-2.3393 -4.8720 -2.5017 0.9765
-2.2406 -4.9179 -2.5016 0.9765
-2.0406 -5.0038 -2.5014 0.9765
-1.8373 -5.0816 -2.5012 0.9765
-1.6311 -5.1511 -2.5011 0.9765
-1.5270 -5.1827 -2.5010 0.9765
-1.3169 -5.2397 -2.5008 0.9765
-1.1048 -5.2881 -2.5006 0.9765
-0.9980 -5.3091 -2.5005 0.9765
-0.7834 -5.3446 -2.5004 0.9765
-0.6756 -5.3591 -2.5003 0.9765
-0.5675 -5.3715 -2.5002 0.9765
-0.4592 -5.3816 -2.5001 0.9765
-0.3507 -5.3896 -2.5001 0.9765
0.0842 -5.3997 -2.4997 0.9765
0.3016 -5.3916 -2.4996 0.9765
0.6265 -5.3631 -2.4994 0.9765
0.7344 -5.3492 -2.4993 0.9765
1.0560 -5.2947 -2.4991 0.9765
1.2683 -5.2476 -2.4990 0.9765
1.3737 -5.2209 -2.4989 0.9765
1.5827 -5.1611 -2.4988 0.9765
1.8913 -5.0557 -2.4986 0.9765
1.9927 -5.0165 -2.4986 0.9765
2.0933 -4.9752 -2.4985 0.9765
2.2919 -4.8867 -2.4984 0.9765
2.3898 -4.8394 -2.4983 0.9765
2.6775 -4.6860 -2.4982 0.9765
2.7713 -4.6311 -2.4982 0.9765
2.8639 -4.5742 -2.4981 0.9765
3.0457 -4.4550 -2.4980 0.9765
3.1348 -4.3928 -2.4980 0.9765
3.3942 -4.1953 -2.4979 0.9765
3.5603 -4.0551 -2.4978 0.9765
3.6412 -3.9825 -2.4978 0.9765
3.9497 -3.6764 -2.4977 0.9765
4.2326 -3.3465 -2.4976 0.9765
4.4269 -3.0848 -2.4976 0.9765
4.5476 -2.9040 -2.4976 0.9765
4.8165 -2.4321 -2.4976 0.9765
4.8645 -2.3346 -2.4976 0.9765
5.0366 -1.9356 -2.4976 0.9765
5.1106 -1.7312 -2.4977 0.9765
5.1444 -1.6279 -2.4977 0.9765
5.1762 -1.5240 -2.4977 0.9765
5.2335 -1.3144 -2.4977 0.9765
5.2589 -1.2087 -2.4978 0.9765
5.2823 -1.1026 -2.4978 0.9765
5.3771 -0.4578 -2.4980 0.9765
5.3913 -0.2409 -2.4980 0.9765
5.3951 -0.1322 -2.4981 0.9765
5.3968 -0.0236 -2.4981 0.9765
5.3936 0.1938 -2.4982 0.9765
5.3609 0.6272 -2.4984 0.9765
5.3473 0.7351 -2.4985 0.9765
5.3315 0.8427 -2.4985 0.9765
5.3136 0.9499 -2.4986 0.9765
5.2935 1.0567 -2.4986 0.9765
5.2469 1.2691 -2.4987 0.9765
5.1918 1.4794 -2.4989 0.9765
5.1611 1.5837 -2.4989 0.9765
5.0564 1.8927 -2.4991 0.9765
5.0174 1.9941 -2.4992 0.9765
4.9763 2.0949 -2.4993 0.9765
4.8412 2.3917 -2.4995 0.9765
4.7412 2.5849 -2.4996 0.9765
4.6883 2.6799 -2.4997 0.9765
4.5769 2.8667 -2.4998 0.9765
4.1987 3.3982 -2.5003 0.9765
4.1296 3.4822 -2.5004 0.9765
4.0587 3.5648 -2.5005 0.9765
3.9863 3.6459 -2.5006 0.9765
3.8365 3.8037 -2.5007 0.9765
3.6804 3.9554 -2.5009 0.9765
3.6001 4.0289 -2.5010 0.9765
3.5184 4.1007 -2.5011 0.9765
3.4352 4.1709 -2.5012 0.9765
3.2647 4.3061 -2.5013 0.9765
3.1774 4.3712 -2.5014 0.9765
2.9990 4.4959 -2.5016 0.9765
2.8157 4.6133 -2.5018 0.9765
2.7223 4.6693 -2.5019 0.9765
2.5323 4.7754 -2.5020 0.9765
2.1400 4.9644 -2.5024 0.9765
1.7338 5.1213 -2.5027 0.9764
1.6304 5.1553 -2.5028 0.9764
1.5263 5.1873 -2.5029 0.9764
1.4216 5.2172 -2.5030 0.9764
1.3162 5.2449 -2.5031 0.9764
1.2104 5.2705 -2.5032 0.9764
0.8900 5.3345 -2.5034 0.9764
0.7824 5.3516 -2.5035 0.9764
0.6745 5.3664 -2.5036 0.9764
0.5663 5.3791 -2.5037 0.9764
0.4579 5.3896 -2.5037 0.9764
0.2405 5.4040 -2.5039 0.9764
-5.1072 -0.0787 -2.5055 0.9775
-5.0997 -0.2843 -2.5054 0.9775
-5.0730 -0.5917 -2.5053 0.9775
-5.0599 -0.6937 -2.5052 0.9775
-5.0277 -0.8969 -2.5051 0.9775
-4.9873 -1.0986 -2.5050 0.9775
-4.9640 -1.1988 -2.5050 0.9775
-4.9115 -1.3976 -2.5048 0.9775
-4.8822 -1.4962 -2.5048 0.9775
-4.8178 -1.6915 -2.5047 0.9775
-4.7065 -1.9792 -2.5045 0.9775
-4.5780 -2.2596 -2.5043 0.9775
-4.5314 -2.3513 -2.5042 0.9775
-4.4328 -2.5318 -2.5041 0.9775
-4.3270 -2.7080 -2.5039 0.9775
-4.2715 -2.7946 -2.5038 0.9775
-4.2142 -2.8799 -2.5038 0.9775
-4.0322 -3.1289 -2.5035 0.9775
-3.9027 -3.2885 -2.5034 0.9775
-3.6250 -3.5915 -2.5031 0.9775
-3.4012 -3.8034 -2.5028 0.9775
-3.3238 -3.8711 -2.5027 0.9775
-3.1650 -4.0015 -2.5026 0.9775
-2.9173 -4.1849 -2.5023 0.9775
-2.5545 -4.3777 -2.4862 0.9777
-2.3910 -4.5052 -2.5018 0.9775
-2.2997 -4.5523 -2.5018 0.9775
-2.2075 -4.5975 -2.5017 0.9775
-1.8301 -4.7596 -2.5013 0.9775
-1.6369 -4.8291 -2.5012 0.9775
-1.5392 -4.8610 -2.5011 0.9775
-1.4410 -4.8908 -2.5010 0.9775
-1.3421 -4.9187 -2.5009 0.9775
-1.1429 -4.9684 -2.5008 0.9775
-0.9418 -5.0101 -2.5006 0.9775
-0.7393 -5.0437 -2.5005 0.9775
-0.5355 -5.0690 -2.5003 0.9775
-0.3309 -5.0862 -2.5002 0.9775
-0.2284 -5.0917 -2.5001 0.9775
-0.0232 -5.0964 -2.4999 0.9775
0.4892 -5.0722 -2.4996 0.9776
0.5913 -5.0612 -2.4995 0.9776
0.7946 -5.0330 -2.4994 0.9776
0.8957 -5.0159 -2.4993 0.9776
1.0969 -4.9755 -2.4992 0.9776
1.2964 -4.9270 -2.4991 0.9776
1.3953 -4.8998 -2.4990 0.9776
1.4936 -4.8706 -2.4990 0.9776
1.5914 -4.8394 -2.4989 0.9776
1.7849 -4.7712 -2.4988 0.9776
1.8806 -4.7342 -2.4987 0.9776
1.9755 -4.6953 -2.4987 0.9776
2.0696 -4.6544 -2.4986 0.9776
2.2553 -4.5671 -2.4985 0.9776
2.6154 -4.3705 -2.4984 0.9776
2.7028 -4.3169 -2.4983 0.9776
2.9584 -4.1456 -2.4982 0.9776
3.0412 -4.0851 -2.4982 0.9776
3.2032 -3.9592 -2.4981 0.9776
3.2823 -3.8939 -2.4981 0.9776
3.3600 -3.8269 -2.4981 0.9776
3.4363 -3.7585 -2.4980 0.9776
3.5113 -3.6884 -2.4980 0.9776
3.7275 -3.4696 -2.4979 0.9776
3.7966 -3.3938 -2.4979 0.9776
3.8642 -3.3166 -2.4979 0.9776
3.9301 -3.2381 -2.4979 0.9776
4.1184 -2.9948 -2.4979 0.9776
4.2357 -2.8265 -2.4978 0.9776
4.3461 -2.6536 -2.4978 0.9776
4.3986 -2.5656 -2.4978 0.9776
4.4494 -2.4765 -2.4978 0.9776
4.4984 -2.3864 -2.4978 0.9776
4.5908 -2.2033 -2.4978 0.9776
4.6343 -2.1104 -2.4978 0.9776
4.6759 -2.0166 -2.4978 0.9776
4.7156 -1.9221 -2.4979 0.9776
4.7533 -1.8267 -2.4979 0.9776
4.8550 -1.5364 -2.4979 0.9776
4.8850 -1.4383 -2.4979 0.9776
4.9130 -1.3396 -2.4979 0.9776
4.9851 -1.0405 -2.4980 0.9776
5.0648 -0.5341 -2.4982 0.9776
5.0745 -0.4320 -2.4982 0.9776
5.0823 -0.3297 -2.4982 0.9776
5.0880 -0.2273 -2.4983 0.9776
5.0916 -0.1248 -2.4983 0.9776
5.0932 -0.0222 -2.4983 0.9776
5.0901 0.1829 -2.4984 0.9776
5.0700 0.4900 -2.4986 0.9776
5.0464 0.6937 -2.4987 0.9776
4.9516 1.1977 -2.4989 0.9776
4.9266 1.2972 -2.4990 0.9776
4.8706 1.4946 -2.4991 0.9776
4.8396 1.5924 -2.4992 0.9776
4.8067 1.6896 -2.4992 0.9776
4.6131 2.1646 -2.4995 0.9776
4.4743 2.4394 -2.4997 0.9776
4.4244 2.5291 -2.4998 0.9776
4.2640 2.7919 -2.5000 0.9775
4.0880 3.0445 -2.5003 0.9775
3.9623 3.2069 -2.5004 0.9775
3.7618 3.4406 -2.5006 0.9775
3.6204 3.5895 -2.5008 0.9775
3.4731 3.7326 -2.5010 0.9775
3.3202 3.8697 -2.5011 0.9775
3.2417 3.9359 -2.5012 0.9775
3.0808 4.0636 -2.5014 0.9775
2.9984 4.1249 -2.5014 0.9775
2.6571 4.3534 -2.5018 0.9775
2.5689 4.4062 -2.5019 0.9775
2.0194 4.6847 -2.5024 0.9775
1.9247 4.7246 -2.5024 0.9775
1.8293 4.7625 -2.5025 0.9775
1.6361 4.8326 -2.5027 0.9775
1.4403 4.8949 -2.5028 0.9775
1.3414 4.9231 -2.5029 0.9775
1.1421 4.9734 -2.5031 0.9775
0.8398 5.0338 -2.5033 0.9775
0.6365 5.0638 -2.5035 0.9775
0.5344 5.0758 -2.5036 0.9775
0.3296 5.0935 -2.5037 0.9775
0.2269 5.0993 -2.5038 0.9775
-4.8279 0.1201 -2.5054 0.9785
-4.8292 0.0229 -2.5053 0.9785
-4.8287 -0.0744 -2.5053 0.9785
-4.8261 -0.1716 -2.5053 0.9785
-4.8216 -0.2688 -2.5052 0.9785
-4.8151 -0.3658 -2.5052 0.9785
-4.8067 -0.4627 -2.5051 0.9785
-4.7963 -0.5594 -2.5051 0.9785
-4.7697 -0.7521 -2.5050 0.9785
-4.7535 -0.8480 -2.5049 0.9785
-4.6933 -1.1334 -2.5048 0.9785
-4.6437 -1.3214 -2.5047 0.9785
-4.6160 -1.4146 -2.5046 0.9785
-4.5551 -1.5993 -2.5045 0.9785
-4.3707 -2.0489 -2.5042 0.9785
-4.3284 -2.1364 -2.5041 0.9785
-4.2844 -2.2231 -2.5041 0.9785
-4.2387 -2.3089 -2.5040 0.9785
-4.1912 -2.3937 -2.5039 0.9785
-4.1420 -2.4776 -2.5039 0.9785
-3.8125 -2.9583 -2.5035 0.9785
-3.6900 -3.1093 -2.5033 0.9785
-3.6266 -3.1829 -2.5032 0.9785
-3.4274 -3.3958 -2.5030 0.9785
-3.2877 -3.5308 -2.5029 0.9785
-3.2158 -3.5962 -2.5028 0.9785
-2.9925 -3.7835 -2.5025 0.9785
-2.9156 -3.8429 -2.5025 0.9785
-2.6647 -3.9916 -2.4898 0.9786
-2.5832 -4.0436 -2.4893 0.9786
-2.5005 -4.0935 -2.4885 0.9786
-2.1745 -4.3043 -2.5018 0.9785
-1.9104 -4.4274 -2.5015 0.9785
-1.8208 -4.4648 -2.5015 0.9785
-1.7305 -4.5004 -2.5014 0.9785
-1.4554 -4.5963 -2.5011 0.9785
-1.1751 -4.6754 -2.5009 0.9785
-0.9858 -4.7186 -2.5008 0.9785
-0.8906 -4.7374 -2.5007 0.9785
-0.7949 -4.7542 -2.5006 0.9785
-0.6990 -4.7691 -2.5005 0.9785
-0.5064 -4.7931 -2.5004 0.9785
-0.4097 -4.8022 -2.5003 0.9785
-0.3129 -4.8093 -2.5003 0.9785
-0.2160 -4.8145 -2.5002 0.9785
-0.0219 -4.8191 -2.5000 0.9785
0.0751 -4.8184 -2.5000 0.9785
0.3659 -4.8047 -2.4998 0.9785
0.5591 -4.7858 -2.4997 0.9785
0.6553 -4.7734 -2.4996 0.9785
0.9423 -4.7248 -2.4994 0.9785
1.2258 -4.6590 -2.4992 0.9785
1.3194 -4.6332 -2.4992 0.9785
1.4124 -4.6056 -2.4991 0.9785
1.5048 -4.5761 -2.4991 0.9785
1.9571 -4.4012 -2.4988 0.9785
2.1326 -4.3187 -2.4987 0.9785
2.2191 -4.2748 -2.4987 0.9785
2.3047 -4.2292 -2.4986 0.9785
2.3894 -4.1818 -2.4986 0.9785
2.8758 -3.8629 -2.4984 0.9785
3.0290 -3.7439 -2.4983 0.9785
3.1037 -3.6821 -2.4983 0.9785
3.5248 -3.2809 -2.4982 0.9785
3.5901 -3.2092 -2.4981 0.9785
3.7164 -3.0620 -2.4981 0.9785
3.7773 -2.9865 -2.4981 0.9785
3.8367 -2.9098 -2.4981 0.9785
4.0053 -2.6728 -2.4981 0.9785
4.1097 -2.5093 -2.4980 0.9785
4.1594 -2.4261 -2.4980 0.9785
4.2537 -2.2566 -2.4980 0.9785
4.2983 -2.1705 -2.4980 0.9785
4.3412 -2.0835 -2.4981 0.9785
4.3823 -1.9956 -2.4981 0.9785
4.4216 -1.9070 -2.4981 0.9785
4.4591 -1.8175 -2.4981 0.9785
4.6458 -1.2668 -2.4982 0.9785
4.6705 -1.1730 -2.4982 0.9785
4.6932 -1.0787 -2.4982 0.9785
4.7649 -0.6975 -2.4983 0.9785
4.7781 -0.6014 -2.4983 0.9785
4.7985 -0.4085 -2.4984 0.9785
4.8059 -0.3118 -2.4984 0.9785
4.8161 -0.0210 -2.4985 0.9785
4.8156 0.0760 -2.4986 0.9785
4.8088 0.2698 -2.4987 0.9785
4.7942 0.4633 -2.4987 0.9785
4.7840 0.5598 -2.4988 0.9785
4.7719 0.6560 -2.4988 0.9785
4.7418 0.8477 -2.4989 0.9785
4.6586 1.2266 -2.4991 0.9785
4.6330 1.3202 -2.4992 0.9785
4.5763 1.5058 -2.4993 0.9785
4.5452 1.5977 -2.4994 0.9785
4.4773 1.7795 -2.4995 0.9785
4.3620 2.0468 -2.4997 0.9785
4.3200 2.1343 -2.4997 0.9785
4.2763 2.2209 -2.4998 0.9785
4.1836 2.3914 -2.4999 0.9785
4.1347 2.4753 -2.5000 0.9785
3.9225 2.8003 -2.5003 0.9785
3.8654 2.8788 -2.5003 0.9785
3.8068 2.9562 -2.5004 0.9785
3.7466 3.0323 -2.5005 0.9785
3.5570 3.2533 -2.5007 0.9785
3.2124 3.5949 -2.5011 0.9785
3.0652 3.7216 -2.5012 0.9785
2.9130 3.8423 -2.5014 0.9785
2.8351 3.9003 -2.5015 0.9785
2.7561 3.9567 -2.5016 0.9785
2.6759 4.0116 -2.5016 0.9785
2.5947 4.0648 -2.5017 0.9785
2.5124 4.1163 -2.5018 0.9785
2.3447 4.2144 -2.5019 0.9785
2.1732 4.3057 -2.5021 0.9785
1.9094 4.4295 -2.5023 0.9785
1.6386 4.5371 -2.5026 0.9785
1.5470 4.5693 -2.5026 0.9785
1.3618 4.6282 -2.5028 0.9785
1.2683 4.6548 -2.5029 0.9785
1.0799 4.7024 -2.5030 0.9785
0.9850 4.7234 -2.5031 0.9785
0.8897 4.7424 -2.5032 0.9785
0.5052 4.7992 -2.5035 0.9785
0.3116 4.8159 -2.5036 0.9785
0.2145 4.8213 -2.5037 0.9785
-4.5694 0.2058 -2.5052 0.9794
-4.5726 0.1138 -2.5052 0.9794
-4.5733 -0.0705 -2.5051 0.9794
-4.5709 -0.1626 -2.5051 0.9794
-4.5605 -0.3465 -2.5050 0.9794
-4.5427 -0.5299 -2.5049 0.9794
-4.5310 -0.6212 -2.5049 0.9794
-4.5175 -0.7123 -2.5048 0.9794
-4.5022 -0.8032 -2.5048 0.9794
-4.4850 -0.8936 -2.5047 0.9794
-4.4660 -0.9838 -2.5047 0.9794
-4.4452 -1.0735 -2.5046 0.9794
-4.4226 -1.1628 -2.5046 0.9794
-4.3982 -1.2516 -2.5045 0.9794
-4.3720 -1.3399 -2.5045 0.9794
-4.3440 -1.4276 -2.5044 0.9794
-4.3143 -1.5148 -2.5044 0.9794
-4.2828 -1.6013 -2.5043 0.9794
-4.1397 -1.9406 -2.5041 0.9794
-4.0580 -2.1056 -2.5040 0.9794
-4.0146 -2.1869 -2.5039 0.9794
-3.8750 -2.4251 -2.5037 0.9794
-3.7740 -2.5791 -2.5036 0.9794
-3.4951 -2.9450 -2.5032 0.9794
-3.1140 -3.3443 -2.5028 0.9794
-2.9766 -3.4668 -2.5027 0.9794
-2.7616 -3.6399 -2.5024 0.9794
-2.6877 -3.6947 -2.5024 0.9794
-2.5366 -3.7997 -2.5022 0.9794
-2.4595 -3.8499 -2.5021 0.9794
-2.3814 -3.8985 -2.5021 0.9794
-2.3023 -3.9456 -2.5020 0.9794
-2.2223 -3.9910 -2.5019 0.9794
-2.1414 -4.0348 -2.5018 0.9794
-1.9771 -4.1176 -2.5017 0.9794
-1.8937 -4.1564 -2.5016 0.9794
-1.6391 -4.2628 -2.5014 0.9794
-1.4660 -4.3251 -2.5013 0.9794
-1.3786 -4.3536 -2.5012 0.9794
-1.1131 -4.4285 -2.5010 0.9794
-0.5710 -4.5297 -2.5005 0.9794
-0.4796 -4.5401 -2.5005 0.9794
-0.3881 -4.5487 -2.5004 0.9794
-0.2964 -4.5555 -2.5003 0.9794
-0.2046 -4.5604 -2.5003 0.9794
-0.1127 -4.5635 -2.5002 0.9794
-0.0208 -4.5647 -2.5001 0.9794
0.0712 -4.5641 -2.5001 0.9794
0.1631 -4.5616 -2.5000 0.9794
0.2549 -4.5573 -2.5000 0.9794
0.6208 -4.5216 -2.4997 0.9794
0.7117 -4.5081 -2.4997 0.9794
0.8926 -4.4755 -2.4995 0.9794
0.9825 -4.4566 -2.4995 0.9794
1.2498 -4.3888 -2.4993 0.9794
1.5988 -4.2736 -2.4991 0.9794
1.8538 -4.1691 -2.4990 0.9794
1.9374 -4.1308 -2.4989 0.9794
2.2634 -3.9613 -2.4988 0.9794
2.3427 -3.9148 -2.4987 0.9794
2.4983 -3.8172 -2.4987 0.9794
2.5747 -3.7661 -2.4986 0.9794
2.7242 -3.6592 -2.4986 0.9794
3.0781 -3.3666 -2.4984 0.9794
3.1452 -3.3039 -2.4984 0.9794
3.4008 -3.0400 -2.4983 0.9794
