ply
format ascii 1.0
element vertex 1555
property float32 x
property float32 y
property float32 z
property float32 I
end_header
-38.7624 55.2508 -1.9004 0.7633
-40.0960 54.7731 -1.9114 0.7621
-41.4455 54.2897 -1.9232 0.7609
-42.8125 53.8001 -1.9360 0.7595
-45.6045 52.8000 -1.9645 0.7564
-31.3791 32.1810 -1.2656 0.8354
-31.2532 30.7873 -1.2353 0.8390
-32.1849 30.4535 -1.2476 0.8375
-54.5676 49.5894 -2.0762 0.7445
-59.4794 47.8300 -2.1491 0.7368
-79.7645 59.0186 -2.7940 0.6723
-81.0717 57.4977 -2.7986 0.6718
-82.3465 55.9458 -2.8032 0.6714
-33.4059 19.8608 -1.0943 0.8560
-96.6634 21.0465 -2.7856 0.6731
-27.4167 4.2561 -0.7812 0.8949
-27.1562 3.6576 -0.7716 0.8961
-30.6597 3.5029 -0.8689 0.8838
-58.4741 3.1244 -1.6489 0.7911
-49.6712 -0.3474 -1.3987 0.8197
-70.0569 -3.3122 -1.9749 0.7553
-80.3243 -7.0459 -2.2705 0.7242
-95.8934 -10.3600 -2.7159 0.6798
-95.3356 -12.2453 -2.7065 0.6807
-94.7356 -14.1115 -2.6970 0.6816
-61.8021 -10.4812 -1.7651 0.7781
-61.4823 -11.7044 -1.7623 0.7785
-74.2991 -32.2484 -2.2807 0.7232
-73.5340 -33.6907 -2.2775 0.7235
-83.4010 -42.3516 -2.6338 0.6878
-82.7559 -44.1409 -2.6410 0.6871
-82.0062 -45.8838 -2.6460 0.6866
-75.4667 -46.3079 -2.4932 0.7017
-65.8793 -42.2730 -2.2041 0.7311
-21.5195 -16.3932 -0.7617 0.8974
-18.4183 -15.2400 -0.6731 0.9088
-18.2277 -15.7109 -0.6776 0.9082
-39.5832 -35.5309 -1.4977 0.8083
-39.1900 -36.6285 -1.5105 0.8068
-38.4909 -37.4544 -1.5123 0.8066
-38.0317 -38.5277 -1.5244 0.8052
-36.8460 -42.1341 -1.5761 0.7993
-37.1084 -47.9950 -1.7083 0.7845
-34.4214 -48.4284 -1.6730 0.7884
-31.5107 -46.2779 -1.5765 0.7993
40.4397 -22.8439 -2.3555 0.8303
30.2357 -9.7837 -1.6117 0.8805
30.6341 -9.2359 -1.6227 0.8797
28.7273 -8.0340 -1.5128 0.8874
27.3096 -7.0482 -1.4304 0.8932
27.6041 -5.3717 -1.4262 0.8935
43.0380 -7.4796 -2.2154 0.8395
43.6950 -5.7935 -2.2353 0.8382
44.3276 -4.0703 -2.2575 0.8367
44.5338 -1.3897 -2.2596 0.8366
44.6791 -0.4947 -2.2660 0.8361
44.8226 0.4058 -2.2732 0.8357
44.9427 1.3118 -2.2802 0.8352
44.9880 3.1286 -2.2870 0.8348
44.6680 6.7477 -2.2910 0.8345
44.5457 7.6492 -2.2922 0.8344
44.2498 9.4457 -2.2947 0.8343
44.0767 10.3403 -2.2960 0.8342
43.6796 12.1208 -2.2989 0.8340
35.6605 10.6729 -1.8878 0.8615
42.9579 14.7649 -2.3037 0.8337
42.3931 16.5066 -2.3072 0.8334
40.6924 20.7695 -2.3169 0.8328
33.5970 20.7112 -2.0016 0.8538
33.0445 22.2539 -2.0204 0.8525
32.7641 23.0368 -2.0312 0.8518
32.4806 23.8284 -2.0430 0.8510
32.1936 24.6296 -2.0557 0.8501
29.4897 31.2307 -2.1783 0.8419
29.1594 32.1532 -2.2013 0.8404
29.5380 35.3291 -2.3354 0.8316
28.8697 35.9770 -2.3393 0.8313
25.2600 38.9270 -2.3534 0.8304
23.7577 40.0544 -2.3618 0.8298
22.9645 40.5557 -2.3636 0.8297
19.7513 42.5347 -2.3783 0.8288
18.9156 42.9784 -2.3814 0.8286
18.0821 43.4351 -2.3860 0.8283
17.2380 43.8758 -2.3907 0.8279
16.3695 44.2623 -2.3933 0.8278
14.6267 45.0441 -2.4018 0.8272
13.7418 45.4105 -2.4061 0.8269
12.8383 45.7243 -2.4085 0.8268
11.0316 46.3870 -2.4181 0.8262
10.1095 46.6624 -2.4213 0.8259
9.1837 46.9345 -2.4254 0.8257
8.2539 47.2049 -2.4303 0.8254
7.3138 47.4364 -2.4341 0.8251
4.4615 48.0417 -2.4469 0.8243
3.5003 48.2111 -2.4514 0.8240
2.5344 48.3677 -2.4563 0.8237
0.5879 48.5830 -2.4640 0.8232
-0.3906 48.6799 -2.4688 0.8229
-1.3723 48.7390 -2.4727 0.8226
-2.3574 48.7951 -2.4775 0.8223
-3.3442 48.8166 -2.4815 0.8220
-4.3325 48.8136 -2.4853 0.8218
-5.3239 48.8073 -2.4899 0.8215
-6.3148 48.7659 -2.4938 0.8212
-10.2857 48.4293 -2.5108 0.8201
-12.2595 48.1072 -2.5177 0.8197
-14.2289 47.7207 -2.5254 0.8192
-15.2100 47.4987 -2.5293 0.8189
-16.1873 47.2546 -2.5332 0.8187
-17.1604 46.9889 -2.5369 0.8184
-18.1243 46.6902 -2.5400 0.8182
-20.9936 45.6966 -2.5503 0.8176
-21.9344 45.3176 -2.5533 0.8174
-23.7954 44.5013 -2.5592 0.8170
-26.5208 43.1205 -2.5673 0.8165
-30.0083 40.9928 -2.5764 0.8159
-30.8510 40.4119 -2.5784 0.8158
-31.6808 39.8115 -2.5803 0.8156
-33.3004 38.5546 -2.5836 0.8154
-34.0889 37.8982 -2.5851 0.8153
-34.8623 37.2234 -2.5864 0.8152
-32.1839 30.4526 -2.2470 0.8374
-42.2752 28.7215 -2.5920 0.8149
-44.4115 25.2083 -2.5898 0.8150
-44.8939 24.3009 -2.5889 0.8151
-45.3555 23.3831 -2.5879 0.8152
-46.2163 21.5190 -2.5854 0.8153
-16.6335 7.3411 -0.9221 0.9298
-46.9889 19.6184 -2.5824 0.8155
-47.3426 18.6565 -2.5806 0.8156
-47.9845 16.7116 -2.5769 0.8159
-48.2716 15.7298 -2.5747 0.8160
-48.5357 14.7422 -2.5725 0.8161
-48.7777 13.7501 -2.5701 0.8163
-49.1940 11.7527 -2.5650 0.8166
-49.3680 10.7489 -2.5623 0.8168
-27.5817 4.8520 -1.4203 0.8939
-27.1539 3.6573 -1.3895 0.8961
-30.6571 3.5026 -1.5649 0.8837
-30.4768 2.8620 -1.5525 0.8846
-49.9484 3.6782 -2.5400 0.8182
-49.9407 2.6685 -2.5363 0.8185
-48.0173 -0.3358 -2.4352 0.8250
-47.3711 -1.2850 -2.4033 0.8271
-49.8514 -2.3569 -2.5310 0.8188
-49.7044 -4.3600 -2.5304 0.8189
-52.5195 -7.8231 -2.6929 0.8084
-52.3381 -8.8762 -2.6922 0.8085
-51.6576 -12.0066 -2.6896 0.8086
-51.3861 -13.0387 -2.6886 0.8087
-51.0922 -14.0644 -2.6875 0.8088
-50.7766 -15.0831 -2.6863 0.8088
-50.0802 -17.0976 -2.6837 0.8090
-49.6996 -18.0923 -2.6823 0.8091
-48.8756 -20.0547 -2.6792 0.8093
-47.9689 -21.9777 -2.6759 0.8095
-47.4854 -22.9234 -2.6741 0.8096
-46.9767 -23.8551 -2.6720 0.8098
-43.1202 -24.1267 -2.5058 0.8205
-38.5691 -25.8591 -2.3549 0.8303
-38.4873 -26.9425 -2.3826 0.8285
-21.6654 -15.8256 -1.3607 0.8981
-21.2851 -16.9022 -1.3784 0.8969
-18.2262 -15.7096 -1.2203 0.9081
-36.4090 -32.6816 -2.4812 0.8221
-35.7069 -33.3731 -2.4786 0.8222
-34.2619 -34.7087 -2.4734 0.8226
-33.5197 -35.3524 -2.4707 0.8227
-32.7649 -35.9796 -2.4679 0.8229
-31.9978 -36.5900 -2.4651 0.8231
-31.2189 -37.1836 -2.4623 0.8233
-29.6274 -38.3192 -2.4564 0.8237
-27.9934 -39.3846 -2.4505 0.8240
28.1714 -16.6702 -2.4001 0.8770
29.0865 -14.9198 -2.3969 0.8771
29.3685 -14.3254 -2.3959 0.8772
29.6391 -13.7261 -2.3949 0.8772
29.8977 -13.1218 -2.3940 0.8773
30.3801 -11.8995 -2.3923 0.8773
30.6032 -11.2821 -2.3915 0.8774
30.5537 -10.5704 -2.3705 0.8784
31.0136 -10.0354 -2.3901 0.8774
31.2007 -9.4067 -2.3894 0.8775
27.2570 -7.0346 -2.0640 0.8932
27.0821 -4.7066 -2.0155 0.8956
30.2086 -4.6258 -2.2408 0.8846
30.3633 -3.4056 -2.2403 0.8847
30.5072 -1.5670 -2.2398 0.8847
30.5317 -0.9528 -2.2397 0.8847
30.5353 0.8913 -2.2399 0.8847
30.5369 1.5068 -2.2418 0.8846
30.5262 2.1229 -2.2437 0.8845
30.5032 2.7391 -2.2456 0.8844
19.3463 2.1305 -1.4271 0.9249
30.4207 3.9711 -2.2494 0.8842
30.3611 4.5865 -2.2514 0.8841
30.2891 5.2010 -2.2534 0.8840
30.2047 5.8147 -2.2553 0.8839
29.8777 7.6468 -2.2613 0.8837
29.7441 8.2538 -2.2633 0.8836
15.2358 5.2367 -1.1813 0.9374
29.0868 10.6566 -2.2713 0.8832
28.8919 11.2498 -2.2733 0.8831
28.2351 13.0068 -2.2794 0.8828
27.9922 13.5843 -2.2814 0.8827
27.7375 14.1573 -2.2834 0.8826
27.4710 14.7255 -2.2854 0.8825
25.9657 17.4866 -2.2953 0.8820
25.6308 18.0213 -2.2973 0.8819
24.9356 19.0769 -2.3020 0.8817
23.8201 20.6168 -2.3099 0.8813
23.4207 21.1103 -2.3119 0.8812
22.1623 22.5441 -2.3180 0.8809
21.7231 23.0056 -2.3200 0.8808
20.8216 23.9091 -2.3247 0.8806
20.3632 24.3555 -2.3277 0.8804
19.8952 24.7938 -2.3308 0.8803
18.9148 25.6189 -2.3349 0.8801
16.3315 27.5342 -2.3473 0.8795
15.7927 27.8901 -2.3500 0.8794
15.2416 28.2272 -2.3521 0.8793
4.2197 8.2056 -0.6765 0.9637
14.1188 28.8693 -2.3563 0.8791
12.9785 29.4890 -2.3623 0.8788
9.3939 31.0425 -2.3780 0.8780
8.7765 31.2578 -2.3805 0.8779
8.1530 31.4562 -2.3827 0.8778
5.6226 32.1564 -2.3935 0.8773
4.3334 32.4261 -2.3987 0.8770
3.0321 32.6495 -2.4042 0.8768
0.3985 32.9293 -2.4146 0.8763
-2.2601 32.9919 -2.4247 0.8758
-4.2603 32.8994 -2.4324 0.8754
-4.9253 32.8332 -2.4343 0.8753
-6.2563 32.6803 -2.4397 0.8751
-6.9180 32.5728 -2.4416 0.8750
-7.5779 32.4520 -2.4435 0.8749
-8.2357 32.3176 -2.4453 0.8748
-8.8913 32.1702 -2.4472 0.8747
-9.5446 32.0106 -2.4492 0.8746
-10.1975 31.8453 -2.4518 0.8745
-11.4882 31.4571 -2.4555 0.8743
-12.1304 31.2492 -2.4578 0.8742
-14.0279 30.5346 -2.4638 0.8739
-15.2640 29.9821 -2.4669 0.8738
-15.8767 29.6921 -2.4688 0.8737
-17.6733 28.7353 -2.4735 0.8735
-18.2572 28.3880 -2.4748 0.8734
-19.4053 27.6597 -2.4774 0.8733
-19.9689 27.2786 -2.4788 0.8732
-21.0683 26.4754 -2.4809 0.8731
-21.6057 26.0567 -2.4819 0.8731
-22.1347 25.6271 -2.4829 0.8730
-23.1625 24.7312 -2.4845 0.8729
-24.1505 23.7906 -2.4857 0.8729
-25.5565 22.3026 -2.4871 0.8728
-26.0033 21.7864 -2.4874 0.8728
-27.6760 19.6284 -2.4878 0.8728
-28.8021 17.9178 -2.4871 0.8728
-29.1523 17.3319 -2.4868 0.8728
-30.1246 15.5307 -2.4851 0.8729
-30.4219 14.9170 -2.4843 0.8729
-31.7019 11.7614 -2.4793 0.8732
-32.3009 9.8110 -2.4752 0.8734
-30.4747 2.8618 -2.2442 0.8845
-34.2723 0.4501 -2.5131 0.8716
-35.8250 -0.2505 -2.6268 0.8662
-35.8950 -0.9737 -2.6329 0.8659
-35.8225 -2.4170 -2.6326 0.8659
-35.6890 -3.8557 -2.6320 0.8659
-35.4948 -5.2872 -2.6313 0.8659
-35.2403 -6.7087 -2.6303 0.8660
-34.7465 -8.8166 -2.6284 0.8661
-34.3439 -10.2018 -2.6269 0.8662
-33.6318 -12.2432 -2.6243 0.8663
-32.4857 -14.8838 -2.6200 0.8665
-31.8311 -16.1640 -2.6176 0.8666
-26.9538 -19.6886 -2.4474 0.8747
-26.5355 -20.2143 -2.4459 0.8748
-20.1496 -16.0005 -1.8866 0.9020
-18.2247 -15.7083 -1.7642 0.9080
-24.7579 -22.2233 -2.4394 0.8751
-24.2886 -22.7010 -2.4376 0.8752
-23.8097 -23.1685 -2.4359 0.8753
-22.8243 -24.0722 -2.4323 0.8754
-22.3183 -24.5081 -2.4304 0.8755
-17.9830 -27.5881 -2.4146 0.8763
21.7261 -12.8563 -2.4236 0.9035
21.9724 -12.4119 -2.4228 0.9036
22.2100 -11.9631 -2.4219 0.9036
22.4387 -11.5098 -2.4211 0.9036
22.6585 -11.0524 -2.4203 0.9037
23.0709 -10.1255 -2.4189 0.9037
23.2635 -9.6565 -2.4182 0.9037
23.6209 -8.7080 -2.4169 0.9038
23.7856 -8.2289 -2.4163 0.9038
24.0869 -7.2620 -2.4153 0.9038
24.2234 -6.7745 -2.4148 0.9039
24.5756 -5.2978 -2.4136 0.9039
24.7622 -4.3034 -2.4129 0.9039
24.5715 -2.2564 -2.3689 0.9056
23.5804 -0.7359 -2.2649 0.9096
23.5909 0.2136 -2.2649 0.9096
23.5823 0.6883 -2.2650 0.9096
23.5645 1.1628 -2.2651 0.9095
23.5375 1.6368 -2.2652 0.9095
23.5014 2.1103 -2.2653 0.9095
19.2418 2.1189 -1.8585 0.9252
23.4015 3.0548 -2.2657 0.9095
23.3378 3.5255 -2.2660 0.9095
23.2650 3.9950 -2.2662 0.9095
17.1572 3.6624 -1.6843 0.9319
17.9122 4.2022 -1.7663 0.9287
15.8295 4.0513 -1.5687 0.9364
22.2421 8.1488 -2.2741 0.9092
21.7583 9.4972 -2.2792 0.9090
21.3905 10.3806 -2.2826 0.9089
20.9870 11.2498 -2.2861 0.9087
20.0814 12.9442 -2.2937 0.9085
19.8322 13.3561 -2.2955 0.9084
19.5746 13.7631 -2.2973 0.9083
19.3087 14.1653 -2.2991 0.9083
19.0345 14.5622 -2.3009 0.9082
18.1631 15.7205 -2.3062 0.9080
17.8570 16.0954 -2.3080 0.9079
17.5432 16.4644 -2.3098 0.9078
16.8927 17.1837 -2.3134 0.9077
16.5562 17.5337 -2.3152 0.9076
14.7757 19.1921 -2.3253 0.9073
14.3977 19.5006 -2.3271 0.9072
13.6226 20.0956 -2.3308 0.9071
12.4145 20.9303 -2.3363 0.9068
12.0042 21.1997 -2.3389 0.9067
11.5859 21.4568 -2.3411 0.9067
9.4131 22.6112 -2.3514 0.9063
7.1211 23.5320 -2.3604 0.9059
5.7039 23.9846 -2.3669 0.9057
5.2240 24.1125 -2.3686 0.9056
4.7412 24.2306 -2.3704 0.9055
4.2563 24.3422 -2.3724 0.9055
2.7868 24.6165 -2.3784 0.9052
1.7965 24.7438 -2.3818 0.9051
1.2991 24.7923 -2.3835 0.9051
0.3009 24.8682 -2.3876 0.9049
-0.7010 24.8952 -2.3910 0.9048
-1.2026 24.8925 -2.3926 0.9047
-2.2070 24.8661 -2.3967 0.9046
-3.7113 24.7402 -2.4018 0.9044
-4.7100 24.6031 -2.4049 0.9042
-5.7029 24.4221 -2.4077 0.9041
-6.1967 24.3163 -2.4091 0.9041
-7.6654 23.9379 -2.4131 0.9039
-8.6327 23.6381 -2.4160 0.9038
-9.5872 23.2968 -2.4186 0.9037
-10.5276 22.9153 -2.4210 0.9036
-10.9936 22.7132 -2.4226 0.9036
-11.9096 22.2729 -2.4248 0.9035
-12.3601 22.0372 -2.4257 0.9035
-12.8059 21.7922 -2.4267 0.9034
-13.2467 21.5379 -2.4275 0.9034
-13.6820 21.2742 -2.4284 0.9034
-14.5395 20.7242 -2.4304 0.9033
-14.9579 20.4332 -2.4311 0.9032
-16.1754 19.5078 -2.4329 0.9032
-16.5682 19.1824 -2.4334 0.9032
-16.9540 18.8485 -2.4339 0.9031
-17.3341 18.5080 -2.4345 0.9031
-18.0705 17.8012 -2.4352 0.9031
-18.4270 17.4357 -2.4355 0.9031
-18.7757 17.0627 -2.4357 0.9031
-19.4502 16.2960 -2.4361 0.9031
-19.7745 15.9016 -2.4361 0.9031
-20.0903 15.5003 -2.4361 0.9031
-20.6964 14.6783 -2.4359 0.9031
-21.5384 13.3991 -2.4353 0.9031
-22.2974 12.0695 -2.4341 0.9031
-22.5311 11.6160 -2.4336 0.9032
-22.7569 11.1585 -2.4333 0.9032
-22.9845 10.7018 -2.4341 0.9031
-16.5314 7.2961 -1.7348 0.9300
-23.4110 9.7744 -2.4356 0.9031
-24.1470 7.8685 -2.4382 0.9030
-24.9475 4.9082 -2.4410 0.9029
-25.9160 3.4906 -2.5105 0.9003
-26.9700 2.5327 -2.6006 0.8969
-27.0772 0.9008 -2.6010 0.8968
-27.0901 0.3558 -2.6010 0.8968
-27.0818 -0.7346 -2.6009 0.8969
-27.0278 -1.8236 -2.6007 0.8969
-26.9838 -2.3670 -2.6005 0.8969
-26.7838 -3.9896 -2.5997 0.8969
-26.4825 -5.5960 -2.5986 0.8969
-26.3599 -6.1267 -2.5981 0.8970
-26.2262 -6.6547 -2.5976 0.8970
-26.0815 -7.1796 -2.5971 0.8970
-25.9259 -7.7012 -2.5965 0.8970
-25.7595 -8.2194 -2.5959 0.8970
-25.5824 -8.7340 -2.5952 0.8971
-25.3946 -9.2445 -2.5945 0.8971
-24.9875 -10.2529 -2.5930 0.8971
-24.7683 -10.7503 -2.5922 0.8972
-23.2424 -13.6259 -2.5866 0.8974
-22.6564 -14.5380 -2.5844 0.8975
-22.3328 -14.9733 -2.5814 0.8976
-20.3867 -14.8916 -2.4238 0.9035
-20.0734 -15.2916 -2.4226 0.9036
-19.4227 -16.0711 -2.4202 0.9037
-18.7409 -16.8223 -2.4177 0.9038
-17.6629 -17.8932 -2.4138 0.9039
-16.9092 -18.5683 -2.4110 0.9040
-16.5224 -18.8937 -2.4096 0.9041
-16.1293 -19.2109 -2.4082 0.9041
-14.9132 -20.1120 -2.4038 0.9043
-14.4962 -20.3951 -2.4022 0.9043
-14.0739 -20.6694 -2.4007 0.9044
17.6666 -10.4541 -2.4384 0.9206
17.8681 -10.0935 -2.4377 0.9207
18.0625 -9.7291 -2.4370 0.9207
18.2496 -9.3611 -2.4364 0.9207
18.6020 -8.6147 -2.4351 0.9207
18.9247 -7.8555 -2.4340 0.9208
19.3522 -6.6951 -2.4325 0.9208
19.7107 -5.5124 -2.4312 0.9209
19.9109 -4.7134 -2.4305 0.9209
20.0796 -3.9075 -2.4299 0.9209
20.1522 -3.5021 -2.4297 0.9209
20.2733 -2.6881 -2.4293 0.9209
20.3219 -2.2794 -2.4291 0.9209
20.3625 -1.8699 -2.4290 0.9209
20.4198 -1.0489 -2.4288 0.9209
20.4364 -0.6377 -2.4287 0.9209
20.4449 -0.2264 -2.4287 0.9209
20.4403 0.1851 -2.4281 0.9210
20.3894 0.5951 -2.4230 0.9211
19.4038 1.3494 -2.3105 0.9246
19.1270 1.7175 -2.2812 0.9256
19.0451 2.4861 -2.2815 0.9256
18.9929 2.8691 -2.2817 0.9255
18.8661 3.6319 -2.2822 0.9255
17.2925 3.6913 -2.1004 0.9313
18.7096 4.3892 -2.2828 0.9255
18.4194 5.5128 -2.2839 0.9255
14.0496 4.5149 -1.7530 0.9423
17.9308 6.9817 -2.2857 0.9254
17.6435 7.7011 -2.2867 0.9254
17.4893 8.0567 -2.2873 0.9254
17.1601 8.7585 -2.2885 0.9253
16.9852 9.1047 -2.2892 0.9253
16.8034 9.4474 -2.2899 0.9253
16.6142 9.7862 -2.2904 0.9253
16.2286 10.4607 -2.2935 0.9252
15.8157 11.1202 -2.2966 0.9251
15.5992 11.4439 -2.2981 0.9250
14.6677 12.6952 -2.3043 0.9248
14.4189 12.9965 -2.3058 0.9248
14.1639 13.2929 -2.3074 0.9247
13.3652 14.1543 -2.3124 0.9246
13.0866 14.4302 -2.3140 0.9245
12.8023 14.7007 -2.3156 0.9245
12.2169 15.2245 -2.3187 0.9244
11.9161 15.4777 -2.3203 0.9243
11.3013 15.9697 -2.3239 0.9242
10.9852 16.2050 -2.3255 0.9242
10.6641 16.4339 -2.3271 0.9241
10.3382 16.6564 -2.3287 0.9241
10.0076 16.8724 -2.3302 0.9240
9.6725 17.0817 -2.3318 0.9240
4.2193 8.2049 -1.0959 0.9635
7.2134 18.3602 -2.3432 0.9236
6.8469 18.5139 -2.3448 0.9236
6.4772 18.6600 -2.3463 0.9235
6.1043 18.7987 -2.3478 0.9235
4.9697 19.1742 -2.3529 0.9233
4.1993 19.3830 -2.3558 0.9232
3.4202 19.5603 -2.3587 0.9231
2.2378 19.7671 -2.3630 0.9230
1.4424 19.8694 -2.3664 0.9229
0.6426 19.9342 -2.3691 0.9228
-0.9648 19.9699 -2.3749 0.9226
-2.9743 19.8271 -2.3815 0.9224
-4.1712 19.6396 -2.3850 0.9223
-4.9627 19.4740 -2.3872 0.9222
-5.3560 19.3788 -2.3882 0.9222
-5.7473 19.2754 -2.3893 0.9222
-6.5239 19.0447 -2.3913 0.9221
-9.5208 17.8055 -2.3984 0.9219
-11.2780 16.7839 -2.4020 0.9218
-11.9495 16.3237 -2.4030 0.9217
-12.2780 16.0830 -2.4035 0.9217
-12.9199 15.5816 -2.4044 0.9217
-13.2332 15.3211 -2.4048 0.9217
-13.5405 15.0536 -2.4051 0.9217
-13.8422 14.7797 -2.4054 0.9217
-14.1381 14.4994 -2.4056 0.9217
-14.4280 14.2130 -2.4058 0.9217
-15.2615 13.3183 -2.4061 0.9216
-15.5334 13.0144 -2.4072 0.9216
-16.5547 11.7410 -2.4108 0.9215
-17.4689 10.3858 -2.4141 0.9214
-17.6798 10.0352 -2.4148 0.9214
-17.8836 9.6803 -2.4156 0.9214
-18.0800 9.3212 -2.4163 0.9213
-18.2690 8.9579 -2.4169 0.9213
-16.5077 7.2856 -2.1434 0.9299
-18.7906 7.8453 -2.4188 0.9213
-19.2425 6.7016 -2.4204 0.9212
-20.0080 5.6400 -2.4693 0.9197
-21.2216 4.6206 -2.5799 0.9162
-21.3129 4.1931 -2.5802 0.9162
-21.4688 3.3328 -2.5807 0.9162
-21.5334 2.9003 -2.5810 0.9162
-21.5889 2.4665 -2.5811 0.9162
-21.6355 2.0317 -2.5813 0.9162
-21.6730 1.5960 -2.5814 0.9162
-21.7325 -0.1520 -2.5816 0.9162
-21.7246 -0.5893 -2.5815 0.9162
-21.6818 -1.4629 -2.5813 0.9162
-21.6467 -1.8988 -2.5812 0.9162
-21.5496 -2.7679 -2.5808 0.9162
-21.2477 -4.4898 -2.5797 0.9162
-21.1501 -4.9158 -2.5793 0.9163
-21.0435 -5.3396 -2.5789 0.9163
-20.9283 -5.7610 -2.5785 0.9163
-20.8044 -6.1799 -2.5780 0.9163
-20.6719 -6.5961 -2.5775 0.9163
-20.3812 -7.4194 -2.5764 0.9163
-20.2231 -7.8263 -2.5758 0.9164
-20.0567 -8.2297 -2.5752 0.9164
-19.8820 -8.6295 -2.5746 0.9164
-19.3092 -9.8054 -2.5725 0.9165
-19.1023 -10.1889 -2.5717 0.9165
-18.8876 -10.5680 -2.5709 0.9165
-18.6652 -10.9425 -2.5701 0.9165
-18.4351 -11.3121 -2.5692 0.9166
-18.1975 -11.6769 -2.5684 0.9166
-17.1632 -13.0746 -2.5629 0.9168
-16.7531 -13.3034 -2.5412 0.9174
-15.6138 -12.9195 -2.4073 0.9216
-15.3395 -13.2215 -2.4055 0.9217
-15.0640 -13.5218 -2.4045 0.9217
-14.7825 -13.8163 -2.4035 0.9217
-14.4951 -14.1048 -2.4025 0.9218
-14.2020 -14.3872 -2.4014 0.9218
-13.9032 -14.6634 -2.4003 0.9218
-13.5991 -14.9333 -2.3992 0.9219
-13.2895 -15.1968 -2.3980 0.9219
-12.9748 -15.4537 -2.3969 0.9219
-12.3303 -15.9476 -2.3945 0.9220
-11.3283 -16.6371 -2.3909 0.9221
14.8727 -8.8008 -2.4486 0.9326
15.0431 -8.4977 -2.4480 0.9326
15.5177 -7.5693 -2.4463 0.9326
15.6636 -7.2539 -2.4458 0.9326
15.9365 -6.6151 -2.4448 0.9327
16.0634 -6.2919 -2.4444 0.9327
16.2981 -5.6385 -2.4436 0.9327
16.4057 -5.3086 -2.4432 0.9327
16.6894 -4.3073 -2.4422 0.9327
16.7707 -3.9701 -2.4419 0.9327
16.9135 -3.2913 -2.4414 0.9328
17.1529 -1.5751 -2.4406 0.9328
17.2153 -0.5372 -2.4404 0.9328
17.2226 -0.1907 -2.4404 0.9328
17.2230 0.1559 -2.4404 0.9328
17.2166 0.5025 -2.4404 0.9328
17.2034 0.8489 -2.4405 0.9328
17.1834 1.1950 -2.4406 0.9328
16.7313 2.8730 -2.4053 0.9337
15.7586 3.6970 -2.2934 0.9367
15.5130 4.6429 -2.2944 0.9367
14.1165 4.5364 -2.1009 0.9419
15.2120 5.5732 -2.2955 0.9366
15.0996 5.8793 -2.2959 0.9366
14.8566 6.4847 -2.2968 0.9366
14.7262 6.7838 -2.2973 0.9366
14.5899 7.0803 -2.2978 0.9366
14.4477 7.3741 -2.2983 0.9366
14.1462 7.9534 -2.2994 0.9365
13.9868 8.2386 -2.3000 0.9365
13.8218 8.5206 -2.3006 0.9365
13.4753 9.0749 -2.3019 0.9365
13.2938 9.3470 -2.3026 0.9365
13.1069 9.6155 -2.3033 0.9364
12.7172 10.1414 -2.3047 0.9364
11.8764 11.1461 -2.3078 0.9363
11.6538 11.3869 -2.3086 0.9363
11.4264 11.6232 -2.3094 0.9363
10.9592 12.0843 -2.3115 0.9362
9.7187 13.1633 -2.3184 0.9360
9.1920 13.5597 -2.3211 0.9360
8.9225 13.7500 -2.3225 0.9359
8.6490 13.9348 -2.3238 0.9359
7.8067 14.4578 -2.3281 0.9358
7.2270 14.7774 -2.3308 0.9357
6.9321 14.9284 -2.3321 0.9357
6.3336 15.2138 -2.3350 0.9356
6.0296 15.3471 -2.3363 0.9356
5.1012 15.7095 -2.3403 0.9354
4.1508 16.0150 -2.3441 0.9353
3.5069 16.1867 -2.3467 0.9353
2.8557 16.3319 -2.3492 0.9352
2.5277 16.3946 -2.3504 0.9352
0.8703 16.6094 -2.3566 0.9350
0.2015 16.6485 -2.3591 0.9349
-0.4691 16.6590 -2.3613 0.9349
-1.1401 16.6418 -2.3635 0.9348
-1.4754 16.6228 -2.3645 0.9348
-1.8105 16.5983 -2.3658 0.9348
-2.4791 16.5262 -2.3678 0.9347
-4.1349 16.2256 -2.3725 0.9346
-4.4622 16.1450 -2.3733 0.9346
-5.1119 15.9636 -2.3750 0.9345
-5.4339 15.8629 -2.3758 0.9345
-6.7004 15.3941 -2.3788 0.9344
-7.0108 15.2604 -2.3795 0.9344
-8.2240 14.6628 -2.3820 0.9343
-8.5193 14.4976 -2.3826 0.9343
-8.8112 14.3263 -2.3831 0.9343
-9.6713 13.7851 -2.3860 0.9342
-10.4985 13.1929 -2.3889 0.9342
-12.0391 11.8596 -2.3945 0.9340
-12.2797 11.6192 -2.3953 0.9340
-12.7462 11.1234 -2.3970 0.9339
-12.9719 10.8683 -2.3978 0.9339
-13.1923 10.6085 -2.3986 0.9339
-14.0199 9.5251 -2.4016 0.9338
-14.5813 8.6690 -2.4036 0.9338
-14.7566 8.3760 -2.4042 0.9337
-14.9259 8.0794 -2.4048 0.9337
-15.3970 7.1690 -2.4065 0.9337
-15.7053 6.9315 -2.4324 0.9330
-16.2494 6.7843 -2.4950 0.9313
-16.7863 6.6150 -2.5565 0.9297
-16.9504 6.2886 -2.5616 0.9296
-17.2149 5.6096 -2.5654 0.9295
-17.3270 5.2629 -2.5658 0.9295
-17.4319 4.9139 -2.5662 0.9294
-17.7031 3.8545 -2.5671 0.9294
-17.7789 3.4978 -2.5674 0.9294
-17.9620 2.4192 -2.5680 0.9294
-18.0081 2.0574 -2.5682 0.9294
-18.0779 1.3312 -2.5684 0.9294
-18.1016 0.9672 -2.5685 0.9294
-18.1177 0.6028 -2.5685 0.9294
-18.0563 -1.5839 -2.5682 0.9294
-18.0197 -1.9468 -2.5681 0.9294
-17.9757 -2.3089 -2.5679 0.9294
-17.8652 -3.0298 -2.5675 0.9294
-17.7252 -3.7455 -2.5669 0.9294
-17.6441 -4.1009 -2.5666 0.9294
-17.3573 -5.1559 -2.5655 0.9295
-17.1300 -5.8483 -2.5647 0.9295
-17.0058 -6.1907 -2.5642 0.9295
-16.8746 -6.5304 -2.5637 0.9295
-16.7364 -6.8673 -2.5632 0.9295
-16.5913 -7.2012 -2.5627 0.9295
-16.2808 -7.8595 -2.5615 0.9296
-16.1155 -8.1836 -2.5609 0.9296
-15.9436 -8.5041 -2.5603 0.9296
-15.7652 -8.8210 -2.5596 0.9296
-15.3891 -9.4431 -2.5583 0.9297
-14.9880 -10.0489 -2.5568 0.9297
-14.1137 -11.2075 -2.5536 0.9298
-13.8807 -11.4854 -2.5527 0.9298
-13.6369 -11.7540 -2.5509 0.9298
-13.3641 -11.9959 -2.5445 0.9300
-12.7105 -11.8797 -2.4651 0.9321
-11.8647 -12.0195 -2.3930 0.9340
-11.3627 -12.4776 -2.3912 0.9341
-11.1050 -12.6987 -2.3902 0.9341
-9.5629 -11.8670 -2.1594 0.9403
12.8307 -7.5925 -2.4561 0.9414
12.9781 -7.3312 -2.4555 0.9414
13.1203 -7.0670 -2.4550 0.9414
13.2572 -6.8002 -2.4545 0.9414
13.3888 -6.5308 -2.4541 0.9414
13.5150 -6.2589 -2.4536 0.9414
13.6359 -5.9846 -2.4532 0.9414
13.7513 -5.7081 -2.4528 0.9414
13.8611 -5.4293 -2.4524 0.9414
14.1575 -4.5811 -2.4514 0.9415
14.2450 -4.2947 -2.4510 0.9415
14.3269 -4.0067 -2.4508 0.9415
14.4030 -3.7172 -2.4505 0.9415
14.4735 -3.4263 -2.4502 0.9415
14.5971 -2.8406 -2.4498 0.9415
14.6502 -2.5461 -2.4496 0.9415
14.7390 -1.9543 -2.4493 0.9415
14.8044 -1.3595 -2.4491 0.9415
14.8283 -1.0612 -2.4490 0.9415
14.8647 -0.1646 -2.4489 0.9415
14.8650 0.1346 -2.4490 0.9415
14.8595 0.4337 -2.4490 0.9415
14.8308 1.0313 -2.4491 0.9415
14.8076 1.3296 -2.4492 0.9415
14.7785 1.6274 -2.4493 0.9415
14.7436 1.9246 -2.4495 0.9415
14.7028 2.2211 -2.4496 0.9415
14.6038 2.8113 -2.4500 0.9415
14.5456 3.1050 -2.4502 0.9415
14.3017 3.9686 -2.4451 0.9416
14.0384 4.2016 -2.4140 0.9423
13.6429 4.3842 -2.3607 0.9436
13.2602 4.5576 -2.3099 0.9447
13.1265 4.8092 -2.3030 0.9449
12.9266 5.3352 -2.3038 0.9449
12.5879 6.1088 -2.3050 0.9449
12.4649 6.3621 -2.3055 0.9448
12.2039 6.8614 -2.3064 0.9448
11.9233 7.3502 -2.3075 0.9448
11.7757 7.5905 -2.3080 0.9448
11.6234 7.8278 -2.3086 0.9448
10.9677 8.7463 -2.3110 0.9447
10.4289 9.4001 -2.3130 0.9447
10.2407 9.6109 -2.3136 0.9447
10.0483 9.8181 -2.3143 0.9446
9.8517 10.0214 -2.3151 0.9446
9.6511 10.2209 -2.3158 0.9446
9.4465 10.4164 -2.3166 0.9446
8.5899 11.1574 -2.3197 0.9445
8.3666 11.3319 -2.3205 0.9445
7.6759 11.8290 -2.3230 0.9444
7.4391 11.9854 -2.3239 0.9444
7.1991 12.1373 -2.3248 0.9444
5.1766 13.1760 -2.3321 0.9442
4.9124 13.2830 -2.3331 0.9442
4.3768 13.4786 -2.3346 0.9442
3.8346 13.6571 -2.3369 0.9441
2.7291 13.9474 -2.3413 0.9440
1.0319 14.2128 -2.3476 0.9439
0.4595 14.2552 -2.3496 0.9438
0.1726 14.2676 -2.3506 0.9438
-0.1145 14.2740 -2.3516 0.9438
-0.9768 14.2580 -2.3544 0.9437
-2.1240 14.1588 -2.3586 0.9436
-3.2614 13.9665 -2.3627 0.9435
-3.5433 13.9041 -2.3637 0.9435
-3.8240 13.8359 -2.3648 0.9435
-4.1034 13.7620 -2.3658 0.9434
-5.7456 13.2005 -2.3717 0.9433
-6.0126 13.0875 -2.3727 0.9433
-7.0567 12.5816 -2.3764 0.9432
-7.3113 12.4418 -2.3774 0.9432
-7.8119 12.1467 -2.3792 0.9431
-8.0578 11.9916 -2.3800 0.9431
-8.3005 11.8313 -2.3809 0.9431
-9.4637 10.9568 -2.3851 0.9430
-9.6855 10.7678 -2.3859 0.9430
-10.3275 10.1736 -2.3882 0.9429
-11.1255 9.3213 -2.3911 0.9429
-11.4980 8.8710 -2.3924 0.9428
-11.6773 8.6402 -2.3930 0.9428
-11.8519 8.4056 -2.3937 0.9428
-12.3466 7.6808 -2.3954 0.9428
-12.7155 7.5597 -2.4370 0.9418
-13.1634 7.4717 -2.4935 0.9405
-13.5864 7.3542 -2.5451 0.9393
-13.9172 6.8241 -2.5535 0.9391
-14.3115 5.9752 -2.5549 0.9391
-14.9400 4.2114 -2.5571 0.9390
-15.0234 3.9104 -2.5574 0.9390
-15.1716 3.3033 -2.5579 0.9390
-15.2364 2.9976 -2.5581 0.9390
-15.3469 2.3824 -2.5585 0.9390
-15.3927 2.0732 -2.5587 0.9390
-15.4321 1.7631 -2.5588 0.9390
-15.4917 1.1408 -2.5590 0.9390
-15.5257 0.5165 -2.5591 0.9390
-15.5330 0.2040 -2.5591 0.9390
-15.5340 -0.1086 -2.5591 0.9390
-15.5165 -0.7336 -2.5590 0.9390
-15.4981 -1.0457 -2.5589 0.9390
-15.4733 -1.3573 -2.5588 0.9390
-15.4421 -1.6683 -2.5587 0.9390
-15.4045 -1.9786 -2.5586 0.9390
-15.3606 -2.2881 -2.5584 0.9390
-15.2536 -2.9038 -2.5580 0.9390
-14.9643 -4.1193 -2.5569 0.9390
-14.8765 -4.4190 -2.5566 0.9390
-14.7825 -4.7169 -2.5562 0.9390
-14.6825 -5.0127 -2.5559 0.9390
-14.2223 -6.1730 -2.5541 0.9391
-14.0925 -6.4567 -2.5537 0.9391
-13.8158 -7.0158 -2.5526 0.9391
-13.6689 -7.2908 -2.5521 0.9391
-13.5164 -7.5627 -2.5515 0.9391
-13.3585 -7.8314 -2.5510 0.9392
-13.1950 -8.0968 -2.5504 0.9392
-12.8522 -8.6169 -2.5491 0.9392
-12.6729 -8.8715 -2.5484 0.9392
-12.4885 -9.1223 -2.5478 0.9392
-12.1046 -9.6121 -2.5463 0.9393
-11.9053 -9.8509 -2.5456 0.9393
-11.7012 -10.0856 -2.5449 0.9393
-11.4924 -10.3159 -2.5441 0.9393
-11.2790 -10.5418 -2.5433 0.9393
-10.8331 -10.9744 -2.5404 0.9394
-9.7442 -11.1426 -2.4385 0.9418
-9.0761 -11.2629 -2.3829 0.9430
-8.8445 -11.4392 -2.3821 0.9431
-8.6094 -11.6107 -2.3812 0.9431
-8.3710 -11.7773 -2.3803 0.9431
-8.1293 -11.9390 -2.3795 0.9431
11.5265 -6.2086 -2.4608 0.9481
11.7630 -5.7378 -2.4600 0.9481
11.9806 -5.2581 -2.4592 0.9481
12.0822 -5.0153 -2.4589 0.9481
12.1790 -4.7704 -2.4585 0.9482
12.2709 -4.5238 -2.4582 0.9482
12.5171 -3.7738 -2.4573 0.9482
12.5892 -3.5208 -2.4571 0.9482
12.6563 -3.2664 -2.4568 0.9482
12.7184 -3.0108 -2.4566 0.9482
12.7753 -2.7540 -2.4564 0.9482
12.8272 -2.4962 -2.4562 0.9482
12.8740 -2.2374 -2.4561 0.9482
12.9157 -1.9777 -2.4559 0.9482
12.9522 -1.7173 -2.4558 0.9482
13.0099 -1.1947 -2.4556 0.9482
13.0309 -0.9326 -2.4556 0.9482
13.0468 -0.6702 -2.4555 0.9482
13.0575 -0.4075 -2.4555 0.9482
13.0584 0.3811 -2.4555 0.9482
13.0126 1.1685 -2.4557 0.9482
12.9562 1.6913 -2.4559 0.9482
12.9203 1.9518 -2.4561 0.9482
12.8792 2.2115 -2.4562 0.9482
12.8331 2.4704 -2.4564 0.9482
12.7818 2.7284 -2.4566 0.9482
12.7254 2.9854 -2.4568 0.9482
12.6639 3.2411 -2.4570 0.9482
12.5974 3.4957 -2.4573 0.9482
12.4493 4.0007 -2.4578 0.9482
12.0609 4.9779 -2.4525 0.9483
11.7811 5.1423 -2.4161 0.9490
10.9509 5.5893 -2.3109 0.9512
10.4739 6.4567 -2.3127 0.9512
10.0716 7.0815 -2.3142 0.9511
9.7830 7.4844 -2.3152 0.9511
9.6327 7.6816 -2.3158 0.9511
9.4785 7.8758 -2.3163 0.9511
9.3204 8.0670 -2.3169 0.9511
9.1585 8.2550 -2.3175 0.9511
8.9929 8.4399 -2.3181 0.9510
8.8236 8.6214 -2.3187 0.9510
8.6507 8.7997 -2.3194 0.9510
8.4742 8.9745 -2.3200 0.9510
7.7341 9.6381 -2.3227 0.9509
6.7373 10.3825 -2.3264 0.9509
6.5291 10.5194 -2.3271 0.9509
4.3576 8.0701 -1.7239 0.9634
4.1758 8.1201 -1.7163 0.9635
4.9993 11.3591 -2.3327 0.9507
3.8399 11.8252 -2.3369 0.9507
3.6024 11.9045 -2.3378 0.9506
2.3928 12.2291 -2.3422 0.9505
2.1471 12.2794 -2.3431 0.9505
1.4039 12.4009 -2.3458 0.9505
1.1545 12.4314 -2.3467 0.9505
0.6538 12.4774 -2.3485 0.9504
0.4027 12.4929 -2.3494 0.9504
0.1513 12.5033 -2.3503 0.9504
-0.1004 12.5087 -2.3512 0.9504
-0.3522 12.5090 -2.3521 0.9503
-0.6041 12.5042 -2.3530 0.9503
-1.8608 12.4042 -2.3576 0.9502
-2.1108 12.3690 -2.3585 0.9502
-2.6088 12.2835 -2.3603 0.9502
-2.8566 12.2331 -2.3612 0.9502
-3.3490 12.1173 -2.3630 0.9501
-3.5936 12.0520 -2.3639 0.9501
-4.0786 11.9065 -2.3656 0.9501
-4.5578 11.7413 -2.3673 0.9500
-5.0302 11.5567 -2.3691 0.9500
-5.4950 11.3530 -2.3707 0.9500
-6.1764 11.0121 -2.3732 0.9499
-6.3990 10.8893 -2.3740 0.9499
-6.6190 10.7619 -2.3748 0.9499
-7.0513 10.4937 -2.3763 0.9498
-7.6789 10.0587 -2.3786 0.9498
-8.2794 9.5857 -2.3808 0.9498
-8.4731 9.4199 -2.3815 0.9497
-9.2134 8.7178 -2.3841 0.9497
-9.7302 8.1523 -2.3860 0.9496
-10.2700 7.9236 -2.4381 0.9486
-11.0028 7.8034 -2.5354 0.9466
-11.1743 7.5918 -2.5392 0.9465
-11.3419 7.3765 -2.5430 0.9464
-11.9132 6.4486 -2.5462 0.9464
-12.0428 6.2087 -2.5467 0.9463
-12.5112 5.2236 -2.5483 0.9463
-12.7148 4.7172 -2.5491 0.9463
-12.9811 3.9429 -2.5500 0.9463
-13.0592 3.6812 -2.5503 0.9463
-13.1319 3.4180 -2.5505 0.9463
-13.1993 3.1534 -2.5508 0.9463
-13.2612 2.8874 -2.5510 0.9463
-13.3686 2.3517 -2.5514 0.9463
-13.5170 1.2693 -2.5519 0.9462
-13.5402 0.9971 -2.5519 0.9462
-13.5579 0.7244 -2.5520 0.9462
-13.5763 0.1783 -2.5520 0.9462
-13.5459 -0.9140 -2.5519 0.9462
-13.5243 -1.1863 -2.5518 0.9462
-13.4643 -1.7294 -2.5516 0.9462
-13.3822 -2.2695 -2.5512 0.9463
-13.3328 -2.5382 -2.5510 0.9463
-13.2779 -2.8058 -2.5508 0.9463
-13.1518 -3.3372 -2.5504 0.9463
-12.9222 -4.1232 -2.5495 0.9463
-12.8349 -4.3819 -2.5492 0.9463
-12.7424 -4.6387 -2.5488 0.9463
-12.5418 -5.1462 -2.5481 0.9463
-12.0792 -6.1339 -2.5464 0.9464
-11.6803 -6.8476 -2.5449 0.9464
-11.5378 -7.0798 -2.5444 0.9464
-11.3906 -7.3090 -2.5438 0.9464
-10.9214 -7.9776 -2.5421 0.9464
-10.4125 -8.6157 -2.5403 0.9465
-10.0521 -9.0230 -2.5389 0.9465
-9.8659 -9.2210 -2.5382 0.9465
-9.6756 -9.4151 -2.5376 0.9465
-9.4816 -9.6052 -2.5368 0.9465
-8.8770 -10.1510 -2.5346 0.9466
-8.4545 -10.4916 -2.5326 0.9466
-8.2291 -10.6432 -2.5287 0.9467
-8.0011 -10.7904 -2.5249 0.9468
-7.6946 -10.8257 -2.4964 0.9474
10.0410 -5.9417 -2.4662 0.9534
10.2686 -5.5310 -2.4654 0.9534
10.3762 -5.3224 -2.4650 0.9534
10.5788 -4.8992 -2.4643 0.9535
10.6738 -4.6846 -2.4640 0.9535
10.7646 -4.4683 -2.4637 0.9535
10.9330 -4.0305 -2.4631 0.9535
11.0107 -3.8093 -2.4628 0.9535
11.0839 -3.5865 -2.4625 0.9535
11.1528 -3.3625 -2.4623 0.9535
11.2172 -3.1371 -2.4621 0.9535
11.2770 -2.9104 -2.4618 0.9535
11.3325 -2.6827 -2.4617 0.9535
11.4714 -1.9936 -2.4612 0.9535
11.5086 -1.7623 -2.4611 0.9535
11.6115 -0.8310 -2.4607 0.9535
11.6257 -0.5972 -2.4607 0.9535
11.6352 -0.3631 -2.4606 0.9535
11.6401 -0.1289 -2.4606 0.9535
11.6404 0.1054 -2.4606 0.9535
11.6270 0.5737 -2.4607 0.9535
11.5951 1.0412 -2.4608 0.9535
11.4760 1.9706 -2.4613 0.9535
11.4348 2.2013 -2.4615 0.9535
11.3890 2.4311 -2.4616 0.9535
11.3386 2.6600 -2.4618 0.9535
11.2243 3.1147 -2.4623 0.9535
11.0921 3.5645 -2.4627 0.9535
10.9422 4.0089 -2.4633 0.9535
10.7747 4.4471 -2.4639 0.9535
10.5900 4.8784 -2.4646 0.9534
10.1411 5.7016 -2.4592 0.9535
9.8917 5.8264 -2.4267 0.9541
9.6152 5.9274 -2.3876 0.9549
8.8441 6.4882 -2.3186 0.9561
8.7136 6.6663 -2.3191 0.9561
8.4419 7.0145 -2.3201 0.9561
8.3009 7.1846 -2.3206 0.9561
8.0087 7.5163 -2.3217 0.9561
7.3856 8.1439 -2.3239 0.9560
7.2221 8.2930 -2.3245 0.9560
6.8862 8.5814 -2.3258 0.9560
6.1807 9.1175 -2.3283 0.9560
5.9976 9.2427 -2.3290 0.9560
5.8121 9.3642 -2.3297 0.9559
5.6242 9.4821 -2.3304 0.9559
5.4338 9.5962 -2.3311 0.9559
4.2462 10.1998 -2.3354 0.9558
4.0413 10.2864 -2.3361 0.9558
3.8348 10.3690 -2.3369 0.9558
3.6265 10.4475 -2.3376 0.9558
3.4166 10.5218 -2.3384 0.9558
3.2052 10.5919 -2.3392 0.9558
2.9924 10.6578 -2.3399 0.9558
2.7783 10.7194 -2.3407 0.9557
2.3463 10.8297 -2.3423 0.9557
2.1286 10.8784 -2.3431 0.9557
1.9099 10.9228 -2.3439 0.9557
1.6902 10.9627 -2.3447 0.9557
1.4698 10.9982 -2.3455 0.9556
1.0267 11.0561 -2.3471 0.9556
0.5814 11.0960 -2.3487 0.9556
0.3581 11.1093 -2.3495 0.9556
-0.0893 11.1224 -2.3511 0.9555
-0.7610 11.1082 -2.3536 0.9555
-2.5388 10.8723 -2.3600 0.9554
-2.9762 10.7685 -2.3616 0.9554
-3.1934 10.7100 -2.3624 0.9553
-4.0496 10.4321 -2.3655 0.9553
-4.2601 10.3519 -2.3662 0.9553
-4.8816 10.0855 -2.3685 0.9552
-5.0851 9.9883 -2.3692 0.9552
-5.2867 9.8870 -2.3699 0.9552
-5.4863 9.7816 -2.3706 0.9552
-5.6837 9.6721 -2.3714 0.9552
-5.8789 9.5586 -2.3721 0.9552
-6.0719 9.4411 -2.3728 0.9551
-6.4506 9.1944 -2.3741 0.9551
-6.6361 9.0653 -2.3748 0.9551
-6.8191 8.9324 -2.3754 0.9551
-6.9994 8.7958 -2.3761 0.9551
-7.3516 8.5116 -2.3774 0.9551
-7.9422 8.1451 -2.4047 0.9546
-8.2415 8.1187 -2.4454 0.9538
-8.8499 8.0425 -2.5278 0.9523
-9.3530 7.5212 -2.5370 0.9521
-9.5045 7.3330 -2.5375 0.9521
-9.6522 7.1417 -2.5381 0.9521
-10.0715 6.5502 -2.5395 0.9521
-10.2031 6.3474 -2.5400 0.9521
-10.3306 6.1419 -2.5405 0.9521
-10.4540 5.9338 -2.5409 0.9520
-10.5730 5.7231 -2.5413 0.9520
-10.7982 5.2947 -2.5421 0.9520
-10.9041 5.0771 -2.5425 0.9520
-11.1951 4.4117 -2.5435 0.9520
-11.2831 4.1860 -2.5439 0.9520
-11.5188 3.4987 -2.5447 0.9520
-11.5880 3.2665 -2.5449 0.9520
-11.6524 3.0329 -2.5452 0.9520
-11.7669 2.5620 -2.5456 0.9520
-11.8169 2.3248 -2.5457 0.9520
-11.8620 2.0867 -2.5459 0.9520
-11.9022 1.8477 -2.5460 0.9519
-11.9375 1.6078 -2.5461 0.9519
-11.9680 1.3674 -2.5462 0.9519
-12.0296 0.6428 -2.5464 0.9519
-12.0402 0.4006 -2.5465 0.9519
-12.0459 0.1582 -2.5465 0.9519
-12.0466 -0.0842 -2.5465 0.9519
-12.0424 -0.3267 -2.5465 0.9519
-12.0332 -0.5689 -2.5464 0.9519
-11.9758 -1.2938 -2.5462 0.9519
-11.9129 -1.7745 -2.5459 0.9520
-11.8741 -2.0138 -2.5458 0.9520
-11.8304 -2.2522 -2.5456 0.9520
-11.7818 -2.4896 -2.5454 0.9520
-11.7284 -2.7260 -2.5452 0.9520
-11.6702 -2.9612 -2.5450 0.9520
-11.6071 -3.1952 -2.5448 0.9520
-11.5393 -3.4277 -2.5445 0.9520
-11.3076 -4.1164 -2.5437 0.9520
-11.1299 -4.5669 -2.5430 0.9520
-10.9340 -5.0096 -2.5423 0.9520
-10.8294 -5.2278 -2.5419 0.9520
-10.6068 -5.6575 -2.5411 0.9520
-10.4890 -5.8688 -2.5406 0.9520
-10.3669 -6.0776 -2.5402 0.9521
-10.2407 -6.2839 -2.5397 0.9521
-9.9757 -6.6883 -2.5387 0.9521
-9.8371 -6.8863 -2.5382 0.9521
-9.6945 -7.0814 -2.5377 0.9521
-9.2435 -7.6485 -2.5361 0.9521
-8.7591 -8.1866 -2.5343 0.9522
-8.5905 -8.3591 -2.5337 0.9522
-8.4184 -8.5282 -2.5330 0.9522
-8.2430 -8.6937 -2.5324 0.9522
-7.8824 -9.0136 -2.5311 0.9522
-7.6973 -9.1680 -2.5304 0.9522
-6.9275 -9.7464 -2.5276 0.9523
-6.7280 -9.8810 -2.5269 0.9523
-6.5259 -10.0115 -2.5261 0.9523
9.1487 -5.1680 -2.4695 0.9577
9.2495 -4.9821 -2.4691 0.9578
9.5294 -4.4131 -2.4681 0.9578
9.6151 -4.2199 -2.4678 0.9578
9.6969 -4.0251 -2.4675 0.9578
9.7749 -3.8287 -2.4673 0.9578
9.8489 -3.6309 -2.4670 0.9578
9.9190 -3.4316 -2.4668 0.9578
9.9851 -3.2310 -2.4665 0.9578
10.0472 -3.0291 -2.4663 0.9578
10.2093 -2.4168 -2.4657 0.9578
10.2552 -2.2108 -2.4656 0.9578
10.3347 -1.7961 -2.4653 0.9578
10.3683 -1.5877 -2.4652 0.9578
10.3977 -1.3787 -2.4651 0.9578
10.4230 -1.1691 -2.4650 0.9578
10.4441 -0.9591 -2.4649 0.9578
10.4739 -0.5380 -2.4648 0.9578
10.4869 -0.1161 -2.4648 0.9578
10.4751 0.5169 -2.4649 0.9578
10.4463 0.9380 -2.4650 0.9578
10.3015 1.9831 -2.4656 0.9578
10.2602 2.1902 -2.4657 0.9578
10.2148 2.3964 -2.4659 0.9578
10.1653 2.6016 -2.4661 0.9578
10.1117 2.8059 -2.4663 0.9578
9.7835 3.8094 -2.4675 0.9578
9.6246 4.2010 -2.4681 0.9578
9.5393 4.3944 -2.4684 0.9578
9.4502 4.5861 -2.4687 0.9578
9.1603 5.1502 -2.4698 0.9577
9.0562 5.3343 -2.4702 0.9577
8.7146 5.8689 -2.4693 0.9577
8.2809 6.3353 -2.4504 0.9581
7.8074 6.4873 -2.3857 0.9591
6.7949 7.1960 -2.3260 0.9601
6.2000 7.7263 -2.3282 0.9601
6.0447 7.8514 -2.3288 0.9601
5.8870 7.9735 -2.3294 0.9601
5.7267 8.0924 -2.3299 0.9601
5.0627 8.5355 -2.3324 0.9600
4.8912 8.6380 -2.3330 0.9600
4.3489 8.0540 -2.1512 0.9631
4.1675 8.1041 -2.1417 0.9632
3.8215 9.1796 -2.3369 0.9600
3.4510 9.3313 -2.3382 0.9599
3.2635 9.4016 -2.3389 0.9599
3.0745 9.4681 -2.3396 0.9599
2.8842 9.5309 -2.3403 0.9599
2.1110 9.7437 -2.3431 0.9599
1.7182 9.8267 -2.3445 0.9598
0.7235 9.9649 -2.3481 0.9598
0.3221 9.9921 -2.3496 0.9598
-0.2816 10.0027 -2.3518 0.9597
-0.4830 9.9981 -2.3525 0.9597
-0.8855 9.9767 -2.3540 0.9597
-1.0864 9.9600 -2.3547 0.9597
-1.2870 9.9391 -2.3554 0.9597
-1.6870 9.8854 -2.3569 0.9596
-1.8861 9.8524 -2.3576 0.9596
-2.2825 9.7745 -2.3590 0.9596
-2.8707 9.6277 -2.3612 0.9596
-3.0648 9.5708 -2.3619 0.9595
-3.6399 9.3766 -2.3639 0.9595
-3.8289 9.3042 -2.3646 0.9595
-4.2026 9.1478 -2.3660 0.9595
-4.3871 9.0639 -2.3666 0.9595
-4.7509 8.8850 -2.3679 0.9594
-4.9301 8.7899 -2.3686 0.9594
-5.2826 8.5891 -2.3699 0.9594
-5.4558 8.4832 -2.3705 0.9594
-5.6269 8.3739 -2.3711 0.9594
-5.7958 8.2611 -2.3717 0.9594
-6.2792 8.2251 -2.4320 0.9584
-6.5353 8.2125 -2.4667 0.9578
-6.7984 8.1990 -2.5032 0.9572
-7.1838 7.9866 -2.5246 0.9568
-7.3511 7.8490 -2.5274 0.9568
-7.5159 7.7079 -2.5302 0.9567
-7.8238 7.4029 -2.5314 0.9567
-8.5365 6.5862 -2.5340 0.9567
-8.6689 6.4142 -2.5345 0.9567
-8.7978 6.2396 -2.5349 0.9566
-8.9232 6.0624 -2.5354 0.9566
-9.0449 5.8826 -2.5358 0.9566
-9.1630 5.7003 -2.5362 0.9566
-9.3879 5.3287 -2.5370 0.9566
-9.5976 4.9480 -2.5378 0.9566
-9.7916 4.5591 -2.5385 0.9566
-9.9696 4.1624 -2.5391 0.9566
-10.0525 3.9614 -2.5394 0.9566
-10.1313 3.7587 -2.5397 0.9566
-10.2059 3.5544 -2.5399 0.9566
-10.2764 3.3487 -2.5402 0.9566
-10.3426 3.1415 -2.5404 0.9566
-10.4624 2.7232 -2.5408 0.9566
-10.5158 2.5123 -2.5410 0.9565
-10.5650 2.3003 -2.5412 0.9565
-10.6098 2.0874 -2.5413 0.9565
-10.6502 1.8735 -2.5415 0.9565
-10.6863 1.6589 -2.5416 0.9565
-10.7681 1.0112 -2.5419 0.9565
-10.8151 0.1420 -2.5420 0.9565
-10.8120 -0.2933 -2.5420 0.9565
-10.8037 -0.5108 -2.5420 0.9565
-10.7523 -1.1616 -2.5417 0.9565
-10.7263 -1.3777 -2.5416 0.9565
-10.6959 -1.5932 -2.5415 0.9565
-10.6612 -1.8080 -2.5414 0.9565
-10.6220 -2.0221 -2.5412 0.9565
-10.5306 -2.4476 -2.5409 0.9565
-10.4784 -2.6588 -2.5407 0.9566
-10.3611 -3.0777 -2.5403 0.9566
-10.2961 -3.2853 -2.5400 0.9566
-10.2268 -3.4915 -2.5398 0.9566
-9.9083 -4.3006 -2.5386 0.9566
-9.7247 -4.6945 -2.5379 0.9566
-9.6269 -4.8886 -2.5375 0.9566
-9.3101 -5.4580 -2.5364 0.9566
-8.9592 -6.0068 -2.5351 0.9566
-8.7071 -6.3601 -2.5342 0.9567
-8.5757 -6.5328 -2.5337 0.9567
-8.4408 -6.7027 -2.5332 0.9567
-8.3026 -6.8699 -2.5327 0.9567
-7.5623 -7.6610 -2.5300 0.9567
-7.4050 -7.8098 -2.5294 0.9567
-7.2446 -7.9554 -2.5288 0.9568
-7.0814 -8.0977 -2.5282 0.9568
-6.7465 -8.3720 -2.5270 0.9568
-6.5751 -8.5040 -2.5263 0.9568
-6.4010 -8.6324 -2.5257 0.9568
-6.2244 -8.7572 -2.5251 0.9568
-5.8639 -8.9959 -2.5238 0.9568
8.4063 -4.5279 -2.4722 0.9613
8.7390 -3.8354 -2.4710 0.9613
8.8844 -3.4800 -2.4705 0.9613
8.9518 -3.3002 -2.4703 0.9613
9.0156 -3.1191 -2.4700 0.9613
9.0757 -2.9367 -2.4698 0.9614
9.1851 -2.5688 -2.4694 0.9614
9.2343 -2.3832 -2.4693 0.9614
9.3216 -2.0095 -2.4690 0.9614
9.3939 -1.6326 -2.4687 0.9614
9.4743 -1.0627 -2.4684 0.9614
9.5089 -0.6805 -2.4683 0.9614
9.5206 -0.4890 -2.4683 0.9614
9.5324 -0.1055 -2.4683 0.9614
9.5105 0.6614 -2.4684 0.9614
9.4541 1.2341 -2.4686 0.9614
9.4277 1.4242 -2.4687 0.9614
9.3976 1.6137 -2.4688 0.9614
9.3637 1.8026 -2.4689 0.9614
9.3261 1.9908 -2.4691 0.9614
9.2847 2.1782 -2.4692 0.9614
9.2397 2.3648 -2.4694 0.9614
9.1909 2.5504 -2.4696 0.9614
9.0823 2.9187 -2.4700 0.9613
9.0225 3.1011 -2.4702 0.9613
8.9592 3.2824 -2.4705 0.9613
8.8922 3.4623 -2.4707 0.9613
8.8216 3.6410 -2.4710 0.9613
8.7476 3.8182 -2.4713 0.9613
8.6700 3.9939 -2.4715 0.9613
8.5889 4.1681 -2.4718 0.9613
8.4164 4.5115 -2.4725 0.9613
8.1323 5.0132 -2.4735 0.9613
8.0309 5.1766 -2.4739 0.9613
7.9264 5.3380 -2.4743 0.9613
7.8186 5.4973 -2.4747 0.9613
7.2291 6.2570 -2.4755 0.9613
7.0981 6.3979 -2.4742 0.9613
6.8283 6.6719 -2.4718 0.9613
6.6679 6.7827 -2.4627 0.9615
6.4592 6.8406 -2.4360 0.9619
5.6647 7.0593 -2.3435 0.9633
5.2024 7.3514 -2.3318 0.9635
5.0546 7.4563 -2.3324 0.9635
4.9047 7.5583 -2.3329 0.9635
4.5987 7.7533 -2.3340 0.9634
4.4429 7.8462 -2.3346 0.9634
4.2851 7.9359 -2.3352 0.9634
4.1256 8.0226 -2.3357 0.9634
3.9643 8.1060 -2.3363 0.9634
3.8013 8.1862 -2.3369 0.9634
3.6368 8.2632 -2.3375 0.9634
3.3030 8.4072 -2.3387 0.9634
2.9636 8.5378 -2.3400 0.9633
2.7919 8.5980 -2.3406 0.9633
2.6191 8.6548 -2.3412 0.9633
2.4450 8.7081 -2.3419 0.9633
1.9167 8.8470 -2.3438 0.9633
1.7388 8.8862 -2.3444 0.9633
1.3805 8.9539 -2.3457 0.9633
1.2004 8.9824 -2.3464 0.9632
1.0197 9.0073 -2.3470 0.9632
0.8385 9.0285 -2.3477 0.9632
0.6568 9.0461 -2.3484 0.9632
0.2924 9.0703 -2.3497 0.9632
0.1098 9.0769 -2.3503 0.9632
-0.0729 9.0798 -2.3510 0.9632
-0.9860 9.0393 -2.3543 0.9631
-1.3497 8.9973 -2.3556 0.9631
-1.5309 8.9708 -2.3563 0.9631
-1.8917 8.9069 -2.3576 0.9631
-2.0711 8.8695 -2.3582 0.9631
-2.2498 8.8284 -2.3589 0.9631
-2.6047 8.7354 -2.3602 0.9630
-2.9556 8.6282 -2.3614 0.9630
-3.1295 8.5693 -2.3621 0.9630
-3.4736 8.4408 -2.3633 0.9630
-3.6437 8.3714 -2.3639 0.9630
-3.9939 8.2516 -2.3736 0.9628
-4.2003 8.2503 -2.3970 0.9625
-4.4107 8.2488 -2.4219 0.9621
-5.2555 8.1717 -2.5156 0.9607
-5.5901 7.9679 -2.5201 0.9606
-5.7546 7.8611 -2.5225 0.9605
-6.2263 7.5091 -2.5256 0.9605
-6.5262 7.2555 -2.5267 0.9605
-6.9564 6.8527 -2.5283 0.9605
-7.3614 6.4242 -2.5297 0.9604
-7.4906 6.2759 -2.5302 0.9604
-7.6167 6.1249 -2.5306 0.9604
-7.7398 5.9715 -2.5311 0.9604
-8.0900 5.4963 -2.5323 0.9604
-8.5108 4.8308 -2.5338 0.9604
-8.6075 4.6592 -2.5342 0.9604
-8.7006 4.4856 -2.5345 0.9604
-8.7902 4.3101 -2.5348 0.9604
-8.9587 3.9539 -2.5354 0.9603
-9.0374 3.7732 -2.5357 0.9603
-9.1125 3.5910 -2.5360 0.9603
-9.2514 3.2220 -2.5365 0.9603
-9.3152 3.0354 -2.5367 0.9603
-9.3752 2.8476 -2.5369 0.9603
-9.4836 2.4684 -2.5373 0.9603
-9.5764 2.0851 -2.5376 0.9603
-9.6170 1.8920 -2.5377 0.9603
-9.7149 1.3085 -2.5381 0.9603
-9.7396 1.1128 -2.5382 0.9603
-9.7769 0.7200 -2.5383 0.9603
-9.7896 0.5231 -2.5383 0.9603
-9.8028 0.1287 -2.5384 0.9603
-9.6635 -1.6389 -2.5378 0.9603
-9.6281 -1.8329 -2.5376 0.9603
-9.5887 -2.0262 -2.5375 0.9603
-9.4470 -2.6005 -2.5370 0.9603
-9.3331 -2.9780 -2.5365 0.9603
-9.2704 -3.1650 -2.5363 0.9603
-9.2039 -3.3505 -2.5361 0.9603
-9.1337 -3.5347 -2.5358 0.9603
-9.0598 -3.7174 -2.5355 0.9603
-8.7272 -4.4318 -2.5343 0.9604
-8.4404 -4.9482 -2.5332 0.9604
-8.3379 -5.1163 -2.5329 0.9604
-8.2320 -5.2822 -2.5325 0.9604
-8.1227 -5.4460 -2.5321 0.9604
-7.5281 -6.2290 -2.5299 0.9604
-7.3998 -6.3781 -2.5294 0.9604
-7.1344 -6.6681 -2.5284 0.9605
-6.9974 -6.8090 -2.5279 0.9605
-6.7150 -7.0821 -2.5269 0.9605
-6.5697 -7.2143 -2.5264 0.9605
-5.9631 -7.7125 -2.5242 0.9605
-5.4830 -8.0526 -2.5224 0.9605
-5.3186 -8.1594 -2.5218 0.9606
7.5253 -4.4530 -2.4754 0.9643
7.6124 -4.3002 -2.4751 0.9643
7.7774 -3.9894 -2.4745 0.9643
7.8553 -3.8317 -2.4742 0.9643
8.0697 -3.3497 -2.4735 0.9643
8.1347 -3.1863 -2.4732 0.9643
8.1964 -3.0217 -2.4730 0.9643
8.4554 -2.1822 -2.4721 0.9643
8.4971 -2.0115 -2.4720 0.9644
8.5703 -1.6678 -2.4717 0.9644
8.6017 -1.4949 -2.4716 0.9644
8.6543 -1.1475 -2.4714 0.9644
8.6754 -0.9731 -2.4713 0.9644
8.7178 -0.4478 -2.4712 0.9644
8.7250 -0.2723 -2.4712 0.9644
8.7287 -0.0966 -2.4712 0.9644
8.7289 0.0790 -2.4712 0.9644
8.7256 0.2547 -2.4712 0.9644
8.7085 0.6056 -2.4713 0.9644
8.6948 0.7808 -2.4713 0.9644
8.6776 0.9556 -2.4714 0.9644
8.6569 1.1301 -2.4715 0.9644
8.6327 1.3041 -2.4716 0.9644
8.4603 2.1653 -2.4722 0.9643
8.2612 2.8394 -2.4730 0.9643
8.2031 3.0054 -2.4732 0.9643
8.1417 3.1701 -2.4734 0.9643
8.0092 3.4959 -2.4739 0.9643
7.8637 3.8162 -2.4745 0.9643
7.7862 3.9741 -2.4747 0.9643
7.6219 4.2853 -2.4753 0.9643
7.5351 4.4383 -2.4757 0.9643
7.4452 4.5897 -2.4760 0.9643
7.2565 4.8869 -2.4767 0.9643
6.6213 5.7309 -2.4790 0.9643
6.1433 6.2491 -2.4808 0.9642
5.8891 6.4937 -2.4817 0.9642
5.7560 6.6095 -2.4812 0.9642
5.4820 6.8316 -2.4796 0.9642
5.3417 6.9383 -2.4789 0.9643
5.1995 7.0424 -2.4782 0.9643
5.0554 7.1437 -2.4775 0.9643
4.8848 7.2058 -2.4645 0.9645
4.7032 7.2478 -2.4459 0.9647
4.5241 7.2890 -2.4286 0.9650
4.3474 7.3296 -2.4125 0.9652
4.1729 7.3694 -2.3975 0.9654
3.8297 7.4472 -2.3707 0.9658
3.3278 7.5611 -2.3386 0.9662
3.1757 7.6283 -2.3392 0.9662
2.8675 7.7536 -2.3403 0.9662
2.7116 7.8117 -2.3409 0.9662
2.3962 7.9183 -2.3420 0.9662
2.2369 7.9669 -2.3426 0.9662
2.0767 8.0123 -2.3432 0.9662
1.9155 8.0545 -2.3438 0.9662
1.7534 8.0934 -2.3443 0.9662
1.5906 8.1291 -2.3449 0.9662
1.4271 8.1616 -2.3455 0.9661
0.6007 8.2742 -2.3485 0.9661
0.2674 8.2960 -2.3497 0.9661
-0.0666 8.3042 -2.3510 0.9661
-0.2338 8.3034 -2.3516 0.9661
-0.4009 8.2991 -2.3522 0.9660
-0.7349 8.2805 -2.3534 0.9660
-1.2342 8.2274 -2.3552 0.9660
-1.5651 8.1752 -2.3564 0.9660
-1.7338 8.1636 -2.3626 0.9659
-2.2616 8.1828 -2.4033 0.9653
-2.4419 8.1895 -2.4192 0.9651
-3.1891 8.2155 -2.4948 0.9640
-3.5383 8.1291 -2.5098 0.9638
-4.0311 7.9181 -2.5153 0.9637
-4.1928 7.8413 -2.5172 0.9637
-4.6634 7.5823 -2.5200 0.9637
-4.9669 7.3917 -2.5211 0.9637
-5.1157 7.2918 -2.5216 0.9636
-5.2626 7.1889 -2.5221 0.9636
-5.4073 7.0830 -2.5227 0.9636
-5.5498 6.9742 -2.5232 0.9636
-6.2284 6.3875 -2.5256 0.9636
-6.6060 6.0033 -2.5270 0.9636
-6.7266 5.8702 -2.5274 0.9636
-6.8445 5.7346 -2.5278 0.9636
-7.4923 4.8728 -2.5301 0.9635
-7.9490 4.0981 -2.5318 0.9635
-8.0308 3.9378 -2.5321 0.9635
-8.1093 3.7758 -2.5323 0.9635
-8.1845 3.6122 -2.5326 0.9635
-8.3900 3.1127 -2.5333 0.9635
-8.5646 2.6014 -2.5340 0.9635
-8.6158 2.4287 -2.5341 0.9635
-8.6635 2.2550 -2.5343 0.9635
-8.7482 1.9048 -2.5346 0.9635
-8.8484 1.3736 -2.5349 0.9635
-8.8746 1.1953 -2.5350 0.9635
-8.9428 0.4778 -2.5352 0.9635
-8.9507 0.2978 -2.5353 0.9635
-8.9549 0.1176 -2.5353 0.9635
-8.9523 -0.2428 -2.5353 0.9635
-8.9208 -0.7825 -2.5351 0.9635
-8.9030 -0.9619 -2.5351 0.9635
-8.8816 -1.1408 -2.5350 0.9635
-8.7954 -1.6744 -2.5346 0.9635
-8.7595 -1.8509 -2.5345 0.9635
-8.6302 -2.3757 -2.5340 0.9635
-8.5263 -2.7206 -2.5336 0.9635
-8.4691 -2.8914 -2.5334 0.9635
-8.4084 -3.0610 -2.5332 0.9635
-8.0542 -3.8881 -2.5319 0.9635
-7.9734 -4.0490 -2.5316 0.9635
-7.8021 -4.3654 -2.5309 0.9635
-7.7116 -4.5210 -2.5306 0.9635
-7.6181 -4.6746 -2.5303 0.9635
-7.5214 -4.8263 -2.5299 0.9635
-7.3189 -5.1235 -2.5292 0.9635
-6.9931 -5.5532 -2.5280 0.9636
-6.8788 -5.6918 -2.5275 0.9636
-6.7617 -5.8281 -2.5271 0.9636
-6.5195 -6.0933 -2.5262 0.9636
-6.3944 -6.2222 -2.5258 0.9636
-6.2667 -6.3484 -2.5253 0.9636
-6.1365 -6.4720 -2.5248 0.9636
-6.0039 -6.5929 -2.5243 0.9636
-5.8688 -6.7111 -2.5239 0.9636
-5.4499 -7.0487 -2.5223 0.9636
-5.1597 -7.2593 -2.5213 0.9637
-5.0115 -7.3601 -2.5207 0.9637
7.0126 -3.9613 -2.4773 0.9669
7.1647 -3.6751 -2.4767 0.9669
7.3054 -3.3832 -2.4762 0.9669
7.4942 -2.9354 -2.4756 0.9669
7.7036 -2.3226 -2.4748 0.9669
7.7483 -2.1670 -2.4747 0.9669
7.8637 -1.6952 -2.4743 0.9669
7.8959 -1.5365 -2.4742 0.9669
7.9249 -1.3773 -2.4741 0.9669
7.9507 -1.2175 -2.4740 0.9669
8.0221 -0.5741 -2.4737 0.9669
8.0385 -0.2508 -2.4737 0.9669
8.0421 0.0728 -2.4737 0.9669
8.0233 0.5579 -2.4738 0.9669
7.9947 0.8804 -2.4739 0.9669
7.9756 1.0411 -2.4740 0.9669
7.9534 1.2015 -2.4740 0.9669
7.9279 1.3613 -2.4741 0.9669
7.8992 1.5206 -2.4742 0.9669
7.7088 2.3072 -2.4750 0.9669
7.6613 2.4620 -2.4751 0.9669
7.6108 2.6159 -2.4753 0.9669
7.5006 2.9205 -2.4757 0.9669
7.3784 3.2206 -2.4762 0.9669
7.2443 3.5155 -2.4767 0.9669
7.1728 3.6610 -2.4770 0.9669
7.0985 3.8050 -2.4772 0.9669
7.0213 3.9476 -2.4775 0.9669
6.9412 4.0886 -2.4778 0.9668
6.8584 4.2279 -2.4781 0.9668
6.7728 4.3656 -2.4784 0.9668
6.3043 5.0274 -2.4801 0.9668
6.2028 5.1540 -2.4805 0.9668
6.0988 5.2786 -2.4809 0.9668
5.9923 5.4011 -2.4813 0.9668
5.8833 5.5215 -2.4817 0.9668
5.7719 5.6397 -2.4821 0.9668
5.6582 5.7557 -2.4825 0.9668
5.3034 6.0898 -2.4838 0.9668
5.0559 6.3006 -2.4847 0.9668
4.9290 6.4022 -2.4852 0.9668
4.8001 6.5014 -2.4857 0.9667
4.6692 6.5979 -2.4861 0.9667
4.4016 6.7831 -2.4871 0.9667
4.2651 6.8717 -2.4876 0.9667
4.1254 6.9552 -2.4873 0.9667
3.9840 7.0359 -2.4869 0.9667
3.8412 7.1138 -2.4867 0.9667
3.5511 7.2611 -2.4861 0.9667
2.8032 7.5797 -2.4857 0.9667
2.6482 7.6291 -2.4839 0.9668
2.4868 7.6582 -2.4766 0.9669
2.1663 7.7154 -2.4649 0.9670
2.0064 7.7413 -2.4597 0.9671
1.6867 7.7853 -2.4502 0.9672
1.5276 7.8070 -2.4468 0.9673
1.0518 7.8706 -2.4423 0.9673
0.5759 7.9327 -2.4463 0.9673
0.0966 7.9857 -2.4564 0.9671
-0.0642 7.9998 -2.4607 0.9671
-0.5509 8.0415 -2.4792 0.9668
-0.8801 8.0688 -2.4965 0.9666
-1.2062 8.0407 -2.5008 0.9665
-1.5303 7.9935 -2.5033 0.9665
-1.6916 7.9649 -2.5045 0.9665
-1.8525 7.9332 -2.5057 0.9665
-2.1725 7.8606 -2.5084 0.9664
-2.3316 7.8197 -2.5098 0.9664
-2.6474 7.7284 -2.5127 0.9664
-2.8030 7.6753 -2.5132 0.9664
-3.2632 7.4971 -2.5149 0.9664
-3.4141 7.4315 -2.5155 0.9664
-3.5638 7.3629 -2.5160 0.9663
-3.8588 7.2166 -2.5171 0.9663
-4.0041 7.1390 -2.5176 0.9663
-4.1478 7.0584 -2.5181 0.9663
-4.2898 6.9749 -2.5186 0.9663
-4.4302 6.8885 -2.5191 0.9663
-4.7057 6.7073 -2.5201 0.9663
-5.1047 6.4148 -2.5215 0.9663
-5.2337 6.3120 -2.5220 0.9663
-5.3607 6.2065 -2.5225 0.9663
-5.6081 5.9879 -2.5234 0.9662
-5.7284 5.8748 -2.5238 0.9662
-5.8464 5.7593 -2.5242 0.9662
-5.9621 5.6414 -2.5246 0.9662
-6.0754 5.5212 -2.5250 0.9662
-6.1863 5.3986 -2.5254 0.9662
-6.2946 5.2739 -2.5258 0.9662
-6.4005 5.1469 -2.5262 0.9662
-6.7022 4.7533 -2.5273 0.9662
