ply
format ascii 1.0
element vertex 1571
property float32 x
property float32 y
property float32 z
property float32 I
end_header
24.4271 3.3795 -2.3675 0.9057
24.3639 3.8710 -2.3684 0.9056
24.2907 4.3613 -2.3693 0.9056
24.2075 4.8503 -2.3702 0.9056
23.8986 6.3066 -2.3729 0.9055
23.7759 6.7879 -2.3738 0.9054
23.5012 7.7431 -2.3755 0.9054
23.3493 8.2166 -2.3764 0.9053
23.0166 9.1542 -2.3781 0.9053
20.5267 10.1418 -2.1981 0.9121
19.6914 10.2263 -2.1302 0.9147
18.5200 10.5834 -2.0479 0.9179
18.0024 10.7729 -2.0141 0.9192
17.4761 10.9406 -1.9794 0.9205
17.1614 11.2296 -1.9690 0.9209
15.1357 11.7416 -1.8391 0.9259
14.7680 11.9392 -1.8232 0.9265
8.7430 7.6690 -1.1165 0.9543
12.3686 12.2435 -1.6708 0.9325
11.5440 12.3841 -1.6254 0.9342
10.7250 12.4745 -1.5794 0.9360
10.0375 12.6709 -1.5519 0.9371
9.3922 12.8879 -1.5310 0.9379
6.3273 9.4584 -1.0925 0.9553
6.0799 9.4959 -1.0825 0.9557
5.9565 9.7281 -1.0951 0.9552
7.1536 13.4392 -1.4616 0.9407
5.9421 13.7170 -1.4351 0.9417
5.0413 13.8742 -1.4172 0.9424
4.7525 13.9459 -1.4145 0.9425
4.4159 13.8643 -1.3969 0.9432
3.5538 14.0299 -1.3895 0.9435
2.9762 14.1086 -1.3843 0.9437
1.5433 14.3061 -1.3814 0.9438
1.2530 14.3038 -1.3785 0.9439
0.3900 14.3823 -1.3813 0.9438
-0.1880 14.3807 -1.3807 0.9438
-0.4763 14.3593 -1.3793 0.9439
-0.7699 14.4456 -1.3888 0.9435
-2.5555 14.5571 -1.4189 0.9423
-3.1032 14.2819 -1.4031 0.9430
-3.3990 14.2564 -1.4070 0.9428
-3.7867 14.5782 -1.4460 0.9413
-4.2777 14.1125 -1.4157 0.9425
-4.5491 13.9893 -1.4123 0.9426
-5.6126 14.2725 -1.4724 0.9402
-6.3072 14.3214 -1.5024 0.9391
-6.6304 14.2711 -1.5107 0.9387
-7.3765 14.3397 -1.5482 0.9373
-7.6383 14.1427 -1.5431 0.9375
-9.4756 13.9806 -1.6214 0.9344
-9.8819 13.9676 -1.6426 0.9336
-11.0710 13.8031 -1.6987 0.9314
-13.1329 13.3703 -1.7993 0.9275
-20.2689 -5.0821 -2.4822 0.9193
-20.1568 -5.4866 -2.4815 0.9193
-19.7725 -6.6848 -2.4793 0.9194
-19.4771 -7.4695 -2.4779 0.9194
-19.3178 -7.8570 -2.4772 0.9194
-18.9765 -8.6220 -2.4759 0.9195
-18.7945 -8.9991 -2.4752 0.9195
-18.6051 -9.3724 -2.4746 0.9195
-18.4084 -9.7417 -2.4740 0.9195
-18.2045 -10.1070 -2.4734 0.9195
-17.9934 -10.4681 -2.4728 0.9196
-17.5501 -11.1771 -2.4716 0.9196
-16.8062 -12.1857 -2.4659 0.9198
-14.2980 -13.2636 -2.3167 0.9244
-14.0261 -13.5457 -2.3162 0.9245
-13.4660 -14.0933 -2.3154 0.9245
-12.5868 -14.8716 -2.3143 0.9245
-11.9758 -15.3608 -2.3137 0.9245
-11.3462 -15.8253 -2.3130 0.9246
-11.0246 -16.0480 -2.3128 0.9246
-10.6988 -16.2644 -2.3125 0.9246
-10.0347 -16.6774 -2.3120 0.9246
-6.7370 -13.5532 -1.7979 0.9409
-6.1437 -13.7158 -1.7852 0.9413
-5.8642 -13.8299 -1.7844 0.9413
-5.5288 -13.8040 -1.7663 0.9419
-4.8919 -13.7951 -1.7387 0.9427
-4.5692 -13.7561 -1.7218 0.9433
-4.2249 -13.6289 -1.6949 0.9441
-3.3260 -13.5712 -1.6598 0.9453
-2.7152 -13.3834 -1.6221 0.9465
-2.1828 -13.5278 -1.6277 0.9463
-1.6500 -13.7063 -1.6399 0.9459
-1.0947 -13.7185 -1.6347 0.9461
-0.8087 -13.5673 -1.6145 0.9467
-0.5426 -13.7471 -1.6342 0.9461
0.0100 -13.7388 -1.6320 0.9462
0.5652 -13.8090 -1.6417 0.9459
1.4068 -13.8574 -1.6545 0.9454
1.9868 -13.9620 -1.6752 0.9448
2.2733 -13.9588 -1.6800 0.9446
2.5906 -14.1138 -1.7045 0.9438
2.9862 -14.6101 -1.7714 0.9417
3.1560 -14.0011 -1.7049 0.9438
3.4718 -14.0777 -1.7223 0.9433
4.7461 -14.2193 -1.7807 0.9414
5.7659 -14.3353 -1.8354 0.9397
6.8946 -14.5438 -1.9119 0.9372
8.5637 -14.8520 -2.0365 0.9333
9.4857 -15.0223 -2.1104 0.9309
9.9726 -15.1123 -2.1508 0.9297
12.0566 -15.4180 -2.3249 0.9242
13.2697 -14.4162 -2.3275 0.9241
14.1260 -13.6024 -2.3294 0.9240
15.5929 -13.8519 -2.4775 0.9194
16.1757 -13.2463 -2.4835 0.9192
16.7050 -12.5937 -2.4850 0.9192
16.9599 -12.2594 -2.4858 0.9192
17.6842 -11.2263 -2.4882 0.9191
17.9119 -10.8723 -2.4890 0.9191
18.5523 -9.7833 -2.4914 0.9190
19.4721 -7.8867 -2.4955 0.9189
19.6332 -7.4965 -2.4964 0.9188
20.0694 -6.3067 -2.4989 0.9188
20.1988 -5.9043 -2.4997 0.9187
20.3203 -5.4992 -2.5006 0.9187
20.6356 -4.2697 -2.5031 0.9186
20.7242 -3.8557 -2.5040 0.9186
20.8046 -3.4397 -2.5048 0.9186
20.8766 -3.0222 -2.5057 0.9185
20.9401 -2.6031 -2.5065 0.9185
21.0420 -1.7611 -2.5082 0.9185
21.0802 -1.3385 -2.5091 0.9184
21.1311 -0.4910 -2.5107 0.9184
21.1085 1.6330 -2.5149 0.9183
21.0394 2.4812 -2.5165 0.9182
20.9921 2.9042 -2.5173 0.9182
20.9361 3.3264 -2.5181 0.9182
20.8643 3.7462 -2.5180 0.9182
19.3914 4.7027 -2.3702 0.9228
19.1777 5.4752 -2.3691 0.9228
18.6981 7.0050 -2.3718 0.9227
18.4120 7.7547 -2.3732 0.9227
18.2575 8.1253 -2.3738 0.9227
18.0955 8.4926 -2.3744 0.9226
17.3734 9.9280 -2.3769 0.9226
17.1747 10.2775 -2.3775 0.9225
16.9689 10.6230 -2.3781 0.9225
16.7560 10.9644 -2.3786 0.9225
16.5363 11.3014 -2.3792 0.9225
16.1523 11.5217 -2.3568 0.9232
15.5649 11.5814 -2.3046 0.9248
15.2098 11.7992 -2.2866 0.9254
13.4087 12.2468 -2.1571 0.9295
11.9504 12.3146 -2.0384 0.9332
11.1849 12.4929 -1.9918 0.9347
10.4151 12.6183 -1.9435 0.9362
10.0928 12.7407 -1.9307 0.9366
9.7538 12.8342 -1.9148 0.9371
9.3770 12.8670 -1.8912 0.9379
6.3252 9.4553 -1.3513 0.9552
7.6770 13.1228 -1.8060 0.9406
7.4217 13.2920 -1.8083 0.9405
6.8025 13.4229 -1.7875 0.9412
5.9825 13.8102 -1.7878 0.9412
5.6008 13.6759 -1.7555 0.9422
5.2831 13.6773 -1.7417 0.9426
4.9914 13.7367 -1.7361 0.9428
4.6633 13.6842 -1.7173 0.9434
4.3927 13.7915 -1.7193 0.9434
4.0712 13.7299 -1.7011 0.9439
3.5482 14.0078 -1.7165 0.9435
2.3871 14.0983 -1.6985 0.9440
1.5171 14.0631 -1.6802 0.9446
0.9512 14.1161 -1.6806 0.9446
0.6651 14.0814 -1.6745 0.9448
0.0992 14.1388 -1.6795 0.9446
-0.4767 14.3697 -1.7079 0.9437
-0.7500 14.0724 -1.6740 0.9448
-1.0329 14.0590 -1.6745 0.9448
-1.8887 14.0523 -1.6842 0.9445
-2.1789 14.0651 -1.6907 0.9443
-2.4657 14.0457 -1.6939 0.9442
-2.7739 14.1284 -1.7103 0.9437
-3.3643 14.1111 -1.7232 0.9432
-3.6615 14.0963 -1.7300 0.9430
-4.2388 13.9841 -1.7357 0.9428
-4.5373 13.9530 -1.7428 0.9426
-5.1750 13.9779 -1.7705 0.9417
-5.8584 14.0615 -1.8095 0.9405
-6.9186 14.1408 -1.8700 0.9386
-8.0409 14.1985 -1.9383 0.9364
-9.1434 14.0920 -1.9954 0.9346
-9.8531 13.9268 -2.0265 0.9336
-10.6818 13.8801 -2.0805 0.9319
-12.3533 13.6310 -2.1852 0.9286
-12.7152 13.4761 -2.2008 0.9281
-13.5785 13.2795 -2.2561 0.9263
-17.0140 -4.2660 -2.4853 0.9316
-16.9207 -4.6057 -2.4847 0.9316
-16.8206 -4.9434 -2.4841 0.9316
-16.7138 -5.2791 -2.4835 0.9316
-16.3539 -6.2717 -2.4817 0.9317
-16.2209 -6.5974 -2.4812 0.9317
-15.9356 -7.2404 -2.4800 0.9317
-15.7835 -7.5573 -2.4795 0.9317
-15.4605 -8.1817 -2.4784 0.9318
-15.1131 -8.7924 -2.4774 0.9318
-14.1416 -10.2537 -2.4750 0.9319
-13.9303 -10.5338 -2.4746 0.9319
-13.7135 -10.8096 -2.4741 0.9319
-12.9995 -11.5821 -2.4669 0.9321
-12.5148 -11.6094 -2.4187 0.9334
-11.3157 -11.8428 -2.3208 0.9360
-11.0740 -12.0660 -2.3205 0.9360
-10.0647 -12.9095 -2.3193 0.9360
-9.8022 -13.1075 -2.3191 0.9360
-9.5359 -13.3004 -2.3188 0.9360
-9.2658 -13.4878 -2.3186 0.9360
-8.7150 -13.8465 -2.3182 0.9360
-8.4343 -14.0176 -2.3180 0.9360
-7.7888 -13.5538 -2.2149 0.9388
-6.4011 -13.5539 -2.1238 0.9412
-5.1152 -13.5540 -2.0527 0.9432
-4.8064 -13.5540 -2.0376 0.9436
-4.5020 -13.5541 -2.0236 0.9439
-4.2017 -13.5541 -2.0106 0.9443
-3.6119 -13.5542 -1.9875 0.9449
-3.3218 -13.5542 -1.9773 0.9452
-3.0345 -13.5543 -1.9680 0.9454
-2.7498 -13.5543 -1.9596 0.9457
-2.4674 -13.5544 -1.9521 0.9459
-1.9086 -13.5545 -1.9395 0.9462
-1.0816 -13.5546 -1.9266 0.9465
-0.5350 -13.5547 -1.9221 0.9467
0.0099 -13.5548 -1.9206 0.9467
0.5548 -13.5550 -1.9222 0.9467
0.8278 -13.5550 -1.9242 0.9466
1.1606 -11.4318 -1.6281 0.9546
1.6545 -13.5768 -1.9379 0.9462
2.5214 -13.7369 -1.9789 0.9451
2.8190 -13.7918 -1.9945 0.9447
3.1214 -13.8477 -2.0113 0.9443
3.4291 -13.9045 -2.0291 0.9438
3.7425 -13.9623 -2.0481 0.9433
4.3877 -14.0815 -2.0898 0.9422
4.7206 -14.1430 -2.1126 0.9415
5.4093 -14.2702 -2.1623 0.9402
6.5084 -14.4732 -2.2485 0.9379
6.8950 -14.5446 -2.2806 0.9370
7.2931 -14.6181 -2.3147 0.9361
7.9094 -14.3771 -2.3250 0.9359
8.1981 -14.2180 -2.3254 0.9358
8.4838 -14.0532 -2.3259 0.9358
9.5923 -13.3379 -2.3278 0.9358
11.1795 -12.6459 -2.3916 0.9341
12.1057 -12.6326 -2.4791 0.9318
13.1128 -11.6487 -2.4852 0.9316
13.3475 -11.3858 -2.4858 0.9316
13.8011 -10.8460 -2.4871 0.9315
14.0198 -10.5694 -2.4877 0.9315
14.4406 -10.0030 -2.4890 0.9315
15.2133 -8.8210 -2.4917 0.9314
15.3916 -8.5160 -2.4924 0.9314
15.5638 -8.2073 -2.4931 0.9314
15.7299 -7.8952 -2.4937 0.9314
15.8897 -7.5797 -2.4944 0.9313
16.3311 -6.6145 -2.4965 0.9313
16.5929 -5.9565 -2.4979 0.9313
16.9360 -4.9505 -2.5001 0.9312
17.0368 -4.6106 -2.5008 0.9312
17.1309 -4.2687 -2.5015 0.9312
17.2181 -3.9249 -2.5022 0.9311
17.2984 -3.5792 -2.5029 0.9311
17.4381 -2.8831 -2.5043 0.9311
17.4975 -2.5330 -2.5050 0.9311
17.5950 -1.8292 -2.5065 0.9310
17.6643 -1.1216 -2.5079 0.9310
17.7050 -0.4114 -2.5093 0.9310
17.7123 0.6562 -2.5114 0.9309
17.6814 1.3679 -2.5127 0.9309
17.6551 1.7233 -2.5134 0.9308
17.4784 3.1382 -2.5161 0.9308
17.3473 3.8397 -2.5174 0.9307
17.0975 4.8812 -2.5193 0.9307
16.9683 5.2152 -2.5152 0.9308
15.6514 5.8636 -2.3682 0.9347
15.5341 6.1783 -2.3687 0.9347
15.4105 6.4906 -2.3693 0.9347
15.0017 7.4120 -2.3709 0.9346
14.8531 7.7135 -2.3714 0.9346
14.6983 8.0121 -2.3719 0.9346
14.5375 8.3074 -2.3724 0.9346
14.3706 8.5996 -2.3729 0.9346
14.1978 8.8883 -2.3734 0.9346
13.6447 9.7330 -2.3748 0.9345
13.4489 10.0070 -2.3752 0.9345
12.8286 10.8046 -2.3765 0.9345
8.7401 7.6665 -1.6473 0.9541
12.3884 11.3149 -2.3773 0.9345
12.1605 11.5633 -2.3776 0.9345
11.6898 12.0460 -2.3783 0.9344
11.1997 12.5094 -2.3790 0.9344
9.4787 13.0066 -2.2804 0.9370
6.0760 9.4897 -1.5966 0.9555
7.4138 13.2779 -2.1547 0.9404
7.1444 13.4219 -2.1544 0.9404
5.8758 13.5638 -2.0944 0.9420
5.6228 13.7296 -2.1022 0.9418
5.0098 13.7874 -2.0785 0.9425
4.3645 13.7030 -2.0377 0.9436
4.1057 13.8462 -2.0463 0.9433
1.7867 13.9318 -1.9902 0.9448
1.5050 13.9509 -1.9882 0.9449
1.2395 14.1501 -2.0126 0.9442
0.6687 14.1568 -2.0081 0.9444
-0.1839 14.0670 -1.9933 0.9448
-0.4680 14.1083 -2.0001 0.9446
-0.7506 14.0842 -1.9984 0.9446
-1.0317 14.0430 -1.9951 0.9447
-1.3215 14.1034 -2.0071 0.9444
-1.8757 13.9561 -1.9952 0.9447
-2.1775 14.0565 -2.0154 0.9442
-3.0541 14.0559 -2.0380 0.9435
-3.6533 14.0646 -2.0589 0.9430
-3.9481 14.0348 -2.0658 0.9428
-4.8741 14.0243 -2.1037 0.9418
-5.2251 14.1134 -2.1324 0.9410
-5.8630 14.0726 -2.1601 0.9403
-6.9226 14.1488 -2.2318 0.9383
-7.2391 14.0726 -2.2423 0.9381
-8.3641 14.1009 -2.3230 0.9359
-9.9367 13.4630 -2.3709 0.9346
-10.2028 13.2578 -2.3703 0.9346
-10.4647 13.0472 -2.3698 0.9347
-10.7222 12.8314 -2.3693 0.9347
-10.9753 12.6105 -2.3687 0.9347
-11.2237 12.3846 -2.3682 0.9347
-11.4675 12.1537 -2.3676 0.9347
-11.7065 11.9180 -2.3670 0.9347
-14.6469 -3.6724 -2.4876 0.9406
-14.5670 -3.9651 -2.4871 0.9406
-14.4814 -4.2560 -2.4865 0.9406
-14.2928 -4.8322 -2.4855 0.9407
-14.0814 -5.4002 -2.4845 0.9407
-13.9673 -5.6809 -2.4840 0.9407
-13.8477 -5.9591 -2.4835 0.9407
-13.7225 -6.2349 -2.4830 0.9407
-13.5920 -6.5080 -2.4826 0.9407
-13.3147 -7.0461 -2.4817 0.9408
-13.1681 -7.3108 -2.4812 0.9408
-12.6972 -8.0864 -2.4799 0.9408
-12.3581 -8.5871 -2.4791 0.9408
-12.1811 -8.8322 -2.4787 0.9408
-11.9994 -9.0737 -2.4783 0.9408
-11.6218 -9.5455 -2.4776 0.9409
-11.2258 -10.0017 -2.4769 0.9409
-11.0211 -10.2238 -2.4765 0.9409
-10.3814 -10.8649 -2.4756 0.9409
-10.1451 -11.0539 -2.4717 0.9410
-9.1010 -11.2018 -2.3777 0.9432
-8.7116 -11.1740 -2.3341 0.9442
-8.2166 -11.4602 -2.3230 0.9444
-7.9840 -11.6219 -2.3228 0.9444
-7.7483 -11.7790 -2.3226 0.9444
-7.2678 -12.0788 -2.3223 0.9445
-7.0232 -12.2215 -2.3221 0.9445
-5.7607 -12.8606 -2.3215 0.9445
-5.5009 -12.9732 -2.3214 0.9445
-5.2390 -13.0806 -2.3213 0.9445
-4.9751 -13.1827 -2.3212 0.9445
-3.0347 -13.5549 -2.2883 0.9452
-2.7499 -13.5550 -2.2785 0.9455
-2.4675 -13.5550 -2.2697 0.9457
-2.1872 -13.5550 -2.2619 0.9459
-1.9087 -13.5551 -2.2551 0.9460
-1.6318 -13.5551 -2.2492 0.9462
-0.2624 -13.5554 -2.2335 0.9465
0.0099 -13.5555 -2.2331 0.9465
0.8279 -13.5556 -2.2373 0.9464
0.9283 -11.4240 -1.8882 0.9546
1.1595 -11.4212 -1.8912 0.9545
2.2285 -13.6834 -2.2839 0.9453
2.5215 -13.7375 -2.3009 0.9450
3.3781 -13.6978 -2.3242 0.9444
3.6530 -13.6287 -2.3244 0.9444
3.9265 -13.5542 -2.3247 0.9444
4.1985 -13.4742 -2.3250 0.9444
4.7376 -13.2981 -2.3256 0.9444
5.5322 -12.9941 -2.3266 0.9444
6.0515 -12.7652 -2.3273 0.9443
6.3077 -12.6430 -2.3276 0.9443
6.8126 -12.3834 -2.3284 0.9443
7.0611 -12.2461 -2.3287 0.9443
7.3069 -12.1038 -2.3291 0.9443
7.5499 -11.9567 -2.3295 0.9443
7.8872 -11.9521 -2.3591 0.9436
8.6919 -12.0858 -2.4524 0.9414
9.0220 -12.0276 -2.4769 0.9409
9.2769 -11.8633 -2.4809 0.9408
9.5228 -11.6861 -2.4834 0.9407
10.4384 -10.8927 -2.4854 0.9407
10.6573 -10.6830 -2.4859 0.9407
10.8720 -10.4690 -2.4864 0.9406
11.4902 -9.8014 -2.4880 0.9406
11.8798 -9.3361 -2.4891 0.9406
12.0677 -9.0976 -2.4897 0.9406
12.2507 -8.8554 -2.4902 0.9406
12.9338 -7.8507 -2.4925 0.9405
13.2449 -7.3283 -2.4937 0.9405
13.3926 -7.0624 -2.4943 0.9405
13.6720 -6.5219 -2.4954 0.9404
13.9296 -5.9703 -2.4966 0.9404
14.0501 -5.6907 -2.4972 0.9404
14.3778 -4.8376 -2.4991 0.9404
14.5677 -4.2583 -2.5003 0.9403
14.6538 -3.9657 -2.5009 0.9403
14.8770 -3.0782 -2.5027 0.9403
15.0464 -2.1782 -2.5046 0.9402
15.1292 -1.5728 -2.5058 0.9402
15.1875 -0.9643 -2.5070 0.9402
15.2075 -0.6592 -2.5076 0.9402
15.2213 -0.3537 -2.5082 0.9401
15.2305 0.2581 -2.5094 0.9401
15.2259 0.5641 -2.5100 0.9401
15.1456 1.7861 -2.5124 0.9400
15.0685 2.3942 -2.5135 0.9400
15.0208 2.6969 -2.5141 0.9400
14.6067 4.4894 -2.5174 0.9399
14.5166 4.7829 -2.5179 0.9399
14.3187 5.3643 -2.5190 0.9399
14.2070 5.6504 -2.5188 0.9399
12.9054 6.3762 -2.3714 0.9433
12.7581 6.6256 -2.3683 0.9434
12.4862 7.1353 -2.3691 0.9434
12.3426 7.3859 -2.3696 0.9434
12.1938 7.6337 -2.3700 0.9433
12.0401 7.8785 -2.3704 0.9433
11.5494 8.5936 -2.3715 0.9433
11.3762 8.8252 -2.3719 0.9433
11.0159 9.2778 -2.3726 0.9433
8.6495 7.5870 -1.8954 0.9544
10.6373 9.7155 -2.3733 0.9433
10.4414 9.9286 -2.3736 0.9433
10.2413 10.1377 -2.3739 0.9433
9.8283 10.5435 -2.3745 0.9432
6.8105 9.7509 -1.9594 0.9529
6.0740 9.4866 -1.8557 0.9554
5.9647 9.7414 -1.8817 0.9547
7.0349 12.5993 -2.3772 0.9432
5.4706 13.3579 -2.3780 0.9432
5.2014 13.4656 -2.3780 0.9432
4.9300 13.5677 -2.3781 0.9432
4.6566 13.6644 -2.3782 0.9432
4.3812 13.7554 -2.3782 0.9432
3.8256 13.9218 -2.3785 0.9432
3.2369 13.9505 -2.3592 0.9436
2.1064 14.1636 -2.3590 0.9436
1.8185 14.1798 -2.3551 0.9437
1.2383 14.1370 -2.3378 0.9441
0.3846 14.1838 -2.3375 0.9441
0.0999 14.2391 -2.3458 0.9439
-0.1866 14.2795 -2.3526 0.9438
-0.7543 14.1516 -2.3346 0.9442
-2.1992 14.1962 -2.3666 0.9434
-2.7781 14.1496 -2.3755 0.9432
-3.0615 14.0901 -2.3754 0.9432
-3.3436 14.0242 -2.3751 0.9432
-3.6242 13.9526 -2.3748 0.9432
-4.1807 13.7924 -2.3742 0.9432
-4.4563 13.7039 -2.3739 0.9433
-5.0018 13.5102 -2.3733 0.9433
-5.5389 13.2946 -2.3726 0.9433
-5.8040 13.1787 -2.3723 0.9433
-6.0666 13.0575 -2.3719 0.9433
-6.5841 12.7993 -2.3712 0.9433
-7.0906 12.5203 -2.3704 0.9433
-7.3394 12.3733 -2.3700 0.9433
-8.5354 11.5645 -2.3678 0.9434
-8.9895 11.2080 -2.3669 0.9434
-9.2110 11.0230 -2.3665 0.9434
-9.4287 10.8335 -2.3660 0.9434
-10.2594 10.0335 -2.3640 0.9435
-12.7766 -3.4777 -2.4889 0.9475
-12.6219 -3.9866 -2.4879 0.9476
-12.5370 -4.2386 -2.4875 0.9476
-12.4471 -4.4888 -2.4871 0.9476
-12.3522 -4.7371 -2.4866 0.9476
-11.9240 -5.7094 -2.4849 0.9476
-11.8050 -5.9468 -2.4845 0.9476
-11.6813 -6.1817 -2.4841 0.9476
-11.5529 -6.4141 -2.4837 0.9476
-10.9941 -7.3163 -2.4822 0.9477
-10.8434 -7.5346 -2.4819 0.9477
-10.5291 -7.9619 -2.4812 0.9477
-10.3657 -8.1707 -2.4809 0.9477
-10.1981 -8.3762 -2.4805 0.9477
-9.8510 -8.7768 -2.4799 0.9477
-9.4883 -9.1633 -2.4793 0.9477
-9.1106 -9.5349 -2.4788 0.9477
-8.9162 -9.7150 -2.4785 0.9477
-8.7184 -9.8911 -2.4783 0.9478
-8.5172 -10.0633 -2.4780 0.9478
-8.1046 -10.3954 -2.4776 0.9478
-7.8935 -10.5552 -2.4774 0.9478
-7.4497 -10.8442 -2.4729 0.9479
-6.9391 -11.0249 -2.4485 0.9484
-6.6257 -11.0117 -2.4156 0.9490
-6.0280 -10.9952 -2.3569 0.9502
-5.7409 -10.9897 -2.3305 0.9508
-5.5062 -11.0770 -2.3251 0.9509
-4.5986 -11.4814 -2.3247 0.9509
-4.1335 -11.6563 -2.3246 0.9509
-3.8984 -11.7367 -2.3246 0.9509
-3.4237 -11.8835 -2.3245 0.9509
-3.1843 -11.9498 -2.3245 0.9509
-2.7018 -12.0681 -2.3245 0.9509
-1.9701 -12.2092 -2.3245 0.9509
-1.4781 -12.2790 -2.3246 0.9509
-1.2312 -12.3066 -2.3247 0.9509
-0.9838 -12.3292 -2.3248 0.9509
-0.4878 -12.3597 -2.3250 0.9509
-0.2394 -12.3676 -2.3251 0.9509
1.7435 -12.2526 -2.3262 0.9509
1.9895 -12.2161 -2.3264 0.9509
2.2347 -12.1747 -2.3266 0.9509
2.4790 -12.1285 -2.3268 0.9509
2.7224 -12.0773 -2.3270 0.9509
2.9647 -12.0213 -2.3272 0.9509
3.2059 -11.9606 -2.3275 0.9509
4.1574 -11.6697 -2.3285 0.9508
4.3915 -11.5853 -2.3288 0.9508
4.8875 -11.4797 -2.3452 0.9505
6.0969 -11.6298 -2.4681 0.9480
6.3511 -11.5445 -2.4766 0.9478
6.5895 -11.4282 -2.4796 0.9477
6.8261 -11.3073 -2.4826 0.9477
7.4991 -10.8819 -2.4840 0.9476
7.7174 -10.7308 -2.4844 0.9476
7.9327 -10.5754 -2.4848 0.9476
8.1448 -10.4156 -2.4852 0.9476
8.5595 -10.0835 -2.4861 0.9476
8.7619 -9.9112 -2.4865 0.9476
8.9608 -9.7350 -2.4869 0.9476
9.1562 -9.5547 -2.4874 0.9476
9.3479 -9.3705 -2.4878 0.9476
9.5360 -9.1825 -2.4883 0.9475
9.9009 -8.7954 -2.4892 0.9475
10.8993 -7.5499 -2.4921 0.9475
11.8669 -5.9562 -2.4957 0.9474
11.9866 -5.7179 -2.4962 0.9474
12.1016 -5.4771 -2.4967 0.9474
12.2118 -5.2340 -2.4973 0.9474
12.3170 -4.9887 -2.4978 0.9474
12.4174 -4.7413 -2.4983 0.9473
12.5128 -4.4918 -2.4989 0.9473
12.6032 -4.2405 -2.4994 0.9473
12.6885 -3.9873 -2.4999 0.9473
12.7688 -3.7324 -2.5005 0.9473
12.8440 -3.4759 -2.5010 0.9473
12.9788 -2.9585 -2.5021 0.9473
13.1857 -1.9088 -2.5042 0.9472
13.2242 -1.6439 -2.5048 0.9472
13.2573 -1.3782 -2.5053 0.9472
13.3077 -0.8450 -2.5064 0.9472
13.3248 -0.5776 -2.5069 0.9472
13.3438 0.2262 -2.5085 0.9471
13.3294 0.7622 -2.5095 0.9471
13.2935 1.2975 -2.5105 0.9471
13.1992 2.0971 -2.5120 0.9471
13.1570 2.3623 -2.5125 0.9470
13.0566 2.8900 -2.5135 0.9470
12.9984 3.1523 -2.5140 0.9470
12.7922 3.9317 -2.5154 0.9470
12.7130 4.1887 -2.5159 0.9470
12.5390 4.6976 -2.5168 0.9470
12.4443 4.9494 -2.5173 0.9470
12.3445 5.1993 -2.5177 0.9469
12.2397 5.4471 -2.5181 0.9469
12.0151 5.9364 -2.5190 0.9469
11.8888 6.1741 -2.5180 0.9469
11.5658 6.6093 -2.5038 0.9472
11.1813 6.6910 -2.4492 0.9483
10.8129 6.7692 -2.3978 0.9494
10.2583 7.3174 -2.3684 0.9500
10.1107 7.5231 -2.3688 0.9500
9.8030 7.9253 -2.3694 0.9500
8.6371 7.5761 -2.1595 0.9543
9.1398 8.6909 -2.3706 0.9500
8.7853 9.0530 -2.3711 0.9500
8.4164 9.4006 -2.3716 0.9499
7.3531 8.5526 -2.1200 0.9551
7.1121 8.6166 -2.1000 0.9555
6.6066 8.6931 -2.0523 0.9565
6.3622 8.7301 -2.0304 0.9570
6.1228 8.7664 -2.0098 0.9574
5.8881 8.8019 -1.9905 0.9578
5.6579 8.8367 -1.9722 0.9582
5.4214 8.8542 -1.9514 0.9586
5.2093 8.9046 -1.9391 0.9589
5.1476 9.2193 -1.9847 0.9579
5.2429 9.8497 -2.0973 0.9556
5.3407 10.5385 -2.2207 0.9531
5.3100 11.0215 -2.2995 0.9514
5.0212 11.5910 -2.3743 0.9499
4.7875 11.6900 -2.3744 0.9499
4.5519 11.7841 -2.3745 0.9499
4.3144 11.8735 -2.3745 0.9499
3.3476 12.1823 -2.3747 0.9499
3.1022 12.2471 -2.3747 0.9499
2.3589 12.4116 -2.3746 0.9499
1.8584 12.4959 -2.3746 0.9499
1.6070 12.5304 -2.3745 0.9499
1.1023 12.5842 -2.3744 0.9499
0.8493 12.6033 -2.3743 0.9499
0.5959 12.6173 -2.3742 0.9499
-0.4187 12.6220 -2.3737 0.9499
-1.1779 12.5714 -2.3733 0.9499
-1.4301 12.5443 -2.3731 0.9499
-1.9325 12.4748 -2.3727 0.9499
-2.6796 12.3325 -2.3721 0.9499
-3.1722 12.2124 -2.3716 0.9499
-4.3784 11.8262 -2.3703 0.9500
-4.6145 11.7344 -2.3700 0.9500
-5.5386 11.3202 -2.3688 0.9500
-5.7640 11.2051 -2.3684 0.9500
-5.9871 11.0855 -2.3681 0.9500
-6.2077 10.9613 -2.3678 0.9500
-6.4256 10.8328 -2.3674 0.9500
-6.6410 10.6999 -2.3670 0.9500
-6.8535 10.5627 -2.3667 0.9500
-7.2699 10.2756 -2.3659 0.9501
-7.4736 10.1258 -2.3655 0.9501
-7.6742 9.9720 -2.3651 0.9501
-7.8716 9.8142 -2.3647 0.9501
-8.0658 9.6524 -2.3643 0.9501
-8.6279 9.1442 -2.3631 0.9501
-11.2303 -3.5471 -2.4895 0.9530
-11.1550 -3.7714 -2.4891 0.9530
-10.9910 -4.2150 -2.4883 0.9530
-10.9025 -4.4343 -2.4879 0.9530
-10.2811 -5.7080 -2.4857 0.9531
-10.1630 -5.9126 -2.4854 0.9531
-10.0408 -6.1147 -2.4850 0.9531
-9.7845 -6.5114 -2.4844 0.9531
-9.5127 -6.8974 -2.4837 0.9531
-9.3711 -7.0862 -2.4834 0.9531
-9.2257 -7.2722 -2.4831 0.9531
-8.9242 -7.6351 -2.4826 0.9531
-8.6084 -7.9857 -2.4820 0.9531
-8.2791 -8.3233 -2.4815 0.9531
-8.1094 -8.4871 -2.4813 0.9531
-7.9366 -8.6475 -2.4811 0.9531
-7.5815 -8.9578 -2.4806 0.9532
-7.3994 -9.1075 -2.4804 0.9532
-6.6425 -9.6691 -2.4797 0.9532
-6.4465 -9.8000 -2.4795 0.9532
-6.2480 -9.9269 -2.4794 0.9532
-6.0469 -10.0498 -2.4792 0.9532
-5.2195 -10.5002 -2.4786 0.9532
-5.0039 -10.5953 -2.4768 0.9532
-4.7867 -10.6863 -2.4751 0.9533
-3.8726 -10.9207 -2.4493 0.9537
-3.3864 -10.9241 -2.4175 0.9543
-3.1478 -10.9256 -2.4034 0.9546
-2.6796 -10.9341 -2.3796 0.9550
-1.7676 -10.9547 -2.3456 0.9556
-1.3207 -10.9712 -2.3358 0.9558
-1.0986 -10.9808 -2.3327 0.9559
-0.6556 -10.9996 -2.3292 0.9559
0.4523 -11.0504 -2.3378 0.9558
0.6757 -11.0646 -2.3432 0.9557
1.1263 -11.0939 -2.3571 0.9554
1.5828 -11.1228 -2.3748 0.9551
2.0482 -11.1589 -2.3982 0.9547
2.2846 -11.1777 -2.4116 0.9544
2.5238 -11.1964 -2.4261 0.9542
2.7659 -11.2152 -2.4417 0.9539
3.7107 -11.1172 -2.4774 0.9532
3.9361 -11.0485 -2.4792 0.9532
4.1605 -10.9758 -2.4811 0.9531
4.3826 -10.8960 -2.4825 0.9531
5.4563 -10.4077 -2.4840 0.9531
5.6650 -10.2973 -2.4843 0.9531
6.0756 -10.0641 -2.4849 0.9531
6.2774 -9.9414 -2.4853 0.9531
6.8676 -9.5493 -2.4863 0.9530
7.2477 -9.2684 -2.4870 0.9530
7.4336 -9.1223 -2.4874 0.9530
7.9732 -8.6621 -2.4886 0.9530
8.4846 -8.1701 -2.4898 0.9530
9.4150 -7.0978 -2.4923 0.9529
9.8306 -6.5213 -2.4936 0.9529
10.2110 -5.9206 -2.4950 0.9529
10.7632 -4.8713 -2.4973 0.9528
10.9543 -4.4368 -2.4982 0.9528
11.3547 -3.3191 -2.5006 0.9528
11.5406 -2.6307 -2.5020 0.9528
11.6848 -1.9319 -2.5035 0.9527
11.7235 -1.6971 -2.5039 0.9527
11.7575 -1.4616 -2.5044 0.9527
11.8111 -0.9885 -2.5054 0.9527
11.8308 -0.7512 -2.5058 0.9527
11.8458 -0.5135 -2.5063 0.9527
11.8613 -0.0373 -2.5072 0.9527
11.8618 0.2010 -2.5077 0.9527
11.8576 0.4393 -2.5082 0.9526
11.7644 1.6276 -2.5104 0.9526
11.7315 1.8639 -2.5109 0.9526
11.6937 2.0996 -2.5113 0.9526
11.6040 2.5685 -2.5122 0.9526
11.5520 2.8015 -2.5126 0.9526
11.4953 3.0335 -2.5131 0.9526
11.3680 3.4940 -2.5139 0.9525
11.2222 3.9490 -2.5147 0.9525
11.1423 4.1743 -2.5151 0.9525
11.0580 4.3980 -2.5155 0.9525
10.9691 4.6200 -2.5159 0.9525
10.7780 5.0584 -2.5167 0.9525
10.6758 5.2746 -2.5171 0.9525
10.5692 5.4888 -2.5174 0.9525
10.4583 5.7009 -2.5178 0.9525
10.3432 5.9106 -2.5181 0.9525
10.2237 6.1180 -2.5185 0.9525
10.1002 6.3230 -2.5188 0.9524
9.9666 6.5217 -2.5177 0.9525
9.3961 6.9914 -2.4756 0.9532
9.0862 7.0487 -2.4308 0.9541
8.5665 7.2149 -2.3674 0.9552
7.9631 7.8826 -2.3685 0.9552
7.8040 8.0418 -2.3687 0.9552
7.6416 8.1977 -2.3689 0.9552
7.4761 8.3503 -2.3691 0.9552
7.2899 8.4791 -2.3637 0.9553
7.0310 8.5183 -2.3347 0.9558
6.5313 8.5940 -2.2817 0.9568
6.2896 8.6306 -2.2574 0.9573
6.0530 8.6664 -2.2345 0.9577
5.8326 8.7188 -2.2174 0.9580
5.6567 8.8348 -2.2175 0.9580
5.0891 9.5608 -2.2894 0.9567
4.6654 10.2027 -2.3714 0.9552
4.4596 10.2947 -2.3715 0.9552
4.2521 10.3825 -2.3716 0.9552
4.0428 10.4661 -2.3716 0.9552
3.8318 10.5455 -2.3717 0.9552
3.6193 10.6205 -2.3717 0.9552
3.4053 10.6913 -2.3718 0.9552
3.1898 10.7576 -2.3718 0.9552
2.9731 10.8196 -2.3718 0.9552
2.5362 10.9304 -2.3718 0.9552
2.3161 10.9791 -2.3718 0.9552
2.0951 11.0233 -2.3718 0.9552
1.8732 11.0630 -2.3718 0.9552
1.6505 11.0982 -2.3717 0.9552
1.2034 11.1551 -2.3716 0.9552
0.5293 11.2063 -2.3714 0.9552
0.0787 11.2176 -2.3712 0.9552
-0.1466 11.2164 -2.3711 0.9552
-0.3719 11.2106 -2.3710 0.9552
-0.8218 11.1854 -2.3707 0.9552
-1.2702 11.1420 -2.3704 0.9552
-1.4937 11.1135 -2.3703 0.9552
-1.7165 11.0804 -2.3701 0.9552
-2.1598 11.0008 -2.3698 0.9552
-2.8178 10.8480 -2.3691 0.9552
-3.2506 10.7240 -2.3687 0.9552
-3.4650 10.6555 -2.3685 0.9552
-3.8894 10.5055 -2.3680 0.9552
-4.3073 10.3386 -2.3674 0.9552
-4.5136 10.2488 -2.3672 0.9552
-4.7180 10.1548 -2.3669 0.9553
-4.9204 10.0568 -2.3666 0.9553
-6.0892 9.3848 -2.3647 0.9553
-6.2756 9.2593 -2.3644 0.9553
-6.4594 9.1300 -2.3641 0.9553
-6.6405 8.9971 -2.3637 0.9553
-7.3368 8.4299 -2.3623 0.9553
-7.6670 8.1259 -2.3615 0.9554
-7.8274 7.9689 -2.3612 0.9554
-8.0458 7.8686 -2.3788 0.9550
-10.2286 -2.7842 -2.4914 0.9574
-10.1056 -3.1918 -2.4907 0.9574
-10.0379 -3.3937 -2.4903 0.9574
-9.9663 -3.5941 -2.4900 0.9574
-9.8907 -3.7931 -2.4896 0.9574
-9.5491 -4.5722 -2.4883 0.9574
-9.4541 -4.7625 -2.4879 0.9574
-9.3553 -4.9508 -2.4876 0.9574
-9.2528 -5.1371 -2.4873 0.9574
-9.0368 -5.5032 -2.4867 0.9575
-8.9233 -5.6830 -2.4864 0.9575
-8.5619 -6.2080 -2.4855 0.9575
-8.4346 -6.3780 -2.4853 0.9575
-7.7486 -7.1880 -2.4840 0.9575
-7.1441 -7.7840 -2.4831 0.9575
-6.6607 -8.1983 -2.4826 0.9575
-6.4942 -8.3298 -2.4824 0.9575
-6.3252 -8.4580 -2.4822 0.9575
-5.9795 -8.7042 -2.4819 0.9575
-5.4435 -9.0470 -2.4815 0.9575
-5.2604 -9.1540 -2.4813 0.9575
-5.0753 -9.2575 -2.4812 0.9575
-4.8881 -9.3571 -2.4811 0.9575
-4.6990 -9.4531 -2.4810 0.9576
-4.3152 -9.6335 -2.4809 0.9576
-4.1207 -9.7180 -2.4808 0.9576
-3.9245 -9.7985 -2.4807 0.9576
-3.7268 -9.8752 -2.4807 0.9576
-2.7176 -10.1984 -2.4805 0.9576
-2.3058 -10.2994 -2.4805 0.9576
-2.0985 -10.3437 -2.4805 0.9576
-1.8903 -10.3838 -2.4805 0.9576
-1.6813 -10.4198 -2.4806 0.9576
-0.8395 -10.5213 -2.4806 0.9576
-0.4162 -10.5467 -2.4807 0.9576
-0.2043 -10.5536 -2.4808 0.9576
0.0077 -10.5566 -2.4810 0.9576
0.4318 -10.5489 -2.4813 0.9575
0.6436 -10.5387 -2.4814 0.9575
1.6976 -10.4240 -2.4822 0.9575
1.9068 -10.3885 -2.4823 0.9575
2.1152 -10.3488 -2.4825 0.9575
2.3229 -10.3051 -2.4827 0.9575
2.7354 -10.2050 -2.4831 0.9575
3.5469 -9.9560 -2.4840 0.9575
3.7466 -9.8837 -2.4842 0.9575
3.9447 -9.8074 -2.4844 0.9575
4.1413 -9.7272 -2.4847 0.9575
4.5297 -9.5550 -2.4852 0.9575
4.9109 -9.3674 -2.4857 0.9575
5.0986 -9.2679 -2.4860 0.9575
5.2844 -9.1647 -2.4863 0.9575
5.6496 -8.9472 -2.4869 0.9575
6.0059 -8.7152 -2.4875 0.9574
6.1806 -8.5939 -2.4879 0.9574
6.5225 -8.3409 -2.4885 0.9574
6.6896 -8.2094 -2.4889 0.9574
6.8541 -8.0744 -2.4892 0.9574
7.1749 -7.7948 -2.4899 0.9574
7.3311 -7.6502 -2.4902 0.9574
7.4844 -7.5024 -2.4906 0.9574
7.7820 -7.1979 -2.4913 0.9574
8.2051 -6.7192 -2.4925 0.9574
8.3397 -6.5540 -2.4929 0.9574
8.4710 -6.3862 -2.4933 0.9573
8.5989 -6.2157 -2.4936 0.9573
8.7235 -6.0427 -2.4940 0.9573
8.8445 -5.8672 -2.4944 0.9573
9.0760 -5.5090 -2.4952 0.9573
9.1863 -5.3264 -2.4957 0.9573
9.3959 -4.9548 -2.4965 0.9573
9.5906 -4.5749 -2.4973 0.9573
9.7699 -4.1874 -2.4982 0.9573
9.8537 -3.9910 -2.4986 0.9573
9.9335 -3.7929 -2.4990 0.9572
10.0094 -3.5932 -2.4994 0.9572
10.1492 -3.1893 -2.5003 0.9572
10.2726 -2.7800 -2.5011 0.9572
10.5735 -1.3144 -2.5041 0.9572
10.6389 -0.6755 -2.5054 0.9571
10.6657 -0.0335 -2.5067 0.9571
10.6410 0.8232 -2.5083 0.9571
10.6240 1.0370 -2.5088 0.9571
10.5133 1.8876 -2.5104 0.9571
10.4322 2.3091 -2.5111 0.9570
10.3853 2.5186 -2.5115 0.9570
10.2194 3.1410 -2.5127 0.9570
10.0160 3.7524 -2.5138 0.9570
9.9400 3.9534 -2.5141 0.9570
9.8600 4.1528 -2.5145 0.9570
9.5959 4.7411 -2.5155 0.9570
9.5000 4.9335 -2.5158 0.9570
9.4002 5.1240 -2.5162 0.9570
9.1891 5.4988 -2.5168 0.9570
9.0778 5.6830 -2.5171 0.9569
8.9629 5.8649 -2.5174 0.9569
8.3317 6.7358 -2.5180 0.9569
8.0412 7.0534 -2.5139 0.9570
7.6277 7.2531 -2.4738 0.9577
6.8734 7.3736 -2.3691 0.9594
6.5667 7.6379 -2.3673 0.9595
6.4124 7.7689 -2.3675 0.9595
6.0961 8.0214 -2.3678 0.9594
5.9341 8.1428 -2.3680 0.9594
5.6030 8.3756 -2.3683 0.9594
5.4339 8.4869 -2.3684 0.9594
5.2626 8.5948 -2.3686 0.9594
5.0892 8.6993 -2.3687 0.9594
4.7361 8.8975 -2.3689 0.9594
4.3752 9.0813 -2.3691 0.9594
3.4430 9.4755 -2.3694 0.9594
3.2521 9.5430 -2.3695 0.9594
2.2788 9.8213 -2.3695 0.9594
2.0811 9.8651 -2.3695 0.9594
1.8825 9.9048 -2.3695 0.9594
1.6831 9.9405 -2.3695 0.9594
1.4831 9.9722 -2.3695 0.9594
1.2824 9.9998 -2.3694 0.9594
1.0813 10.0233 -2.3694 0.9594
0.2732 10.0766 -2.3691 0.9594
0.0707 10.0797 -2.3690 0.9594
-0.5364 10.0643 -2.3687 0.9594
-1.1414 10.0121 -2.3683 0.9594
-1.3422 9.9865 -2.3682 0.9594
-1.9409 9.8855 -2.3677 0.9595
-2.7272 9.6948 -2.3669 0.9595
-3.3053 9.5104 -2.3663 0.9595
-3.6839 9.3681 -2.3658 0.9595
-3.8710 9.2913 -2.3656 0.9595
-4.2402 9.1264 -2.3651 0.9595
-4.6023 8.9467 -2.3646 0.9595
-5.1310 8.6503 -2.3638 0.9595
-5.3031 8.5444 -2.3635 0.9595
-5.4730 8.4351 -2.3632 0.9595
-5.6406 8.3224 -2.3629 0.9595
-5.8059 8.2064 -2.3626 0.9595
-5.9688 8.0870 -2.3623 0.9595
-6.1324 7.9686 -2.3632 0.9595
-6.3742 7.9472 -2.3943 0.9590
-6.8861 7.9121 -2.4651 0.9578
-7.1535 7.8934 -2.5036 0.9572
-7.4833 7.6185 -2.5098 0.9571
-9.2882 -2.5282 -2.4924 0.9610
-9.1767 -2.8984 -2.4917 0.9610
-8.8341 -3.8016 -2.4901 0.9610
-8.7549 -3.9778 -2.4898 0.9610
-8.6721 -4.1523 -2.4895 0.9611
-8.5860 -4.3252 -2.4892 0.9611
-8.2073 -4.9981 -2.4881 0.9611
-8.1044 -5.1614 -2.4878 0.9611
-7.9983 -5.3226 -2.4875 0.9611
-7.7764 -5.6385 -2.4870 0.9611
-7.4205 -6.0948 -2.4863 0.9611
-7.2959 -6.2421 -2.4861 0.9611
-6.6304 -6.9393 -2.4850 0.9611
-6.4892 -7.0705 -2.4848 0.9611
-6.3454 -7.1989 -2.4847 0.9611
-5.8991 -7.5665 -2.4841 0.9611
-5.7455 -7.6830 -2.4840 0.9611
-5.4317 -7.9067 -2.4837 0.9611
-5.1092 -8.1176 -2.4834 0.9611
-4.9449 -8.2182 -2.4833 0.9611
-4.4404 -8.5000 -2.4830 0.9611
-4.2686 -8.5872 -2.4829 0.9612
-4.0951 -8.6709 -2.4828 0.9612
-3.9200 -8.7512 -2.4828 0.9612
-3.7433 -8.8279 -2.4827 0.9612
-3.3855 -8.9708 -2.4826 0.9612
-3.2046 -9.0368 -2.4826 0.9612
-3.0224 -9.0992 -2.4825 0.9612
-2.8389 -9.1580 -2.4825 0.9612
-2.0946 -9.3562 -2.4825 0.9612
-1.9063 -9.3964 -2.4825 0.9612
-1.5274 -9.4656 -2.4825 0.9612
-1.3369 -9.4945 -2.4825 0.9612
-1.1459 -9.5196 -2.4826 0.9612
-0.9545 -9.5409 -2.4826 0.9612
-0.7627 -9.5583 -2.4827 0.9612
0.0070 -9.5899 -2.4830 0.9612
0.3922 -9.5826 -2.4832 0.9611
0.5847 -9.5732 -2.4833 0.9611
0.7769 -9.5600 -2.4834 0.9611
1.1604 -9.5221 -2.4837 0.9611
1.3515 -9.4974 -2.4838 0.9611
1.9214 -9.4004 -2.4843 0.9611
2.2978 -9.3170 -2.4846 0.9611
2.4846 -9.2696 -2.4848 0.9611
2.6705 -9.2185 -2.4850 0.9611
3.0391 -9.1053 -2.4854 0.9611
3.2217 -9.0431 -2.4856 0.9611
3.4030 -8.9774 -2.4858 0.9611
3.5830 -8.9080 -2.4860 0.9611
4.1142 -8.6785 -2.4867 0.9611
4.7994 -8.3236 -2.4877 0.9611
5.1310 -8.1259 -2.4883 0.9611
5.2938 -8.0221 -2.4886 0.9611
5.4545 -7.9150 -2.4888 0.9611
5.7694 -7.6914 -2.4894 0.9611
6.6573 -6.9471 -2.4913 0.9610
6.7964 -6.8129 -2.4916 0.9610
6.9329 -6.6758 -2.4920 0.9610
7.0665 -6.5361 -2.4923 0.9610
7.3254 -6.2487 -2.4930 0.9610
7.5725 -5.9511 -2.4937 0.9610
8.0304 -5.3271 -2.4951 0.9610
8.1370 -5.1655 -2.4955 0.9610
8.6204 -4.3268 -2.4973 0.9609
8.7069 -4.1534 -2.4977 0.9609
8.7899 -3.9782 -2.4981 0.9609
8.9453 -3.6231 -2.4989 0.9609
9.3248 -2.5235 -2.5012 0.9609
9.3750 -2.3361 -2.5016 0.9609
9.4215 -2.1476 -2.5020 0.9609
9.4643 -1.9582 -2.5024 0.9609
9.5032 -1.7680 -2.5028 0.9608
9.5695 -1.3853 -2.5035 0.9608
9.6400 -0.8068 -2.5047 0.9608
9.6755 -0.2248 -2.5058 0.9608
9.6796 -0.0304 -2.5062 0.9608
9.6797 0.1640 -2.5066 0.9608
9.6759 0.3585 -2.5070 0.9608
9.6682 0.5529 -2.5074 0.9608
9.6216 1.1347 -2.5085 0.9608
9.5711 1.5207 -2.5092 0.9607
9.5400 1.7129 -2.5096 0.9607
9.4661 2.0953 -2.5103 0.9607
9.4234 2.2853 -2.5106 0.9607
9.3266 2.6627 -2.5113 0.9607
9.2725 2.8499 -2.5117 0.9607
9.2146 3.0360 -2.5120 0.9607
9.1530 3.2209 -2.5123 0.9607
8.9458 3.7678 -2.5133 0.9607
8.6187 4.4759 -2.5145 0.9607
8.2354 5.1556 -2.5157 0.9606
7.7983 5.8025 -2.5167 0.9606
7.5604 6.1122 -2.5172 0.9606
7.4368 6.2634 -2.5174 0.9606
7.3101 6.4121 -2.5177 0.9606
7.1805 6.5583 -2.5179 0.9606
6.9124 6.8426 -2.5183 0.9606
6.7707 6.9771 -2.5173 0.9606
6.3258 7.3578 -2.5124 0.9607
5.9155 7.4675 -2.4666 0.9614
5.2749 7.5523 -2.3852 0.9627
5.0821 7.5970 -2.3665 0.9629
4.9287 7.6979 -2.3667 0.9629
4.7734 7.7958 -2.3668 0.9629
4.6160 7.8904 -2.3669 0.9629
4.2957 8.0702 -2.3671 0.9629
4.1329 8.1551 -2.3672 0.9629
3.9684 8.2368 -2.3673 0.9629
3.8022 8.3151 -2.3673 0.9629
3.6345 8.3900 -2.3674 0.9629
3.4654 8.4616 -2.3675 0.9629
2.5996 8.7671 -2.3676 0.9629
2.4230 8.8176 -2.3677 0.9629
2.2454 8.8645 -2.3677 0.9629
2.0669 8.9078 -2.3677 0.9629
1.8875 8.9475 -2.3677 0.9629
1.7074 8.9836 -2.3676 0.9629
1.3451 9.0447 -2.3676 0.9629
1.1632 9.0698 -2.3676 0.9629
-0.1195 9.1414 -2.3671 0.9629
-0.4865 9.1285 -2.3669 0.9629
-0.8527 9.1007 -2.3667 0.9629
-1.0353 9.0813 -2.3665 0.9629
-1.2174 9.0582 -2.3664 0.9629
-1.3991 9.0313 -2.3663 0.9629
-1.5801 9.0009 -2.3661 0.9629
-1.7605 8.9667 -2.3660 0.9629
-1.9401 8.9290 -2.3658 0.9629
-2.2969 8.8426 -2.3655 0.9630
-2.4738 8.7940 -2.3653 0.9630
-2.8246 8.6861 -2.3649 0.9630
-2.9983 8.6269 -2.3647 0.9630
-3.3418 8.4980 -2.3643 0.9630
-3.6798 8.3554 -2.3639 0.9630
-3.8465 8.2790 -2.3636 0.9630
-4.0116 8.1992 -2.3634 0.9630
-4.1751 8.1162 -2.3632 0.9630
-5.3950 7.9600 -2.4897 0.9610
-5.7548 7.7971 -2.5091 0.9607
-5.9139 7.6847 -2.5107 0.9607
-6.3718 7.3212 -2.5130 0.9607
-6.5168 7.1908 -2.5127 0.9607
-6.6590 7.0575 -2.5123 0.9607
-6.9353 6.7826 -2.5117 0.9607
-8.5435 -2.1421 -2.4935 0.9640
-8.4977 -2.3130 -2.4932 0.9641
-8.4485 -2.4830 -2.4929 0.9641
-8.3399 -2.8196 -2.4923 0.9641
-8.2180 -3.1516 -2.4917 0.9641
-8.0829 -3.4783 -2.4911 0.9641
-7.7742 -4.1141 -2.4900 0.9641
-7.6892 -4.2690 -2.4897 0.9641
-7.4158 -4.7229 -2.4890 0.9641
-7.2188 -5.0160 -2.4885 0.9641
-7.1159 -5.1595 -2.4883 0.9641
-7.0102 -5.3009 -2.4880 0.9641
-6.9016 -5.4402 -2.4878 0.9641
-6.7904 -5.5772 -2.4876 0.9641
-6.4406 -5.9746 -2.4870 0.9641
-6.3188 -6.1024 -2.4868 0.9641
-5.9385 -6.4704 -2.4863 0.9641
-5.8069 -6.5880 -2.4861 0.9642
-5.5369 -6.8151 -2.4858 0.9642
-5.2581 -7.0311 -2.4855 0.9642
-5.1155 -7.1349 -2.4854 0.9642
-4.9709 -7.2359 -2.4852 0.9642
-4.8243 -7.3339 -2.4851 0.9642
-4.6758 -7.4290 -2.4850 0.9642
-4.2193 -7.6962 -2.4847 0.9642
-3.9065 -7.8589 -2.4845 0.9642
-3.4258 -8.0793 -2.4843 0.9642
-2.9328 -8.2705 -2.4842 0.9642
-2.7661 -8.3277 -2.4841 0.9642
-1.9170 -8.5628 -2.4841 0.9642
-1.7446 -8.5996 -2.4841 0.9642
-1.5716 -8.6330 -2.4841 0.9642
-1.0488 -8.7123 -2.4842 0.9642
-0.8736 -8.7318 -2.4843 0.9642
-0.6980 -8.7478 -2.4843 0.9642
-0.3461 -8.7692 -2.4844 0.9642
-0.1699 -8.7746 -2.4845 0.9642
0.1827 -8.7750 -2.4847 0.9642
0.3590 -8.7698 -2.4848 0.9642
0.7110 -8.7491 -2.4850 0.9642
1.0619 -8.7143 -2.4852 0.9642
1.2368 -8.6916 -2.4853 0.9642
1.4112 -8.6655 -2.4855 0.9642
1.5851 -8.6359 -2.4856 0.9642
1.7584 -8.6028 -2.4857 0.9642
1.9310 -8.5663 -2.4859 0.9642
2.1028 -8.5263 -2.4861 0.9642
2.4439 -8.4361 -2.4864 0.9641
2.7811 -8.3324 -2.4868 0.9641
3.1141 -8.2152 -2.4871 0.9641
3.4421 -8.0848 -2.4876 0.9641
3.6041 -8.0147 -2.4878 0.9641
3.7647 -7.9414 -2.4880 0.9641
3.9239 -7.8649 -2.4882 0.9641
4.0814 -7.7852 -2.4884 0.9641
4.6555 -7.3728 -2.4685 0.9644
4.9909 -7.2423 -2.4899 0.9641
5.1359 -7.1413 -2.4902 0.9641
5.2789 -7.0375 -2.4905 0.9641
5.4198 -6.9308 -2.4907 0.9641
5.5586 -6.8213 -2.4910 0.9641
6.3429 -6.1078 -2.4928 0.9641
6.4651 -5.9799 -2.4931 0.9641
6.5848 -5.8495 -2.4934 0.9640
6.7018 -5.7168 -2.4937 0.9640
6.8161 -5.5817 -2.4940 0.9640
6.9278 -5.4444 -2.4944 0.9640
7.1427 -5.1631 -2.4950 0.9640
7.3463 -4.8733 -2.4957 0.9640
7.4437 -4.7254 -2.4960 0.9640
7.5381 -4.5755 -2.4963 0.9640
7.7179 -4.2702 -2.4970 0.9640
7.8032 -4.1149 -2.4974 0.9640
7.8854 -3.9579 -2.4977 0.9640
7.9644 -3.7992 -2.4981 0.9640
8.1129 -3.4772 -2.4988 0.9640
8.1822 -3.3140 -2.4991 0.9640
8.2483 -3.1494 -2.4995 0.9640
8.3111 -2.9835 -2.4998 0.9640
8.3705 -2.8163 -2.5002 0.9640
8.4793 -2.4786 -2.5009 0.9639
8.5286 -2.3081 -2.5012 0.9639
8.5745 -2.1366 -2.5016 0.9639
8.6169 -1.9642 -2.5020 0.9639
8.6558 -1.7910 -2.5023 0.9639
8.6913 -1.6170 -2.5027 0.9639
8.7980 -0.9146 -2.5041 0.9639
8.8302 -0.5607 -2.5048 0.9639
8.8480 0.3278 -2.5065 0.9639
8.8301 0.6831 -2.5072 0.9639
8.8158 0.8605 -2.5076 0.9638
8.7765 1.2142 -2.5082 0.9638
8.7229 1.5662 -2.5089 0.9638
8.6552 1.9158 -2.5095 0.9638
8.6161 2.0895 -2.5099 0.9638
8.5735 2.2625 -2.5102 0.9638
8.5274 2.4345 -2.5105 0.9638
8.4778 2.6057 -2.5108 0.9638
8.4248 2.7758 -2.5111 0.9638
8.3683 2.9448 -2.5114 0.9638
8.2452 3.2793 -2.5120 0.9638
8.1786 3.4447 -2.5123 0.9638
7.9590 3.9324 -2.5131 0.9638
7.8793 4.0919 -2.5134 0.9638
7.6209 4.5605 -2.5142 0.9638
7.5285 4.7131 -2.5145 0.9637
7.3346 5.0127 -2.5150 0.9637
7.2331 5.1595 -2.5152 0.9637
7.1287 5.3042 -2.5154 0.9637
6.7981 5.7255 -2.5161 0.9637
6.5637 5.9949 -2.5165 0.9637
6.3186 6.2547 -2.5169 0.9637
6.1921 6.3808 -2.5171 0.9637
5.7978 6.7436 -2.5176 0.9637
5.6615 6.8591 -2.5178 0.9637
5.5229 6.9719 -2.5179 0.9637
5.2354 7.1839 -2.5165 0.9637
5.0874 7.2839 -2.5152 0.9637
4.7861 7.4751 -2.5127 0.9638
4.2641 7.6369 -2.4761 0.9643
3.8909 7.6777 -2.4367 0.9649
3.7085 7.6974 -2.4188 0.9651
2.6959 7.9110 -2.3660 0.9659
2.5365 7.9637 -2.3660 0.9659
2.2146 8.0592 -2.3661 0.9659
1.8891 8.1417 -2.3661 0.9659
1.7252 8.1780 -2.3661 0.9659
1.3953 8.2406 -2.3660 0.9659
0.8964 8.3093 -2.3659 0.9659
0.7293 8.3254 -2.3659 0.9659
0.3942 8.3476 -2.3658 0.9659
0.2265 8.3536 -2.3657 0.9659
-0.1092 8.3554 -2.3656 0.9659
-0.2770 8.3512 -2.3655 0.9659
-1.1128 8.2795 -2.3649 0.9659
-1.4443 8.2272 -2.3647 0.9659
-1.6092 8.1961 -2.3645 0.9659
-1.9368 8.1238 -2.3642 0.9659
-2.2613 8.0383 -2.3639 0.9659
-2.4272 8.0077 -2.3688 0.9658
-2.6032 8.0053 -2.3830 0.9656
-3.1457 7.9994 -2.4334 0.9649
-3.5190 7.9904 -2.4717 0.9644
-3.7101 7.9855 -2.4927 0.9641
-3.8938 7.9584 -2.5082 0.9638
-4.6828 7.5449 -2.5139 0.9638
-4.9817 7.3502 -2.5137 0.9638
-5.5532 6.9236 -2.5126 0.9638
-5.6905 6.8099 -2.5123 0.9638
-5.9580 6.5743 -2.5117 0.9638
-6.0882 6.4525 -2.5114 0.9638
-6.3409 6.2012 -2.5108 0.9638
-7.8655 -1.9721 -2.4941 0.9666
-7.8233 -2.1295 -2.4938 0.9666
-7.7781 -2.2859 -2.4936 0.9666
-7.7298 -2.4414 -2.4933 0.9666
-7.6238 -2.7494 -2.4927 0.9667
-7.5662 -2.9016 -2.4925 0.9667
-7.4419 -3.2025 -2.4919 0.9667
-7.3754 -3.3510 -2.4917 0.9667
-7.3058 -3.4981 -2.4914 0.9667
-7.1580 -3.7880 -2.4909 0.9667
-6.9149 -4.2110 -2.4902 0.9667
-6.7389 -4.4846 -2.4898 0.9667
-6.6469 -4.6186 -2.4895 0.9667
-6.5522 -4.7508 -2.4893 0.9667
-6.4549 -4.8811 -2.4891 0.9667
-5.5874 -5.8476 -2.4876 0.9667
-5.4684 -5.9583 -2.4875 0.9667
-5.3473 -6.0665 -2.4873 0.9667
-4.7107 -6.5704 -2.4867 0.9667
-4.5776 -6.6634 -2.4865 0.9667
-4.1674 -6.9261 -2.4862 0.9667
-3.8856 -7.0874 -2.4860 0.9667
-3.7423 -7.1637 -2.4860 0.9667
-3.4513 -7.3079 -2.4858 0.9667
-3.1548 -7.4402 -2.4857 0.9667
-3.0047 -7.5020 -2.4856 0.9667
-2.7009 -7.6164 -2.4856 0.9667
-2.5473 -7.6690 -2.4855 0.9667
-2.3927 -7.7185 -2.4855 0.9667
-1.9234 -7.8485 -2.4855 0.9667
-1.7654 -7.8856 -2.4855 0.9667
-1.4473 -7.9502 -2.4855 0.9667
-1.2873 -7.9778 -2.4855 0.9667
-0.6428 -8.0558 -2.4857 0.9667
0.1683 -8.0808 -2.4860 0.9667
0.6547 -8.0569 -2.4863 0.9667
0.8165 -8.0424 -2.4864 0.9667
0.9779 -8.0248 -2.4865 0.9667
1.1390 -8.0039 -2.4866 0.9667
1.2996 -7.9798 -2.4867 0.9667
1.4597 -7.9525 -2.4869 0.9667
1.6192 -7.9220 -2.4870 0.9667
3.1695 -7.4446 -2.4887 0.9667
4.1842 -6.9310 -2.4902 0.9667
4.3229 -6.8462 -2.4904 0.9667
4.4600 -6.7586 -2.4906 0.9667
4.5953 -6.6683 -2.4909 0.9667
4.9901 -6.3813 -2.4916 0.9667
5.1178 -6.2804 -2.4919 0.9667
5.2435 -6.1770 -2.4921 0.9667
5.4885 -5.9627 -2.4927 0.9667
5.8396 -5.6232 -2.4935 0.9666
5.9521 -5.5053 -2.4938 0.9666
6.0622 -5.3853 -2.4941 0.9666
6.1698 -5.2630 -2.4944 0.9666
6.2751 -5.1386 -2.4946 0.9666
6.3778 -5.0121 -2.4949 0.9666
6.4779 -4.8836 -2.4952 0.9666
6.5755 -4.7531 -2.4955 0.9666
6.6705 -4.6206 -2.4958 0.9666
6.8524 -4.3500 -2.4965 0.9666
7.1046 -3.9309 -2.4974 0.9666
7.2586 -3.6432 -2.4980 0.9666
7.4010 -3.3496 -2.4987 0.9666
7.4677 -3.2007 -2.4990 0.9666
7.5315 -3.0504 -2.4993 0.9666
7.5922 -2.8989 -2.4996 0.9666
7.7046 -2.5923 -2.5003 0.9666
7.7561 -2.4373 -2.5006 0.9665
7.8045 -2.2813 -2.5009 0.9665
7.8498 -2.1244 -2.5013 0.9665
7.9666 -1.6484 -2.5023 0.9665
7.9992 -1.4882 -2.5026 0.9665
8.0774 -1.0041 -2.5036 0.9665
8.1134 -0.6790 -2.5042 0.9665
8.1362 -0.3527 -2.5049 0.9665
8.1427 -0.1892 -2.5052 0.9665
8.1459 -0.0256 -2.5055 0.9665
8.1424 0.3017 -2.5061 0.9665
8.1357 0.4652 -2.5065 0.9665
8.1258 0.6287 -2.5068 0.9665
8.0531 1.2795 -2.5080 0.9665
7.9971 1.6023 -2.5086 0.9664
7.9642 1.7628 -2.5089 0.9664
7.9281 1.9227 -2.5092 0.9664
7.8463 2.2401 -2.5098 0.9664
7.8006 2.3975 -2.5101 0.9664
7.7518 2.5540 -2.5104 0.9664
7.6998 2.7095 -2.5106 0.9664
7.6446 2.8640 -2.5109 0.9664
7.5250 3.1694 -2.5115 0.9664
7.4606 3.3203 -2.5117 0.9664
7.3932 3.4698 -2.5120 0.9664
7.3227 3.6180 -2.5122 0.9664
7.1729 3.9100 -2.5127 0.9664
6.4595 5.0110 -2.5145 0.9664
6.2540 5.2673 -2.5149 0.9664
5.9267 5.6356 -2.5155 0.9664
5.5777 5.9836 -2.5160 0.9663
5.3335 6.2036 -2.5163 0.9663
4.9510 6.5147 -2.5168 0.9663
4.6858 6.7090 -2.5170 0.9663
4.2738 6.9799 -2.5173 0.9663
3.9903 7.1465 -2.5175 0.9663
3.8459 7.2250 -2.5175 0.9663
3.4001 7.4356 -2.5148 0.9664
3.2490 7.5000 -2.5140 0.9664
3.0967 7.5614 -2.5132 0.9664
2.7889 7.6752 -2.5117 0.9664
2.3102 7.7912 -2.4995 0.9666
1.9803 7.8180 -2.4806 0.9668
1.8170 7.8310 -2.4726 0.9669
1.3314 7.8631 -2.4529 0.9672
1.1708 7.8723 -2.4480 0.9672
1.0108 7.8813 -2.4440 0.9673
0.8512 7.8901 -2.4409 0.9673
0.6919 7.8987 -2.4388 0.9674
-0.2634 7.9400 -2.4435 0.9673
-0.5840 7.9489 -2.4515 0.9672
-1.0700 7.9612 -2.4707 0.9669
-1.3989 7.9686 -2.4885 0.9667
-1.5647 7.9694 -2.4980 0.9666
-1.7317 7.9697 -2.5085 0.9664
-2.2102 7.8569 -2.5104 0.9664
-2.3682 7.8128 -2.5110 0.9664
-2.5253 7.7657 -2.5117 0.9664
-3.2953 7.4825 -2.5147 0.9664
-3.5926 7.3429 -2.5143 0.9664
-4.1689 7.0283 -2.5134 0.9664
-4.3089 6.9425 -2.5132 0.9664
-4.4470 6.8539 -2.5130 0.9664
-4.5834 6.7625 -2.5127 0.9664
-4.7178 6.6684 -2.5125 0.9664
-4.8503 6.5717 -2.5122 0.9664
-4.9809 6.4723 -2.5120 0.9664
-5.2357 6.2656 -2.5115 0.9664
-5.6018 5.9370 -2.5106 0.9664
-5.8344 5.7059 -2.5101 0.9664
-7.2796 -1.8253 -2.4947 0.9689
-7.2407 -1.9709 -2.4944 0.9689
-7.1542 -2.2597 -2.4939 0.9689
-7.0562 -2.5447 -2.4934 0.9689
-6.8881 -2.9642 -2.4927 0.9689
-6.7622 -3.2379 -2.4922 0.9689
-6.4006 -3.8979 -2.4911 0.9689
-6.2378 -4.1511 -2.4907 0.9689
-6.1527 -4.2752 -2.4904 0.9689
-5.7879 -4.7538 -2.4897 0.9689
-5.6908 -4.8688 -2.4895 0.9689
-5.5915 -4.9818 -2.4893 0.9689
-5.4899 -5.0928 -2.4892 0.9689
-5.3861 -5.2016 -2.4890 0.9689
-5.0621 -5.5156 -2.4885 0.9689
-4.9500 -5.6159 -2.4884 0.9689
-4.7200 -5.8095 -2.4881 0.9689
-4.6021 -5.9029 -2.4880 0.9689
-4.3608 -6.0824 -2.4878 0.9689
-4.2376 -6.1685 -2.4877 0.9689
-3.8579 -6.4117 -2.4874 0.9690
-3.5970 -6.5611 -2.4872 0.9690
-3.0584 -6.8279 -2.4869 0.9690
-2.9206 -6.8878 -2.4869 0.9690
-2.7816 -6.9450 -2.4868 0.9690
-2.6415 -6.9993 -2.4868 0.9690
-2.3582 -7.0996 -2.4867 0.9690
-2.2151 -7.1455 -2.4867 0.9690
-1.9262 -7.2286 -2.4867 0.9690
-1.7807 -7.2659 -2.4867 0.9690
-1.6343 -7.3002 -2.4867 0.9690
-1.4874 -7.3315 -2.4867 0.9690
-1.1917 -7.3855 -2.4867 0.9690
-1.0431 -7.4080 -2.4868 0.9690
-0.8941 -7.4275 -2.4868 0.9690
-0.4452 -7.4683 -2.4869 0.9690
-0.2951 -7.4759 -2.4870 0.9690
0.0055 -7.4821 -2.4871 0.9690
0.1558 -7.4807 -2.4872 0.9690
0.7558 -7.4451 -2.4875 0.9689
1.2030 -7.3871 -2.4879 0.9689
1.6460 -7.3023 -2.4882 0.9689
1.9382 -7.2311 -2.4885 0.9689
2.0832 -7.1911 -2.4887 0.9689
2.2274 -7.1483 -2.4888 0.9689
2.5130 -7.0539 -2.4891 0.9689
2.7947 -6.9483 -2.4895 0.9689
3.0720 -6.8314 -2.4898 0.9689
3.2088 -6.7688 -2.4900 0.9689
3.3444 -6.7035 -2.4902 0.9689
3.7430 -6.4915 -2.4908 0.9689
3.8730 -6.4155 -2.4910 0.9689
4.0014 -6.3370 -2.4912 0.9689
4.1283 -6.2558 -2.4915 0.9689
4.2535 -6.1722 -2.4917 0.9689
4.3770 -6.0861 -2.4919 0.9689
4.6188 -5.9065 -2.4924 0.9689
4.8532 -5.7173 -2.4928 0.9689
4.9676 -5.6192 -2.4931 0.9689
5.0800 -5.5188 -2.4933 0.9689
5.4048 -5.2045 -2.4941 0.9689
5.5088 -5.0954 -2.4944 0.9689
5.7103 -4.8710 -2.4949 0.9689
5.8076 -4.7558 -2.4952 0.9689
6.1733 -4.2762 -2.4963 0.9688
6.2587 -4.1518 -2.4966 0.9688
6.4997 -3.7687 -2.4974 0.9688
6.5748 -3.6377 -2.4977 0.9688
6.6473 -3.5054 -2.4980 0.9688
6.7172 -3.3715 -2.4983 0.9688
6.9105 -2.9619 -2.4992 0.9688
7.0256 -2.6825 -2.4998 0.9688
7.0789 -2.5412 -2.5001 0.9688
7.2636 -1.9657 -2.5013 0.9688
7.3715 -1.5252 -2.5022 0.9688
7.4527 -1.0789 -2.5031 0.9688
7.4737 -0.9291 -2.5034 0.9688
7.4918 -0.7788 -2.5037 0.9687
7.5068 -0.6283 -2.5040 0.9687
7.5188 -0.4774 -2.5043 0.9687
7.5278 -0.3263 -2.5046 0.9687
7.5365 0.1277 -2.5055 0.9687
7.5177 0.5816 -2.5064 0.9687
7.5054 0.7326 -2.5067 0.9687
7.4900 0.8833 -2.5070 0.9687
7.4502 1.1837 -2.5075 0.9687
7.4257 1.3333 -2.5078 0.9687
7.3678 1.6308 -2.5084 0.9687
7.2585 2.0723 -2.5092 0.9687
7.2162 2.2179 -2.5094 0.9687
7.1710 2.3627 -2.5097 0.9687
7.1228 2.5065 -2.5100 0.9687
7.0178 2.7911 -2.5105 0.9687
6.9014 3.0713 -2.5110 0.9687
6.7737 3.3467 -2.5114 0.9687
6.5616 3.7496 -2.5121 0.9686
6.4855 3.8810 -2.5123 0.9686
6.3255 4.1391 -2.5128 0.9686
6.2416 4.2657 -2.5130 0.9686
6.1552 4.3905 -2.5132 0.9686
5.9748 4.6350 -2.5136 0.9686
5.8809 4.7544 -2.5138 0.9686
5.3764 5.3220 -2.5146 0.9686
5.2687 5.4292 -2.5148 0.9686
4.9330 5.7378 -2.5152 0.9686
4.6991 5.9319 -2.5155 0.9686
4.4574 6.1165 -2.5158 0.9686
4.3339 6.2050 -2.5159 0.9686
4.0815 6.3746 -2.5161 0.9686
3.9527 6.4556 -2.5162 0.9686
3.6905 6.6096 -2.5164 0.9686
3.4223 6.7529 -2.5165 0.9686
3.0095 6.9473 -2.5167 0.9686
2.8694 7.0065 -2.5167 0.9686
2.7282 7.0628 -2.5168 0.9686
2.5858 7.1163 -2.5168 0.9686
2.2979 7.2146 -2.5169 0.9686
2.1525 7.2593 -2.5169 0.9686
2.0063 7.3012 -2.5169 0.9686
1.8592 7.3400 -2.5169 0.9686
1.7114 7.3759 -2.5169 0.9686
1.5627 7.4079 -2.5166 0.9686
1.4134 7.4366 -2.5162 0.9686
1.1133 7.4856 -2.5156 0.9686
0.8116 7.5230 -2.5152 0.9686
0.5087 7.5487 -2.5149 0.9686
0.3569 7.5572 -2.5149 0.9686
0.2050 7.5628 -2.5148 0.9686
0.0531 7.5654 -2.5148 0.9686
-0.2508 7.5617 -2.5149 0.9686
-0.4027 7.5554 -2.5150 0.9686
-0.8572 7.5192 -2.5156 0.9686
-1.1586 7.4791 -2.5158 0.9686
-1.6067 7.3946 -2.5154 0.9686
-1.7549 7.3605 -2.5152 0.9686
-1.9022 7.3233 -2.5151 0.9686
-2.0488 7.2832 -2.5149 0.9686
-2.1946 7.2401 -2.5148 0.9686
-2.4833 7.1452 -2.5145 0.9686
-2.7679 7.0388 -2.5141 0.9686
-3.3230 6.7919 -2.5134 0.9686
-3.4585 6.7232 -2.5132 0.9686
-3.7252 6.5778 -2.5128 0.9686
-4.3641 6.1684 -2.5117 0.9687
-4.6074 5.9870 -2.5112 0.9687
-4.8433 5.7960 -2.5107 0.9687
-5.1820 5.4921 -2.5100 0.9687
-5.3973 5.2785 -2.5095 0.9687
-6.7318 -1.8324 -2.4949 0.9708
-6.6515 -2.1009 -2.4945 0.9708
-6.6073 -2.2338 -2.4942 0.9708
-6.4590 -2.6270 -2.4935 0.9708
-6.3471 -2.8838 -2.4931 0.9708
-6.2873 -3.0105 -2.4929 0.9708
-6.2251 -3.1359 -2.4926 0.9708
-6.1603 -3.2600 -2.4924 0.9708
-5.9513 -3.6243 -2.4918 0.9708
-5.8000 -3.8598 -2.4914 0.9708
-5.6395 -4.0890 -2.4911 0.9708
-5.5558 -4.2012 -2.4909 0.9708
-5.3818 -4.4203 -2.4905 0.9708
-5.2916 -4.5272 -2.4904 0.9708
-5.0084 -4.8368 -2.4899 0.9709
-4.8095 -5.0335 -2.4896 0.9709
-4.6029 -5.2221 -2.4893 0.9709
-4.4969 -5.3132 -2.4892 0.9709
-4.3890 -5.4022 -2.4891 0.9709
-4.1681 -5.5736 -2.4889 0.9709
-4.0551 -5.6559 -2.4887 0.9709
-3.8244 -5.8138 -2.4885 0.9709
-3.4669 -6.0330 -2.4883 0.9709
-3.3449 -6.1012 -2.4882 0.9709
-2.8441 -6.3494 -2.4880 0.9709
-2.7159 -6.4051 -2.4879 0.9709
-2.5867 -6.4582 -2.4879 0.9709
-2.4564 -6.5088 -2.4878 0.9709
-1.6559 -6.7566 -2.4877 0.9709
-1.5198 -6.7886 -2.4877 0.9709
-1.3831 -6.8178 -2.4877 0.9709
-0.6925 -6.9224 -2.4879 0.9709
-0.5534 -6.9350 -2.4879 0.9709
-0.4140 -6.9449 -2.4880 0.9709
-0.1347 -6.9562 -2.4881 0.9709
0.1448 -6.9564 -2.4882 0.9709
0.5636 -6.9357 -2.4884 0.9709
0.7029 -6.9232 -2.4885 0.9709
0.8418 -6.9080 -2.4886 0.9709
1.1187 -6.8692 -2.4888 0.9709
1.5306 -6.7903 -2.4892 0.9709
1.8023 -6.7240 -2.4894 0.9709
1.9371 -6.6868 -2.4896 0.9709
2.0712 -6.6469 -2.4897 0.9709
2.2044 -6.6044 -2.4899 0.9709
2.3368 -6.5592 -2.4900 0.9709
2.4682 -6.5113 -2.4902 0.9709
2.8565 -6.3521 -2.4907 0.9708
3.2346 -6.1698 -2.4912 0.9708
3.3581 -6.1041 -2.4914 0.9708
3.4803 -6.0358 -2.4916 0.9708
3.6011 -5.9652 -2.4918 0.9708
3.7205 -5.8921 -2.4920 0.9708
3.8384 -5.8167 -2.4922 0.9708
3.9548 -5.7389 -2.4924 0.9708
4.0697 -5.6588 -2.4926 0.9708
4.5123 -5.3157 -2.4935 0.9708
4.7231 -5.1311 -2.4939 0.9708
4.8257 -5.0357 -2.4942 0.9708
5.3993 -4.4215 -2.4956 0.9708
5.6576 -4.0895 -2.4964 0.9708
5.8955 -3.7426 -2.4972 0.9708
6.2444 -3.1342 -2.4985 0.9708
6.3667 -2.8815 -2.4991 0.9707
6.6714 -2.0965 -2.5008 0.9707
6.7129 -1.9622 -2.5011 0.9707
6.7518 -1.8272 -2.5013 0.9707
6.8519 -1.4177 -2.5022 0.9707
6.8798 -1.2799 -2.5025 0.9707
6.9049 -1.1416 -2.5027 0.9707
6.9467 -0.8635 -2.5033 0.9707
