ply
format ascii 1.0
element vertex 1530
property float32 x
property float32 y
property float32 z
property float32 I
end_header
-6.5724 -29.9232 3.9895 0.8838
-3.3090 -18.6004 2.4602 0.9266
-2.9135 -18.5273 2.4423 0.9271
-2.5848 -18.9027 2.4844 0.9259
-2.1907 -18.8295 2.4685 0.9264
-0.2908 -18.8354 2.4531 0.9268
0.0874 -18.8365 2.4529 0.9268
0.4601 -18.6121 2.4244 0.9277
1.2092 -18.6144 2.4291 0.9275
2.3697 -18.8436 2.4732 0.9263
2.7661 -18.9192 2.4899 0.9258
3.1555 -18.9204 2.4979 0.9255
3.5475 -18.9216 2.5069 0.9253
3.9426 -18.9228 2.5171 0.9250
4.7431 -18.9253 2.5407 0.9243
5.4720 -18.6276 2.5282 0.9247
6.2955 -18.6302 2.5608 0.9237
6.7156 -18.6314 2.5790 0.9232
10.0180 -18.9417 2.7903 0.9172
10.3742 -18.6970 2.7844 0.9174
31.7003 -52.0870 7.9402 0.7820
34.4383 -54.1091 8.3522 0.7720
25.9657 -37.3934 5.9282 0.8322
57.8141 -76.5093 12.4877 0.6792
27.5681 -34.9991 5.8017 0.8355
29.8242 -33.5000 5.8407 0.8345
30.4262 -32.8249 5.8284 0.8348
27.3924 -24.1668 4.7569 0.8630
26.8381 -21.8259 4.5047 0.8698
27.0800 -20.2723 4.4050 0.8724
27.2112 -19.5306 4.3617 0.8736
27.6715 -19.0310 4.3734 0.8733
29.1034 -19.1668 4.5379 0.8689
30.3372 -19.1173 4.6695 0.8653
29.8734 -17.9974 4.5416 0.8688
29.6264 -17.0475 4.4511 0.8712
31.3301 -16.3903 4.6044 0.8671
80.5143 -36.1257 11.4917 0.7005
70.9864 -28.4852 9.9604 0.7345
71.9446 -25.5672 9.9427 0.7349
72.7031 -24.2042 9.9783 0.7341
73.6644 -22.8920 10.0452 0.7326
74.8666 -21.6273 10.1478 0.7303
54.4146 13.3614 7.2964 0.7977
52.3994 16.2673 7.1447 0.8015
51.9251 18.4361 7.1753 0.8007
51.2571 19.3663 7.1353 0.8017
77.2015 34.6129 11.0174 0.7109
42.6738 22.3092 6.2706 0.8235
42.7114 24.5607 6.4159 0.8198
41.8676 25.2072 6.3639 0.8211
40.5621 25.5446 6.2422 0.8242
40.2757 27.6827 6.3641 0.8211
34.7691 24.9402 5.5720 0.8415
33.3799 24.9737 5.4287 0.8452
31.8830 25.9136 5.3502 0.8473
31.8864 26.9972 5.4407 0.8449
32.7864 30.1003 5.7959 0.8357
32.7903 31.3401 5.9066 0.8328
25.1262 24.9992 4.6156 0.8668
24.1400 25.0023 4.5257 0.8692
23.2828 25.1040 4.4586 0.8710
22.2600 24.9892 4.3580 0.8737
22.0102 25.7308 4.4093 0.8723
21.8010 27.6613 4.5864 0.8676
22.4751 29.7252 4.8527 0.8604
23.5319 32.4575 5.2206 0.8507
22.4877 33.7932 5.2859 0.8490
15.9235 25.0031 3.8602 0.8873
13.6868 24.6507 3.6716 0.8925
-29.0637 21.3268 3.8710 0.8650
-30.6320 20.6386 3.9663 0.8619
-30.0002 18.5066 3.7851 0.8678
-32.2468 17.3041 3.9298 0.8631
-32.9229 15.9993 3.9307 0.8631
-32.9764 14.4189 3.8648 0.8652
-34.2700 13.3729 3.9502 0.8624
-42.5578 -17.5376 4.9428 0.8310
-40.5179 -17.6567 4.7461 0.8371
-35.0306 -17.8469 4.2217 0.8537
-31.8913 -17.8951 3.9268 0.8632
-31.8995 -20.5177 4.0728 0.8585
-26.7605 -18.7725 3.5101 0.8768
-26.4234 -19.3390 3.5162 0.8766
-23.8837 -18.9984 3.2771 0.8845
-23.0345 -19.0904 3.2126 0.8866
-22.6241 -19.5295 3.2094 0.8867
-22.9350 -20.6158 3.3115 0.8833
-21.6380 -21.0805 3.2439 0.8856
-20.5818 -21.7289 3.2138 0.8866
-24.2156 -27.7136 3.9519 0.8624
-22.8161 -28.3314 3.9062 0.8639
-21.3045 -28.7442 3.8420 0.8659
-24.1177 -40.4687 5.0588 0.8274
-23.3750 -41.0758 5.0750 0.8269
-22.2447 -40.9824 5.0072 0.8290
-21.4290 -41.4429 5.0099 0.8289
-24.1344 -49.0651 5.8716 0.8025
-12.4570 -28.1225 3.3028 0.8836
-8.3470 -19.9142 2.3187 0.9168
-7.2306 -18.2712 2.1100 0.9240
-12.2953 -37.5298 4.2408 0.8531
-8.9460 -29.2808 3.2877 0.8841
-8.7503 -36.3410 4.0139 0.8604
-7.8858 -35.9030 3.9472 0.8625
-2.5432 -18.5982 2.0157 0.9273
-2.1639 -18.5993 2.0107 0.9274
-1.7864 -18.6005 2.0065 0.9276
-0.6610 -18.6040 1.9990 0.9278
0.0863 -18.6063 1.9980 0.9279
0.8341 -18.6086 2.0002 0.9278
1.2089 -18.6097 2.0026 0.9277
1.9619 -18.6121 2.0097 0.9275
2.3408 -18.6133 2.0145 0.9273
3.1046 -18.6156 2.0266 0.9269
5.0664 -18.6217 2.0723 0.9253
5.4706 -18.6230 2.0843 0.9249
5.8796 -18.6242 2.0972 0.9244
6.2939 -18.6255 2.1111 0.9240
7.5730 -18.6295 2.1594 0.9223
8.0131 -18.6308 2.1778 0.9216
8.4609 -18.6322 2.1974 0.9210
9.3820 -18.6351 2.2404 0.9195
9.8566 -18.6365 2.2639 0.9187
10.8374 -18.6396 2.3153 0.9169
33.0575 -51.9396 6.6112 0.7806
27.3261 -34.6918 4.7421 0.8372
29.3985 -34.3878 4.8581 0.8336
30.2763 -34.0078 4.8893 0.8326
33.8447 -35.0736 5.2338 0.8219
33.8401 -32.3619 5.0280 0.8283
26.9213 -23.7512 3.8551 0.8655
30.3098 -25.6771 4.2656 0.8523
28.3077 -23.0211 3.9180 0.8635
28.3110 -22.0944 3.8563 0.8655
28.1208 -21.0514 3.7721 0.8682
28.2856 -20.3017 3.7387 0.8693
29.3113 -20.1588 3.8200 0.8667
29.7416 -19.5870 3.8241 0.8665
30.4320 -18.3340 3.8151 0.8668
71.6701 -33.9021 8.5136 0.7269
72.8473 -32.6856 8.5738 0.7253
73.9766 -31.4238 8.6307 0.7237
77.1055 -29.1575 8.8519 0.7178
94.0221 -31.3016 10.6410 0.6712
83.0423 -25.8063 9.3379 0.7048
92.7736 -26.8003 10.3695 0.6781
92.1389 -24.6240 10.2413 0.6813
77.7065 -17.4576 8.5522 0.7259
88.3088 14.2943 9.6062 0.6978
89.4058 18.1820 9.7971 0.6928
30.0468 8.0208 3.3395 0.8824
30.0488 8.6712 3.3584 0.8818
51.0671 15.8538 5.7419 0.8064
52.8496 17.5779 5.9807 0.7993
53.6633 19.0533 6.1149 0.7953
74.8238 35.3677 8.8871 0.7168
69.7389 36.4584 8.4503 0.7286
63.4425 34.8061 7.7705 0.7474
42.7114 24.5607 5.2907 0.8202
40.5529 25.5388 5.1462 0.8246
40.3822 26.5782 5.1912 0.8233
40.3858 27.7584 5.2623 0.8211
34.7559 24.9307 4.5930 0.8419
33.3799 24.9736 4.4765 0.8456
31.8830 25.9136 4.4119 0.8476
31.8864 26.9972 4.4864 0.8453
32.7864 30.1003 4.7794 0.8361
34.0360 32.5307 5.0557 0.8274
25.1262 24.9992 3.8060 0.8671
24.1400 25.0023 3.7320 0.8695
22.2555 24.9842 3.5929 0.8741
21.9870 25.7037 3.6321 0.8728
21.7976 26.5430 3.6882 0.8709
21.8010 27.6614 3.7820 0.8679
22.4751 29.7252 4.0016 0.8608
23.7116 32.7054 4.3379 0.8500
22.7263 32.7084 4.2769 0.8519
15.9206 24.9985 3.1825 0.8876
14.3405 24.6486 3.0622 0.8916
13.6087 25.7131 3.1240 0.8896
-54.1405 41.4256 5.7709 0.7606
-51.8731 36.4851 5.3686 0.7752
-51.8529 34.9363 5.2928 0.7780
-33.0291 21.3022 3.3271 0.8540
-32.1908 18.9765 3.1633 0.8607
-32.7215 18.4143 3.1785 0.8601
-34.1511 18.3260 3.2809 0.8559
-33.4261 16.2438 3.1460 0.8614
-65.1962 30.0803 6.0781 0.7496
-70.1430 29.0069 6.4255 0.7373
-42.5579 -17.5376 3.8965 0.8313
-38.1655 -17.5515 3.5561 0.8448
-36.2437 -17.5575 3.4092 0.8507
-31.8913 -17.8951 3.0957 0.8635
-31.8941 -18.7484 3.1318 0.8620
-31.8995 -20.5177 3.2107 0.8588
-31.9025 -21.4371 3.2537 0.8570
-26.6611 -18.7028 2.7569 0.8775
-31.8583 -23.3168 3.3420 0.8534
-26.0908 -19.9121 2.7784 0.8766
-24.5246 -19.5082 2.6528 0.8818
-23.9211 -20.6491 2.6751 0.8809
-23.4473 -21.0763 2.6689 0.8811
-20.9645 -23.0424 2.6371 0.8824
-24.8684 -28.4608 3.1994 0.8592
-22.6975 -30.6237 3.2268 0.8581
-25.4188 -39.0013 3.9409 0.8295
-26.5119 -42.5210 4.2419 0.8178
-22.4986 -39.5358 3.8508 0.8331
-21.4153 -41.4164 3.9470 0.8293
-22.0314 -44.7897 4.2254 0.8184
-22.7784 -48.7559 4.5555 0.8057
-21.7957 -49.2051 4.5557 0.8057
-8.3430 -19.9048 1.8270 0.9170
-21.6300 -54.6573 4.9760 0.7898
-23.0537 -61.8565 5.5882 0.7672
-12.2580 -37.4159 3.3330 0.8538
-8.9381 -29.2548 2.5895 0.8844
-9.4761 -36.1502 3.1636 0.8607
-8.4195 -34.9670 3.0446 0.8656
-3.2726 -18.3959 1.5817 0.9277
-2.1407 -18.3994 1.5681 0.9283
-1.7672 -18.4006 1.5648 0.9285
-0.6539 -18.4040 1.5589 0.9287
-0.2842 -18.4052 1.5582 0.9288
0.0854 -18.4063 1.5582 0.9288
0.8251 -18.4086 1.5599 0.9287
1.9409 -18.4120 1.5673 0.9284
2.3156 -18.4132 1.5710 0.9282
2.6923 -18.4144 1.5754 0.9280
3.0713 -18.4155 1.5805 0.9278
3.4529 -18.4167 1.5862 0.9275
3.8374 -18.4179 1.5926 0.9273
4.2710 -18.6192 1.6171 0.9262
5.0664 -18.6217 1.6337 0.9255
6.2939 -18.6255 1.6643 0.9241
7.1401 -18.6281 1.6888 0.9230
7.5730 -18.6295 1.7024 0.9224
8.4609 -18.6322 1.7323 0.9211
8.9170 -18.6336 1.7487 0.9204
9.3820 -18.6351 1.7662 0.9197
10.3415 -18.6380 1.8044 0.9180
10.8374 -18.6396 1.8252 0.9171
52.2134 -75.1930 7.7494 0.6925
27.9271 -38.5427 4.0292 0.8261
27.5166 -34.9338 3.7645 0.8365
29.1925 -34.1468 3.8030 0.8350
29.9291 -33.6179 3.8102 0.8347
53.3823 -53.1428 6.3765 0.7391
53.3950 -49.0486 6.1376 0.7475
28.9371 -23.5329 3.1574 0.8609
29.6900 -23.1707 3.1881 0.8597
30.3338 -21.7718 3.1608 0.8608
31.4533 -20.7143 3.1882 0.8597
30.7939 -19.4051 3.0812 0.8641
31.2200 -18.8087 3.0854 0.8639
32.0049 -18.4162 3.1258 0.8622
32.5899 -17.8916 3.1472 0.8614
80.8710 -42.3074 7.7262 0.6932
71.3993 -35.5452 6.7517 0.7260
82.9205 -39.2238 7.7652 0.6920
70.7873 -30.0690 6.5105 0.7344
70.9864 -28.4852 6.4750 0.7356
71.3674 -26.9877 6.4590 0.7362
71.9446 -25.5671 6.4634 0.7360
73.6644 -22.8920 6.5301 0.7337
74.8666 -21.6273 6.5968 0.7314
77.7180 -17.4601 6.7430 0.7263
30.0608 1.8085 2.5493 0.8861
87.7299 14.2006 7.5232 0.6999
87.3156 15.9386 7.5136 0.7003
87.7417 19.6858 7.6122 0.6970
56.6051 13.8993 4.9341 0.7914
53.4340 15.4195 4.7079 0.7999
53.9679 16.7543 4.7836 0.7970
52.6015 17.4954 4.6927 0.8005
77.1432 34.5868 7.1567 0.7122
74.8064 35.3595 7.0044 0.7174
69.9713 34.8095 6.6158 0.7307
42.6128 24.5040 4.1612 0.8209
41.8105 25.1729 4.1314 0.8221
40.5438 25.5330 4.0560 0.8250
40.3307 27.7205 4.1428 0.8216
31.8830 25.9136 3.4780 0.8480
32.7827 28.9059 3.6999 0.8391
34.2241 32.7104 4.0076 0.8269
24.1400 25.0023 2.9420 0.8698
23.7430 32.7487 3.4242 0.8501
22.7564 32.7517 3.3761 0.8521
22.4877 33.7932 3.4362 0.8496
15.9176 24.9939 2.5084 0.8878
13.6868 24.6507 2.3868 0.8930
13.6127 27.0192 2.5611 0.8856
-51.8580 41.3558 4.1131 0.7666
-51.8721 36.4844 3.9326 0.7756
-51.9299 32.0346 3.7836 0.7831
-51.8946 29.2042 3.6926 0.7877
-53.9616 28.9567 3.7975 0.7824
-59.6222 28.9742 4.1106 0.7667
-62.9162 29.0283 4.2967 0.7575
-66.3028 28.9909 4.4873 0.7483
-74.3034 28.9947 4.9460 0.7264
-78.6784 28.8956 5.1975 0.7147
-83.8125 28.8852 5.4972 0.7010
-76.9865 -5.3708 4.7856 0.7340
-45.0878 -17.5298 2.9998 0.8238
-38.0859 -17.5149 2.5995 0.8454
-34.4734 -17.5630 2.3991 0.8564
-31.8916 -17.8953 2.2677 0.8637
-31.8942 -18.7484 2.2942 0.8622
-25.8448 -23.2314 2.1549 0.8700
-24.7532 -23.1654 2.1023 0.8730
-22.6612 -22.9821 2.0014 0.8787
-22.1180 -23.3508 1.9944 0.8791
-25.3314 -27.8422 2.3342 0.8600
-24.8177 -28.4028 2.3389 0.8597
-22.9958 -32.3647 2.4620 0.8529
-27.3779 -40.2185 3.0170 0.8228
-28.2081 -43.2811 3.2036 0.8130
-23.8114 -41.8427 2.9854 0.8245
-26.0273 -50.3358 3.5139 0.7968
-23.7452 -50.8254 3.4787 0.7987
-8.3284 -19.8699 1.3360 0.9173
-23.3952 -59.1177 3.9425 0.7751
-22.6393 -60.7445 4.0199 0.7712
-21.0862 -60.2466 3.9581 0.7743
-11.8866 -36.2824 2.3675 0.8581
-8.9059 -29.1494 1.8900 0.8850
-2.9245 -18.5970 1.1674 0.9273
-2.5432 -18.5982 1.1640 0.9275
-2.1639 -18.5993 1.1611 0.9277
-1.7864 -18.6005 1.1587 0.9278
-1.0353 -18.6028 1.1554 0.9281
-0.2873 -18.6051 1.1538 0.9281
0.0863 -18.6063 1.1538 0.9281
1.2089 -18.6098 1.1564 0.9280
1.5848 -18.6109 1.1582 0.9279
2.7216 -18.6144 1.1666 0.9274
3.1046 -18.6156 1.1703 0.9272
3.4904 -18.6168 1.1745 0.9269
4.6667 -18.6205 1.1904 0.9260
5.8796 -18.6242 1.2111 0.9247
4.1631 -11.5498 0.7613 0.9520
7.5730 -18.6295 1.2470 0.9226
8.0131 -18.6308 1.2576 0.9219
51.7368 -85.0091 6.1710 0.6711
35.8141 -56.2707 4.1362 0.7654
52.2784 -78.6095 5.8541 0.6850
51.8139 -74.6176 5.6332 0.6948
27.8818 -38.4802 2.9467 0.8266
29.6193 -39.1972 3.0465 0.8213
29.3293 -35.7351 2.8667 0.8309
30.7208 -34.5071 2.8649 0.8310
30.8628 -33.2959 2.8152 0.8336
31.6046 -32.7521 2.8224 0.8333
32.6022 -32.4559 2.8527 0.8316
53.0242 -48.7080 4.4648 0.7493
53.0302 -46.7856 4.3853 0.7532
53.0360 -44.9298 4.3103 0.7569
53.0415 -43.1357 4.2395 0.7603
56.4134 -42.2316 4.3698 0.7540
73.4850 -42.2845 5.2574 0.7119
77.0419 -42.2956 5.4500 0.7031
71.3993 -35.5452 4.9458 0.7264
72.6199 -34.3513 4.9816 0.7247
77.2647 -31.0046 5.1626 0.7163
83.0423 -25.8063 5.3924 0.7057
96.0229 -25.6620 6.1634 0.6714
78.2363 -19.2342 4.9959 0.7241
90.6712 12.8143 5.6784 0.6928
88.3862 14.3068 5.5522 0.6985
55.5822 17.2554 3.6089 0.7920
54.3211 19.2869 3.5745 0.7937
77.0204 34.5317 5.2341 0.7130
74.7890 35.3513 5.1297 0.7178
42.7114 24.5607 3.0552 0.8208
41.8676 25.2073 3.0305 0.8221
40.3822 26.5782 2.9978 0.8239
32.0245 24.9779 2.5185 0.8498
31.8864 26.9972 2.5908 0.8458
39.7395 36.4838 3.3453 0.8056
21.9645 25.6774 2.0953 0.8733
21.8010 27.6614 2.1840 0.8684
23.7430 32.7487 2.5083 0.8503
22.4877 33.7932 2.5171 0.8499
15.9147 24.9893 1.8372 0.8880
15.0096 24.6466 1.7894 0.8908
14.3405 24.6486 1.7683 0.8920
-51.3404 40.9430 2.5893 0.7688
-51.8631 39.6830 2.5750 0.7700
-51.8721 36.4844 2.5006 0.7758
-51.8769 34.9524 2.4665 0.7785
-51.8815 33.4610 2.4343 0.7810
-56.6798 28.9651 2.5099 0.7751
-59.6222 28.9742 2.6139 0.7669
-70.1400 29.0057 2.9929 0.7380
-74.3652 29.0188 3.1476 0.7265
-78.6784 28.8956 3.3049 0.7150
-83.8125 28.8852 3.4956 0.7013
-88.1567 28.4156 3.6522 0.6902
-88.1627 26.4759 3.6297 0.6918
-95.3618 24.5109 3.8824 0.6743
-45.0897 -17.5305 1.9076 0.8239
-40.6037 -17.6941 1.7465 0.8375
-38.1658 -17.5516 1.6564 0.8452
-34.4734 -17.5630 1.5256 0.8565
-32.8363 -17.5681 1.4684 0.8615
-31.8916 -17.8953 1.4420 0.8638
-31.9231 -19.6382 1.4779 0.8607
-31.9490 -21.4683 1.5178 0.8572
-31.9055 -22.3817 1.5367 0.8555
-31.8647 -25.3469 1.6055 0.8496
-31.8680 -26.4113 1.6320 0.8473
-31.9494 -29.8999 1.7254 0.8393
-32.5206 -31.6828 1.7903 0.8338
-25.7967 -29.5232 1.5459 0.8548
-25.0820 -31.1449 1.5768 0.8521
-31.9141 -41.2991 2.0580 0.8114
-32.0014 -43.1765 2.1191 0.8064
-32.0137 -47.0285 2.2433 0.7963
-31.8678 -58.7114 2.6341 0.7654
-31.9979 -68.4899 2.9808 0.7389
-31.6879 -71.5374 3.0851 0.7311
-8.3225 -19.8559 0.8489 0.9174
-25.4074 -64.2024 2.7226 0.7585
-28.3954 -76.1889 3.2061 0.7222
-23.6008 -72.0380 2.9891 0.7383
-8.9049 -29.1463 1.2017 0.8851
-22.7845 -80.3104 3.2917 0.7159
-20.4764 -78.1148 3.1842 0.7238
-21.5167 -89.3602 3.6243 0.6922
-20.9268 -95.2760 3.8464 0.6767
-3.6945 -18.5946 0.7475 0.9269
-2.9245 -18.5970 0.7423 0.9274
-2.1639 -18.5993 0.7383 0.9278
-1.7864 -18.6005 0.7368 0.9279
-1.4103 -18.6017 0.7356 0.9280
-0.6610 -18.6040 0.7340 0.9282
0.4600 -18.6074 0.7339 0.9282
1.2089 -18.6098 0.7354 0.9281
1.5847 -18.6109 0.7365 0.9280
1.9619 -18.6121 0.7380 0.9278
2.3408 -18.6133 0.7397 0.9277
2.7216 -18.6144 0.7418 0.9275
3.1046 -18.6156 0.7442 0.9272
3.4904 -18.6168 0.7469 0.9270
3.8790 -18.6180 0.7499 0.9267
4.2710 -18.6192 0.7532 0.9264
5.0664 -18.6217 0.7610 0.9257
5.8796 -18.6242 0.7701 0.9248
6.2939 -18.6255 0.7752 0.9243
4.1607 -11.5433 0.4838 0.9521
8.4609 -18.6322 0.8069 0.9213
8.9170 -18.6336 0.8145 0.9206
9.3820 -18.6351 0.8227 0.9199
9.8566 -18.6365 0.8313 0.9191
10.8374 -18.6396 0.8502 0.9173
51.9142 -85.3006 3.9374 0.6705
52.3440 -78.7080 3.7272 0.6850
51.9467 -74.8088 3.5912 0.6945
52.6103 -72.6084 3.5356 0.6984
51.9818 -63.3353 3.2308 0.7204
53.1868 -62.2133 3.2274 0.7206
53.3686 -57.5760 3.0956 0.7303
67.1260 -69.5633 3.8118 0.6791
62.9438 -62.6614 3.5021 0.7008
53.3888 -51.0567 2.9129 0.7440
53.6507 -49.2834 2.8726 0.7470
69.4502 -61.2721 3.6519 0.6902
53.6681 -43.6452 2.7276 0.7581
78.5480 -61.3003 3.9288 0.6711
61.9713 -42.6206 2.9657 0.7400
67.6625 -42.6383 3.1536 0.7260
77.7230 -42.6695 3.4962 0.7012
71.3993 -35.5452 3.1449 0.7267
70.7873 -30.0690 3.0326 0.7350
71.3675 -26.9877 3.0086 0.7368
72.7031 -24.2041 3.0214 0.7358
74.8666 -21.6273 3.0728 0.7320
76.4566 -20.4329 3.1206 0.7285
78.2363 -19.2342 3.1768 0.7243
82.2835 -18.4858 3.3254 0.7135
86.2781 15.7492 3.4582 0.7039
57.0067 17.6977 2.3537 0.7875
77.0128 34.5283 3.3279 0.7133
74.7718 35.3431 3.2611 0.7182
69.9297 34.7889 3.0798 0.7315
69.7389 36.4584 3.1030 0.7298
63.4429 34.8063 2.8534 0.7485
42.7114 24.5607 1.9428 0.8210
41.8676 25.2072 1.9270 0.8223
40.5257 25.5216 1.8884 0.8255
33.3799 24.9736 1.6438 0.8463
32.7827 28.9059 1.7234 0.8395
40.5654 37.2420 2.1712 0.8022
34.2300 32.7162 1.8671 0.8273
23.2828 25.1040 1.3501 0.8719
14.8624 16.6846 0.8811 0.9144
14.3529 16.7791 0.8707 0.9154
14.1851 17.2733 0.8813 0.9144
21.8010 27.6613 1.3887 0.8685
22.4751 29.7252 1.4694 0.8614
23.7430 32.7486 1.5950 0.8505
22.7564 32.7517 1.5726 0.8524
16.5944 24.9371 1.1811 0.8870
15.8113 24.8269 1.1606 0.8888
15.0096 24.6466 1.1379 0.8909
14.3405 24.6486 1.1244 0.8921
13.6127 27.0192 1.1930 0.8859
-52.0033 39.7903 1.1061 0.7695
-52.0083 38.1635 1.0897 0.7725
-51.8721 36.4844 1.0712 0.7759
-51.8815 33.4611 1.0428 0.7812
-52.0262 32.0941 1.0326 0.7831
-53.9616 28.9567 1.0345 0.7827
-56.8870 29.0709 1.0792 0.7745
-62.8203 28.9841 1.1687 0.7582
-70.1401 29.0057 1.2821 0.7381
-83.8125 28.8852 1.4975 0.7014
-88.1567 28.4156 1.5646 0.6904
-88.1627 26.4759 1.5549 0.6919
-29.5651 8.2353 0.5180 0.8845
-88.1746 22.6636 1.5378 0.6947
-59.1562 13.9451 1.0266 0.7842
-49.7352 -17.0718 0.8882 0.8103
-44.2204 -17.1925 0.8014 0.8271
-37.5159 -17.2527 0.6975 0.8477
-32.7767 -17.5362 0.6279 0.8618
-31.9215 -19.6372 0.6331 0.8608
-31.9475 -21.4673 0.6502 0.8573
-31.8647 -25.3469 0.6878 0.8497
-32.0263 -26.5425 0.7026 0.8467
-31.9493 -29.8998 0.7392 0.8394
-31.9222 -33.7014 0.7841 0.8305
-31.9449 -35.1111 0.8018 0.8270
-31.9449 -36.5594 0.8201 0.8235
-25.0793 -31.1416 0.6754 0.8522
-32.0727 -41.5042 0.8860 0.8107
-32.0014 -43.1765 0.9078 0.8065
-32.2066 -49.4163 0.9964 0.7898
-32.1207 -51.5167 1.0255 0.7844
-32.1854 -54.0058 1.0620 0.7776
-32.1295 -59.1935 1.1377 0.7638
-31.9274 -61.7465 1.1742 0.7572
-31.9983 -68.4908 1.2770 0.7390
-32.5014 -87.2060 1.5721 0.6891
-24.7116 -70.6051 1.2636 0.7414
-8.9159 -29.1821 0.5154 0.8851
-24.8875 -87.7226 1.5403 0.6943
-3.7013 -18.6288 0.3208 0.9268
-3.2894 -20.9172 0.3577 0.9188
-2.8605 -20.9186 0.3566 0.9190
-2.4339 -20.9199 0.3558 0.9192
-0.6660 -18.7449 0.3168 0.9277
0.0870 -18.7472 0.3167 0.9277
1.5990 -18.7779 0.3183 0.9274
1.9795 -18.7791 0.3190 0.9272
3.5217 -18.7838 0.3228 0.9264
3.9138 -18.7851 0.3241 0.9261
4.3094 -18.7863 0.3256 0.9258
5.1119 -18.7888 0.3289 0.9251
5.5197 -18.7900 0.3308 0.9246
4.1601 -11.5417 0.2072 0.9521
7.6410 -18.7966 0.3427 0.9220
8.5368 -18.7994 0.3488 0.9207
9.9896 -20.8750 0.3909 0.9116
51.9142 -85.3005 1.6867 0.6707
51.9467 -74.8088 1.5383 0.6946
51.9654 -68.7693 1.4561 0.7083
52.5999 -66.7782 1.4359 0.7117
51.9819 -63.3353 1.3840 0.7205
52.9907 -59.5219 1.3461 0.7270
52.9980 -57.1762 1.3169 0.7321
53.0050 -54.9296 1.2894 0.7368
53.0116 -52.7738 1.2635 0.7414
53.0360 -44.9298 1.1741 0.7572
53.0415 -43.1357 1.1549 0.7607
54.1049 -42.2244 1.1593 0.7599
56.4134 -42.2316 1.1904 0.7543
30.5691 -21.9406 0.6356 0.8602
70.1696 -42.2742 1.3838 0.7206
73.4850 -42.2845 1.4321 0.7124
77.0419 -42.2955 1.4846 0.7036
77.9609 -33.1162 1.4308 0.7126
77.5153 -31.1051 1.4109 0.7160
87.9432 -33.2558 1.5882 0.6865
78.2363 -19.2342 1.3609 0.7245
91.5388 16.7095 1.5718 0.6892
30.6152 8.1725 0.5353 0.8809
56.8988 17.6642 1.0064 0.7879
41.3914 16.5958 0.7533 0.8366
41.1611 17.4706 0.7553 0.8362
77.4966 34.7452 1.4346 0.7119
74.7545 35.3349 1.3967 0.7184
41.0189 24.6963 0.8088 0.8257
40.3822 26.5782 0.8166 0.8241
40.3858 27.7584 0.8278 0.8220
22.8399 17.0880 0.4818 0.8922
31.8864 26.9972 0.7057 0.8461
32.7827 28.9059 0.7383 0.8396
39.4622 36.2292 0.9049 0.8071
34.2300 32.7162 0.7998 0.8274
24.6627 24.5381 0.5877 0.8701
23.6834 24.5294 0.5760 0.8725
14.1851 17.2733 0.3776 0.9145
22.4751 29.7252 0.6295 0.8615
23.7430 32.7487 0.6833 0.8506
16.3355 24.5480 0.4981 0.8887
15.6351 24.5502 0.4917 0.8901
14.9522 24.5523 0.4856 0.8914
14.2857 24.5544 0.4799 0.8926
13.5177 26.8307 0.5075 0.8868
-51.4494 41.0300 -0.3705 0.7686
-51.8517 33.4418 -0.3474 0.7813
-51.8946 29.2042 -0.3353 0.7880
-59.6222 28.9742 -0.3732 0.7671
-62.6275 28.8951 -0.3883 0.7589
-39.0354 13.4532 -0.2325 0.8478
-88.1567 28.4156 -0.5215 0.6904
-88.1627 26.4759 -0.5183 0.6920
-29.5399 8.2283 -0.1726 0.8846
-88.1745 22.6636 -0.5126 0.6948
-59.1562 13.9451 -0.3422 0.7842
-41.1089 -16.9405 -0.2503 0.8371
-38.7040 -16.8662 -0.2377 0.8446
-36.8656 -16.9537 -0.2285 0.8502
-33.2990 -16.9647 -0.2104 0.8611
-31.8969 -19.6221 -0.2108 0.8609
-31.8997 -20.5178 -0.2135 0.8592
-31.9026 -21.4371 -0.2164 0.8575
-31.8615 -24.3162 -0.2257 0.8519
-25.1431 -21.7040 -0.1870 0.8756
-31.9456 -28.7152 -0.2418 0.8421
-31.9406 -33.7208 -0.2615 0.8304
-31.9449 -35.1111 -0.2673 0.8271
-31.9494 -36.5646 -0.2734 0.8235
-31.9039 -38.0271 -0.2795 0.8199
-25.0146 -31.0612 -0.2245 0.8525
-31.2326 -45.8810 -0.3125 0.8009
-31.9909 -53.6795 -0.3518 0.7788
-31.0995 -57.2960 -0.3671 0.7705
-24.1105 -49.0165 -0.3075 0.8037
-32.0100 -72.2645 -0.4450 0.7289
-32.0873 -81.0821 -0.4909 0.7055
-31.9616 -85.7576 -0.5153 0.6934
-31.7618 -90.7486 -0.5413 0.6807
-8.9462 -29.2814 -0.1724 0.8847
-10.6435 -48.4578 -0.2793 0.8200
-8.7797 -49.3524 -0.2822 0.8183
-2.4302 -20.8879 -0.1184 0.9193
-1.4185 -18.7107 -0.1056 0.9277
-1.0413 -18.7118 -0.1055 0.9278
-0.2889 -18.7142 -0.1054 0.9279
0.0868 -18.7153 -0.1054 0.9279
0.4627 -18.7165 -0.1054 0.9278
0.8390 -18.7177 -0.1055 0.9278
1.9762 -18.7471 -0.1061 0.9274
2.3578 -18.7483 -0.1064 0.9272
3.1272 -18.7507 -0.1070 0.9268
3.5157 -18.7519 -0.1074 0.9265
3.9072 -18.7531 -0.1079 0.9262
4.3020 -18.7543 -0.1083 0.9259
4.7006 -18.7555 -0.1089 0.9256
5.5103 -18.7581 -0.1101 0.9248
4.1595 -11.5400 -0.0691 0.9521
7.6280 -18.7646 -0.1140 0.9222
8.0712 -18.7660 -0.1150 0.9215
43.6533 -75.0809 -0.4890 0.7065
43.6682 -71.7516 -0.4729 0.7146
52.1977 -78.4882 -0.5307 0.6859
52.6025 -66.7816 -0.4786 0.7117
51.9819 -63.3353 -0.4613 0.7205
56.5448 -63.5140 -0.4788 0.7117
53.3686 -57.5760 -0.4420 0.7305
62.7921 -62.5104 -0.4989 0.7016
67.0914 -61.6301 -0.5129 0.6946
53.4010 -47.1128 -0.4009 0.7521
54.5831 -42.5977 -0.3898 0.7581
56.9121 -42.6049 -0.4003 0.7525
65.1206 -42.8867 -0.4390 0.7321
67.6624 -42.6382 -0.4503 0.7262
77.7229 -42.6694 -0.4992 0.7014
88.4823 -31.4442 -0.5287 0.6869
88.2989 -29.3963 -0.5240 0.6892
88.6844 -25.6190 -0.5197 0.6913
82.2834 -18.4858 -0.4748 0.7137
92.0019 11.1235 -0.5218 0.6903
30.6120 8.1716 -0.1784 0.8810
74.5268 35.2274 -0.4641 0.7191
44.2422 24.2723 -0.2841 0.8172
40.1531 25.2870 -0.2672 0.8271
39.6374 26.0880 -0.2672 0.8271
39.1057 26.8785 -0.2672 0.8271
34.1455 24.4929 -0.2366 0.8453
32.7431 24.4972 -0.2302 0.8491
31.7604 24.7719 -0.2268 0.8512
31.7636 25.8166 -0.2304 0.8490
23.3296 19.7524 -0.1721 0.8849
31.7704 28.0133 -0.2385 0.8441
34.2300 32.7162 -0.2666 0.8275
24.6469 24.5223 -0.1957 0.8702
22.7487 24.5282 -0.1883 0.8748
14.5634 17.0252 -0.1261 0.9143
22.4751 29.7252 -0.2098 0.8615
23.7430 32.7486 -0.2277 0.8506
16.3355 24.5480 -0.1660 0.8887
15.6351 24.5502 -0.1639 0.8901
14.9522 24.5523 -0.1618 0.8914
14.2857 24.5544 -0.1599 0.8926
13.6345 24.5564 -0.1581 0.8937
13.5137 25.5337 -0.1627 0.8909
-31.1375 24.8316 -1.1214 0.8527
-33.7843 24.7907 -1.1799 0.8456
-38.9648 27.4060 -1.3414 0.8264
-38.7808 26.1288 -1.3167 0.8293
-38.8411 25.0506 -1.3014 0.8311
-38.8473 23.9642 -1.2852 0.8331
-38.8635 20.8548 -1.2419 0.8382
-38.8748 18.8917 -1.2170 0.8412
-38.8246 17.9129 -1.2040 0.8427
-31.1039 13.6002 -0.9559 0.8730
-83.1225 26.7930 -2.4591 0.7051
-84.6210 21.7502 -2.4602 0.7050
-63.2031 13.5658 -1.8202 0.7721
-84.3578 16.3421 -2.4195 0.7090
-84.1538 11.0980 -2.3901 0.7120
-84.1819 9.3865 -2.3851 0.7125
-84.1171 5.9731 -2.3745 0.7136
-58.7937 2.9900 -1.6576 0.7901
-60.5039 1.8602 -1.7045 0.7849
-66.3715 -0.6251 -1.8690 0.7667
-83.3332 -4.1344 -2.3494 0.7161
-83.1001 -7.4763 -2.3494 0.7161
-82.9332 -9.1432 -2.3494 0.7161
-84.5010 -12.7675 -2.4064 0.7104
-85.9718 -14.7608 -2.4562 0.7054
-87.0804 -16.7575 -2.4970 0.7013
-86.0786 -22.0111 -2.5018 0.7008
-85.6194 -23.7347 -2.5018 0.7008
-49.2790 -16.9152 -1.4671 0.8118
-43.5527 -16.9329 -1.3158 0.8295
-38.7040 -16.8662 -1.1888 0.8446
-36.8656 -16.9537 -1.1426 0.8501
-35.0089 -16.9594 -1.0953 0.8558
-33.2990 -16.9647 -1.0523 0.8611
-31.8916 -17.8953 -1.0297 0.8639
-31.8969 -19.6221 -1.0545 0.8608
-25.0497 -21.6233 -0.9318 0.8760
-31.9460 -28.7156 -1.2095 0.8421
-31.7246 -30.9073 -1.2471 0.8376
-30.4796 -30.9111 -1.2224 0.8405
-31.9449 -35.1111 -1.3366 0.8270
-31.9039 -38.0271 -1.3977 0.8199
-32.0018 -43.1771 -1.5133 0.8065
-32.0073 -45.0476 -1.5560 0.8016
-23.6484 -34.7397 -1.1833 0.8452
-23.7000 -41.6468 -1.3493 0.8255
-23.4463 -43.1959 -1.3839 0.8215
-23.4449 -45.3414 -1.4373 0.8153
-23.3287 -47.4270 -1.4883 0.8094
-8.3505 -19.9225 -0.6083 0.9172
-23.4538 -59.2659 -1.7947 0.7749
-23.5606 -77.1148 -2.2705 0.7242
-8.3219 -29.3330 -0.8586 0.8851
-20.7985 -86.3777 -2.5017 0.7008
-19.0602 -86.7778 -2.5017 0.7008
-3.7013 -18.6288 -0.5348 0.9268
-8.7591 -49.2365 -1.4082 0.8186
-2.0093 -20.9212 -0.5918 0.9193
-1.0431 -18.7437 -0.5286 0.9276
-0.6660 -18.7449 -0.5282 0.9277
-0.2894 -18.7461 -0.5279 0.9277
0.0870 -18.7472 -0.5279 0.9277
1.2089 -18.6098 -0.5251 0.9281
1.5990 -18.7779 -0.5307 0.9274
2.3618 -18.7803 -0.5330 0.9271
2.7460 -18.7814 -0.5345 0.9269
4.3094 -18.7863 -0.5427 0.9258
5.1119 -18.7888 -0.5483 0.9250
5.9324 -18.7913 -0.5549 0.9242
7.2042 -18.7952 -0.5668 0.9226
10.9936 -20.7863 -0.6621 0.9102
29.1944 -45.8699 -1.5310 0.8045
48.9523 -67.5601 -2.3492 0.7162
50.2988 -66.5637 -2.3492 0.7162
51.6250 -65.5405 -2.3492 0.7162
51.9819 -63.3353 -2.3071 0.7205
52.9980 -57.1762 -2.1952 0.7320
60.0741 -57.4500 -2.3406 0.7170
53.0415 -43.1357 -1.9251 0.7607
54.1048 -42.2244 -1.9325 0.7599
56.4134 -42.2315 -1.9843 0.7543
61.4281 -42.2471 -2.0993 0.7421
64.1622 -42.2556 -2.1633 0.7353
67.0695 -42.2646 -2.2322 0.7282
70.1695 -42.2742 -2.3067 0.7205
72.3127 -41.6100 -2.3492 0.7162
73.1334 -40.1498 -2.3492 0.7162
70.5130 -35.1039 -2.2179 0.7296
74.9147 -31.8222 -2.2919 0.7220
44.8121 -15.9250 -1.3391 0.8267
74.8666 -21.6273 -2.1943 0.7321
82.3536 -13.3543 -2.3492 0.7162
87.9638 -12.4572 -2.5016 0.7008
88.1962 -10.6888 -2.5016 0.7008
88.3930 -8.9160 -2.5016 0.7008
88.6796 -5.3604 -2.5016 0.7008
88.7694 -3.5790 -2.5016 0.7008
88.8233 -1.7962 -2.5016 0.7008
88.8239 1.7710 -2.5016 0.7008
79.7266 12.9051 -2.2741 0.7238
71.2769 13.0108 -2.0402 0.7483
63.5015 12.9140 -1.8246 0.7716
54.1776 13.3032 -1.5708 0.7999
30.6087 8.1708 -0.8921 0.8809
79.2472 22.8684 -2.3225 0.7189
50.9041 15.8031 -1.5008 0.8079
64.7925 23.0047 -1.9360 0.7595
40.7842 18.2854 -1.2585 0.8362
32.2877 17.7138 -1.0370 0.8630
32.2903 18.5682 -1.0488 0.8615
22.6080 16.9145 -0.7950 0.8932
22.6102 17.6351 -0.8074 0.8916
22.6149 19.1473 -0.8344 0.8882
22.6174 19.9426 -0.8491 0.8863
22.6225 21.6221 -0.8812 0.8823
23.4973 24.3366 -0.9525 0.8734
22.5737 24.3394 -0.9347 0.8756
14.5344 19.2229 -0.6786 0.9081
13.9625 20.0952 -0.6890 0.9067
14.5363 24.9851 -0.8139 0.8908
14.5400 26.1873 -0.8434 0.8870
14.5440 27.4804 -0.8755 0.8830
-17.3162 13.2495 -1.1058 0.9164
-18.0624 13.2541 -1.1362 0.9142
-20.5712 13.2675 -1.2414 0.9066
-21.5167 13.2733 -1.2821 0.9037
-22.4625 13.2417 -1.3224 0.9008
-23.8964 13.4480 -1.3906 0.8960
-27.2627 13.2487 -1.5372 0.8857
-30.7215 13.4330 -1.7004 0.8743
-32.6117 13.4863 -1.7897 0.8682
-34.5046 13.4645 -1.8784 0.8621
-36.7584 13.5000 -1.9859 0.8548
-44.3643 14.3000 -2.3639 0.8297
-45.0888 10.6290 -2.3493 0.8307
-45.2931 9.7216 -2.3493 0.8307
-45.4792 8.8104 -2.3493 0.8307
-48.9065 6.4497 -2.5017 0.8207
-49.1260 4.4812 -2.5017 0.8207
-49.2060 3.4941 -2.5017 0.8207
-49.2663 2.5055 -2.5017 0.8207
-49.3066 1.5159 -2.5017 0.8207
-49.3085 -1.4548 -2.5017 0.8207
-49.2693 -2.4444 -2.5017 0.8207
-49.2103 -3.4330 -2.5017 0.8207
-49.1315 -4.4203 -2.5017 0.8207
-49.0329 -5.4058 -2.5017 0.8207
-44.6413 -12.3751 -2.3493 0.8307
-44.3838 -13.2689 -2.3493 0.8307
-44.1085 -14.1572 -2.3493 0.8307
-43.8154 -15.0398 -2.3493 0.8307
-36.8656 -16.9537 -2.0578 0.8500
-35.0089 -16.9594 -1.9728 0.8557
-31.8969 -19.6221 -1.8992 0.8607
-32.0620 -21.5442 -1.9590 0.8567
-30.9905 -22.6816 -1.9476 0.8574
-23.6561 -19.6055 -1.5582 0.8842
-23.3118 -20.9544 -1.5896 0.8820
-23.5230 -22.0140 -1.6339 0.8789
-23.3500 -22.7484 -1.6532 0.8776
-23.4222 -23.7537 -1.6918 0.8749
-23.3708 -24.6734 -1.7235 0.8727
-23.4332 -27.9305 -1.8490 0.8641
-23.3981 -29.0539 -1.8919 0.8612
-23.3613 -30.2311 -1.9376 0.8581
-23.3884 -31.5557 -1.9920 0.8544
-23.3707 -34.3318 -2.1062 0.8468
-23.3826 -37.5020 -2.2413 0.8378
-23.4168 -39.2925 -2.3197 0.8326
-23.3501 -43.0188 -2.4823 0.8220
-21.7731 -44.2645 -2.5017 0.8207
-20.8800 -44.6927 -2.5017 0.8207
-8.3791 -19.9909 -1.0993 0.9168
-17.2274 -46.2236 -2.5017 0.8207
-14.4137 -47.1767 -2.5017 0.8207
-9.2656 -35.3472 -1.8532 0.8639
-2.4339 -20.9199 -1.0681 0.9191
-1.4185 -18.7107 -0.9516 0.9276
-1.0431 -18.7437 -0.9520 0.9276
-0.6660 -18.7449 -0.9512 0.9276
0.0870 -18.7473 -0.9508 0.9277
0.4635 -18.7484 -0.9511 0.9276
1.5990 -18.7779 -0.9558 0.9273
3.9138 -18.7851 -0.9731 0.9260
4.3094 -18.7863 -0.9775 0.9257
4.7086 -18.7875 -0.9823 0.9254
5.1119 -18.7888 -0.9875 0.9250
5.5197 -18.7900 -0.9932 0.9246
7.2042 -18.7952 -1.0208 0.9225
7.6410 -18.7966 -1.0290 0.9219
8.0751 -18.7750 -1.0366 0.9214
10.4731 -20.8021 -1.1811 0.9109
10.9936 -20.7863 -1.1925 0.9101
27.3162 -41.0746 -2.5017 0.8207
28.1353 -40.5179 -2.5017 0.8207
28.5912 -37.8366 -2.4051 0.8270
29.4838 -35.9234 -2.3569 0.8302
30.9022 -34.7109 -2.3569 0.8302
34.2530 -35.4967 -2.5016 0.8207
31.6729 -30.2894 -2.2225 0.8390
36.3275 -33.3704 -2.5016 0.8207
36.9901 -32.6344 -2.5016 0.8207
29.2395 -22.8191 -1.8810 0.8620
39.4889 -29.5618 -2.5016 0.8207
29.2427 -20.9886 -1.8255 0.8657
42.5282 -24.4714 -2.4883 0.8216
42.5336 -23.3507 -2.4607 0.8234
42.5437 -21.1798 -2.4102 0.8267
42.5596 -20.1319 -2.3877 0.8281
42.6585 -19.1403 -2.3712 0.8292
43.4740 -16.4397 -2.3571 0.8301
44.4345 -14.7930 -2.3751 0.8290
45.0672 -14.0051 -2.3934 0.8278
45.8336 -13.2404 -2.4195 0.8261
47.8037 -11.7525 -2.4965 0.8211
48.5235 -8.8717 -2.5016 0.8207
48.8405 -6.9167 -2.5016 0.8207
48.9695 -5.9348 -2.5016 0.8207
49.0788 -4.9505 -2.5016 0.8207
49.1683 -3.9642 -2.5016 0.8207
49.2387 2.9623 -2.5016 0.8207
49.1693 3.9502 -2.5016 0.8207
49.0801 4.9365 -2.5016 0.8207
48.9711 5.9208 -2.5016 0.8207
48.8424 6.9028 -2.5016 0.8207
48.5544 7.8593 -2.4945 0.8212
45.5697 8.3183 -2.3492 0.8307
30.6054 8.1699 -1.6065 0.8808
44.5067 12.8433 -2.3492 0.8307
44.1611 14.6881 -2.3602 0.8299
43.8996 15.5869 -2.3625 0.8298
43.5842 16.4672 -2.3628 0.8298
40.7873 19.2793 -2.2879 0.8347
33.2818 16.5571 -1.8852 0.8617
32.2851 16.8781 -1.8476 0.8642
32.2877 17.7138 -1.8677 0.8629
32.2930 19.4427 -1.9116 0.8599
24.1303 16.5855 -1.4849 0.8893
23.1262 16.5886 -1.4434 0.8923
22.6226 21.6220 -1.5870 0.8822
15.4073 16.6125 -1.1491 0.9132
14.2136 16.6162 -1.1089 0.9161
13.9528 16.9904 -1.1150 0.9157
13.9551 17.7063 -1.1433 0.9137
13.9574 18.4598 -1.1737 0.9115
13.9625 20.0952 -1.2410 0.9066
24.9133 40.9090 -2.4291 0.8254
-17.5723 13.4455 -1.6223 0.9151
-18.2236 13.3725 -1.6573 0.9133
-18.7679 13.2005 -1.6824 0.9121
-20.7869 13.4066 -1.8136 0.9056
-21.7366 13.4090 -1.8726 0.9026
-22.4625 13.2417 -1.9119 0.9007
-23.9171 13.4596 -2.0123 0.8958
-27.2627 13.2487 -2.2225 0.8855
-29.8487 11.6476 -2.3493 0.8794
-30.4958 9.8297 -2.3493 0.8794
-29.4292 8.1975 -2.2400 0.8847
-31.0322 7.9762 -2.3493 0.8794
-32.2293 7.5975 -2.4279 0.8756
-33.3534 7.1589 -2.5012 0.8721
-33.6201 5.8153 -2.5017 0.8721
-33.7301 5.1392 -2.5017 0.8721
-33.8265 4.4610 -2.5017 0.8721
-33.9093 3.7810 -2.5017 0.8721
-34.1175 0.3637 -2.5017 0.8721
-34.1179 -0.3213 -2.5017 0.8721
-34.1046 -1.0062 -2.5017 0.8721
-34.0775 -1.6907 -2.5017 0.8721
-34.0367 -2.3745 -2.5017 0.8721
-33.8320 -4.4190 -2.5017 0.8721
-33.6274 -5.7736 -2.5017 0.8721
-33.3685 -7.1189 -2.5017 0.8721
-32.6899 -9.7728 -2.5017 0.8721
-32.2279 -11.0624 -2.4984 0.8723
-28.2516 -15.1151 -2.3493 0.8794
-27.9424 -15.6793 -2.3493 0.8794
-27.2904 -16.7883 -2.3493 0.8794
-26.9479 -17.3328 -2.3493 0.8794
-26.2304 -18.4006 -2.3493 0.8794
-23.3942 -21.8935 -2.3493 0.8794
-23.3306 -22.7295 -2.3883 0.8775
-23.3159 -24.6154 -2.4860 0.8729
-22.4500 -25.6929 -2.5017 0.8721
-21.9296 -26.1385 -2.5017 0.8721
-20.3165 -27.4111 -2.5017 0.8721
-19.1997 -28.2046 -2.5017 0.8721
-18.0520 -28.9526 -2.5017 0.8721
-16.8752 -29.6538 -2.5017 0.8721
-15.6711 -30.3074 -2.5017 0.8721
-15.0595 -30.6159 -2.5017 0.8721
-8.4734 -18.1369 -1.4678 0.9228
-9.2293 -23.3218 -1.8390 0.9043
-8.9541 -24.0251 -1.8799 0.9023
-8.1994 -28.9012 -2.2027 0.8865
-6.8737 -31.2947 -2.3493 0.8794
-3.7013 -18.6288 -1.3926 0.9267
-3.6912 -20.7491 -1.5453 0.9189
-3.2631 -20.7504 -1.5402 0.9192
-2.8377 -20.7517 -1.5357 0.9194
-2.4145 -20.7530 -1.5319 0.9196
-1.4185 -18.7107 -1.3758 0.9275
-1.0431 -18.7437 -1.3765 0.9275
-0.6660 -18.7449 -1.3753 0.9275
-0.2894 -18.7461 -1.3747 0.9276
0.0870 -18.7472 -1.3746 0.9276
0.8404 -18.7496 -1.3761 0.9275
1.5963 -18.7460 -1.3795 0.9273
1.9762 -18.7471 -1.3822 0.9272
2.3578 -18.7483 -1.3855 0.9270
2.7413 -18.7495 -1.3894 0.9268
3.1272 -18.7507 -1.3938 0.9266
4.7006 -18.7555 -1.4177 0.9254
5.9223 -18.7593 -1.4424 0.9241
6.2939 -18.6255 -1.4415 0.9242
7.1418 -18.6325 -1.4631 0.9231
8.4609 -18.6322 -1.5004 0.9212
16.6574 -27.3699 -2.3493 0.8794
17.7426 -26.6791 -2.3493 0.8794
17.5852 -25.3246 -2.2606 0.8837
20.0189 -27.6285 -2.5017 0.8721
21.1118 -26.8026 -2.5017 0.8721
22.1708 -25.9334 -2.5017 0.8721
24.1797 -24.0712 -2.5017 0.8721
26.0328 -22.0539 -2.5017 0.8721
26.4703 -21.5268 -2.5017 0.8721
26.8972 -20.9911 -2.5017 0.8721
27.3131 -20.4468 -2.5016 0.8721
27.7181 -19.8943 -2.5016 0.8721
28.1119 -19.3339 -2.5016 0.8721
28.4943 -18.7656 -2.5016 0.8721
28.5961 -17.2279 -2.4478 0.8747
28.7202 -16.5261 -2.4296 0.8756
29.0423 -15.9441 -2.4292 0.8756
30.8420 -14.5892 -2.5016 0.8721
31.1287 -13.9670 -2.5016 0.8721
31.4028 -13.3393 -2.5016 0.8721
32.1488 -11.4248 -2.5016 0.8721
32.5815 -10.1250 -2.5016 0.8721
33.4322 -6.8088 -2.5016 0.8721
33.7814 -4.7840 -2.5016 0.8721
33.8707 -4.1049 -2.5016 0.8721
33.9462 -3.4241 -2.5016 0.8721
34.0081 -2.7419 -2.5016 0.8721
34.0563 -2.0586 -2.5016 0.8721
34.1184 -0.0049 -2.5016 0.8721
34.1117 0.6801 -2.5016 0.8721
34.0569 2.0489 -2.5016 0.8721
34.0089 2.7322 -2.5016 0.8721
33.9472 3.4144 -2.5016 0.8721
33.6801 5.4517 -2.5016 0.8721
33.4341 6.7993 -2.5016 0.8721
33.2716 7.4648 -2.5002 0.8722
30.5122 8.1450 -2.3156 0.8810
30.1933 10.7202 -2.3492 0.8794
29.2360 13.1078 -2.3492 0.8794
28.7510 14.3032 -2.3545 0.8792
27.0613 17.8108 -2.3754 0.8782
24.1303 16.5855 -2.1469 0.8892
23.1262 16.5886 -2.0868 0.8921
22.6080 16.9145 -2.0703 0.8929
22.6125 18.3788 -2.1366 0.8897
22.6174 19.9426 -2.2109 0.8861
22.6199 20.7667 -2.2515 0.8841
22.6226 21.6220 -2.2945 0.8820
23.0012 22.8849 -2.3790 0.8780
15.4073 16.6125 -1.6613 0.9131
13.9528 16.9904 -1.6120 0.9156
13.9574 18.4598 -1.6969 0.9114
13.9652 20.9861 -1.8483 0.9038
13.9681 21.9328 -1.9066 0.9010
16.9597 27.8489 -2.3908 0.8774
14.6954 29.1679 -2.3947 0.8772
-17.0817 13.6224 -2.0976 0.9159
-17.5422 13.4224 -2.1206 0.9151
-18.7679 13.2005 -2.2029 0.9119
-20.5645 13.2631 -2.3493 0.9063
-21.0803 12.4269 -2.3493 0.9063
-21.3256 12.0012 -2.3493 0.9063
-21.7902 11.1354 -2.3493 0.9063
-22.0093 10.6957 -2.3493 0.9063
-22.2196 10.2517 -2.3493 0.9063
-22.6132 9.3515 -2.3493 0.9063
-22.9704 8.4362 -2.3493 0.9063
-23.1352 7.9733 -2.3493 0.9063
-25.2377 6.4869 -2.5017 0.9006
-25.3628 5.9789 -2.5017 0.9006
-25.6768 4.4413 -2.5017 0.9006
-25.8344 3.4070 -2.5017 0.9006
-25.8975 2.8876 -2.5017 0.9006
-26.0244 1.3235 -2.5017 0.9006
-26.0569 -0.2454 -2.5017 0.9006
-26.0260 -1.2912 -2.5017 0.9006
-25.9949 -1.8135 -2.5017 0.9006
-25.9011 -2.8555 -2.5017 0.9006
-25.6823 -4.4095 -2.5017 0.9006
-25.5886 -4.9242 -2.5017 0.9006
-25.4846 -5.4369 -2.5017 0.9006
-25.3703 -5.9474 -2.5017 0.9006
-25.2457 -6.4556 -2.5017 0.9006
-25.1111 -6.9611 -2.5017 0.9006
-24.6465 -8.4600 -2.5017 0.9006
-23.2184 -11.8290 -2.5017 0.9006
-22.4643 -13.2052 -2.5017 0.9006
-21.9161 -14.0964 -2.5017 0.9006
-21.6287 -14.5335 -2.5017 0.9006
-20.7146 -15.8091 -2.5017 0.9006
-20.0633 -16.6279 -2.5017 0.9006
-19.7254 -17.0273 -2.5017 0.9006
-19.3796 -17.4199 -2.5017 0.9006
-19.0259 -17.8054 -2.5017 0.9006
-18.6647 -18.1838 -2.5017 0.9006
-18.2958 -18.5549 -2.5017 0.9006
-16.7483 -19.9628 -2.5017 0.9006
-16.3442 -20.2950 -2.5017 0.9006
-15.9335 -20.6190 -2.5017 0.9006
-15.5163 -20.9347 -2.5017 0.9006
-15.0929 -21.2420 -2.5017 0.9006
-14.2280 -21.8308 -2.5017 0.9006
-13.3402 -22.3843 -2.5017 0.9006
-12.8881 -22.6476 -2.5017 0.9006
-9.4355 -17.3835 -1.8989 0.9236
-11.9685 -23.1467 -2.5017 0.9006
-11.5014 -23.3824 -2.5017 0.9006
-8.5215 -18.2399 -1.9328 0.9223
-8.6235 -19.4682 -2.0442 0.9180
-8.1504 -19.4452 -2.0242 0.9188
-8.0727 -20.3993 -2.1062 0.9156
-5.7284 -23.7905 -2.3493 0.9063
-3.6912 -20.7491 -2.0233 0.9188
-2.8377 -20.7517 -2.0108 0.9193
-2.4145 -20.7530 -2.0058 0.9195
-1.9933 -20.7543 -2.0017 0.9196
-1.4185 -18.7107 -1.8015 0.9274
-0.2894 -18.7461 -1.7999 0.9274
0.0870 -18.7472 -1.7998 0.9274
0.8404 -18.7496 -1.8019 0.9274
1.2089 -18.6098 -1.7904 0.9278
1.5847 -18.6109 -1.7932 0.9277
3.4904 -18.6168 -1.8184 0.9267
3.8790 -18.6180 -1.8258 0.9264
4.2710 -18.6192 -1.8340 0.9261
5.0664 -18.6217 -1.8528 0.9254
5.8796 -18.6242 -1.8750 0.9245
4.1571 -11.5334 -1.1770 0.9519
7.1401 -18.6281 -1.9153 0.9230
7.5730 -18.6294 -1.9306 0.9224
8.0131 -18.6308 -1.9471 0.9217
10.4731 -20.8021 -2.2359 0.9107
12.2996 -21.1545 -2.3493 0.9063
12.7218 -20.9033 -2.3493 0.9063
13.5507 -20.3758 -2.3493 0.9063
13.9570 -20.0996 -2.3493 0.9063
15.1416 -19.2230 -2.3493 0.9063
15.5244 -18.9151 -2.3493 0.9063
15.9010 -18.5997 -2.3493 0.9063
16.2712 -18.2767 -2.3493 0.9063
16.6349 -17.9463 -2.3493 0.9063
16.9918 -17.6088 -2.3493 0.9063
17.3419 -17.2641 -2.3493 0.9063
19.1900 -17.6279 -2.5017 0.9006
19.5400 -17.2391 -2.5017 0.9006
20.2163 -16.4408 -2.5017 0.9006
20.8600 -15.6159 -2.5017 0.9006
21.4700 -14.7660 -2.5017 0.9006
22.0455 -13.8922 -2.5017 0.9006
22.8418 -12.5400 -2.5017 0.9006
23.0889 -12.0789 -2.5017 0.9006
23.3267 -11.6129 -2.5017 0.9006
23.5551 -11.1423 -2.5017 0.9006
23.9835 -10.1877 -2.5017 0.9006
24.1832 -9.7042 -2.5017 0.9006
24.5532 -8.7255 -2.5016 0.9006
24.7234 -8.2309 -2.5016 0.9006
24.8837 -7.7329 -2.5016 0.9006
25.0339 -7.2318 -2.5016 0.9006
25.3040 -6.2209 -2.5016 0.9006
25.4238 -5.7117 -2.5016 0.9006
25.6326 -4.6865 -2.5016 0.9006
25.7215 -4.1710 -2.5016 0.9006
25.8001 -3.6537 -2.5016 0.9006
25.9259 -2.6151 -2.5016 0.9006
25.9732 -2.0941 -2.5016 0.9006
26.0100 -1.5722 -2.5016 0.9006
26.0574 -0.0037 -2.5016 0.9006
26.0523 0.5194 -2.5016 0.9006
26.0104 1.5648 -2.5016 0.9006
25.9737 2.0867 -2.5016 0.9006
25.8691 3.1277 -2.5016 0.9006
25.8010 3.6464 -2.5016 0.9006
25.7226 4.1636 -2.5016 0.9006
25.5348 5.1929 -2.5016 0.9006
25.1759 6.7205 -2.5016 0.9006
25.0359 7.2246 -2.5016 0.9006
23.4946 7.8143 -2.3771 0.9053
23.0597 8.1874 -2.3492 0.9063
22.7124 9.1065 -2.3492 0.9063
22.5250 9.5606 -2.3492 0.9063
22.3286 10.0109 -2.3492 0.9063
21.4535 11.7699 -2.3492 0.9063
21.2129 12.1982 -2.3492 0.9063
20.9637 12.6217 -2.3492 0.9063
20.7061 13.0400 -2.3492 0.9063
20.4402 13.4530 -2.3492 0.9063
19.7063 14.7436 -2.3628 0.9058
19.4696 15.1855 -2.3705 0.9055
19.2225 15.6235 -2.3781 0.9053
18.2769 16.7795 -2.3820 0.9051
17.9383 17.1450 -2.3823 0.9051
17.2395 17.8553 -2.3828 0.9051
13.9528 16.9904 -2.1107 0.9154
-15.4626 12.3311 -2.3493 0.9234
-16.6206 10.7195 -2.3493 0.9234
-17.0375 10.0436 -2.3493 0.9234
-17.7883 8.6444 -2.3493 0.9234
-17.9582 8.2856 -2.3493 0.9234
-18.1210 7.9234 -2.3493 0.9234
-18.5167 7.6574 -2.3802 0.9225
-19.9112 6.8622 -2.5017 0.9187
-20.0449 6.4611 -2.5017 0.9187
-20.1706 6.0574 -2.5017 0.9187
-20.2881 5.6512 -2.5017 0.9187
-20.3975 5.2428 -2.5017 0.9187
-20.4987 4.8322 -2.5017 0.9187
-20.5916 4.4197 -2.5017 0.9187
-20.6761 4.0054 -2.5017 0.9187
-20.7524 3.5895 -2.5017 0.9187
-20.8797 2.7536 -2.5017 0.9187
-21.0076 1.4917 -2.5017 0.9187
-21.0334 1.0697 -2.5017 0.9187
-21.0594 0.2245 -2.5017 0.9187
-21.0514 -0.6211 -2.5017 0.9187
-21.0095 -1.4657 -2.5017 0.9187
-20.9758 -1.8872 -2.5017 0.9187
-20.9337 -2.3079 -2.5017 0.9187
-20.8831 -2.7277 -2.5017 0.9187
-20.8242 -3.1464 -2.5017 0.9187
-20.7568 -3.5638 -2.5017 0.9187
-20.5047 -4.8068 -2.5017 0.9187
-20.0530 -6.4362 -2.5017 0.9187
-19.9197 -6.8375 -2.5017 0.9187
-19.7784 -7.2361 -2.5017 0.9187
-19.6292 -7.6317 -2.5017 0.9187
-18.9537 -9.1818 -2.5017 0.9187
-18.1560 -10.6727 -2.5017 0.9187
-17.9381 -11.0350 -2.5017 0.9187
-17.7129 -11.3929 -2.5017 0.9187
-16.4820 -13.1107 -2.5017 0.9187
-16.2154 -13.4389 -2.5017 0.9187
-15.9424 -13.7618 -2.5017 0.9187
-15.6629 -14.0790 -2.5017 0.9187
-14.7870 -14.9964 -2.5017 0.9187
-14.4830 -15.2902 -2.5017 0.9187
-13.8575 -15.8592 -2.5017 0.9187
-12.8777 -16.6646 -2.5017 0.9187
-11.8512 -17.4096 -2.5017 0.9187
-11.4993 -17.6440 -2.5017 0.9187
-11.1428 -17.8713 -2.5017 0.9187
-9.0839 -17.5679 -2.3493 0.9234
-8.3714 -17.9184 -2.3493 0.9234
-8.0099 -18.0829 -2.3493 0.9234
-7.6453 -18.2400 -2.3493 0.9234
-7.2776 -18.3898 -2.3493 0.9234
-6.9069 -18.5322 -2.3493 0.9234
-6.1574 -18.7946 -2.3493 0.9234
-5.7789 -18.9144 -2.3493 0.9234
-5.3980 -19.0266 -2.3493 0.9234
-2.5809 -18.8739 -2.2628 0.9261
-2.2015 -18.9220 -2.2628 0.9261
-1.8212 -18.9623 -2.2628 0.9261
-1.4185 -18.7107 -2.2289 0.9272
-1.0413 -18.7118 -2.2261 0.9273
-0.6649 -18.7130 -2.2242 0.9273
0.0868 -18.7153 -2.2231 0.9274
0.8390 -18.7177 -2.2256 0.9273
1.9619 -18.6121 -2.2231 0.9274
2.7216 -18.6144 -2.2346 0.9270
3.1046 -18.6156 -2.2418 0.9268
3.4904 -18.6168 -2.2499 0.9265
3.8790 -18.6180 -2.2590 0.9263
4.2710 -18.6192 -2.2691 0.9259
4.6667 -18.6205 -2.2803 0.9256
5.4706 -18.6229 -2.3056 0.9248
7.0785 -18.4672 -2.3493 0.9234
8.1773 -18.0076 -2.3493 0.9234
8.8936 -17.6649 -2.3493 0.9234
9.5955 -17.2936 -2.3493 0.9234
10.9519 -16.4681 -2.3493 0.9234
11.9234 -15.7789 -2.3493 0.9234
12.5472 -15.2876 -2.3493 0.9234
13.4446 -14.5046 -2.3493 0.9234
13.7331 -14.2318 -2.3493 0.9234
14.2933 -13.6690 -2.3493 0.9234
14.8305 -13.0842 -2.3493 0.9234
16.6027 -12.9570 -2.5017 0.9187
17.1094 -12.2801 -2.5017 0.9187
17.8176 -11.2279 -2.5017 0.9187
18.4611 -10.1350 -2.5017 0.9187
18.8531 -9.3858 -2.5017 0.9187
19.2147 -8.6214 -2.5017 0.9187
19.5453 -7.8431 -2.5017 0.9187
19.6988 -7.4491 -2.5017 0.9187
19.9819 -6.6523 -2.5017 0.9187
20.4512 -5.0279 -2.5017 0.9187
20.4387 -4.5918 -2.4883 0.9191
20.6365 -4.2029 -2.5017 0.9187
20.7886 -3.3711 -2.5017 0.9187
20.9920 -1.6925 -2.5017 0.9187
21.0218 -1.2707 -2.5017 0.9187
21.0558 -0.4258 -2.5017 0.9187
21.0433 0.8424 -2.5017 0.9187
21.0221 1.2647 -2.5017 0.9187
20.9544 2.1076 -2.5017 0.9187
20.9079 2.5279 -2.5017 0.9187
20.8529 2.9471 -2.5017 0.9187
20.6377 4.1970 -2.5017 0.9187
20.5493 4.6104 -2.5017 0.9187
20.4526 5.0221 -2.5017 0.9187
19.8463 7.0465 -2.5017 0.9187
19.6863 7.4380 -2.4998 0.9187
19.4027 7.7795 -2.4831 0.9192
18.3687 7.7965 -2.3704 0.9228
18.0464 8.0910 -2.3493 0.9234
17.8803 8.4517 -2.3493 0.9234
17.7070 8.8089 -2.3493 0.9234
17.5266 9.1626 -2.3493 0.9234
16.5201 10.8730 -2.3493 0.9234
16.2985 11.2025 -2.3493 0.9234
15.5947 12.1632 -2.3493 0.9234
15.0938 12.7794 -2.3493 0.9234
14.5686 13.3751 -2.3493 0.9234
14.2972 13.6649 -2.3493 0.9234
14.0200 13.9491 -2.3493 0.9234
13.7694 14.2614 -2.3548 0.9233
12.6924 15.4556 -2.3756 0.9226
12.4054 15.7401 -2.3806 0.9224
12.1116 16.0186 -2.3855 0.9223
11.7947 16.2684 -2.3869 0.9222
11.4670 16.5037 -2.3872 0.9222
11.1346 16.7324 -2.3874 0.9222
10.4562 17.1696 -2.3879 0.9222
10.1105 17.3780 -2.3882 0.9222
9.7607 17.5794 -2.3885 0.9222
9.4068 17.7739 -2.3887 0.9222
9.0492 17.9612 -2.3890 0.9222
-12.9631 10.3378 -2.3493 0.9352
-13.3677 9.8091 -2.3493 0.9352
-13.9339 8.9867 -2.3493 0.9352
-14.1115 8.7052 -2.3493 0.9352
-14.4496 8.1316 -2.3493 0.9352
-15.7405 7.6493 -2.4797 0.9317
-16.0113 7.3873 -2.4984 0.9312
-16.3160 6.7473 -2.5017 0.9312
-16.4482 6.4184 -2.5017 0.9312
-16.5737 6.0869 -2.5017 0.9312
-16.8047 5.4167 -2.5017 0.9312
-16.9101 5.0782 -2.5017 0.9312
-17.0086 4.7377 -2.5017 0.9312
-17.1851 4.0511 -2.5017 0.9312
-17.2630 3.7053 -2.5017 0.9312
-17.3339 3.3580 -2.5017 0.9312
-17.3978 3.0093 -2.5017 0.9312
-17.5046 2.3085 -2.5017 0.9312
-17.5474 1.9566 -2.5017 0.9312
-17.6118 1.2506 -2.5017 0.9312
-17.6478 0.5426 -2.5017 0.9312
-17.6552 0.1882 -2.5017 0.9312
-17.6345 -0.8749 -2.5017 0.9312
-17.6134 -1.2288 -2.5017 0.9312
-17.5852 -1.5821 -2.5017 0.9312
-17.4016 -2.9878 -2.5017 0.9312
-17.3381 -3.3365 -2.5017 0.9312
-17.0145 -4.7166 -2.5017 0.9312
-16.8115 -5.3959 -2.5017 0.9312
-16.6998 -5.7323 -2.5017 0.9312
-16.5813 -6.0664 -2.5017 0.9312
-16.3244 -6.7271 -2.5017 0.9312
-16.0412 -7.3770 -2.5017 0.9312
-15.7321 -8.0150 -2.5017 0.9312
-15.3977 -8.6401 -2.5017 0.9312
-15.2212 -8.9475 -2.5017 0.9312
-15.0384 -9.2513 -2.5017 0.9312
-14.8497 -9.5513 -2.5017 0.9312
-14.6549 -9.8475 -2.5017 0.9312
-14.2478 -10.4279 -2.5017 0.9312
-13.1310 -11.8032 -2.5017 0.9312
-12.8914 -12.0645 -2.5017 0.9312
-12.3967 -12.5722 -2.5017 0.9312
-12.1418 -12.8186 -2.5017 0.9312
-11.6175 -13.2957 -2.5017 0.9312
-11.0744 -13.7513 -2.5017 0.9312
-10.7961 -13.9709 -2.5017 0.9312
-10.5134 -14.1848 -2.5017 0.9312
-10.2265 -14.3930 -2.5017 0.9312
-9.6405 -14.7919 -2.5017 0.9312
-8.5386 -14.3274 -2.3632 0.9348
-7.9097 -14.5723 -2.3493 0.9352
-7.6155 -14.7281 -2.3493 0.9352
-7.3183 -14.8781 -2.3493 0.9352
-7.0182 -15.0220 -2.3493 0.9352
-6.4095 -15.2916 -2.3493 0.9352
-6.1012 -15.4172 -2.3493 0.9352
-5.4773 -15.6497 -2.3493 0.9352
-5.1621 -15.7565 -2.3493 0.9352
-4.8447 -15.8570 -2.3493 0.9352
-3.8814 -16.1198 -2.3493 0.9352
-3.5570 -16.1945 -2.3493 0.9352
-2.9040 -16.3242 -2.3493 0.9352
-1.5851 -16.5046 -2.3493 0.9352
-1.2535 -16.5331 -2.3493 0.9352
-0.9213 -16.5549 -2.3493 0.9352
-0.5887 -16.5701 -2.3493 0.9352
0.4098 -16.5754 -2.3493 0.9352
1.0748 -16.5456 -2.3493 0.9352
1.7381 -16.4891 -2.3493 0.9352
2.7276 -16.3546 -2.3493 0.9352
3.0554 -16.2965 -2.3493 0.9352
3.7071 -16.1607 -2.3493 0.9352
4.6732 -15.9083 -2.3493 0.9352
6.8555 -15.0968 -2.3493 0.9352
7.4560 -14.8094 -2.3493 0.9352
7.7518 -14.6568 -2.3493 0.9352
8.0445 -14.4982 -2.3493 0.9352
8.3339 -14.3338 -2.3493 0.9352
8.6200 -14.1636 -2.3493 0.9352
8.9026 -13.9876 -2.3493 0.9352
10.2596 -13.0250 -2.3493 0.9352
11.0250 -12.3838 -2.3493 0.9352
11.7504 -11.6977 -2.3493 0.9352
11.9923 -11.4684 -2.3511 0.9352
13.6981 -11.1399 -2.5017 0.9312
14.5476 -10.0051 -2.5017 0.9312
15.3033 -8.8058 -2.5017 0.9312
15.4770 -8.4968 -2.5017 0.9312
15.9604 -7.5497 -2.5017 0.9312
16.6366 -5.9122 -2.5017 0.9312
16.7520 -5.5770 -2.5017 0.9312
16.8606 -5.2396 -2.5017 0.9312
17.0573 -4.5586 -2.5017 0.9312
17.1454 -4.2152 -2.5017 0.9312
17.2266 -3.8701 -2.5017 0.9312
17.3008 -3.5235 -2.5017 0.9312
17.4283 -2.8262 -2.5017 0.9312
17.4815 -2.4757 -2.5017 0.9312
17.5277 -2.1242 -2.5017 0.9312
17.5668 -1.7719 -2.5017 0.9312
17.5988 -1.4189 -2.5017 0.9312
17.6416 -0.7113 -2.5017 0.9312
17.6559 -0.0025 -2.5017 0.9312
17.6524 0.3520 -2.5017 0.9312
17.6418 0.7062 -2.5017 0.9312
17.6241 1.0603 -2.5017 0.9312
17.5673 1.7669 -2.5017 0.9312
17.5283 2.1192 -2.5017 0.9312
17.4822 2.4707 -2.5017 0.9312
17.2276 3.8652 -2.5017 0.9312
17.0586 4.5537 -2.5017 0.9312
16.9637 4.8952 -2.5017 0.9312
16.8620 5.2348 -2.5017 0.9312
16.7536 5.5722 -2.5017 0.9312
16.6383 5.9075 -2.5017 0.9312
16.3878 6.5706 -2.5017 0.9312
16.2525 6.8983 -2.5017 0.9312
16.1108 7.2232 -2.5017 0.9312
15.6138 7.7676 -2.4710 0.9320
13.2760 9.9326 -2.3493 0.9352
12.6540 10.7137 -2.3493 0.9352
12.4364 10.9656 -2.3493 0.9352
11.9861 11.4560 -2.3493 0.9352
11.5166 11.9279 -2.3493 0.9352
9.9997 13.2255 -2.3493 0.9352
9.7322 13.4236 -2.3493 0.9352
9.4608 13.6163 -2.3493 0.9352
8.9111 13.9921 -2.3504 0.9352
8.6401 14.1890 -2.3539 0.9351
8.0841 14.5651 -2.3605 0.9349
7.5145 14.9166 -2.3666 0.9347
-11.3256 8.6658 -2.3493 0.9438
-11.4973 8.4367 -2.3493 0.9438
-12.4413 7.6748 -2.4082 0.9425
-12.9918 7.6587 -2.4845 0.9407
-13.2135 7.4360 -2.4978 0.9404
-13.3809 7.1804 -2.5017 0.9403
-13.5223 6.9103 -2.5017 0.9403
-13.6584 6.6375 -2.5017 0.9403
-13.7889 6.3619 -2.5017 0.9403
-13.9138 6.0838 -2.5017 0.9403
-14.0331 5.8033 -2.5017 0.9403
-14.3570 4.9480 -2.5017 0.9403
-14.4534 4.6588 -2.5017 0.9403
-14.5441 4.3677 -2.5017 0.9403
-14.7077 3.7803 -2.5017 0.9403
-14.7806 3.4843 -2.5017 0.9403
-14.8476 3.1868 -2.5017 0.9403
-14.9086 2.8881 -2.5017 0.9403
-14.9636 2.5882 -2.5017 0.9403
-15.0125 2.2873 -2.5017 0.9403
-15.0554 1.9854 -2.5017 0.9403
-15.1476 1.0756 -2.5017 0.9403
-15.1662 0.7713 -2.5017 0.9403
-15.1849 0.1619 -2.5017 0.9403
-15.1851 -0.1430 -2.5017 0.9403
-15.1671 -0.7525 -2.5017 0.9403
-15.1489 -1.0568 -2.5017 0.9403
-14.9121 -2.8697 -2.5017 0.9403
-14.7849 -3.4660 -2.5017 0.9403
-14.7124 -3.7621 -2.5017 0.9403
-14.5495 -4.3496 -2.5017 0.9403
-14.1537 -5.5028 -2.5017 0.9403
-14.0403 -5.7859 -2.5017 0.9403
-13.9213 -6.0666 -2.5017 0.9403
-13.3898 -7.1638 -2.5017 0.9403
-13.0914 -7.6956 -2.5017 0.9403
-12.4319 -8.7210 -2.5017 0.9403
-12.2543 -8.9688 -2.5017 0.9403
-12.0718 -9.2130 -2.5017 0.9403
-11.8844 -9.4535 -2.5017 0.9403
-11.6922 -9.6902 -2.5017 0.9403
