ply
format ascii 1.0
element vertex 1567
property float32 x
property float32 y
property float32 z
property float32 I
end_header
34.0230 2.5526 -2.5016 0.8721
33.8928 3.9190 -2.5016 0.8721
33.8071 4.5999 -2.5016 0.8721
33.7077 5.2790 -2.5016 0.8721
33.5947 5.9559 -2.5016 0.8721
33.4681 6.6305 -2.5016 0.8721
30.6979 8.0326 -2.3266 0.8805
30.6452 9.3509 -2.3493 0.8794
30.4510 9.9654 -2.3493 0.8794
30.0255 11.1821 -2.3493 0.8794
29.7945 11.7838 -2.3493 0.8794
29.5514 12.3807 -2.3493 0.8794
29.2964 12.9726 -2.3493 0.8794
29.0296 13.5593 -2.3493 0.8794
28.6306 14.8037 -2.3633 0.8787
28.4592 15.4481 -2.3743 0.8782
27.8203 16.5838 -2.3748 0.8782
27.4841 17.1419 -2.3750 0.8782
27.1372 17.6935 -2.3753 0.8782
23.3332 16.5880 -2.0991 0.8915
22.6075 16.7667 -2.0638 0.8933
22.6220 21.4506 -2.2858 0.8825
23.0901 22.7938 -2.3790 0.8780
22.6308 23.2576 -2.3794 0.8780
15.5263 16.6121 -1.6672 0.9128
14.9134 16.6140 -1.6370 0.9143
13.9524 16.8613 -1.6047 0.9160
13.9546 17.5719 -1.6453 0.9139
13.9570 18.3198 -1.6887 0.9118
13.9620 19.9420 -1.7849 0.9070
13.9647 20.8253 -1.8385 0.9043
13.9676 21.7636 -1.8961 0.9015
17.0548 27.7881 -2.3906 0.8774
15.9371 28.4761 -2.3927 0.8773
5.9862 13.0605 -1.0534 0.9440
5.9079 14.3915 -1.1407 0.9395
5.9367 16.2988 -1.2719 0.9328
6.1869 19.3762 -1.4914 0.9217
6.1968 22.4922 -1.7106 0.9107
5.5595 23.8933 -1.7987 0.9063
4.5591 23.9149 -1.7851 0.9070
2.2841 13.4462 -1.0000 0.9468
1.9725 13.2167 -0.9798 0.9478
2.1083 23.9520 -1.7630 0.9081
1.6248 23.9705 -1.7616 0.9081
1.1384 23.9154 -1.7555 0.9084
0.1754 23.9183 -1.7538 0.9085
-1.2760 24.0478 -1.7657 0.9079
-2.2380 23.9318 -1.7624 0.9081
-2.7398 24.0653 -1.7759 0.9074
-1.8151 13.5176 -1.0000 0.9468
-2.3235 13.2411 -0.9857 0.9475
-1.8039 9.1902 -0.6867 0.9631
-1.9140 8.0277 -0.6051 0.9674
-6.2253 23.9625 -1.8153 0.9055
-6.7394 23.9511 -1.8243 0.9050
-3.2596 9.3745 -0.7277 0.9610
-3.4728 9.3752 -0.7331 0.9607
-3.6892 9.3759 -0.7388 0.9604
-25.0465 -7.1903 -2.5017 0.9006
-23.7895 -10.6343 -2.5017 0.9006
-23.5708 -11.1106 -2.5017 0.9006
-23.3426 -11.5825 -2.5017 0.9006
-23.1049 -12.0497 -2.5017 0.9006
-22.6015 -12.9692 -2.5017 0.9006
-22.3361 -13.4212 -2.5017 0.9006
-22.0616 -13.8678 -2.5017 0.9006
-21.7782 -14.3088 -2.5017 0.9006
-21.4859 -14.7439 -2.5017 0.9006
-20.8755 -15.5962 -2.5017 0.9006
-19.5544 -17.2236 -2.5017 0.9006
-19.2040 -17.6135 -2.5017 0.9006
-18.8458 -17.9962 -2.5017 0.9006
-18.4800 -18.3716 -2.5017 0.9006
-17.7262 -19.1000 -2.5017 0.9006
-17.3384 -19.4527 -2.5017 0.9006
-16.5419 -20.1343 -2.5017 0.9006
-16.1336 -20.4630 -2.5017 0.9006
-15.2975 -21.0953 -2.5017 0.9006
-13.1020 -22.5247 -2.5017 0.9006
-9.5553 -17.2149 -1.8902 0.9239
-11.7196 -23.2739 -2.5017 0.9006
-8.6642 -18.1037 -1.9268 0.9225
-8.8453 -19.4790 -2.0539 0.9176
-8.0960 -19.9208 -2.0644 0.9172
-8.7555 -22.8507 -2.3493 0.9063
-6.8905 -23.4805 -2.3493 0.9063
-5.4618 -23.8533 -2.3493 0.9063
-4.9809 -23.9583 -2.3493 0.9063
-3.0224 -20.7511 -2.0132 0.9192
-2.5975 -20.7524 -2.0079 0.9194
-2.1746 -20.7537 -2.0034 0.9196
-0.8263 -18.7444 -1.8013 0.9274
-0.4488 -18.7456 -1.8002 0.9274
-0.0716 -18.7468 -1.7998 0.9274
0.3055 -18.7479 -1.8001 0.9274
1.0592 -18.7183 -1.7999 0.9274
1.8065 -18.6116 -1.7952 0.9276
2.9489 -18.6151 -1.8094 0.9271
3.3342 -18.6163 -1.8157 0.9268
4.1138 -18.6187 -1.8306 0.9262
4.5087 -18.6200 -1.8393 0.9259
4.9075 -18.6212 -1.8488 0.9255
5.3107 -18.6224 -1.8591 0.9251
6.1315 -18.6250 -1.8825 0.9242
6.9746 -18.6276 -1.9096 0.9232
7.8438 -18.6303 -1.9407 0.9220
8.2894 -18.6317 -1.9578 0.9213
8.7432 -18.6331 -1.9760 0.9206
10.2762 -20.8015 -2.2274 0.9110
10.8029 -20.8032 -2.2504 0.9101
11.1599 -18.6468 -2.0864 0.9164
13.4009 -20.4747 -2.3493 0.9063
14.2136 -19.9192 -2.3493 0.9063
15.0033 -19.3314 -2.3493 0.9063
15.3891 -19.0257 -2.3493 0.9063
16.1418 -18.3913 -2.3493 0.9063
16.5085 -18.0629 -2.3493 0.9063
16.8685 -17.7271 -2.3493 0.9063
19.7674 -16.9781 -2.5017 0.9006
20.1049 -16.5770 -2.5017 0.9006
20.4343 -16.1693 -2.5017 0.9006
20.7554 -15.7550 -2.5017 0.9006
21.0681 -15.3343 -2.5017 0.9006
21.6678 -14.4745 -2.5017 0.9006
21.9545 -14.0358 -2.5017 0.9006
22.5013 -13.1414 -2.5017 0.9006
22.7611 -12.6861 -2.5017 0.9006
23.0116 -12.2257 -2.5017 0.9006
23.2529 -11.7603 -2.5017 0.9006
23.7071 -10.8156 -2.5017 0.9006
24.1229 -9.8533 -2.5017 0.9006
24.3162 -9.3661 -2.5017 0.9006
24.6733 -8.3805 -2.5017 0.9006
24.8368 -7.8825 -2.5017 0.9006
25.1337 -6.8772 -2.5017 0.9006
25.3900 -5.8607 -2.5017 0.9006
25.6052 -4.8347 -2.5017 0.9006
25.6973 -4.3187 -2.5017 0.9006
25.7789 -3.8009 -2.5017 0.9006
25.9109 -2.7610 -2.5017 0.9006
25.9612 -2.2393 -2.5017 0.9006
26.0010 -1.7166 -2.5017 0.9006
26.0490 -0.6695 -2.5017 0.9006
26.0572 -0.1454 -2.5017 0.9006
26.0185 1.4264 -2.5017 0.9006
25.8851 2.9930 -2.5017 0.9006
25.8197 3.5131 -2.5017 0.9006
25.7438 4.0318 -2.5017 0.9006
25.2088 6.5963 -2.5017 0.9006
25.0711 7.1020 -2.5017 0.9006
23.8632 7.8095 -2.4106 0.9040
23.0987 8.0772 -2.3493 0.9063
22.5695 9.4556 -2.3493 0.9063
22.1709 10.3557 -2.3493 0.9063
21.9581 10.7996 -2.3493 0.9063
21.2668 12.1043 -2.3493 0.9063
20.2251 13.7745 -2.3493 0.9063
19.7577 14.6507 -2.3612 0.9059
19.5187 15.0945 -2.3689 0.9056
10.3610 8.3505 -1.2775 0.9479
18.3436 16.7060 -2.3820 0.9051
18.0057 17.0735 -2.3822 0.9051
17.6607 17.4342 -2.3825 0.9051
17.3085 17.7879 -2.3828 0.9051
13.9546 17.5719 -2.1542 0.9138
13.9570 18.3198 -2.2111 0.9116
13.9594 19.1084 -2.2719 0.9093
13.9620 19.9420 -2.3371 0.9068
13.4235 20.9158 -2.3860 0.9050
13.0020 21.1847 -2.3863 0.9049
12.5751 21.4451 -2.3867 0.9049
11.2639 22.1744 -2.3878 0.9049
6.3061 13.0585 -1.3922 0.9434
5.9862 13.0605 -1.3793 0.9439
5.4340 13.2371 -1.3737 0.9441
5.1261 13.2389 -1.3630 0.9445
4.4554 13.9536 -1.4062 0.9428
3.6177 13.1309 -1.3076 0.9467
2.7792 13.1361 -1.2890 0.9475
2.5046 13.1378 -1.2840 0.9477
2.2222 13.0816 -1.2739 0.9481
1.9526 13.0832 -1.2700 0.9482
1.6845 13.0849 -1.2666 0.9484
1.4238 13.1424 -1.2691 0.9483
1.1570 13.1440 -1.2668 0.9484
0.8911 13.1456 -1.2649 0.9484
0.0965 13.1505 -1.2626 0.9485
-0.6980 13.1554 -1.2648 0.9484
-1.2305 13.1587 -1.2688 0.9483
-2.3000 13.1074 -1.2776 0.9479
-1.8039 9.1901 -0.8991 0.9631
-1.9140 8.0277 -0.7924 0.9674
-3.7063 13.1719 -1.3137 0.9465
-4.2229 13.9270 -1.3972 0.9432
-3.0496 9.3742 -0.9464 0.9612
-3.4728 9.3752 -0.9598 0.9606
-3.6892 9.3759 -0.9673 0.9603
-19.7104 -7.4196 -2.5017 0.9187
-19.5572 -7.8145 -2.5017 0.9187
-19.2271 -8.5948 -2.5017 0.9187
-19.0503 -8.9798 -2.5017 0.9187
-18.6737 -9.7388 -2.5017 0.9187
-18.4740 -10.1124 -2.5017 0.9187
-18.2669 -10.4820 -2.5017 0.9187
-16.6150 -12.9419 -2.5017 0.9187
-15.8042 -13.9204 -2.5017 0.9187
-15.5210 -14.2355 -2.5017 0.9187
-15.2315 -14.5448 -2.5017 0.9187
-14.3266 -15.4369 -2.5017 0.9187
-14.0132 -15.7220 -2.5017 0.9187
-13.6941 -16.0007 -2.5017 0.9187
-13.0394 -16.5385 -2.5017 0.9187
-12.7041 -16.7974 -2.5017 0.9187
-12.3637 -17.0496 -2.5017 0.9187
-11.6679 -17.5330 -2.5017 0.9187
-11.3129 -17.7642 -2.5017 0.9187
-9.2485 -17.4819 -2.3493 0.9234
-8.1773 -18.0079 -2.3493 0.9234
-7.8134 -18.1687 -2.3493 0.9234
-7.4464 -18.3222 -2.3493 0.9234
-7.0763 -18.4683 -2.3493 0.9234
-6.7034 -18.6069 -2.3493 0.9234
-6.3278 -18.7380 -2.3493 0.9234
-5.5690 -18.9773 -2.3493 0.9234
-4.8012 -19.1859 -2.3493 0.9234
-4.4144 -19.2786 -2.3493 0.9234
-3.1242 -18.7918 -2.2628 0.9261
-2.3659 -18.9022 -2.2628 0.9261
-1.9852 -18.9460 -2.2628 0.9261
-1.5715 -18.6012 -2.2174 0.9276
-0.4480 -18.7137 -2.2236 0.9274
-0.0715 -18.7148 -2.2231 0.9274
1.0592 -18.7183 -2.2270 0.9273
2.1853 -18.6128 -2.2261 0.9273
2.5660 -18.6140 -2.2320 0.9271
2.9489 -18.6151 -2.2388 0.9269
3.3342 -18.6163 -2.2465 0.9266
3.7224 -18.6175 -2.2553 0.9264
4.9075 -18.6212 -2.2875 0.9254
5.3107 -18.6224 -2.3003 0.9250
6.1315 -18.6250 -2.3292 0.9241
7.3061 -18.3785 -2.3493 0.9234
8.0394 -18.0697 -2.3493 0.9234
8.4012 -17.9044 -2.3493 0.9234
8.7597 -17.7317 -2.3493 0.9234
10.1566 -16.9703 -2.3493 0.9234
10.8309 -16.5481 -2.3493 0.9234
11.8092 -15.8647 -2.3493 0.9234
12.1259 -15.6240 -2.3493 0.9234
12.4377 -15.3769 -2.3493 0.9234
13.6334 -14.3274 -2.3493 0.9234
13.9188 -14.0503 -2.3493 0.9234
14.1987 -13.7675 -2.3493 0.9234
14.7409 -13.1852 -2.3493 0.9234
16.5154 -13.0683 -2.5017 0.9187
16.7749 -12.7334 -2.5017 0.9187
17.5123 -11.6986 -2.5017 0.9187
17.7441 -11.3439 -2.5017 0.9187
17.9687 -10.9848 -2.5017 0.9187
18.1860 -10.6211 -2.5017 0.9187
18.5984 -9.8810 -2.5017 0.9187
18.7934 -9.5049 -2.5017 0.9187
19.1605 -8.7413 -2.5017 0.9187
19.8011 -7.1730 -2.5017 0.9187
20.0736 -6.3708 -2.5017 0.9187
20.1977 -5.9657 -2.5017 0.9187
20.3136 -5.5582 -2.5017 0.9187
20.6118 -4.3230 -2.5017 0.9187
20.7690 -3.4905 -2.5017 0.9187
20.9823 -1.8098 -2.5017 0.9187
21.0382 -0.9644 -2.5017 0.9187
21.0533 -0.5411 -2.5017 0.9187
21.0599 -0.1175 -2.5017 0.9187
21.0287 1.1529 -2.5017 0.9187
21.0012 1.5756 -2.5017 0.9187
20.9209 2.4190 -2.5017 0.9187
20.7369 3.6764 -2.5017 0.9187
19.8799 6.9516 -2.5017 0.9187
19.7333 7.3491 -2.5013 0.9187
19.5316 7.7248 -2.4949 0.9189
18.0837 8.0076 -2.3493 0.9234
17.7470 8.7284 -2.3493 0.9234
17.5678 9.0836 -2.3493 0.9234
17.3816 9.4352 -2.3493 0.9234
17.1883 9.7829 -2.3493 0.9234
16.9880 10.1266 -2.3493 0.9234
16.7809 10.4663 -2.3493 0.9234
16.3463 11.1328 -2.3493 0.9234
16.1191 11.4593 -2.3493 0.9234
15.1459 12.7178 -2.3493 0.9234
14.8870 13.0199 -2.3493 0.9234
14.6221 13.3167 -2.3493 0.9234
13.8189 14.2016 -2.3538 0.9233
13.0220 15.1103 -2.3696 0.9228
12.1656 15.9685 -2.3846 0.9223
11.1935 16.6926 -2.3874 0.9222
10.5153 17.1331 -2.3879 0.9222
9.8199 17.5461 -2.3884 0.9222
9.4661 17.7421 -2.3887 0.9222
5.9862 13.0605 -1.7066 0.9438
5.7125 13.1559 -1.7037 0.9439
4.8515 13.3193 -1.6838 0.9445
4.6813 13.7035 -1.7201 0.9433
3.1013 13.3285 -1.6255 0.9464
2.8040 13.2533 -1.6092 0.9469
1.9526 13.0833 -1.5713 0.9481
1.6845 13.0849 -1.5671 0.9482
1.4365 13.2596 -1.5843 0.9477
1.1673 13.2613 -1.5813 0.9478
0.9236 13.6257 -1.6223 0.9465
0.6439 13.5265 -1.6086 0.9469
0.3787 13.7933 -1.6391 0.9459
0.0996 13.5748 -1.6125 0.9468
-0.7258 13.6767 -1.6269 0.9463
-1.7831 13.2795 -1.5916 0.9475
-2.0289 13.1057 -1.5753 0.9480
-2.3000 13.1074 -1.5808 0.9478
-1.8039 9.1901 -1.1125 0.9630
-3.5493 13.6623 -1.6768 0.9447
-3.7662 13.3849 -1.6517 0.9455
-4.1230 13.5975 -1.6878 0.9444
-3.2596 9.3746 -1.1790 0.9608
-3.6892 9.3759 -1.1968 0.9602
-16.8694 -5.2123 -2.5017 0.9312
-16.5243 -6.2202 -2.5017 0.9312
-16.1191 -7.2055 -2.5017 0.9312
-15.6552 -8.1645 -2.5017 0.9312
-15.4878 -8.4778 -2.5017 0.9312
-15.3141 -8.7876 -2.5017 0.9312
-14.7562 -9.6952 -2.5017 0.9312
-14.5583 -9.9901 -2.5017 0.9312
-14.3544 -10.2809 -2.5017 0.9312
-14.1447 -10.5675 -2.5017 0.9312
-13.9292 -10.8499 -2.5017 0.9312
-13.2495 -11.6702 -2.5017 0.9312
-12.5215 -12.4481 -2.5017 0.9312
-11.7480 -13.1806 -2.5017 0.9312
-11.4805 -13.4142 -2.5017 0.9312
-10.9317 -13.8651 -2.5017 0.9312
-10.6506 -14.0822 -2.5017 0.9312
-9.7819 -14.6989 -2.5017 0.9312
-8.0468 -14.4971 -2.3493 0.9352
-7.4571 -14.8090 -2.3493 0.9352
-6.8555 -15.0970 -2.3493 0.9352
-6.5504 -15.2318 -2.3493 0.9352
-5.6198 -15.5992 -2.3493 0.9352
-4.6688 -15.9097 -2.3493 0.9352
-4.0251 -16.0846 -2.3493 0.9352
-3.3749 -16.2335 -2.3493 0.9352
-3.0477 -16.2981 -2.3493 0.9352
-1.7279 -16.4903 -2.3493 0.9352
-0.7302 -16.5645 -2.3493 0.9352
-0.3969 -16.5758 -2.3493 0.9352
-0.0634 -16.5805 -2.3493 0.9352
0.2702 -16.5784 -2.3493 0.9352
0.6036 -16.5696 -2.3493 0.9352
2.9231 -16.3209 -2.3493 0.9352
3.2508 -16.2588 -2.3493 0.9352
4.8669 -15.8502 -2.3493 0.9352
5.1847 -15.7491 -2.3493 0.9352
4.0282 -11.4550 -1.7205 0.9521
6.7399 -15.1489 -2.3493 0.9352
7.0432 -15.0102 -2.3493 0.9352
7.6412 -14.7148 -2.3493 0.9352
7.9357 -14.5581 -2.3493 0.9352
8.2269 -14.3955 -2.3493 0.9352
8.7993 -14.0530 -2.3493 0.9352
9.0801 -13.8731 -2.3493 0.9352
9.3573 -13.6877 -2.3493 0.9352
10.1658 -13.0984 -2.3493 0.9352
10.4272 -12.8913 -2.3493 0.9352
10.6844 -12.6789 -2.3493 0.9352
10.9373 -12.4615 -2.3493 0.9352
11.4297 -12.0115 -2.3493 0.9352
11.9035 -11.5421 -2.3493 0.9352
13.3899 -11.5004 -2.5009 0.9312
13.8458 -10.9559 -2.5017 0.9312
14.0633 -10.6752 -2.5017 0.9312
14.4813 -10.1009 -2.5017 0.9312
14.8758 -9.5103 -2.5017 0.9312
15.2463 -8.9043 -2.5017 0.9312
16.0633 -7.3283 -2.5017 0.9312
16.3451 -6.6763 -2.5017 0.9312
16.4761 -6.3462 -2.5017 0.9312
16.7180 -5.6784 -2.5017 0.9312
16.8288 -5.3410 -2.5017 0.9312
17.0300 -4.6598 -2.5017 0.9312
17.2801 -3.6242 -2.5017 0.9312
17.3495 -3.2759 -2.5017 0.9312
17.4118 -2.9263 -2.5017 0.9312
17.4672 -2.5754 -2.5017 0.9312
17.6375 -0.8085 -2.5017 0.9312
17.6557 -0.0985 -2.5017 0.9312
17.6542 0.2567 -2.5017 0.9312
17.6296 0.9665 -2.5017 0.9312
17.6065 1.3209 -2.5017 0.9312
17.5392 2.0280 -2.5017 0.9312
17.4948 2.3804 -2.5017 0.9312
17.4434 2.7318 -2.5017 0.9312
17.3849 3.0821 -2.5017 0.9312
17.0809 4.4695 -2.5017 0.9312
16.9876 4.8122 -2.5017 0.9312
16.6664 5.8279 -2.5017 0.9312
16.5458 6.1620 -2.5017 0.9312
16.4185 6.4936 -2.5017 0.9312
16.2846 6.8225 -2.5017 0.9312
15.9808 7.4644 -2.4991 0.9312
15.7866 7.7642 -2.4927 0.9314
15.0441 7.7787 -2.3997 0.9339
14.5720 7.9100 -2.3493 0.9352
13.3176 9.8769 -2.3493 0.9352
13.1162 10.1428 -2.3493 0.9352
10.2871 8.2909 -1.8720 0.9480
12.6977 10.6621 -2.3493 0.9352
12.4806 10.9154 -2.3493 0.9352
12.2585 11.1642 -2.3493 0.9352
12.0315 11.4085 -2.3493 0.9352
11.5629 11.8832 -2.3493 0.9352
11.0756 12.3386 -2.3493 0.9352
10.8252 12.5589 -2.3493 0.9352
10.3113 12.9841 -2.3493 0.9352
10.0480 13.1889 -2.3493 0.9352
9.7807 13.3884 -2.3493 0.9352
9.2343 13.7709 -2.3493 0.9352
8.9577 13.9573 -2.3499 0.9352
8.6879 14.1555 -2.3533 0.9351
8.1344 14.5343 -2.3599 0.9349
7.8506 14.7146 -2.3631 0.9348
6.3061 13.0585 -2.0547 0.9431
5.9862 13.0605 -2.0356 0.9436
5.7125 13.1559 -2.0322 0.9437
5.4340 13.2371 -2.0274 0.9438
4.8346 13.2730 -2.0015 0.9445
4.5321 13.2667 -1.9864 0.9449
4.3786 13.7131 -2.0396 0.9435
3.9429 13.2632 -1.9605 0.9456
3.4617 13.6297 -1.9925 0.9448
3.0873 13.2685 -1.9302 0.9465
2.8040 13.2533 -1.9194 0.9467
2.2222 13.0816 -1.8801 0.9478
1.6845 13.0849 -1.8693 0.9481
1.4365 13.2596 -1.8897 0.9475
1.1673 13.2613 -1.8862 0.9476
0.9264 13.6661 -1.9408 0.9462
0.3647 13.2832 -1.8828 0.9477
0.1003 13.6726 -1.9373 0.9463
-0.1698 13.2865 -1.8827 0.9477
-0.7257 13.6754 -1.9404 0.9462
-1.2415 13.2761 -1.8893 0.9476
-1.5116 13.2778 -1.8935 0.9474
-2.0289 13.1057 -1.8791 0.9478
-2.3000 13.1074 -1.8856 0.9477
-1.8039 9.1902 -1.3270 0.9629
-1.9140 8.0277 -1.1693 0.9672
-3.7442 13.3064 -1.9586 0.9457
-3.0496 9.3742 -1.3968 0.9610
-3.4728 9.3752 -1.4166 0.9604
-14.5090 -4.4830 -2.5017 0.9403
-14.4159 -4.7739 -2.5017 0.9403
-14.2123 -5.3499 -2.5017 0.9403
-13.8637 -6.1973 -2.5017 0.9403
-13.7363 -6.4749 -2.5017 0.9403
-13.0167 -7.8214 -2.5017 0.9403
-12.6916 -8.3387 -2.5017 0.9403
-12.3459 -8.8424 -2.5017 0.9403
-12.1656 -9.0889 -2.5017 0.9403
-11.7901 -9.5709 -2.5017 0.9403
-11.3957 -10.0373 -2.5017 0.9403
-11.1915 -10.2645 -2.5017 0.9403
-10.7695 -10.7064 -2.5017 0.9403
-10.3302 -11.1308 -2.5017 0.9403
-10.1042 -11.3364 -2.5017 0.9403
-9.8742 -11.5373 -2.5017 0.9403
-9.1604 -12.1118 -2.5017 0.9403
-8.6658 -12.4705 -2.5017 0.9403
-8.1572 -12.8089 -2.5017 0.9403
-7.1896 -12.9528 -2.4405 0.9417
-4.8335 -13.4166 -2.3493 0.9438
-4.5627 -13.5111 -2.3493 0.9438
-4.2900 -13.6001 -2.3493 0.9438
-4.0156 -13.6837 -2.3493 0.9438
-3.4620 -13.8341 -2.3493 0.9438
-2.9027 -13.9621 -2.3493 0.9438
-2.6213 -14.0177 -2.3493 0.9438
-2.3388 -14.0676 -2.3493 0.9438
-1.7711 -14.1503 -2.3493 0.9438
-1.2005 -14.2101 -2.3493 0.9438
-0.9145 -14.2313 -2.3493 0.9438
-0.6280 -14.2468 -2.3493 0.9438
-0.3413 -14.2566 -2.3493 0.9438
0.2324 -14.2588 -2.3493 0.9438
0.5191 -14.2512 -2.3493 0.9438
1.0919 -14.2188 -2.3493 0.9438
1.6629 -14.1634 -2.3493 0.9438
2.2312 -14.0850 -2.3493 0.9438
2.5141 -14.0373 -2.3493 0.9438
2.7959 -13.9839 -2.3493 0.9438
3.0767 -13.9248 -2.3493 0.9438
3.3561 -13.8601 -2.3493 0.9438
3.9109 -13.7139 -2.3493 0.9438
4.1859 -13.6324 -2.3493 0.9438
4.4593 -13.5455 -2.3493 0.9438
5.2681 -13.2519 -2.3493 0.9438
5.7968 -13.0293 -2.3493 0.9438
6.0577 -12.9100 -2.3493 0.9438
6.5721 -12.6560 -2.3493 0.9438
6.8253 -12.5212 -2.3493 0.9438
7.5681 -12.0867 -2.3493 0.9438
7.8097 -11.9321 -2.3493 0.9438
8.0481 -11.7726 -2.3493 0.9438
8.2833 -11.6083 -2.3493 0.9438
8.5151 -11.4393 -2.3493 0.9438
9.8004 -11.1662 -2.4475 0.9415
10.2062 -11.1671 -2.4922 0.9405
10.4502 -10.9822 -2.4974 0.9404
10.9022 -10.5711 -2.5017 0.9403
11.5199 -9.8943 -2.5017 0.9403
11.9085 -9.4230 -2.5017 0.9403
12.4551 -8.6876 -2.5017 0.9403
12.6273 -8.4353 -2.5017 0.9403
12.7945 -8.1796 -2.5017 0.9403
13.2645 -7.3931 -2.5017 0.9403
13.4105 -7.1248 -2.5017 0.9403
13.6862 -6.5796 -2.5017 0.9403
13.9398 -6.0238 -2.5017 0.9403
14.0581 -5.7422 -2.5017 0.9403
14.4742 -4.5937 -2.5017 0.9403
14.5637 -4.3016 -2.5017 0.9403
14.7249 -3.7124 -2.5017 0.9403
14.8623 -3.1171 -2.5017 0.9403
14.9220 -2.8175 -2.5017 0.9403
15.0647 -1.9125 -2.5017 0.9403
15.1295 -1.3050 -2.5017 0.9403
15.1697 -0.6954 -2.5017 0.9403
15.1841 0.2208 -2.5017 0.9403
15.1765 0.5261 -2.5017 0.9403
15.1431 1.1361 -2.5017 0.9403
15.1172 1.4405 -2.5017 0.9403
15.0851 1.7443 -2.5017 0.9403
15.0470 2.0473 -2.5017 0.9403
15.0028 2.3496 -2.5017 0.9403
14.8338 3.2502 -2.5017 0.9403
14.7654 3.5479 -2.5017 0.9403
14.6910 3.8441 -2.5017 0.9403
14.4324 4.7232 -2.5017 0.9403
14.3345 5.0125 -2.5017 0.9403
14.0061 5.8679 -2.5017 0.9403
13.8853 6.1485 -2.5017 0.9403
13.4891 6.9747 -2.5017 0.9403
13.3461 7.2446 -2.5017 0.9403
13.0044 7.7520 -2.4941 0.9405
12.4510 7.7658 -2.4174 0.9422
11.9457 7.7887 -2.3493 0.9438
11.6228 8.2628 -2.3493 0.9438
11.2810 8.7236 -2.3493 0.9438
10.2743 8.2806 -2.1739 0.9479
10.9210 9.1703 -2.3493 0.9438
10.5434 9.6021 -2.3493 0.9438
9.7375 10.4185 -2.3493 0.9438
9.3106 10.8017 -2.3493 0.9438
9.0914 10.9868 -2.3493 0.9438
8.8686 11.1674 -2.3493 0.9438
8.6421 11.3436 -2.3493 0.9438
8.4122 11.5151 -2.3493 0.9438
7.9423 11.8441 -2.3493 0.9438
7.7024 12.0015 -2.3493 0.9438
7.4595 12.1540 -2.3493 0.9438
7.2135 12.3016 -2.3493 0.9438
6.9646 12.4442 -2.3493 0.9438
6.2014 12.8416 -2.3493 0.9438
5.1261 13.2389 -2.3388 0.9441
4.8308 13.2626 -2.3253 0.9444
4.5314 13.2645 -2.3092 0.9448
3.9443 13.2681 -2.2803 0.9454
3.6560 13.2699 -2.2675 0.9457
3.0884 13.2734 -2.2451 0.9463
2.8040 13.2533 -2.2317 0.9466
2.2222 13.0816 -2.1859 0.9476
1.1673 13.2613 -2.1931 0.9475
0.6468 13.5871 -2.2409 0.9463
-0.4497 13.6640 -2.2522 0.9461
-0.7349 13.8483 -2.2846 0.9453
-1.2415 13.2761 -2.1966 0.9474
-1.5116 13.2778 -2.2015 0.9473
-1.7831 13.2795 -2.2073 0.9471
-2.0289 13.1057 -2.1847 0.9477
-2.3000 13.1074 -2.1923 0.9475
-1.8039 9.1902 -1.5429 0.9627
-1.9140 8.0277 -1.3595 0.9671
-3.7455 13.3113 -2.2781 0.9455
-4.1380 13.6471 -2.3493 0.9438
-3.0496 9.3742 -1.6240 0.9608
-3.4728 9.3752 -1.6470 0.9603
-3.6892 9.3759 -1.6598 0.9600
-12.4564 -4.6889 -2.5017 0.9473
-12.2577 -5.1861 -2.5017 0.9473
-12.0392 -5.6750 -2.5017 0.9473
-11.9226 -5.9160 -2.5017 0.9473
-11.8012 -6.1546 -2.5017 0.9473
-11.6750 -6.3907 -2.5017 0.9473
-11.5441 -6.6243 -2.5017 0.9473
-11.2683 -7.0833 -2.5017 0.9473
-11.1236 -7.3085 -2.5017 0.9473
-10.6626 -7.9660 -2.5017 0.9473
-9.9878 -8.7973 -2.5017 0.9473
-9.6259 -9.1919 -2.5017 0.9473
-9.4390 -9.3836 -2.5017 0.9473
-8.8559 -9.9358 -2.5017 0.9473
-8.6543 -10.1119 -2.5017 0.9473
-8.2405 -10.4518 -2.5017 0.9473
-8.0286 -10.6155 -2.5017 0.9473
-7.3738 -11.0804 -2.5017 0.9473
-7.1494 -11.2265 -2.5017 0.9473
-6.6921 -11.5049 -2.5017 0.9473
-6.2238 -11.7646 -2.5017 0.9473
-5.0443 -11.7296 -2.3999 0.9494
-4.4720 -11.6714 -2.3493 0.9504
-4.2364 -11.7590 -2.3493 0.9504
-3.7600 -11.9199 -2.3493 0.9504
-3.5195 -11.9931 -2.3493 0.9504
-3.2775 -12.0615 -2.3493 0.9504
-2.7898 -12.1835 -2.3493 0.9504
-2.2974 -12.2859 -2.3493 0.9504
-2.0499 -12.3296 -2.3493 0.9504
-1.3025 -12.4308 -2.3493 0.9504
-0.5504 -12.4867 -2.3493 0.9504
-0.2991 -12.4953 -2.3493 0.9504
-0.0478 -12.4987 -2.3493 0.9504
0.7061 -12.4788 -2.3493 0.9504
0.9570 -12.4621 -2.3493 0.9504
1.2075 -12.4404 -2.3493 0.9504
1.4575 -12.4136 -2.3493 0.9504
1.9556 -12.3449 -2.3493 0.9504
2.2035 -12.3030 -2.3493 0.9504
2.4505 -12.2562 -2.3493 0.9504
2.9415 -12.1477 -2.3493 0.9504
3.1852 -12.0861 -2.3493 0.9504
3.4277 -12.0196 -2.3493 0.9504
3.9084 -11.8720 -2.3493 0.9504
4.0199 -11.4313 -2.2776 0.9519
4.3827 -11.7052 -2.3493 0.9504
4.8499 -11.5195 -2.3493 0.9504
5.3094 -11.3151 -2.3493 0.9504
5.5383 -11.2064 -2.3494 0.9504
5.8136 -11.1952 -2.3711 0.9500
6.6897 -11.1776 -2.4485 0.9484
6.9948 -11.1711 -2.4774 0.9478
7.7251 -10.8261 -2.4998 0.9473
8.3702 -10.3482 -2.5017 0.9473
9.1749 -9.6419 -2.5017 0.9473
9.3669 -9.4554 -2.5017 0.9473
9.5553 -9.2651 -2.5017 0.9473
9.7397 -9.0710 -2.5017 0.9473
10.0966 -8.6719 -2.5017 0.9473
10.7610 -7.8323 -2.5017 0.9473
11.3557 -6.9421 -2.5017 0.9473
11.7537 -6.2446 -2.5017 0.9473
12.1089 -5.5243 -2.5017 0.9473
12.2176 -5.2796 -2.5017 0.9473
12.3213 -5.0328 -2.5017 0.9473
12.5138 -4.5332 -2.5017 0.9473
12.6024 -4.2805 -2.5017 0.9473
12.6860 -4.0262 -2.5017 0.9473
12.7644 -3.7702 -2.5017 0.9473
12.8377 -3.5127 -2.5017 0.9473
12.9057 -3.2537 -2.5017 0.9473
13.1255 -2.2059 -2.5017 0.9473
13.1672 -1.9414 -2.5017 0.9473
13.2036 -1.6762 -2.5017 0.9473
13.2346 -1.4102 -2.5017 0.9473
13.2603 -1.1438 -2.5017 0.9473
13.2956 -0.6095 -2.5017 0.9473
13.3093 -0.0742 -2.5017 0.9473
13.3015 0.4611 -2.5017 0.9473
13.2896 0.7286 -2.5017 0.9473
13.2495 1.2625 -2.5017 0.9473
13.0558 2.5865 -2.5017 0.9473
13.0011 2.8486 -2.5017 0.9473
12.9412 3.1096 -2.5017 0.9473
12.8760 3.3692 -2.5017 0.9473
12.7301 3.8844 -2.5017 0.9473
12.6494 4.1396 -2.5017 0.9473
12.5636 4.3933 -2.5017 0.9473
12.4727 4.6451 -2.5017 0.9473
12.0589 5.6325 -2.5017 0.9473
11.9432 5.8740 -2.5017 0.9473
11.2930 7.0435 -2.5017 0.9473
10.4538 7.7530 -2.4463 0.9484
9.7316 7.8432 -2.3493 0.9504
9.2408 8.4158 -2.3493 0.9504
9.0696 8.6000 -2.3493 0.9504
8.7164 8.9578 -2.3493 0.9504
8.5345 9.1313 -2.3493 0.9504
8.1603 9.4672 -2.3493 0.9504
7.9682 9.6295 -2.3493 0.9504
7.7729 9.7878 -2.3493 0.9504
7.5745 9.9421 -2.3493 0.9504
7.3729 10.0925 -2.3493 0.9504
6.1041 10.9068 -2.3493 0.9504
5.8835 11.0274 -2.3493 0.9504
5.6605 11.1435 -2.3493 0.9504
5.4352 11.2551 -2.3493 0.9504
5.2077 11.3621 -2.3493 0.9504
4.9781 11.4646 -2.3493 0.9504
3.3199 12.0498 -2.3493 0.9504
3.0768 12.1142 -2.3493 0.9504
2.8325 12.1736 -2.3493 0.9504
2.3406 12.2777 -2.3493 0.9504
1.8449 12.3619 -2.3493 0.9504
1.0960 12.4506 -2.3493 0.9504
0.5943 12.4846 -2.3493 0.9504
0.3431 12.4941 -2.3493 0.9504
-0.1597 12.4978 -2.3493 0.9504
-0.4111 12.4920 -2.3493 0.9504
-0.6623 12.4812 -2.3493 0.9504
-1.4138 12.4186 -2.3493 0.9504
-1.6633 12.3876 -2.3493 0.9504
-1.8531 8.5295 -1.6406 0.9651
-3.1428 12.0972 -2.3493 0.9504
-3.6268 11.9611 -2.3493 0.9504
-3.8666 11.8857 -2.3493 0.9504
-3.3245 8.9748 -1.7989 0.9618
-11.3076 -3.4938 -2.5017 0.9528
-11.1579 -3.9458 -2.5017 0.9528
-11.0763 -4.1694 -2.5017 0.9528
-10.9902 -4.3914 -2.5017 0.9528
-10.8047 -4.8299 -2.5017 0.9528
-10.7054 -5.0462 -2.5017 0.9528
-10.6017 -5.2605 -2.5017 0.9528
-10.1446 -6.0957 -2.5017 0.9528
-10.0199 -6.2985 -2.5017 0.9528
-9.8912 -6.4987 -2.5017 0.9528
-9.7585 -6.6964 -2.5017 0.9528
-9.6218 -6.8913 -2.5017 0.9528
-9.4812 -7.0835 -2.5017 0.9528
-9.3368 -7.2727 -2.5017 0.9528
-9.1887 -7.4591 -2.5017 0.9528
-9.0368 -7.6424 -2.5017 0.9528
-8.8812 -7.8226 -2.5017 0.9528
-8.7221 -7.9997 -2.5017 0.9528
-8.5594 -8.1735 -2.5017 0.9528
-8.3932 -8.3440 -2.5017 0.9528
-7.8747 -8.8350 -2.5017 0.9528
-7.6954 -8.9916 -2.5017 0.9528
-7.5130 -9.1446 -2.5017 0.9528
-7.1391 -9.4394 -2.5017 0.9528
-6.7537 -9.7189 -2.5017 0.9528
-6.1552 -10.1085 -2.5017 0.9528
-5.3228 -10.5705 -2.5017 0.9528
-5.1091 -10.6754 -2.5017 0.9528
-4.8934 -10.7761 -2.5017 0.9528
-4.6756 -10.8723 -2.5017 0.9528
-3.7791 -11.1906 -2.4967 0.9529
-3.3105 -11.2810 -2.4851 0.9531
-3.0567 -11.2487 -2.4640 0.9535
-1.8650 -11.2177 -2.4037 0.9546
-0.9478 -11.2187 -2.3799 0.9550
-0.7209 -11.2186 -2.3763 0.9551
-0.0429 -11.2170 -2.3711 0.9552
0.1828 -11.2161 -2.3712 0.9552
0.4085 -11.2151 -2.3722 0.9552
1.0882 -11.2110 -2.3809 0.9550
1.3161 -11.2092 -2.3857 0.9549
1.5450 -11.2073 -2.3914 0.9548
1.7750 -11.2052 -2.3981 0.9547
2.0065 -11.2029 -2.4058 0.9545
2.7108 -11.1949 -2.4348 0.9540
3.1907 -11.1886 -2.4593 0.9535
3.6810 -11.1814 -2.4883 0.9530
4.1407 -11.0588 -2.4961 0.9529
4.5872 -10.8953 -2.4988 0.9528
4.8082 -10.8072 -2.5003 0.9528
5.6644 -10.3914 -2.5017 0.9528
5.8723 -10.2754 -2.5017 0.9528
6.0778 -10.1552 -2.5017 0.9528
6.2808 -10.0309 -2.5017 0.9528
6.4813 -9.9025 -2.5017 0.9528
6.6792 -9.7701 -2.5017 0.9528
6.8743 -9.6338 -2.5017 0.9528
7.0667 -9.4936 -2.5017 0.9528
7.4429 -9.2017 -2.5017 0.9528
8.1584 -8.5737 -2.5017 0.9528
8.3292 -8.4079 -2.5017 0.9528
8.4966 -8.2386 -2.5017 0.9528
8.6606 -8.0660 -2.5017 0.9528
8.8211 -7.8902 -2.5017 0.9528
9.1313 -7.5290 -2.5017 0.9528
9.4268 -7.1557 -2.5017 0.9528
9.7069 -6.7707 -2.5017 0.9528
9.8412 -6.5741 -2.5017 0.9528
9.9714 -6.3748 -2.5017 0.9528
10.0976 -6.1729 -2.5017 0.9528
10.3377 -5.7618 -2.5017 0.9528
10.5611 -5.3414 -2.5017 0.9528
10.7674 -4.9123 -2.5017 0.9528
10.8640 -4.6947 -2.5017 0.9528
10.9562 -4.4752 -2.5017 0.9528
11.1274 -4.0309 -2.5017 0.9528
11.2805 -3.5801 -2.5017 0.9528
11.3502 -3.3525 -2.5017 0.9528
11.4154 -3.1235 -2.5017 0.9528
11.4759 -2.8933 -2.5017 0.9528
11.5317 -2.6618 -2.5017 0.9528
11.5830 -2.4293 -2.5017 0.9528
11.6295 -2.1959 -2.5017 0.9528
11.6713 -1.9615 -2.5017 0.9528
11.7084 -1.7263 -2.5017 0.9528
11.7683 -1.2540 -2.5017 0.9528
11.8093 -0.7797 -2.5017 0.9528
11.8225 -0.5420 -2.5017 0.9528
11.8311 -0.3041 -2.5017 0.9528
11.8348 -0.0660 -2.5017 0.9528
11.8172 0.6479 -2.5017 0.9528
11.7816 1.1226 -2.5017 0.9528
11.7269 1.5956 -2.5017 0.9528
11.2479 3.6810 -2.5017 0.9528
11.0055 4.3527 -2.5017 0.9528
10.8215 4.7918 -2.5017 0.9528
10.7229 5.0086 -2.5017 0.9528
10.6200 5.2232 -2.5017 0.9528
10.2857 5.8542 -2.5017 0.9528
10.0419 6.2631 -2.5017 0.9528
9.9139 6.4639 -2.5017 0.9528
9.7818 6.6620 -2.5017 0.9528
9.6459 6.8574 -2.5017 0.9528
9.3623 7.2398 -2.5017 0.9528
9.0447 7.5948 -2.4965 0.9529
8.8497 7.7398 -2.4852 0.9531
7.9094 7.8079 -2.3493 0.9556
7.7507 7.9654 -2.3493 0.9556
7.2562 8.4183 -2.3493 0.9556
6.9117 8.7034 -2.3493 0.9556
6.5561 8.9743 -2.3493 0.9556
6.0029 9.3534 -2.3493 0.9556
5.2317 9.8056 -2.3493 0.9556
5.0334 9.9089 -2.3493 0.9556
4.4266 10.1944 -2.3493 0.9556
4.2206 10.2814 -2.3493 0.9556
3.8037 10.4428 -2.3493 0.9556
3.3806 10.5874 -2.3493 0.9556
3.1670 10.6532 -2.3493 0.9556
2.7359 10.7720 -2.3493 0.9556
2.3005 10.8733 -2.3493 0.9556
1.4190 11.0231 -2.3493 0.9556
0.7517 11.0886 -2.3493 0.9556
0.5285 11.1015 -2.3493 0.9556
0.3051 11.1098 -2.3493 0.9556
-0.1421 11.1131 -2.3493 0.9556
-0.5889 11.0984 -2.3493 0.9556
-1.0348 11.0657 -2.3493 0.9556
-1.2572 11.0427 -2.3493 0.9556
-1.4791 11.0152 -2.3493 0.9556
-1.7003 10.9832 -2.3493 0.9556
-1.8295 9.3205 -2.0078 0.9619
-1.8053 8.3092 -1.7974 0.9658
-1.9140 8.0277 -1.7444 0.9668
-2.7946 10.7570 -2.3493 0.9556
-3.0104 10.6986 -2.3493 0.9556
-3.2249 10.6359 -2.3493 0.9556
-3.6501 10.4976 -2.3493 0.9556
-3.8605 10.4220 -2.3493 0.9556
-10.1048 -3.3463 -2.5017 0.9572
-9.8846 -3.9496 -2.5017 0.9572
-9.7178 -4.3440 -2.5017 0.9572
-9.6284 -4.5386 -2.5017 0.9572
-9.5352 -4.7313 -2.5017 0.9572
-9.4381 -4.9222 -2.5017 0.9572
-9.0119 -5.6648 -2.5017 0.9572
-8.8961 -5.8450 -2.5017 0.9572
-8.7768 -6.0227 -2.5017 0.9572
-8.5274 -6.3709 -2.5017 0.9572
-8.3975 -6.5411 -2.5017 0.9572
-7.6983 -7.3512 -2.5017 0.9572
-7.5489 -7.5046 -2.5017 0.9572
-7.2409 -7.8022 -2.5017 0.9572
-7.0825 -7.9462 -2.5017 0.9572
-6.7572 -8.2246 -2.5017 0.9572
-6.4209 -8.4898 -2.5017 0.9572
-6.2489 -8.6172 -2.5017 0.9572
-5.8972 -8.8616 -2.5017 0.9572
-5.7178 -8.9784 -2.5017 0.9572
-5.5360 -9.0916 -2.5017 0.9572
-5.1659 -9.3069 -2.5017 0.9572
-4.7873 -9.5071 -2.5017 0.9572
-4.5952 -9.6015 -2.5017 0.9572
-4.4011 -9.6920 -2.5017 0.9572
-4.2053 -9.7786 -2.5017 0.9572
-3.8085 -9.9398 -2.5017 0.9572
-3.6079 -10.0144 -2.5017 0.9572
-3.2021 -10.1514 -2.5017 0.9572
-2.5841 -10.3260 -2.5017 0.9572
-2.3758 -10.3759 -2.5017 0.9572
-2.1667 -10.4216 -2.5017 0.9572
-1.9566 -10.4631 -2.5017 0.9572
-1.5342 -10.5333 -2.5017 0.9572
-0.8961 -10.6067 -2.5017 0.9572
-0.6826 -10.6225 -2.5017 0.9572
-0.4688 -10.6341 -2.5017 0.9572
-0.2548 -10.6414 -2.5017 0.9572
-0.0407 -10.6444 -2.5017 0.9572
0.1734 -10.6430 -2.5017 0.9572
0.3875 -10.6374 -2.5017 0.9572
0.6014 -10.6274 -2.5017 0.9572
0.8150 -10.6132 -2.5017 0.9572
1.0283 -10.5947 -2.5017 0.9572
1.2412 -10.5718 -2.5017 0.9572
1.4536 -10.5447 -2.5017 0.9572
1.6654 -10.5133 -2.5017 0.9572
2.0869 -10.4379 -2.5017 0.9572
2.2965 -10.3938 -2.5017 0.9572
2.5051 -10.3455 -2.5017 0.9572
2.9192 -10.2363 -2.5017 0.9572
3.1245 -10.1755 -2.5017 0.9572
3.3285 -10.1106 -2.5017 0.9572
3.7325 -9.9686 -2.5017 0.9572
4.3269 -9.7253 -2.5017 0.9572
4.5216 -9.6363 -2.5017 0.9572
4.9056 -9.4467 -2.5017 0.9572
5.0946 -9.3461 -2.5017 0.9572
5.2815 -9.2417 -2.5017 0.9572
5.8293 -8.9063 -2.5017 0.9572
6.1828 -8.6647 -2.5017 0.9572
6.3558 -8.5386 -2.5017 0.9572
6.8592 -8.1397 -2.5017 0.9572
7.1811 -7.8572 -2.5017 0.9572
7.3377 -7.7112 -2.5017 0.9572
7.6419 -7.4098 -2.5017 0.9572
7.7894 -7.2546 -2.5017 0.9572
8.0748 -6.9354 -2.5017 0.9572
8.3473 -6.6050 -2.5017 0.9572
8.4784 -6.4358 -2.5017 0.9572
8.6062 -6.2639 -2.5017 0.9572
8.7304 -6.0896 -2.5017 0.9572
9.1916 -5.3682 -2.5017 0.9572
9.2977 -5.1822 -2.5017 0.9572
9.4001 -4.9941 -2.5017 0.9572
9.4987 -4.8040 -2.5017 0.9572
9.5934 -4.6120 -2.5017 0.9572
9.6842 -4.4181 -2.5017 0.9572
9.8541 -4.0250 -2.5017 0.9572
9.9330 -3.8260 -2.5017 0.9572
10.0080 -3.6254 -2.5017 0.9572
10.0789 -3.4234 -2.5017 0.9572
10.1457 -3.2200 -2.5017 0.9572
10.2084 -3.0152 -2.5017 0.9572
10.2670 -2.8093 -2.5017 0.9572
10.3214 -2.6022 -2.5017 0.9572
10.4177 -2.1850 -2.5017 0.9572
10.5305 -1.5527 -2.5017 0.9572
10.5596 -1.3405 -2.5017 0.9572
10.5845 -1.1279 -2.5017 0.9572
10.6050 -0.9147 -2.5017 0.9572
10.6213 -0.7012 -2.5017 0.9572
10.6332 -0.4875 -2.5017 0.9572
10.6409 -0.2735 -2.5017 0.9572
10.6442 -0.0594 -2.5017 0.9572
10.5964 1.0097 -2.5017 0.9572
10.5739 1.2226 -2.5017 0.9572
10.4414 2.0686 -2.5017 0.9572
10.3977 2.2782 -2.5017 0.9572
10.3498 2.4869 -2.5017 0.9572
10.2977 2.6946 -2.5017 0.9572
10.2414 2.9011 -2.5017 0.9572
10.1810 3.1065 -2.5017 0.9572
10.1164 3.3107 -2.5017 0.9572
9.7329 4.3097 -2.5017 0.9572
9.5517 4.6978 -2.5017 0.9572
9.4552 4.8889 -2.5017 0.9572
9.1432 5.4503 -2.5017 0.9572
8.9165 5.8136 -2.5017 0.9572
8.7978 5.9918 -2.5017 0.9572
8.6755 6.1675 -2.5017 0.9572
8.4204 6.5115 -2.5017 0.9572
8.2877 6.6796 -2.5017 0.9572
8.1517 6.8449 -2.5017 0.9572
7.7221 7.3222 -2.5010 0.9572
7.5657 7.4686 -2.4985 0.9573
7.4067 7.6118 -2.4961 0.9573
7.2278 7.7333 -2.4878 0.9574
6.9479 7.7403 -2.4445 0.9582
6.6774 7.7468 -2.4037 0.9588
6.4155 7.7530 -2.3651 0.9595
6.0577 7.9513 -2.3493 0.9598
5.8966 8.0715 -2.3493 0.9598
5.7330 8.1885 -2.3493 0.9598
5.5671 8.3022 -2.3493 0.9598
5.3990 8.4125 -2.3493 0.9598
5.2287 8.5194 -2.3493 0.9598
5.0563 8.6228 -2.3493 0.9598
4.8818 8.7228 -2.3493 0.9598
4.5270 8.9121 -2.3493 0.9598
4.1649 9.0869 -2.3493 0.9598
3.9813 9.1689 -2.3493 0.9598
3.6093 9.3216 -2.3493 0.9598
3.4211 9.3923 -2.3493 0.9598
3.2315 9.4592 -2.3493 0.9598
2.8484 9.5815 -2.3493 0.9598
2.6551 9.6369 -2.3493 0.9598
2.4607 9.6883 -2.3493 0.9598
2.0690 9.7795 -2.3493 0.9598
1.6740 9.8548 -2.3493 0.9598
1.2763 9.9142 -2.3493 0.9598
1.0766 9.9378 -2.3493 0.9598
0.8765 9.9575 -2.3493 0.9598
0.4753 9.9847 -2.3493 0.9598
0.0733 9.9957 -2.3493 0.9598
-0.7303 9.9693 -2.3493 0.9598
-1.3303 9.9071 -2.3493 0.9598
-1.7277 9.8455 -2.3493 0.9598
-1.8295 9.3204 -2.2323 0.9617
-2.1223 9.7681 -2.3493 0.9598
-2.5134 9.6748 -2.3493 0.9598
-2.7075 9.6223 -2.3493 0.9598
-2.9005 9.5659 -2.3493 0.9598
-3.0924 9.5056 -2.3493 0.9598
-3.4722 9.3736 -2.3493 0.9598
-3.6600 9.3018 -2.3493 0.9598
-9.3388 -2.4787 -2.5017 0.9609
-9.1723 -3.0375 -2.5017 0.9609
-8.9724 -3.5851 -2.5017 0.9609
-8.8984 -3.7649 -2.5017 0.9609
-8.8209 -3.9431 -2.5017 0.9609
-8.6552 -4.2947 -2.5017 0.9609
-8.4754 -4.6393 -2.5017 0.9609
-8.3804 -4.8089 -2.5017 0.9609
-8.2820 -4.9765 -2.5017 0.9609
-8.1802 -5.1421 -2.5017 0.9609
-8.0751 -5.3055 -2.5017 0.9609
-7.9668 -5.4669 -2.5017 0.9609
-7.1207 -6.5309 -2.5017 0.9609
-6.9879 -6.6728 -2.5017 0.9609
-6.8522 -6.8120 -2.5017 0.9609
-6.7138 -6.9485 -2.5017 0.9609
-6.5727 -7.0821 -2.5017 0.9609
-6.4289 -7.2129 -2.5017 0.9609
-6.1336 -7.4656 -2.5017 0.9609
-5.6722 -7.8220 -2.5017 0.9609
-5.5137 -7.9345 -2.5017 0.9609
-5.1901 -8.1498 -2.5017 0.9609
-5.0251 -8.2525 -2.5017 0.9609
-4.3455 -8.6297 -2.5017 0.9609
-4.1711 -8.7154 -2.5017 0.9609
-3.9949 -8.7976 -2.5017 0.9609
-3.4571 -9.0225 -2.5017 0.9609
-3.2749 -9.0902 -2.5017 0.9609
-3.0914 -9.1542 -2.5017 0.9609
-2.9066 -9.2146 -2.5017 0.9609
-2.5337 -9.3240 -2.5017 0.9609
-2.1566 -9.4183 -2.5017 0.9609
-1.9667 -9.4598 -2.5017 0.9609
-1.7760 -9.4975 -2.5017 0.9609
-1.3926 -9.5612 -2.5017 0.9609
-1.0069 -9.6095 -2.5017 0.9609
-0.8134 -9.6278 -2.5017 0.9609
-0.6196 -9.6422 -2.5017 0.9609
-0.2313 -9.6593 -2.5017 0.9609
-0.0369 -9.6620 -2.5017 0.9609
0.1574 -9.6608 -2.5017 0.9609
0.3517 -9.6557 -2.5017 0.9609
1.8944 -9.4746 -2.5017 0.9609
2.0845 -9.4346 -2.5017 0.9609
2.8361 -9.2365 -2.5017 0.9609
3.0213 -9.1775 -2.5017 0.9609
3.3880 -9.0486 -2.5017 0.9609
3.5693 -8.9786 -2.5017 0.9609
3.7492 -8.9050 -2.5017 0.9609
3.9276 -8.8278 -2.5017 0.9609
4.1043 -8.7470 -2.5017 0.9609
4.2795 -8.6627 -2.5017 0.9609
4.4528 -8.5748 -2.5017 0.9609
4.6244 -8.4835 -2.5017 0.9609
4.9619 -8.2907 -2.5017 0.9609
5.4529 -7.9763 -2.5017 0.9609
5.6122 -7.8650 -2.5017 0.9609
5.7693 -7.7506 -2.5017 0.9609
6.5183 -7.1321 -2.5017 0.9609
6.6605 -6.9996 -2.5017 0.9609
6.7999 -6.8641 -2.5017 0.9609
6.9366 -6.7260 -2.5017 0.9609
7.2015 -6.4416 -2.5017 0.9609
7.4548 -6.1467 -2.5017 0.9609
7.6960 -5.8419 -2.5017 0.9609
7.9247 -5.5276 -2.5017 0.9609
8.1406 -5.2044 -2.5017 0.9609
8.3434 -4.8728 -2.5017 0.9609
8.5326 -4.5332 -2.5017 0.9609
8.8694 -3.8327 -2.5017 0.9609
9.0163 -3.4729 -2.5017 0.9609
9.1487 -3.1076 -2.5017 0.9609
9.2094 -2.9228 -2.5017 0.9609
9.2663 -2.7370 -2.5017 0.9609
9.3195 -2.5500 -2.5017 0.9609
9.3689 -2.3621 -2.5017 0.9609
9.4563 -1.9833 -2.5017 0.9609
9.5587 -1.4094 -2.5017 0.9609
9.6077 -1.0238 -2.5017 0.9609
9.6411 -0.6365 -2.5017 0.9609
9.6589 -0.2482 -2.5017 0.9609
9.6619 -0.0539 -2.5017 0.9609
9.6563 0.3347 -2.5017 0.9609
9.6476 0.5289 -2.5017 0.9609
9.6185 0.9165 -2.5017 0.9609
9.5738 1.3026 -2.5017 0.9609
9.5137 1.6866 -2.5017 0.9609
9.4778 1.8777 -2.5017 0.9609
9.3947 2.2574 -2.5017 0.9609
9.3473 2.4459 -2.5017 0.9609
9.2963 2.6334 -2.5017 0.9609
9.2414 2.8199 -2.5017 0.9609
9.1828 3.0052 -2.5017 0.9609
9.1205 3.1893 -2.5017 0.9609
8.9849 3.5535 -2.5017 0.9609
8.9116 3.7335 -2.5017 0.9609
8.8347 3.9120 -2.5017 0.9609
8.5826 4.4377 -2.5017 0.9609
8.3972 4.7793 -2.5017 0.9609
8.1982 5.1132 -2.5017 0.9609
7.7607 5.7556 -2.5017 0.9609
7.6433 5.9105 -2.5017 0.9609
7.5229 6.0631 -2.5017 0.9609
7.2729 6.3608 -2.5017 0.9609
6.8761 6.7878 -2.5017 0.9609
6.7381 6.9248 -2.5017 0.9609
6.5975 7.0589 -2.5017 0.9609
5.8400 7.6655 -2.4951 0.9610
5.4152 7.7345 -2.4446 0.9617
5.1899 7.7396 -2.4128 0.9622
4.9702 7.7444 -2.3826 0.9627
4.7569 7.7506 -2.3546 0.9631
4.2711 8.0053 -2.3493 0.9632
4.1092 8.0896 -2.3493 0.9632
3.9457 8.1706 -2.3493 0.9632
3.7806 8.2483 -2.3493 0.9632
3.6139 8.3227 -2.3493 0.9632
3.1053 8.5255 -2.3493 0.9632
2.5855 8.6973 -2.3493 0.9632
2.2336 8.7942 -2.3493 0.9632
2.0563 8.8374 -2.3493 0.9632
1.8781 8.8770 -2.3493 0.9632
1.6992 8.9129 -2.3493 0.9632
1.3393 8.9741 -2.3493 0.9632
1.1585 8.9992 -2.3493 0.9632
0.9773 9.0207 -2.3493 0.9632
0.7956 9.0385 -2.3493 0.9632
0.4314 9.0632 -2.3493 0.9632
-0.2984 9.0686 -2.3493 0.9632
-0.4808 9.0607 -2.3493 0.9632
-0.6629 9.0492 -2.3493 0.9632
-0.8448 9.0341 -2.3493 0.9632
-1.0264 9.0152 -2.3493 0.9632
-1.2075 8.9928 -2.3493 0.9632
-1.3881 8.9667 -2.3493 0.9632
-1.5682 8.9369 -2.3493 0.9632
-1.9264 8.8666 -2.3493 0.9632
-1.9140 8.0277 -2.1368 0.9665
-2.2815 8.7820 -2.3493 0.9632
-2.4577 8.7343 -2.3493 0.9632
-2.6328 8.6831 -2.3493 0.9632
-2.9800 8.5702 -2.3493 0.9632
-3.1517 8.5085 -2.3493 0.9632
-8.4939 -2.4384 -2.5017 0.9639
-8.4432 -2.6088 -2.5017 0.9639
-8.3314 -2.9462 -2.5017 0.9639
-8.2062 -3.2789 -2.5017 0.9639
-8.1385 -3.4433 -2.5017 0.9639
-7.9161 -3.9279 -2.5017 0.9639
-7.6648 -4.3982 -2.5017 0.9639
-7.5747 -4.5515 -2.5017 0.9639
-7.4816 -4.7029 -2.5017 0.9639
-7.2864 -5.0001 -2.5017 0.9639
-7.1844 -5.1456 -2.5017 0.9639
-7.0794 -5.2891 -2.5017 0.9639
-6.8610 -5.5695 -2.5017 0.9639
-6.7476 -5.7064 -2.5017 0.9639
-6.3911 -6.1030 -2.5017 0.9639
-6.2671 -6.2303 -2.5017 0.9639
-6.0114 -6.4773 -2.5017 0.9639
-5.8799 -6.5969 -2.5017 0.9639
-5.7460 -6.7139 -2.5017 0.9639
-5.6098 -6.8281 -2.5017 0.9639
-5.4713 -6.9395 -2.5017 0.9639
-5.3306 -7.0482 -2.5017 0.9639
-5.0428 -7.2569 -2.5017 0.9639
-4.7469 -7.4538 -2.5017 0.9639
-4.2887 -7.7266 -2.5017 0.9639
-3.8149 -7.9712 -2.5017 0.9639
-3.4912 -8.1181 -2.5017 0.9639
-2.8274 -8.3725 -2.5017 0.9639
-2.4883 -8.4794 -2.5017 0.9639
-2.3173 -8.5278 -2.5017 0.9639
-1.7987 -8.6520 -2.5017 0.9639
-1.6244 -8.6864 -2.5017 0.9639
-1.2737 -8.7447 -2.5017 0.9639
-1.0975 -8.7686 -2.5017 0.9639
-0.7439 -8.8056 -2.5017 0.9639
-0.3892 -8.8284 -2.5017 0.9639
0.3217 -8.8311 -2.5017 0.9639
0.8537 -8.7957 -2.5017 0.9639
1.0305 -8.7767 -2.5017 0.9639
1.7326 -8.6655 -2.5017 0.9639
1.9065 -8.6289 -2.5017 0.9639
2.5939 -8.4477 -2.5017 0.9639
2.9316 -8.3366 -2.5017 0.9639
3.0987 -8.2759 -2.5017 0.9639
3.2645 -8.2119 -2.5017 0.9639
3.4290 -8.1446 -2.5017 0.9639
3.5922 -8.0739 -2.5017 0.9639
3.9140 -7.9229 -2.5017 0.9639
4.3847 -7.6724 -2.5017 0.9639
4.5382 -7.5827 -2.5017 0.9639
4.6898 -7.4899 -2.5017 0.9639
4.8395 -7.3940 -2.5017 0.9639
4.9872 -7.2952 -2.5017 0.9639
5.1330 -7.1934 -2.5017 0.9639
5.4181 -6.9811 -2.5017 0.9639
5.5574 -6.8707 -2.5017 0.9639
5.6945 -6.7575 -2.5017 0.9639
5.8293 -6.6416 -2.5017 0.9639
5.9617 -6.5230 -2.5017 0.9639
6.7037 -5.7578 -2.5017 0.9639
6.9299 -5.4835 -2.5017 0.9639
7.1448 -5.2003 -2.5017 0.9639
7.3482 -4.9088 -2.5017 0.9639
7.7190 -4.3022 -2.5017 0.9639
7.8039 -4.1461 -2.5017 0.9639
7.9644 -3.8289 -2.5017 0.9639
8.3086 -3.0098 -2.5017 0.9639
8.3675 -2.8421 -2.5017 0.9639
8.4229 -2.6732 -2.5017 0.9639
8.4750 -2.5032 -2.5017 0.9639
8.5236 -2.3323 -2.5017 0.9639
8.6105 -1.9875 -2.5017 0.9639
8.6488 -1.8139 -2.5017 0.9639
8.6835 -1.6396 -2.5017 0.9639
8.7147 -1.4646 -2.5017 0.9639
8.7424 -1.2890 -2.5017 0.9639
8.8340 -0.2270 -2.5017 0.9639
8.8360 0.1285 -2.5017 0.9639
8.8237 0.4837 -2.5017 0.9639
8.7785 1.0150 -2.5017 0.9639
8.7013 1.5426 -2.5017 0.9639
8.6685 1.7173 -2.5017 0.9639
8.6322 1.8914 -2.5017 0.9639
8.5491 2.2370 -2.5017 0.9639
8.5024 2.4085 -2.5017 0.9639
8.4522 2.5791 -2.5017 0.9639
8.3986 2.7486 -2.5017 0.9639
8.3417 2.9169 -2.5017 0.9639
8.2813 3.0841 -2.5017 0.9639
7.6801 4.3712 -2.5017 0.9639
7.5906 4.5248 -2.5017 0.9639
7.4981 4.6766 -2.5017 0.9639
7.4025 4.8264 -2.5017 0.9639
7.3039 4.9744 -2.5017 0.9639
7.2024 5.1203 -2.5017 0.9639
7.0979 5.2641 -2.5017 0.9639
6.9906 5.4058 -2.5017 0.9639
6.8805 5.5453 -2.5017 0.9639
6.6519 5.8176 -2.5017 0.9639
6.5335 5.9502 -2.5017 0.9639
6.4125 6.0804 -2.5017 0.9639
6.2889 6.2082 -2.5017 0.9639
6.0341 6.4561 -2.5017 0.9639
5.9030 6.5762 -2.5017 0.9639
5.6337 6.8083 -2.5017 0.9639
5.3553 7.0294 -2.5017 0.9639
4.9196 7.3364 -2.5006 0.9639
4.3036 7.6896 -2.4946 0.9640
4.1208 7.7235 -2.4782 0.9643
3.5449 7.7343 -2.4085 0.9652
3.3597 7.7374 -2.3880 0.9655
3.1775 7.7403 -2.3687 0.9658
2.9996 7.7469 -2.3518 0.9661
2.6828 7.8530 -2.3493 0.9661
2.2042 8.0005 -2.3493 0.9661
2.0429 8.0432 -2.3493 0.9661
1.5541 8.1518 -2.3493 0.9661
1.2249 8.2077 -2.3493 0.9661
1.0596 8.2307 -2.3493 0.9661
0.7277 8.2667 -2.3493 0.9661
0.5612 8.2796 -2.3493 0.9661
0.3946 8.2892 -2.3493 0.9661
0.2278 8.2955 -2.3493 0.9661
-0.6063 8.2764 -2.3493 0.9661
-0.7727 8.2626 -2.3493 0.9661
-0.9387 8.2454 -2.3493 0.9661
-1.2696 8.2009 -2.3493 0.9661
-1.4343 8.1737 -2.3493 0.9661
-1.9140 8.0277 -2.3363 0.9663
-2.2478 7.9884 -2.3493 0.9661
-2.4080 7.9416 -2.3493 0.9661
-2.5673 7.8916 -2.3493 0.9661
-2.7255 7.8383 -2.3493 0.9661
-2.8826 7.7819 -2.3493 0.9661
-7.8613 -2.0866 -2.5017 0.9665
-7.8177 -2.2443 -2.5017 0.9665
-7.6682 -2.7117 -2.5017 0.9665
-7.4254 -3.3193 -2.5017 0.9665
-7.3571 -3.4679 -2.5017 0.9665
-7.2117 -3.7611 -2.5017 0.9665
-6.9717 -4.1892 -2.5017 0.9665
-6.7976 -4.4662 -2.5017 0.9665
-6.5159 -4.8680 -2.5017 0.9665
-6.2104 -5.2521 -2.5017 0.9665
-6.1035 -5.3760 -2.5017 0.9665
-5.6516 -5.8492 -2.5017 0.9665
-5.5329 -5.9617 -2.5017 0.9665
-5.2886 -6.1794 -2.5017 0.9665
-5.0358 -6.3871 -2.5017 0.9665
-4.7748 -6.5845 -2.5017 0.9665
-4.5061 -6.7712 -2.5017 0.9665
-4.3690 -6.8605 -2.5017 0.9665
-4.2301 -6.9470 -2.5017 0.9665
-4.0895 -7.0306 -2.5017 0.9665
-3.5112 -7.3366 -2.5017 0.9665
-3.3629 -7.4057 -2.5017 0.9665
-3.2133 -7.4719 -2.5017 0.9665
-2.6023 -7.7060 -2.5017 0.9665
-2.4468 -7.7568 -2.5017 0.9665
-2.1328 -7.8489 -2.5017 0.9665
-1.8154 -7.9283 -2.5017 0.9665
-1.6556 -7.9632 -2.5017 0.9665
-0.6847 -8.1046 -2.5017 0.9665
-0.1947 -8.1312 -2.5017 0.9665
-0.0311 -8.1334 -2.5017 0.9665
0.1325 -8.1324 -2.5017 0.9665
0.2961 -8.1281 -2.5017 0.9665
0.4595 -8.1205 -2.5017 0.9665
0.6228 -8.1096 -2.5017 0.9665
0.9484 -8.0780 -2.5017 0.9665
1.2726 -8.0333 -2.5017 0.9665
1.4339 -8.0061 -2.5017 0.9665
1.5947 -7.9756 -2.5017 0.9665
1.9142 -7.9050 -2.5017 0.9665
2.0728 -7.8649 -2.5017 0.9665
2.6982 -7.6729 -2.5017 0.9665
2.8520 -7.6171 -2.5017 0.9665
3.0046 -7.5582 -2.5017 0.9665
3.3062 -7.4312 -2.5017 0.9665
3.4550 -7.3632 -2.5017 0.9665
3.6024 -7.2922 -2.5017 0.9665
3.7484 -7.2183 -2.5017 0.9665
4.0357 -7.0617 -2.5017 0.9665
4.3164 -6.8936 -2.5017 0.9665
4.5902 -6.7144 -2.5017 0.9665
4.7243 -6.6208 -2.5017 0.9665
4.8565 -6.5244 -2.5017 0.9665
4.9868 -6.4254 -2.5017 0.9665
5.1150 -6.3238 -2.5017 0.9665
5.4871 -6.0038 -2.5017 0.9665
5.7241 -5.7782 -2.5017 0.9665
5.8392 -5.6619 -2.5017 0.9665
6.1701 -5.2994 -2.5017 0.9665
6.3782 -5.0470 -2.5017 0.9665
6.5760 -4.7863 -2.5017 0.9665
6.8527 -4.3810 -2.5017 0.9665
6.9395 -4.2423 -2.5017 0.9665
7.1045 -3.9597 -2.5017 0.9665
7.1827 -3.8160 -2.5017 0.9665
7.2580 -3.6708 -2.5017 0.9665
7.3304 -3.5241 -2.5017 0.9665
7.4662 -3.2264 -2.5017 0.9665
7.5899 -2.9235 -2.5017 0.9665
7.7014 -2.6158 -2.5017 0.9665
7.7524 -2.4604 -2.5017 0.9665
7.8451 -2.1466 -2.5017 0.9665
7.8867 -1.9884 -2.5017 0.9665
7.9251 -1.8293 -2.5017 0.9665
8.0210 -1.3480 -2.5017 0.9665
8.0465 -1.1864 -2.5017 0.9665
8.0877 -0.8618 -2.5017 0.9665
8.1158 -0.5358 -2.5017 0.9665
8.1249 -0.3725 -2.5017 0.9665
8.1333 -0.0454 -2.5017 0.9665
8.1286 0.2818 -2.5017 0.9665
8.1107 0.6085 -2.5017 0.9665
8.0968 0.7715 -2.5017 0.9665
8.0355 1.2584 -2.5017 0.9665
7.8255 2.2168 -2.5017 0.9665
7.7794 2.3737 -2.5017 0.9665
7.7301 2.5297 -2.5017 0.9665
7.6776 2.6847 -2.5017 0.9665
7.6221 2.8386 -2.5017 0.9665
7.4370 3.2931 -2.5017 0.9665
7.3692 3.4421 -2.5017 0.9665
7.2985 3.5896 -2.5017 0.9665
7.2248 3.7357 -2.5017 0.9665
7.1482 3.8802 -2.5017 0.9665
6.9864 4.1646 -2.5017 0.9665
6.9012 4.3043 -2.5017 0.9665
6.5329 4.8450 -2.5017 0.9665
6.3327 5.1039 -2.5017 0.9665
6.1223 5.3545 -2.5017 0.9665
5.9020 5.5964 -2.5017 0.9665
5.6721 5.8292 -2.5017 0.9665
5.4331 6.0527 -2.5017 0.9665
5.3102 6.1607 -2.5017 0.9665
4.9290 6.4698 -2.5017 0.9665
4.7979 6.5676 -2.5017 0.9665
4.5298 6.7553 -2.5017 0.9665
4.3931 6.8450 -2.5017 0.9665
4.2545 6.9320 -2.5017 0.9665
4.1142 7.0162 -2.5017 0.9665
3.9722 7.0975 -2.5017 0.9665
3.8287 7.1760 -2.5017 0.9665
3.5357 7.3215 -2.5008 0.9665
3.2355 7.4512 -2.4986 0.9666
3.0837 7.5117 -2.4975 0.9666
2.9308 7.5692 -2.4966 0.9666
2.4634 7.7150 -2.4910 0.9667
2.1267 7.7190 -2.4626 0.9670
1.7968 7.7222 -2.4386 0.9674
1.4726 7.7246 -2.4187 0.9676
1.3123 7.7256 -2.4103 0.9677
0.2122 7.7276 -2.3777 0.9682
-0.0988 7.7266 -2.3767 0.9682
-0.2543 7.7258 -2.3776 0.9682
-1.1948 7.7178 -2.4021 0.9678
-1.6754 7.7114 -2.4272 0.9675
-2.0020 7.7061 -2.4489 0.9672
-2.1675 7.7032 -2.4614 0.9671
-6.9888 -2.7925 -2.5017 0.9688
-6.9312 -2.9325 -2.5017 0.9688
-6.7417 -3.3452 -2.5017 0.9688
-6.6731 -3.4801 -2.5017 0.9688
-6.6017 -3.6137 -2.5017 0.9688
-6.4510 -3.8763 -2.5017 0.9688
-6.3717 -4.0053 -2.5017 0.9688
-6.2899 -4.1326 -2.5017 0.9688
-6.2055 -4.2583 -2.5017 0.9688
-6.1186 -4.3822 -2.5017 0.9688
-6.0292 -4.5044 -2.5017 0.9688
-5.8431 -4.7433 -2.5017 0.9688
-5.7466 -4.8599 -2.5017 0.9688
-5.5464 -5.0871 -2.5017 0.9688
-5.3373 -5.3060 -2.5017 0.9688
-5.2295 -5.4123 -2.5017 0.9688
-5.1196 -5.5164 -2.5017 0.9688
-5.0076 -5.6183 -2.5017 0.9688
-4.7776 -5.8151 -2.5017 0.9688
-4.6597 -5.9101 -2.5017 0.9688
-4.5398 -6.0026 -2.5017 0.9688
-4.1695 -6.2655 -2.5017 0.9688
-4.0427 -6.3481 -2.5017 0.9688
-3.7841 -6.5055 -2.5017 0.9688
-3.6525 -6.5803 -2.5017 0.9688
-3.5194 -6.6524 -2.5017 0.9688
-3.3848 -6.7219 -2.5017 0.9688
-3.2489 -6.7886 -2.5017 0.9688
-2.8336 -6.9722 -2.5017 0.9688
-2.6928 -7.0278 -2.5017 0.9688
-2.5509 -7.0805 -2.5017 0.9688
-2.1192 -7.2215 -2.5017 0.9688
-1.9735 -7.2627 -2.5017 0.9688
-1.8270 -7.3009 -2.5017 0.9688
-1.5319 -7.3685 -2.5017 0.9688
-1.3834 -7.3978 -2.5017 0.9688
-0.4826 -7.5105 -2.5017 0.9688
-0.3314 -7.5187 -2.5017 0.9688
-0.1801 -7.5239 -2.5017 0.9688
0.1226 -7.5250 -2.5017 0.9688
0.2740 -7.5210 -2.5017 0.9688
0.4252 -7.5140 -2.5017 0.9688
1.0278 -7.4555 -2.5017 0.9688
1.3268 -7.4081 -2.5017 0.9688
1.4756 -7.3799 -2.5017 0.9688
1.6237 -7.3488 -2.5017 0.9688
1.7712 -7.3146 -2.5017 0.9688
2.0640 -7.2375 -2.5017 0.9688
2.4967 -7.0998 -2.5017 0.9688
2.9203 -6.9363 -2.5017 0.9688
3.0593 -6.8762 -2.5017 0.9688
3.1970 -6.8132 -2.5017 0.9688
3.3334 -6.7476 -2.5017 0.9688
3.4684 -6.6791 -2.5017 0.9688
4.1215 -6.2971 -2.5017 0.9688
4.2474 -6.2129 -2.5017 0.9688
4.7330 -5.8515 -2.5017 0.9688
4.9645 -5.6563 -2.5017 0.9688
5.0773 -5.5553 -2.5017 0.9688
5.2966 -5.3466 -2.5017 0.9688
5.4031 -5.2390 -2.5017 0.9688
5.5074 -5.1293 -2.5017 0.9688
5.6094 -5.0174 -2.5017 0.9688
5.7092 -4.9036 -2.5017 0.9688
5.9946 -4.5504 -2.5017 0.9688
6.1727 -4.3056 -2.5017 0.9688
6.2581 -4.1805 -2.5017 0.9688
6.3409 -4.0538 -2.5017 0.9688
6.4988 -3.7955 -2.5017 0.9688
6.6462 -3.5310 -2.5017 0.9688
6.7159 -3.3966 -2.5017 0.9688
6.8471 -3.1237 -2.5017 0.9688
6.9085 -2.9854 -2.5017 0.9688
6.9672 -2.8458 -2.5017 0.9688
7.1261 -2.4205 -2.5017 0.9688
7.1734 -2.2766 -2.5017 0.9688
7.2976 -1.8399 -2.5017 0.9688
7.3332 -1.6927 -2.5017 0.9688
7.4219 -1.2473 -2.5017 0.9688
7.4661 -0.9478 -2.5017 0.9688
7.4836 -0.7974 -2.5017 0.9688
7.5181 -0.3447 -2.5017 0.9688
7.5252 0.1094 -2.5017 0.9688
7.5215 0.2607 -2.5017 0.9688
7.4762 0.8645 -2.5017 0.9688
7.3825 1.4626 -2.5017 0.9688
7.3516 1.6108 -2.5017 0.9688
7.3177 1.7583 -2.5017 0.9688
7.2411 2.0512 -2.5017 0.9688
7.1983 2.1965 -2.5017 0.9688
7.1527 2.3408 -2.5017 0.9688
6.9414 2.9081 -2.5017 0.9688
6.8815 3.0472 -2.5017 0.9688
6.8188 3.1850 -2.5017 0.9688
6.7534 3.3215 -2.5017 0.9688
6.6143 3.5904 -2.5017 0.9688
6.5408 3.7227 -2.5017 0.9688
6.4646 3.8536 -2.5017 0.9688
6.2204 4.2364 -2.5017 0.9688
6.1339 4.3607 -2.5017 0.9688
5.9536 4.6039 -2.5017 0.9688
5.8598 4.7227 -2.5017 0.9688
5.7636 4.8396 -2.5017 0.9688
5.6651 4.9546 -2.5017 0.9688
5.5643 5.0675 -2.5017 0.9688
5.4612 5.1784 -2.5017 0.9688
5.3559 5.2872 -2.5017 0.9688
5.1389 5.4983 -2.5017 0.9688
4.7980 5.7983 -2.5017 0.9688
4.6804 5.8936 -2.5017 0.9688
4.4395 6.0771 -2.5017 0.9688
4.3164 6.1652 -2.5017 0.9688
4.1915 6.2507 -2.5017 0.9688
3.9367 6.4143 -2.5017 0.9688
3.6756 6.5674 -2.5017 0.9688
3.2728 6.7771 -2.5017 0.9688
2.8581 6.9622 -2.5017 0.9688
2.7175 7.0183 -2.5017 0.9688
2.2892 7.1694 -2.5017 0.9688
1.8523 7.2929 -2.5012 0.9688
1.7048 7.3269 -2.5006 0.9688
1.5568 7.3582 -2.5000 0.9688
1.1096 7.4347 -2.4987 0.9688
0.9597 7.4545 -2.4984 0.9688
0.8094 7.4714 -2.4981 0.9688
0.5082 7.4966 -2.4976 0.9688
-0.0960 7.5123 -2.4973 0.9688
-0.2471 7.5090 -2.4974 0.9688
-0.3981 7.5028 -2.4975 0.9688
-0.6997 7.4817 -2.4978 0.9688
-0.8501 7.4668 -2.4981 0.9688
-1.0002 7.4491 -2.4983 0.9688
-1.5968 7.3495 -2.5000 0.9688
-1.7447 7.3174 -2.5005 0.9688
-1.8919 7.2825 -2.5011 0.9688
-2.0385 7.2447 -2.5017 0.9688
-2.1838 7.2022 -2.5017 0.9688
-2.7556 7.0034 -2.5017 0.9688
-6.7615 -1.7947 -2.5017 0.9707
-6.5954 -2.3323 -2.5017 0.9707
-6.4962 -2.5957 -2.5017 0.9707
-6.3866 -2.8549 -2.5017 0.9707
-6.3279 -2.9828 -2.5017 0.9707
-6.2666 -3.1095 -2.5017 0.9707
-6.2028 -3.2349 -2.5017 0.9707
