ply
format ascii 1.0
element vertex 1596
property float32 x
property float32 y
property float32 z
property float32 I
end_header
1.9163 -9.4703 -2.5017 0.9609
2.6712 -9.2856 -2.5017 0.9609
3.0425 -9.1707 -2.5017 0.9609
3.2264 -9.1076 -2.5017 0.9609
3.4089 -9.0409 -2.5017 0.9609
3.5901 -8.9705 -2.5017 0.9609
3.7698 -8.8965 -2.5017 0.9609
3.9479 -8.8189 -2.5017 0.9609
4.1245 -8.7377 -2.5017 0.9609
4.6440 -8.4730 -2.5017 0.9609
4.9810 -8.2794 -2.5017 0.9609
5.3100 -8.0724 -2.5017 0.9609
5.6303 -7.8523 -2.5017 0.9609
5.7871 -7.7374 -2.5017 0.9609
5.9416 -7.6195 -2.5017 0.9609
6.0936 -7.4984 -2.5017 0.9609
6.2432 -7.3743 -2.5017 0.9609
6.3903 -7.2473 -2.5017 0.9609
6.6766 -6.9844 -2.5017 0.9609
7.0856 -6.5690 -2.5017 0.9609
7.4689 -6.1297 -2.5017 0.9609
7.5907 -5.9783 -2.5017 0.9609
7.7094 -5.8244 -2.5017 0.9609
7.8250 -5.6682 -2.5017 0.9609
8.0466 -5.3489 -2.5017 0.9609
8.3545 -4.8539 -2.5017 0.9609
8.4505 -4.6848 -2.5017 0.9609
8.5430 -4.5139 -2.5017 0.9609
8.6321 -4.3412 -2.5017 0.9609
8.7176 -4.1667 -2.5017 0.9609
8.7997 -3.9904 -2.5017 0.9609
8.9530 -3.6333 -2.5017 0.9609
9.0919 -3.2703 -2.5017 0.9609
9.1559 -3.0868 -2.5017 0.9609
9.4195 -2.1519 -2.5017 0.9609
9.4609 -1.9620 -2.5017 0.9609
9.4984 -1.7713 -2.5017 0.9609
9.5321 -1.5799 -2.5017 0.9609
9.5620 -1.3879 -2.5017 0.9609
9.6426 -0.6148 -2.5017 0.9609
9.6530 -0.4207 -2.5017 0.9609
9.6621 -0.0322 -2.5017 0.9609
9.6465 0.5506 -2.5017 0.9609
9.5710 1.3241 -2.5017 0.9609
9.5100 1.7080 -2.5017 0.9609
9.3897 2.2784 -2.5017 0.9609
9.0471 3.3923 -2.5017 0.9609
8.9770 3.5736 -2.5017 0.9609
8.9033 3.7534 -2.5017 0.9609
8.7452 4.1085 -2.5017 0.9609
8.6608 4.2836 -2.5017 0.9609
8.5729 4.4569 -2.5017 0.9609
8.4815 4.6284 -2.5017 0.9609
8.1869 5.1315 -2.5017 0.9609
7.8625 5.6159 -2.5017 0.9609
7.7480 5.7729 -2.5017 0.9609
7.6303 5.9276 -2.5017 0.9609
7.5095 6.0798 -2.5017 0.9609
7.3857 6.2297 -2.5017 0.9609
7.2589 6.3770 -2.5017 0.9609
7.1292 6.5217 -2.5017 0.9609
6.9966 6.6637 -2.5017 0.9609
6.2900 7.3300 -2.5008 0.9609
6.1363 7.4490 -2.4988 0.9609
5.8226 7.6778 -2.4949 0.9610
5.1656 7.7401 -2.4094 0.9623
4.7350 7.7530 -2.3522 0.9632
3.9278 8.1794 -2.3493 0.9632
3.5957 8.3307 -2.3493 0.9632
3.4274 8.4014 -2.3493 0.9632
3.2577 8.4686 -2.3493 0.9632
3.0867 8.5324 -2.3493 0.9632
2.9145 8.5928 -2.3493 0.9632
2.3910 8.7529 -2.3493 0.9632
2.2144 8.7992 -2.3493 0.9632
1.6797 8.9167 -2.3493 0.9632
1.3197 8.9771 -2.3493 0.9632
0.7759 9.0404 -2.3493 0.9632
0.0468 9.0735 -2.3493 0.9632
-0.1357 9.0726 -2.3493 0.9632
-0.3181 9.0680 -2.3493 0.9632
-0.6826 9.0479 -2.3493 0.9632
-0.8644 9.0323 -2.3493 0.9632
-8.3843 2.7925 -2.5017 0.9639
-8.5375 2.2818 -2.5017 0.9639
-8.5816 2.1096 -2.5017 0.9639
-8.6223 1.9366 -2.5017 0.9639
-8.6595 1.7627 -2.5017 0.9639
-8.6932 1.5882 -2.5017 0.9639
-8.7732 1.0611 -2.5017 0.9639
-8.8212 0.5300 -2.5017 0.9639
-8.8301 0.3525 -2.5017 0.9639
-8.8371 -0.0029 -2.5017 0.9639
-8.8353 -0.1807 -2.5017 0.9639
-8.8299 -0.3584 -2.5017 0.9639
-8.7725 -1.0669 -2.5017 0.9639
-8.7493 -1.2431 -2.5017 0.9639
-8.7225 -1.4188 -2.5017 0.9639
-8.5802 -2.1153 -2.5017 0.9639
-8.4882 -2.4587 -2.5017 0.9639
-8.4370 -2.6289 -2.5017 0.9639
-8.1985 -3.2985 -2.5017 0.9639
-8.0592 -3.6256 -2.5017 0.9639
-7.9846 -3.7869 -2.5017 0.9639
-7.9068 -3.9468 -2.5017 0.9639
-7.7417 -4.2616 -2.5017 0.9639
-7.3741 -4.8700 -2.5017 0.9639
-7.2747 -5.0174 -2.5017 0.9639
-6.9589 -5.4470 -2.5017 0.9639
-6.8479 -5.5858 -2.5017 0.9639
-6.7342 -5.7224 -2.5017 0.9639
-6.6177 -5.8567 -2.5017 0.9639
-5.1710 -7.1663 -2.5017 0.9639
-4.8786 -7.3685 -2.5017 0.9639
-4.7294 -7.4651 -2.5017 0.9639
-3.4722 -8.1264 -2.5017 0.9639
-3.3081 -8.1946 -2.5017 0.9639
-3.1426 -8.2595 -2.5017 0.9639
-2.4686 -8.4853 -2.5017 0.9639
-1.7786 -8.6563 -2.5017 0.9639
-1.4290 -8.7208 -2.5017 0.9639
-1.2533 -8.7478 -2.5017 0.9639
-1.0771 -8.7712 -2.5017 0.9639
-0.9005 -8.7911 -2.5017 0.9639
-0.5462 -8.8202 -2.5017 0.9639
0.3422 -8.8305 -2.5017 0.9639
0.6971 -8.8096 -2.5017 0.9639
0.8741 -8.7938 -2.5017 0.9639
1.5780 -8.6951 -2.5017 0.9639
1.9265 -8.6246 -2.5017 0.9639
2.0996 -8.5841 -2.5017 0.9639
2.2718 -8.5401 -2.5017 0.9639
2.4431 -8.4927 -2.5017 0.9639
2.6135 -8.4418 -2.5017 0.9639
2.7827 -8.3875 -2.5017 0.9639
3.1178 -8.2688 -2.5017 0.9639
3.2835 -8.2045 -2.5017 0.9639
3.4478 -8.1368 -2.5017 0.9639
3.6108 -8.0658 -2.5017 0.9639
3.9323 -7.9140 -2.5017 0.9639
4.4024 -7.6625 -2.5017 0.9639
4.5556 -7.5724 -2.5017 0.9639
5.1495 -7.1817 -2.5017 0.9639
5.4342 -6.9688 -2.5017 0.9639
5.8446 -6.6284 -2.5017 0.9639
6.3584 -6.1372 -2.5017 0.9639
7.1568 -5.1841 -2.5017 0.9639
7.2596 -5.0391 -2.5017 0.9639
7.3595 -4.8921 -2.5017 0.9639
7.4564 -4.7431 -2.5017 0.9639
7.8135 -4.1284 -2.5017 0.9639
7.8949 -3.9704 -2.5017 0.9639
7.9732 -3.8108 -2.5017 0.9639
8.0482 -3.6497 -2.5017 0.9639
8.1885 -3.3230 -2.5017 0.9639
8.2537 -3.1577 -2.5017 0.9639
8.3155 -2.9910 -2.5017 0.9639
8.4291 -2.6542 -2.5017 0.9639
8.6530 -1.7944 -2.5017 0.9639
8.7181 -1.4450 -2.5017 0.9639
8.7454 -1.2693 -2.5017 0.9639
8.8061 -0.7396 -2.5017 0.9639
8.8192 -0.5623 -2.5017 0.9639
8.8346 -0.2072 -2.5017 0.9639
8.8370 -0.0294 -2.5017 0.9639
8.8358 0.1483 -2.5017 0.9639
8.8311 0.3260 -2.5017 0.9639
8.8227 0.5036 -2.5017 0.9639
8.7953 0.8580 -2.5017 0.9639
8.7276 1.3869 -2.5017 0.9639
8.6979 1.5621 -2.5017 0.9639
8.4971 2.4276 -2.5017 0.9639
8.4466 2.5980 -2.5017 0.9639
8.2745 3.1026 -2.5017 0.9639
8.1430 3.4329 -2.5017 0.9639
8.0723 3.5960 -2.5017 0.9639
7.9212 3.9178 -2.5017 0.9639
7.8408 4.0763 -2.5017 0.9639
7.4878 4.6933 -2.5017 0.9639
7.3919 4.8430 -2.5017 0.9639
7.1911 5.1363 -2.5017 0.9639
6.9787 5.4214 -2.5017 0.9639
6.8683 5.5607 -2.5017 0.9639
6.7550 5.6977 -2.5017 0.9639
6.6391 5.8324 -2.5017 0.9639
6.5204 5.9647 -2.5017 0.9639
6.3991 6.0947 -2.5017 0.9639
6.2752 6.2222 -2.5017 0.9639
6.1488 6.3471 -2.5017 0.9639
6.0199 6.4695 -2.5017 0.9639
5.7548 6.7064 -2.5017 0.9639
5.4804 6.9324 -2.5017 0.9639
5.0524 7.2503 -2.5017 0.9639
4.9031 7.3469 -2.5005 0.9639
4.5980 7.5287 -2.4974 0.9640
4.4430 7.6152 -2.4959 0.9640
4.2864 7.6986 -2.4945 0.9640
4.0992 7.7239 -2.4755 0.9643
3.9041 7.7278 -2.4510 0.9646
2.8231 7.8038 -2.3493 0.9661
2.5070 7.9110 -2.3493 0.9661
2.1868 8.0054 -2.3493 0.9661
2.0253 8.0478 -2.3493 0.9661
1.5363 8.1553 -2.3493 0.9661
1.3719 8.1846 -2.3493 0.9661
1.2070 8.2105 -2.3493 0.9661
0.8758 8.2524 -2.3493 0.9661
0.7097 8.2683 -2.3493 0.9661
0.5432 8.2810 -2.3493 0.9661
0.2097 8.2961 -2.3493 0.9661
0.0428 8.2987 -2.3493 0.9661
-0.2910 8.2936 -2.3493 0.9661
-0.4577 8.2861 -2.3493 0.9661
-0.7906 8.2610 -2.3493 0.9661
-0.9566 8.2434 -2.3493 0.9661
-7.8578 2.1001 -2.5017 0.9665
-7.8985 1.9416 -2.5017 0.9665
-7.9359 1.7824 -2.5017 0.9665
-7.9702 1.6224 -2.5017 0.9665
-8.0012 1.4618 -2.5017 0.9665
-8.0290 1.3005 -2.5017 0.9665
-8.0535 1.1388 -2.5017 0.9665
-8.0928 0.8140 -2.5017 0.9665
-8.1320 0.1609 -2.5017 0.9665
-8.1319 -0.1663 -2.5017 0.9665
-8.1269 -0.3298 -2.5017 0.9665
-8.1071 -0.6564 -2.5017 0.9665
-8.0741 -0.9820 -2.5017 0.9665
-8.0527 -1.1442 -2.5017 0.9665
-7.9691 -1.6277 -2.5017 0.9665
-7.9347 -1.7877 -2.5017 0.9665
-7.7152 -2.5753 -2.5017 0.9665
-7.6053 -2.8836 -2.5017 0.9665
-7.3490 -3.4855 -2.5017 0.9665
-7.2028 -3.7782 -2.5017 0.9665
-7.0451 -4.0649 -2.5017 0.9665
-6.8759 -4.3449 -2.5017 0.9665
-6.4049 -5.0133 -2.5017 0.9665
-6.1981 -5.2669 -2.5017 0.9665
-6.0909 -5.3905 -2.5017 0.9665
-5.8692 -5.6311 -2.5017 0.9665
-5.6379 -5.8626 -2.5017 0.9665
-5.2741 -6.1919 -2.5017 0.9665
-5.1485 -6.2967 -2.5017 0.9665
-5.0208 -6.3990 -2.5017 0.9665
-4.8911 -6.4987 -2.5017 0.9665
-4.4902 -6.7819 -2.5017 0.9665
-4.3529 -6.8708 -2.5017 0.9665
-4.2138 -6.9570 -2.5017 0.9665
-3.9306 -7.1208 -2.5017 0.9665
-3.7866 -7.1984 -2.5017 0.9665
-3.6411 -7.2731 -2.5017 0.9665
-2.8924 -7.6020 -2.5017 0.9665
-2.5843 -7.7121 -2.5017 0.9665
-1.9561 -7.8949 -2.5017 0.9665
-1.3152 -8.0266 -2.5017 0.9665
-1.1535 -8.0514 -2.5017 0.9665
-0.9914 -8.0730 -2.5017 0.9665
-0.6659 -8.1063 -2.5017 0.9665
-0.3393 -8.1265 -2.5017 0.9665
0.3150 -8.1275 -2.5017 0.9665
0.4784 -8.1195 -2.5017 0.9665
0.6416 -8.1083 -2.5017 0.9665
0.8045 -8.0937 -2.5017 0.9665
1.4524 -8.0029 -2.5017 0.9665
1.6131 -7.9720 -2.5017 0.9665
1.9324 -7.9007 -2.5017 0.9665
2.2486 -7.8166 -2.5017 0.9665
2.4054 -7.7698 -2.5017 0.9665
2.5612 -7.7198 -2.5017 0.9665
3.1734 -7.4890 -2.5017 0.9665
3.3234 -7.4237 -2.5017 0.9665
3.6192 -7.2840 -2.5017 0.9665
4.1930 -6.9695 -2.5017 0.9665
4.6057 -6.7040 -2.5017 0.9665
4.7396 -6.6100 -2.5017 0.9665
4.8715 -6.5133 -2.5017 0.9665
5.5009 -5.9913 -2.5017 0.9665
5.6203 -5.8794 -2.5017 0.9665
5.8522 -5.6486 -2.5017 0.9665
5.9646 -5.5298 -2.5017 0.9665
6.0747 -5.4087 -2.5017 0.9665
6.4897 -4.9029 -2.5017 0.9665
6.5870 -4.7714 -2.5017 0.9665
6.6817 -4.6380 -2.5017 0.9665
7.0328 -4.0859 -2.5017 0.9665
7.2664 -3.6544 -2.5017 0.9665
7.4075 -3.3592 -2.5017 0.9665
7.5366 -3.0585 -2.5017 0.9665
7.5966 -2.9063 -2.5017 0.9665
7.7581 -2.4429 -2.5017 0.9665
7.8056 -2.2863 -2.5017 0.9665
7.8500 -2.1289 -2.5017 0.9665
7.8913 -1.9706 -2.5017 0.9665
7.9293 -1.8114 -2.5017 0.9665
8.0711 -1.0061 -2.5017 0.9665
8.1335 -0.0271 -2.5017 0.9665
8.1324 0.1365 -2.5017 0.9665
8.1280 0.3001 -2.5017 0.9665
8.1204 0.4635 -2.5017 0.9665
8.1094 0.6267 -2.5017 0.9665
8.0055 1.4378 -2.5017 0.9665
7.9750 1.5985 -2.5017 0.9665
7.9412 1.7586 -2.5017 0.9665
7.9042 1.9180 -2.5017 0.9665
7.8640 2.0766 -2.5017 0.9665
7.8207 2.2343 -2.5017 0.9665
7.7742 2.3911 -2.5017 0.9665
7.7245 2.5470 -2.5017 0.9665
7.6717 2.7019 -2.5017 0.9665
7.6158 2.8556 -2.5017 0.9665
7.4297 3.3097 -2.5017 0.9665
7.3616 3.4585 -2.5017 0.9665
7.2906 3.6059 -2.5017 0.9665
7.2166 3.7518 -2.5017 0.9665
7.1397 3.8962 -2.5017 0.9665
7.0599 4.0390 -2.5017 0.9665
6.8917 4.3197 -2.5017 0.9665
6.8034 4.4574 -2.5017 0.9665
6.7124 4.5934 -2.5017 0.9665
6.5222 4.8596 -2.5017 0.9665
6.2173 5.2441 -2.5017 0.9665
6.1105 5.3681 -2.5017 0.9665
6.0013 5.4899 -2.5017 0.9665
5.8897 5.6095 -2.5017 0.9665
5.4198 6.0647 -2.5017 0.9665
5.1715 6.2778 -2.5017 0.9665
4.5150 6.7653 -2.5017 0.9665
3.2190 7.4581 -2.4985 0.9666
3.0671 7.5182 -2.4975 0.9666
2.9141 7.5754 -2.4965 0.9666
2.7601 7.6296 -2.4956 0.9666
2.6052 7.6809 -2.4947 0.9666
2.2758 7.7173 -2.4747 0.9669
2.1086 7.7192 -2.4612 0.9671
0.9776 7.7271 -2.3956 0.9679
0.8201 7.7275 -2.3902 0.9680
0.6633 7.7278 -2.3856 0.9681
0.5069 7.7279 -2.3820 0.9681
0.3510 7.7278 -2.3794 0.9681
0.0399 7.7271 -2.3767 0.9682
-0.4267 7.7248 -2.3796 0.9681
-0.8960 7.7210 -2.3908 0.9680
-7.1405 2.3782 -2.5017 0.9688
-7.2304 2.0891 -2.5017 0.9688
-7.2709 1.9433 -2.5017 0.9688
-7.4036 1.3526 -2.5017 0.9688
-7.4717 0.9036 -2.5017 0.9688
-7.5020 0.6024 -2.5017 0.9688
-7.5126 0.4514 -2.5017 0.9688
-7.5247 0.1489 -2.5017 0.9688
-7.5246 -0.1539 -2.5017 0.9688
-7.5199 -0.3052 -2.5017 0.9688
-7.5123 -0.4564 -2.5017 0.9688
-7.4878 -0.7581 -2.5017 0.9688
-7.4285 -1.2084 -2.5017 0.9688
-7.4027 -1.3575 -2.5017 0.9688
-7.3421 -1.6542 -2.5017 0.9688
-7.3074 -1.8015 -2.5017 0.9688
-7.1854 -2.2389 -2.5017 0.9688
-7.0373 -2.6682 -2.5017 0.9688
-6.9243 -2.9490 -2.5017 0.9688
-6.8001 -3.2251 -2.5017 0.9688
-6.6649 -3.4960 -2.5017 0.9688
-6.5189 -3.7613 -2.5017 0.9688
-6.2802 -4.1476 -2.5017 0.9688
-5.9265 -4.6389 -2.5017 0.9688
-5.4308 -5.2105 -2.5017 0.9688
-5.3249 -5.3187 -2.5017 0.9688
-5.1067 -5.5285 -2.5017 0.9688
-4.7639 -5.8265 -2.5017 0.9688
-4.6458 -5.9211 -2.5017 0.9688
-4.5258 -6.0133 -2.5017 0.9688
-4.4039 -6.1031 -2.5017 0.9688
-4.2803 -6.1905 -2.5017 0.9688
-4.1549 -6.2754 -2.5017 0.9688
-3.8991 -6.4374 -2.5017 0.9688
-3.7688 -6.5145 -2.5017 0.9688
-3.5038 -6.6608 -2.5017 0.9688
-3.2331 -6.7963 -2.5017 0.9688
-3.0957 -6.8600 -2.5017 0.9688
-2.9571 -6.9208 -2.5017 0.9688
-2.8173 -6.9789 -2.5017 0.9688
-2.6764 -7.0342 -2.5017 0.9688
-2.5344 -7.0866 -2.5017 0.9688
-2.3913 -7.1361 -2.5017 0.9688
-2.2473 -7.1828 -2.5017 0.9688
-1.6627 -7.3402 -2.5017 0.9688
-1.5147 -7.3721 -2.5017 0.9688
-0.9173 -7.4700 -2.5017 0.9688
-0.3140 -7.5196 -2.5017 0.9688
-0.1627 -7.5244 -2.5017 0.9688
0.2914 -7.5205 -2.5017 0.9688
0.4426 -7.5131 -2.5017 0.9688
0.5937 -7.5027 -2.5017 0.9688
1.0450 -7.4532 -2.5017 0.9688
1.3440 -7.4052 -2.5017 0.9688
1.6407 -7.3451 -2.5017 0.9688
1.7881 -7.3106 -2.5017 0.9688
2.5131 -7.0941 -2.5017 0.9688
2.6553 -7.0422 -2.5017 0.9688
3.0751 -6.8692 -2.5017 0.9688
3.2127 -6.8060 -2.5017 0.9688
3.3489 -6.7400 -2.5017 0.9688
3.6173 -6.5998 -2.5017 0.9688
4.3856 -6.1163 -2.5017 0.9688
4.7465 -5.8407 -2.5017 0.9688
4.8630 -5.7440 -2.5017 0.9688
4.9775 -5.6450 -2.5017 0.9688
5.2005 -5.4403 -2.5017 0.9688
5.3089 -5.3346 -2.5017 0.9688
5.6210 -5.0047 -2.5017 0.9688
5.7205 -4.8906 -2.5017 0.9688
5.8177 -4.7746 -2.5017 0.9688
5.9126 -4.6566 -2.5017 0.9688
6.2677 -4.1663 -2.5017 0.9688
6.4302 -3.9109 -2.5017 0.9688
6.5823 -3.6491 -2.5017 0.9688
6.7904 -3.2455 -2.5017 0.9688
6.9154 -2.9698 -2.5017 0.9688
7.0292 -2.6893 -2.5017 0.9688
7.0819 -2.5473 -2.5017 0.9688
7.1317 -2.4044 -2.5017 0.9688
7.1786 -2.2604 -2.5017 0.9688
7.2226 -2.1156 -2.5017 0.9688
7.3019 -1.8234 -2.5017 0.9688
7.3371 -1.6761 -2.5017 0.9688
7.4248 -1.2306 -2.5017 0.9688
7.4683 -0.9310 -2.5017 0.9688
7.4855 -0.7806 -2.5017 0.9688
7.4997 -0.6299 -2.5017 0.9688
7.5190 -0.3277 -2.5017 0.9688
7.5261 -0.0251 -2.5017 0.9688
7.5250 0.1263 -2.5017 0.9688
7.4743 0.8812 -2.5017 0.9688
7.4076 1.3304 -2.5017 0.9688
7.3793 1.4791 -2.5017 0.9688
7.3481 1.6272 -2.5017 0.9688
7.3139 1.7747 -2.5017 0.9688
7.2767 1.9215 -2.5017 0.9688
7.2366 2.0674 -2.5017 0.9688
7.1935 2.2126 -2.5017 0.9688
7.1476 2.3568 -2.5017 0.9688
7.0987 2.5001 -2.5017 0.9688
6.9350 2.9236 -2.5017 0.9688
6.8118 3.2002 -2.5017 0.9688
6.7461 3.3366 -2.5017 0.9688
6.6776 3.4716 -2.5017 0.9688
6.6064 3.6052 -2.5017 0.9688
6.4561 3.8680 -2.5017 0.9688
6.2953 4.1245 -2.5017 0.9688
5.9434 4.6171 -2.5017 0.9688
5.8494 4.7357 -2.5017 0.9688
5.7529 4.8524 -2.5017 0.9688
5.6541 4.9671 -2.5017 0.9688
5.3443 5.2991 -2.5017 0.9688
5.1269 5.5098 -2.5017 0.9688
4.9011 5.7115 -2.5017 0.9688
4.1778 6.2600 -2.5017 0.9688
3.9227 6.4230 -2.5017 0.9688
3.7927 6.5006 -2.5017 0.9688
3.6611 6.5756 -2.5017 0.9688
3.3937 6.7175 -2.5017 0.9688
3.2579 6.7844 -2.5017 0.9688
2.8428 6.9685 -2.5017 0.9688
2.5603 7.0772 -2.5017 0.9688
2.2736 7.1745 -2.5017 0.9688
1.8363 7.2968 -2.5011 0.9688
1.6888 7.3306 -2.5006 0.9688
1.3920 7.3896 -2.4995 0.9688
1.2429 7.4148 -2.4991 0.9688
1.0933 7.4371 -2.4987 0.9688
0.9434 7.4566 -2.4984 0.9688
0.7931 7.4732 -2.4981 0.9688
0.6426 7.4869 -2.4978 0.9688
0.3409 7.5057 -2.4975 0.9688
0.0388 7.5129 -2.4974 0.9688
-0.2634 7.5086 -2.4974 0.9688
-0.5653 7.4926 -2.4977 0.9688
-0.7159 7.4803 -2.4979 0.9688
-0.8663 7.4652 -2.4981 0.9688
-6.6804 2.0767 -2.5017 0.9707
-6.7208 1.9419 -2.5017 0.9707
-6.7585 1.8063 -2.5017 0.9707
-6.8551 1.3954 -2.5017 0.9707
-6.9831 0.4196 -2.5017 0.9707
-6.9902 0.2790 -2.5017 0.9707
-6.9944 0.1384 -2.5017 0.9707
-6.9957 -0.0023 -2.5017 0.9707
-6.9829 -0.4242 -2.5017 0.9707
-6.9446 -0.8446 -2.5017 0.9707
-6.9262 -0.9841 -2.5017 0.9707
-6.9050 -1.1232 -2.5017 0.9707
-6.8542 -1.4000 -2.5017 0.9707
-6.7573 -1.8108 -2.5017 0.9707
-6.7195 -1.9463 -2.5017 0.9707
-6.6790 -2.0811 -2.5017 0.9707
-6.6358 -2.2150 -2.5017 0.9707
-6.5899 -2.3481 -2.5017 0.9707
-6.5414 -2.4801 -2.5017 0.9707
-6.4901 -2.6112 -2.5017 0.9707
-6.4363 -2.7412 -2.5017 0.9707
-6.3209 -2.9979 -2.5017 0.9707
-6.2593 -3.1244 -2.5017 0.9707
-6.1952 -3.2496 -2.5017 0.9707
-6.1286 -3.3736 -2.5017 0.9707
-6.0595 -3.4962 -2.5017 0.9707
-5.9139 -3.7371 -2.5017 0.9707
-5.7589 -3.9719 -2.5017 0.9707
-5.6778 -4.0869 -2.5017 0.9707
-5.4210 -4.4219 -2.5017 0.9707
-5.3310 -4.5300 -2.5017 0.9707
-5.2388 -4.6363 -2.5017 0.9707
-5.1444 -4.7408 -2.5017 0.9707
-5.0481 -4.8433 -2.5017 0.9707
-4.9496 -4.9438 -2.5017 0.9707
-4.8492 -5.0424 -2.5017 0.9707
-4.6425 -5.2333 -2.5017 0.9707
-4.5363 -5.3257 -2.5017 0.9707
-4.0935 -5.6730 -2.5017 0.9707
-3.9786 -5.7542 -2.5017 0.9707
-3.7440 -5.9096 -2.5017 0.9707
-3.5033 -6.0554 -2.5017 0.9707
-3.2569 -6.1914 -2.5017 0.9707
-3.1317 -6.2556 -2.5017 0.9707
-2.8776 -6.3765 -2.5017 0.9707
-2.7487 -6.4331 -2.5017 0.9707
-2.6188 -6.4871 -2.5017 0.9707
-2.4878 -6.5385 -2.5017 0.9707
-2.0889 -6.6766 -2.5017 0.9707
-1.9542 -6.7173 -2.5017 0.9707
-1.8187 -6.7552 -2.5017 0.9707
-1.6825 -6.7904 -2.5017 0.9707
-1.5455 -6.8229 -2.5017 0.9707
-1.4080 -6.8526 -2.5017 0.9707
-1.2699 -6.8795 -2.5017 0.9707
-1.1312 -6.9037 -2.5017 0.9707
-0.9922 -6.9250 -2.5017 0.9707
-0.8527 -6.9436 -2.5017 0.9707
-0.5727 -6.9722 -2.5017 0.9707
-0.4324 -6.9824 -2.5017 0.9707
-0.1512 -6.9941 -2.5017 0.9707
0.1302 -6.9945 -2.5017 0.9707
0.2709 -6.9905 -2.5017 0.9707
0.4114 -6.9836 -2.5017 0.9707
0.5518 -6.9739 -2.5017 0.9707
0.6920 -6.9614 -2.5017 0.9707
1.2493 -6.8833 -2.5017 0.9707
1.3875 -6.8568 -2.5017 0.9707
1.6621 -6.7954 -2.5017 0.9707
1.9341 -6.7231 -2.5017 0.9707
2.2029 -6.6399 -2.5017 0.9707
2.4682 -6.5459 -2.5017 0.9707
2.5993 -6.4949 -2.5017 0.9707
2.8584 -6.3851 -2.5017 0.9707
3.2383 -6.2011 -2.5017 0.9707
3.3624 -6.1347 -2.5017 0.9707
3.6064 -5.9945 -2.5017 0.9707
3.7262 -5.9208 -2.5017 0.9707
3.8446 -5.8446 -2.5017 0.9707
3.9613 -5.7661 -2.5017 0.9707
4.0765 -5.6853 -2.5017 0.9707
4.1900 -5.6021 -2.5017 0.9707
4.4120 -5.4291 -2.5017 0.9707
4.6267 -5.2472 -2.5017 0.9707
4.7313 -5.1531 -2.5017 0.9707
4.8340 -5.0569 -2.5017 0.9707
5.1302 -4.7562 -2.5017 0.9707
5.2248 -4.6520 -2.5017 0.9707
5.3173 -4.5460 -2.5017 0.9707
5.4077 -4.4381 -2.5017 0.9707
5.5818 -4.2170 -2.5017 0.9707
5.6655 -4.1039 -2.5017 0.9707
5.9027 -3.7548 -2.5017 0.9707
6.0489 -3.5143 -2.5017 0.9707
6.1184 -3.3919 -2.5017 0.9707
6.2499 -3.1431 -2.5017 0.9707
6.3118 -3.0168 -2.5017 0.9707
6.4823 -2.6306 -2.5017 0.9707
6.5339 -2.4997 -2.5017 0.9707
6.6291 -2.2349 -2.5017 0.9707
6.6727 -2.1011 -2.5017 0.9707
6.7518 -1.8311 -2.5017 0.9707
6.7873 -1.6949 -2.5017 0.9707
6.8772 -1.2825 -2.5017 0.9707
6.9232 -1.0048 -2.5017 0.9707
6.9580 -0.7256 -2.5017 0.9707
6.9712 -0.5855 -2.5017 0.9707
6.9815 -0.4451 -2.5017 0.9707
6.9891 -0.3046 -2.5017 0.9707
6.9957 -0.0233 -2.5017 0.9707
6.9947 0.1174 -2.5017 0.9707
6.9909 0.2581 -2.5017 0.9707
6.9749 0.5390 -2.5017 0.9707
6.9627 0.6792 -2.5017 0.9707
6.9476 0.8191 -2.5017 0.9707
6.9297 0.9587 -2.5017 0.9707
6.9090 1.0979 -2.5017 0.9707
6.8593 1.3749 -2.5017 0.9707
6.7266 1.9217 -2.5017 0.9707
6.6866 2.0566 -2.5017 0.9707
6.6438 2.1907 -2.5017 0.9707
6.5504 2.4561 -2.5017 0.9707
6.4996 2.5874 -2.5017 0.9707
6.2707 3.1014 -2.5017 0.9707
6.2070 3.2269 -2.5017 0.9707
6.1408 3.3511 -2.5017 0.9707
6.0722 3.4739 -2.5017 0.9707
5.8516 3.8338 -2.5017 0.9707
5.6927 4.0661 -2.5017 0.9707
5.5246 4.2917 -2.5017 0.9707
5.1618 4.7219 -2.5017 0.9707
5.0657 4.8248 -2.5017 0.9707
4.9677 4.9256 -2.5017 0.9707
4.7655 5.1215 -2.5017 0.9707
4.5557 5.3090 -2.5017 0.9707
4.1143 5.6580 -2.5017 0.9707
3.8834 5.8189 -2.5017 0.9707
3.6462 5.9704 -2.5017 0.9707
3.5254 6.0425 -2.5017 0.9707
3.4031 6.1122 -2.5017 0.9707
3.2795 6.1794 -2.5017 0.9707
3.1546 6.2441 -2.5017 0.9707
2.6425 6.4774 -2.5017 0.9707
2.1133 6.6688 -2.5017 0.9707
1.9788 6.7100 -2.5017 0.9707
1.8434 6.7485 -2.5017 0.9707
1.2951 6.8748 -2.5017 0.9707
1.0175 6.9213 -2.5017 0.9707
0.7383 6.9567 -2.5017 0.9707
0.4579 6.9807 -2.5017 0.9707
0.3174 6.9885 -2.5017 0.9707
0.0361 6.9956 -2.5017 0.9707
-0.1046 6.9949 -2.5017 0.9707
-0.2453 6.9914 -2.5017 0.9707
-0.5263 6.9759 -2.5017 0.9707
-0.6665 6.9639 -2.5017 0.9707
-0.8064 6.9491 -2.5017 0.9707
-6.2717 1.8121 -2.5017 0.9724
-6.3395 1.5584 -2.5017 0.9724
-6.3695 1.4306 -2.5017 0.9724
-6.3970 1.3022 -2.5017 0.9724
-6.4219 1.1732 -2.5017 0.9724
-6.4442 1.0438 -2.5017 0.9724
-6.4639 0.9140 -2.5017 0.9724
-6.4810 0.7838 -2.5017 0.9724
-6.4954 0.6533 -2.5017 0.9724
-6.5073 0.5225 -2.5017 0.9724
-6.5165 0.3915 -2.5017 0.9724
-6.5230 0.2604 -2.5017 0.9724
-6.5268 -0.1335 -2.5017 0.9724
-6.5228 -0.2647 -2.5017 0.9724
-6.5069 -0.5269 -2.5017 0.9724
-6.4950 -0.6576 -2.5017 0.9724
-6.4805 -0.7881 -2.5017 0.9724
-6.4633 -0.9183 -2.5017 0.9724
-6.4435 -1.0481 -2.5017 0.9724
-6.4211 -1.1775 -2.5017 0.9724
-6.3961 -1.3064 -2.5017 0.9724
-6.3384 -1.5626 -2.5017 0.9724
-6.1042 -2.3144 -2.5017 0.9724
-5.7811 -3.0325 -2.5017 0.9724
-5.7190 -3.1481 -2.5017 0.9724
-5.6545 -3.2625 -2.5017 0.9724
-5.4475 -3.5976 -2.5017 0.9724
-5.3740 -3.7064 -2.5017 0.9724
-5.2206 -3.9196 -2.5017 0.9724
-5.1407 -4.0238 -2.5017 0.9724
-4.9747 -4.2273 -2.5017 0.9724
-4.4296 -4.7955 -2.5017 0.9724
-4.2331 -4.9698 -2.5017 0.9724
-4.1323 -5.0539 -2.5017 0.9724
-4.0298 -5.1360 -2.5017 0.9724
-3.7127 -5.3697 -2.5017 0.9724
-3.2691 -5.6507 -2.5017 0.9724
-3.1548 -5.7153 -2.5017 0.9724
-3.0392 -5.7776 -2.5017 0.9724
-2.5650 -6.0032 -2.5017 0.9724
-2.4437 -6.0536 -2.5017 0.9724
-2.1983 -6.1469 -2.5017 0.9724
-1.6972 -6.3038 -2.5017 0.9724
-0.7957 -6.4795 -2.5017 0.9724
-0.5344 -6.5063 -2.5017 0.9724
-0.2723 -6.5225 -2.5017 0.9724
-0.0098 -6.5282 -2.5017 0.9724
0.1215 -6.5271 -2.5017 0.9724
0.2528 -6.5233 -2.5017 0.9724
0.6457 -6.4962 -2.5017 0.9724
0.7763 -6.4819 -2.5017 0.9724
0.9065 -6.4650 -2.5017 0.9724
1.4232 -6.3712 -2.5017 0.9724
1.5510 -6.3413 -2.5017 0.9724
2.0557 -6.1961 -2.5017 0.9724
2.5470 -6.0108 -2.5017 0.9724
2.6674 -5.9584 -2.5017 0.9724
3.0219 -5.7867 -2.5017 0.9724
3.1377 -5.7247 -2.5017 0.9724
3.2522 -5.6604 -2.5017 0.9724
3.3654 -5.5939 -2.5017 0.9724
3.4772 -5.5251 -2.5017 0.9724
3.5876 -5.4540 -2.5017 0.9724
3.8041 -5.3053 -2.5017 0.9724
3.9100 -5.2277 -2.5017 0.9724
4.1171 -5.0662 -2.5017 0.9724
4.4151 -4.8087 -2.5017 0.9724
4.5110 -4.7189 -2.5017 0.9724
4.6050 -4.6273 -2.5017 0.9724
4.6971 -4.5337 -2.5017 0.9724
4.7873 -4.4383 -2.5017 0.9724
4.8756 -4.3411 -2.5017 0.9724
4.9620 -4.2422 -2.5017 0.9724
5.0463 -4.1415 -2.5017 0.9724
5.1286 -4.0392 -2.5017 0.9724
5.2869 -3.8296 -2.5017 0.9724
5.3628 -3.7225 -2.5017 0.9724
5.4366 -3.6139 -2.5017 0.9724
5.5776 -3.3923 -2.5017 0.9724
5.6447 -3.2795 -2.5017 0.9724
5.7095 -3.1653 -2.5017 0.9724
5.7720 -3.0498 -2.5017 0.9724
5.8322 -2.9331 -2.5017 0.9724
6.0491 -2.4548 -2.5017 0.9724
6.0972 -2.3327 -2.5017 0.9724
6.1429 -2.2096 -2.5017 0.9724
6.1861 -2.0856 -2.5017 0.9724
6.2268 -1.9607 -2.5017 0.9724
6.3337 -1.5816 -2.5017 0.9724
6.3642 -1.4539 -2.5017 0.9724
6.3922 -1.3256 -2.5017 0.9724
6.4403 -1.0674 -2.5017 0.9724
6.4605 -0.9377 -2.5017 0.9724
6.4780 -0.8076 -2.5017 0.9724
6.5053 -0.5463 -2.5017 0.9724
6.5150 -0.4154 -2.5017 0.9724
6.5220 -0.2843 -2.5017 0.9724
6.5281 -0.0217 -2.5017 0.9724
6.5273 0.1096 -2.5017 0.9724
6.5176 0.3720 -2.5017 0.9724
6.4973 0.6338 -2.5017 0.9724
6.4833 0.7644 -2.5017 0.9724
6.4473 1.0245 -2.5017 0.9724
6.4009 1.2830 -2.5017 0.9724
6.3118 1.6667 -2.5017 0.9724
6.2770 1.7933 -2.5017 0.9724
6.2397 1.9192 -2.5017 0.9724
6.1575 2.1686 -2.5017 0.9724
6.1126 2.2920 -2.5017 0.9724
6.0653 2.4145 -2.5017 0.9724
6.0155 2.5360 -2.5017 0.9724
5.9632 2.6565 -2.5017 0.9724
5.9086 2.7759 -2.5017 0.9724
5.8516 2.8941 -2.5017 0.9724
5.7922 3.0113 -2.5017 0.9724
5.6664 3.2418 -2.5017 0.9724
5.6000 3.3551 -2.5017 0.9724
5.5314 3.4671 -2.5017 0.9724
5.3123 3.7943 -2.5017 0.9724
5.2349 3.9004 -2.5017 0.9724
5.1554 4.0049 -2.5017 0.9724
4.9901 4.2090 -2.5017 0.9724
4.8168 4.4063 -2.5017 0.9724
4.6357 4.5965 -2.5017 0.9724
4.5423 4.6888 -2.5017 0.9724
4.2512 4.9542 -2.5017 0.9724
4.1507 5.0387 -2.5017 0.9724
3.9447 5.2016 -2.5017 0.9724
3.8393 5.2799 -2.5017 0.9724
3.6239 5.4300 -2.5017 0.9724
3.5139 5.5018 -2.5017 0.9724
3.4025 5.5713 -2.5017 0.9724
3.1757 5.7037 -2.5017 0.9724
3.0603 5.7664 -2.5017 0.9724
2.9437 5.8268 -2.5017 0.9724
2.8260 5.8848 -2.5017 0.9724
2.3438 6.0929 -2.5017 0.9724
2.2208 6.1388 -2.5017 0.9724
2.0969 6.1822 -2.5017 0.9724
1.9721 6.2232 -2.5017 0.9724
1.8465 6.2616 -2.5017 0.9724
1.5932 6.3308 -2.5017 0.9724
1.4655 6.3616 -2.5017 0.9724
1.0792 6.4383 -2.5017 0.9724
0.9495 6.4588 -2.5017 0.9724
0.5583 6.5043 -2.5017 0.9724
0.2962 6.5215 -2.5017 0.9724
0.1650 6.5261 -2.5017 0.9724
0.0337 6.5281 -2.5017 0.9724
-0.0976 6.5275 -2.5017 0.9724
-0.2289 6.5242 -2.5017 0.9724
-0.3601 6.5183 -2.5017 0.9724
-0.7525 6.4847 -2.5017 0.9724
-5.7994 1.9316 -2.5017 0.9739
-5.9053 1.5783 -2.5017 0.9739
-5.9359 1.4592 -2.5017 0.9739
-5.9640 1.3395 -2.5017 0.9739
-5.9897 1.2193 -2.5017 0.9739
-6.0339 0.9774 -2.5017 0.9739
-6.0684 0.7339 -2.5017 0.9739
-6.0819 0.6117 -2.5017 0.9739
-6.1016 0.3666 -2.5017 0.9739
-6.1077 0.2438 -2.5017 0.9739
-6.1114 0.1209 -2.5017 0.9739
-6.1126 -0.0020 -2.5017 0.9739
-6.1113 -0.1250 -2.5017 0.9739
-6.1075 -0.2479 -2.5017 0.9739
-6.0926 -0.4933 -2.5017 0.9739
-6.0815 -0.6157 -2.5017 0.9739
-6.0679 -0.7379 -2.5017 0.9739
-6.0333 -0.9814 -2.5017 0.9739
-5.9889 -1.2232 -2.5017 0.9739
-5.9631 -1.3435 -2.5017 0.9739
-5.9043 -1.5822 -2.5017 0.9739
-5.8712 -1.7007 -2.5017 0.9739
-5.8358 -1.8184 -2.5017 0.9739
-5.7981 -1.9354 -2.5017 0.9739
-5.7156 -2.1670 -2.5017 0.9739
-5.6238 -2.3952 -2.5017 0.9739
-5.4131 -2.8394 -2.5017 0.9739
-5.3549 -2.9477 -2.5017 0.9739
-5.1674 -3.2653 -2.5017 0.9739
-5.1006 -3.3686 -2.5017 0.9739
-4.9610 -3.5710 -2.5017 0.9739
-4.8134 -3.7676 -2.5017 0.9739
-4.7366 -3.8637 -2.5017 0.9739
-4.4950 -4.1423 -2.5017 0.9739
-4.3248 -4.3197 -2.5017 0.9739
-4.1475 -4.4902 -2.5017 0.9739
-4.0564 -4.5727 -2.5017 0.9739
-3.7732 -4.8090 -2.5017 0.9739
-3.4763 -5.0278 -2.5017 0.9739
-3.3745 -5.0967 -2.5017 0.9739
-3.1668 -5.2283 -2.5017 0.9739
-2.8457 -5.4098 -2.5017 0.9739
-2.4017 -5.6210 -2.5017 0.9739
-2.2882 -5.6681 -2.5017 0.9739
-2.1737 -5.7130 -2.5017 0.9739
-2.0583 -5.7556 -2.5017 0.9739
-1.7075 -5.8693 -2.5017 0.9739
-1.5891 -5.9024 -2.5017 0.9739
-1.4701 -5.9332 -2.5017 0.9739
-1.3504 -5.9615 -2.5017 0.9739
-1.2302 -5.9875 -2.5017 0.9739
-1.1096 -6.0110 -2.5017 0.9739
-0.7450 -6.0670 -2.5017 0.9739
-0.6228 -6.0808 -2.5017 0.9739
-0.5004 -6.0921 -2.5017 0.9739
-0.3778 -6.1009 -2.5017 0.9739
-0.2550 -6.1073 -2.5017 0.9739
-0.1321 -6.1112 -2.5017 0.9739
0.3595 -6.1020 -2.5017 0.9739
0.6046 -6.0826 -2.5017 0.9739
0.7268 -6.0692 -2.5017 0.9739
0.9704 -6.0351 -2.5017 0.9739
1.3326 -5.9656 -2.5017 0.9739
1.4523 -5.9376 -2.5017 0.9739
1.8077 -5.8392 -2.5017 0.9739
1.9248 -5.8016 -2.5017 0.9739
2.0411 -5.7617 -2.5017 0.9739
2.1566 -5.7195 -2.5017 0.9739
2.2712 -5.6750 -2.5017 0.9739
2.6093 -5.5277 -2.5017 0.9739
2.9379 -5.3603 -2.5017 0.9739
3.2558 -5.1733 -2.5017 0.9739
3.3592 -5.1068 -2.5017 0.9739
3.4613 -5.0382 -2.5017 0.9739
3.5619 -4.9676 -2.5017 0.9739
3.6611 -4.8949 -2.5017 0.9739
4.0426 -4.5848 -2.5017 0.9739
4.1341 -4.5026 -2.5017 0.9739
4.2238 -4.4185 -2.5017 0.9739
4.3981 -4.2451 -2.5017 0.9739
4.5652 -4.0647 -2.5017 0.9739
4.8021 -3.7820 -2.5017 0.9739
5.0214 -3.4855 -2.5017 0.9739
5.0905 -3.3838 -2.5017 0.9739
5.1575 -3.2808 -2.5017 0.9739
5.7090 -2.1842 -2.5017 0.9739
5.7922 -1.9528 -2.5017 0.9739
5.8304 -1.8359 -2.5017 0.9739
5.8661 -1.7182 -2.5017 0.9739
5.8995 -1.5999 -2.5017 0.9739
6.0090 -1.1206 -2.5017 0.9739
6.0303 -0.9995 -2.5017 0.9739
6.0796 -0.6340 -2.5017 0.9739
6.0911 -0.5116 -2.5017 0.9739
6.1002 -0.3890 -2.5017 0.9739
6.1026 0.3483 -2.5017 0.9739
6.0837 0.5935 -2.5017 0.9739
6.0368 0.9593 -2.5017 0.9739
6.0163 1.0805 -2.5017 0.9739
5.9402 1.4414 -2.5017 0.9739
5.8774 1.6791 -2.5017 0.9739
5.8424 1.7970 -2.5017 0.9739
5.6325 2.3745 -2.5017 0.9739
5.5324 2.5991 -2.5017 0.9739
5.4234 2.8195 -2.5017 0.9739
5.3656 2.9280 -2.5017 0.9739
5.3056 3.0354 -2.5017 0.9739
5.2435 3.1415 -2.5017 0.9739
5.0445 3.4520 -2.5017 0.9739
4.7507 3.8462 -2.5017 0.9739
4.5922 4.0342 -2.5017 0.9739
4.5101 4.1258 -2.5017 0.9739
4.4262 4.2157 -2.5017 0.9739
4.2531 4.3903 -2.5017 0.9739
4.1639 4.4749 -2.5017 0.9739
4.0731 4.5578 -2.5017 0.9739
3.9806 4.6388 -2.5017 0.9739
3.6936 4.8704 -2.5017 0.9739
2.9735 5.3406 -2.5017 0.9739
2.5347 5.5623 -2.5017 0.9739
2.1946 5.7050 -2.5017 0.9739
1.9634 5.7887 -2.5017 0.9739
1.8465 5.8270 -2.5017 0.9739
1.7290 5.8629 -2.5017 0.9739
1.6107 5.8965 -2.5017 0.9739
1.4918 5.9277 -2.5017 0.9739
1.3722 5.9565 -2.5017 0.9739
1.2522 5.9829 -2.5017 0.9739
1.1316 6.0069 -2.5017 0.9739
0.8891 6.0475 -2.5017 0.9739
0.7672 6.0642 -2.5017 0.9739
0.6451 6.0784 -2.5017 0.9739
0.4001 6.0995 -2.5017 0.9739
0.2774 6.1063 -2.5017 0.9739
0.1545 6.1106 -2.5017 0.9739
0.0316 6.1125 -2.5017 0.9739
-0.2143 6.1088 -2.5017 0.9739
-0.4598 6.0952 -2.5017 0.9739
-0.5823 6.0847 -2.5017 0.9739
-5.4462 1.8139 -2.5017 0.9753
-5.5457 1.4822 -2.5017 0.9753
-5.5744 1.3703 -2.5017 0.9753
-5.6008 1.2579 -2.5017 0.9753
-5.6469 1.0317 -2.5017 0.9753
-5.6665 0.9179 -2.5017 0.9753
-5.6838 0.8037 -2.5017 0.9753
-5.7115 0.5745 -2.5017 0.9753
-5.7219 0.4595 -2.5017 0.9753
-5.7392 0.1135 -2.5017 0.9753
-5.7403 -0.0019 -2.5017 0.9753
-5.7356 -0.2328 -2.5017 0.9753
-5.7216 -0.4633 -2.5017 0.9753
-5.6983 -0.6930 -2.5017 0.9753
-5.6832 -0.8075 -2.5017 0.9753
-5.6658 -0.9216 -2.5017 0.9753
-5.6242 -1.1487 -2.5017 0.9753
-5.6000 -1.2617 -2.5017 0.9753
-5.5734 -1.3740 -2.5017 0.9753
-5.5447 -1.4858 -2.5017 0.9753
-5.4804 -1.7077 -2.5017 0.9753
-5.3675 -2.0351 -2.5017 0.9753
-5.2350 -2.3551 -2.5017 0.9753
-5.1865 -2.4599 -2.5017 0.9753
-5.1360 -2.5637 -2.5017 0.9753
-5.0834 -2.6665 -2.5017 0.9753
-5.0288 -2.7682 -2.5017 0.9753
-4.9134 -2.9682 -2.5017 0.9753
-4.7254 -3.2591 -2.5017 0.9753
-4.6589 -3.3535 -2.5017 0.9753
-4.5202 -3.5382 -2.5017 0.9753
-4.2986 -3.8043 -2.5017 0.9753
-4.1422 -3.9742 -2.5017 0.9753
-3.9790 -4.1375 -2.5017 0.9753
-3.8949 -4.2167 -2.5017 0.9753
-3.8093 -4.2942 -2.5017 0.9753
-3.6336 -4.4439 -2.5017 0.9753
-3.3589 -4.6550 -2.5017 0.9753
-3.2646 -4.7216 -2.5017 0.9753
-2.9739 -4.9099 -2.5017 0.9753
-2.7741 -5.0255 -2.5017 0.9753
-2.6724 -5.0803 -2.5017 0.9753
-2.5697 -5.1330 -2.5017 0.9753
-2.4659 -5.1837 -2.5017 0.9753
-2.2554 -5.2787 -2.5017 0.9753
-2.0413 -5.3651 -2.5017 0.9753
-1.9330 -5.4051 -2.5017 0.9753
-1.8239 -5.4429 -2.5017 0.9753
-1.6035 -5.5118 -2.5017 0.9753
-1.3805 -5.5718 -2.5017 0.9753
-1.2682 -5.5985 -2.5017 0.9753
-1.0420 -5.6450 -2.5017 0.9753
-0.9282 -5.6648 -2.5017 0.9753
-0.8141 -5.6823 -2.5017 0.9753
-0.6996 -5.6975 -2.5017 0.9753
-0.5849 -5.7104 -2.5017 0.9753
-0.4699 -5.7210 -2.5017 0.9753
-0.2395 -5.7353 -2.5017 0.9753
-0.1241 -5.7390 -2.5017 0.9753
0.2223 -5.7360 -2.5017 0.9753
0.5678 -5.7122 -2.5017 0.9753
0.7971 -5.6847 -2.5017 0.9753
0.9113 -5.6675 -2.5017 0.9753
1.0251 -5.6480 -2.5017 0.9753
1.2514 -5.6022 -2.5017 0.9753
1.4757 -5.5474 -2.5017 0.9753
2.2396 -5.2854 -2.5017 0.9753
2.3455 -5.2393 -2.5017 0.9753
2.4504 -5.1910 -2.5017 0.9753
2.5543 -5.1407 -2.5017 0.9753
2.6572 -5.0883 -2.5017 0.9753
2.7590 -5.0338 -2.5017 0.9753
2.8597 -4.9773 -2.5017 0.9753
3.0575 -4.8582 -2.5017 0.9753
3.1546 -4.7958 -2.5017 0.9753
3.2505 -4.7314 -2.5017 0.9753
3.4381 -4.5968 -2.5017 0.9753
3.5299 -4.5267 -2.5017 0.9753
3.6202 -4.4548 -2.5017 0.9753
3.7091 -4.3811 -2.5017 0.9753
3.7965 -4.3056 -2.5017 0.9753
3.8823 -4.2284 -2.5017 0.9753
4.1302 -3.9865 -2.5017 0.9753
4.2872 -3.8172 -2.5017 0.9753
4.3631 -3.7302 -2.5017 0.9753
4.4373 -3.6417 -2.5017 0.9753
4.5096 -3.5517 -2.5017 0.9753
4.5801 -3.4603 -2.5017 0.9753
4.6488 -3.3674 -2.5017 0.9753
4.7156 -3.2733 -2.5017 0.9753
4.9634 -2.8837 -2.5017 0.9753
5.0204 -2.7832 -2.5017 0.9753
5.0754 -2.6817 -2.5017 0.9753
5.1283 -2.5791 -2.5017 0.9753
5.2279 -2.3707 -2.5017 0.9753
5.2745 -2.2651 -2.5017 0.9753
5.3190 -2.1586 -2.5017 0.9753
5.4015 -1.9429 -2.5017 0.9753
5.4395 -1.8338 -2.5017 0.9753
5.4753 -1.7241 -2.5017 0.9753
5.5088 -1.6136 -2.5017 0.9753
5.5402 -1.5025 -2.5017 0.9753
5.5693 -1.3907 -2.5017 0.9753
5.6962 -0.7101 -2.5017 0.9753
5.7093 -0.5954 -2.5017 0.9753
5.7287 -0.3653 -2.5017 0.9753
5.7348 -0.2500 -2.5017 0.9753
5.7403 -0.0191 -2.5017 0.9753
5.7395 0.0963 -2.5017 0.9753
5.7310 0.3271 -2.5017 0.9753
5.7232 0.4423 -2.5017 0.9753
5.6861 0.7866 -2.5017 0.9753
5.6692 0.9009 -2.5017 0.9753
5.6499 1.0147 -2.5017 0.9753
5.6283 1.1281 -2.5017 0.9753
5.6045 1.2411 -2.5017 0.9753
5.5501 1.4655 -2.5017 0.9753
5.5195 1.5769 -2.5017 0.9753
5.4866 1.6875 -2.5017 0.9753
5.3332 2.1231 -2.5017 0.9753
5.1454 2.5448 -2.5017 0.9753
5.0388 2.7497 -2.5017 0.9753
4.9242 2.9502 -2.5017 0.9753
4.8638 3.0486 -2.5017 0.9753
4.8015 3.1458 -2.5017 0.9753
4.7373 3.2418 -2.5017 0.9753
4.6711 3.3364 -2.5017 0.9753
4.3125 3.7886 -2.5017 0.9753
4.2355 3.8745 -2.5017 0.9753
4.1567 3.9589 -2.5017 0.9753
4.0762 4.0417 -2.5017 0.9753
3.7382 4.3563 -2.5017 0.9753
3.3759 4.6426 -2.5017 0.9753
3.1865 4.7746 -2.5017 0.9753
2.8927 4.9581 -2.5017 0.9753
2.6910 5.0704 -2.5017 0.9753
2.5885 5.1236 -2.5017 0.9753
2.4849 5.1746 -2.5017 0.9753
2.1683 5.3150 -2.5017 0.9753
2.0609 5.3576 -2.5017 0.9753
1.8438 5.4361 -2.5017 0.9753
1.7341 5.4721 -2.5017 0.9753
1.6237 5.5059 -2.5017 0.9753
1.5126 5.5374 -2.5017 0.9753
1.4009 5.5667 -2.5017 0.9753
1.1759 5.6186 -2.5017 0.9753
0.9490 5.6613 -2.5017 0.9753
0.8349 5.6792 -2.5017 0.9753
0.7205 5.6949 -2.5017 0.9753
0.1451 5.7385 -2.5017 0.9753
-0.2013 5.7368 -2.5017 0.9753
-0.4318 5.7240 -2.5017 0.9753
-0.5469 5.7142 -2.5017 0.9753
-5.2214 1.3955 -2.5017 0.9765
-5.2484 1.2902 -2.5017 0.9765
-5.3514 0.7567 -2.5017 0.9765
-5.3775 0.5409 -2.5017 0.9765
-5.3873 0.4326 -2.5017 0.9765
-5.3949 0.3241 -2.5017 0.9765
-5.4036 0.1069 -2.5017 0.9765
-5.4046 -0.0018 -2.5017 0.9765
-5.3947 -0.3277 -2.5017 0.9765
-5.3771 -0.5444 -2.5017 0.9765
-5.3509 -0.7603 -2.5017 0.9765
-5.2953 -1.0816 -2.5017 0.9765
-5.2204 -1.3990 -2.5017 0.9765
-5.1266 -1.7112 -2.5017 0.9765
-5.0536 -1.9161 -2.5017 0.9765
-5.0140 -2.0173 -2.5017 0.9765
-4.9724 -2.1178 -2.5017 0.9765
-4.9288 -2.2173 -2.5017 0.9765
-4.8357 -2.4138 -2.5017 0.9765
-4.7862 -2.5105 -2.5017 0.9765
-4.7347 -2.6063 -2.5017 0.9765
-4.6813 -2.7010 -2.5017 0.9765
-4.5099 -2.9784 -2.5017 0.9765
-4.4491 -3.0685 -2.5017 0.9765
-4.3865 -3.1574 -2.5017 0.9765
-4.3221 -3.2450 -2.5017 0.9765
-4.2559 -3.3313 -2.5017 0.9765
-4.1185 -3.4997 -2.5017 0.9765
-4.0473 -3.5819 -2.5017 0.9765
-3.8999 -3.7418 -2.5017 0.9765
-3.8239 -3.8195 -2.5017 0.9765
-3.7463 -3.8956 -2.5017 0.9765
-3.6672 -3.9701 -2.5017 0.9765
-3.5866 -4.0431 -2.5017 0.9765
-3.5045 -4.1144 -2.5017 0.9765
-3.3362 -4.2520 -2.5017 0.9765
-3.2500 -4.3183 -2.5017 0.9765
-3.1625 -4.3828 -2.5017 0.9765
-3.0737 -4.4455 -2.5017 0.9765
-2.8000 -4.6228 -2.5017 0.9765
-2.5161 -4.7832 -2.5017 0.9765
-2.4194 -4.8329 -2.5017 0.9765
-2.2231 -4.9262 -2.5017 0.9765
-2.1236 -4.9700 -2.5017 0.9765
-2.0232 -5.0117 -2.5017 0.9765
-1.6138 -5.1581 -2.5017 0.9765
-1.5097 -5.1895 -2.5017 0.9765
-1.4050 -5.2188 -2.5017 0.9765
-1.2998 -5.2460 -2.5017 0.9765
-0.8740 -5.3335 -2.5017 0.9765
-0.6587 -5.3643 -2.5017 0.9765
-0.5507 -5.3765 -2.5017 0.9765
-0.3340 -5.3943 -2.5017 0.9765
-0.2255 -5.3999 -2.5017 0.9765
-0.0081 -5.4046 -2.5017 0.9765
0.1006 -5.4037 -2.5017 0.9765
0.4263 -5.3878 -2.5017 0.9765
0.5346 -5.3781 -2.5017 0.9765
0.6427 -5.3663 -2.5017 0.9765
0.7505 -5.3523 -2.5017 0.9765
1.0719 -5.2973 -2.5017 0.9765
1.1782 -5.2747 -2.5017 0.9765
1.3894 -5.2230 -2.5017 0.9765
1.5983 -5.1629 -2.5017 0.9765
1.8047 -5.0944 -2.5017 0.9765
1.9068 -5.0571 -2.5017 0.9765
2.1086 -4.9763 -2.5017 0.9765
2.2083 -4.9329 -2.5017 0.9765
2.3071 -4.8875 -2.5017 0.9765
2.4049 -4.8401 -2.5017 0.9765
2.5018 -4.7907 -2.5017 0.9765
2.5976 -4.7394 -2.5017 0.9765
2.7861 -4.6311 -2.5017 0.9765
3.0604 -4.4547 -2.5017 0.9765
3.2371 -4.3280 -2.5017 0.9765
3.4922 -4.1249 -2.5017 0.9765
3.5744 -4.0538 -2.5017 0.9765
3.8887 -3.7534 -2.5017 0.9765
4.1080 -3.5121 -2.5017 0.9765
4.1778 -3.4287 -2.5017 0.9765
4.2459 -3.3440 -2.5017 0.9765
4.4399 -3.0819 -2.5017 0.9765
4.5602 -2.9008 -2.5017 0.9765
4.8284 -2.4283 -2.5017 0.9765
4.8763 -2.3306 -2.5017 0.9765
4.9222 -2.2321 -2.5017 0.9765
5.0478 -1.9312 -2.5017 0.9765
5.0856 -1.8293 -2.5017 0.9765
5.1214 -1.7266 -2.5017 0.9765
5.1551 -1.6233 -2.5017 0.9765
5.1867 -1.5192 -2.5017 0.9765
5.2689 -1.2037 -2.5017 0.9765
5.2920 -1.0975 -2.5017 0.9765
5.3631 -0.6686 -2.5017 0.9765
5.3857 -0.4523 -2.5017 0.9765
5.3995 -0.2354 -2.5017 0.9765
5.4031 -0.1267 -2.5017 0.9765
5.4046 -0.0180 -2.5017 0.9765
5.4009 0.1994 -2.5017 0.9765
5.3958 0.3080 -2.5017 0.9765
5.3886 0.4164 -2.5017 0.9765
5.3791 0.5247 -2.5017 0.9765
5.3674 0.6328 -2.5017 0.9765
5.3377 0.8482 -2.5017 0.9765
5.0977 1.7954 -2.5017 0.9765
4.8917 2.2981 -2.5017 0.9765
4.8445 2.3960 -2.5017 0.9765
4.7442 2.5889 -2.5017 0.9765
4.6362 2.7776 -2.5017 0.9765
4.5794 2.8703 -2.5017 0.9765
4.4603 3.0522 -2.5017 0.9765
3.9878 3.6479 -2.5017 0.9765
3.8378 3.8054 -2.5017 0.9765
3.6817 3.9567 -2.5017 0.9765
3.6014 4.0299 -2.5017 0.9765
3.5196 4.1015 -2.5017 0.9765
3.3518 4.2398 -2.5017 0.9765
3.1785 4.3711 -2.5017 0.9765
3.0002 4.4954 -2.5017 0.9765
2.9091 4.5549 -2.5017 0.9765
2.8169 4.6124 -2.5017 0.9765
2.7236 4.6682 -2.5017 0.9765
2.6291 4.7220 -2.5017 0.9765
2.4371 4.8239 -2.5017 0.9765
2.3396 4.8720 -2.5017 0.9765
2.2411 4.9181 -2.5017 0.9765
2.1417 4.9621 -2.5017 0.9765
2.0415 5.0042 -2.5017 0.9765
1.9404 5.0443 -2.5017 0.9765
1.7360 5.1182 -2.5017 0.9765
1.5287 5.1839 -2.5017 0.9765
1.4241 5.2136 -2.5017 0.9765
1.3190 5.2412 -2.5017 0.9765
1.2133 5.2667 -2.5017 0.9765
1.1071 5.2900 -2.5017 0.9765
0.7861 5.3471 -2.5017 0.9765
0.6784 5.3619 -2.5017 0.9765
0.5704 5.3745 -2.5017 0.9765
0.4622 5.3848 -2.5017 0.9765
0.3538 5.3930 -2.5017 0.9765
0.2452 5.3990 -2.5017 0.9765
0.1366 5.4029 -2.5017 0.9765
-0.1895 5.4013 -2.5017 0.9765
-0.2981 5.3964 -2.5017 0.9765
-0.4066 5.3893 -2.5017 0.9765
-0.5149 5.3800 -2.5017 0.9765
-0.6230 5.3686 -2.5017 0.9765
-4.8997 1.4157 -2.5017 0.9775
-4.9272 1.3169 -2.5017 0.9775
-5.0499 0.7141 -2.5017 0.9775
-5.0837 0.4082 -2.5017 0.9775
-5.0990 -0.1043 -2.5017 0.9775
-5.0959 -0.2068 -2.5017 0.9775
-5.0907 -0.3093 -2.5017 0.9775
-5.0742 -0.5138 -2.5017 0.9775
-5.0628 -0.6157 -2.5017 0.9775
-5.0494 -0.7174 -2.5017 0.9775
-5.0339 -0.8189 -2.5017 0.9775
-5.0165 -0.9199 -2.5017 0.9775
-4.9969 -1.0206 -2.5017 0.9775
-4.9263 -1.3201 -2.5017 0.9775
-4.8692 -1.5172 -2.5017 0.9775
-4.8043 -1.7118 -2.5017 0.9775
-4.7688 -1.8081 -2.5017 0.9775
-4.6511 -2.0924 -2.5017 0.9775
-4.6081 -2.1855 -2.5017 0.9775
-4.5165 -2.3691 -2.5017 0.9775
-4.4679 -2.4595 -2.5017 0.9775
-4.4175 -2.5488 -2.5017 0.9775
-4.3654 -2.6372 -2.5017 0.9775
-4.1984 -2.8956 -2.5017 0.9775
-4.0785 -3.0621 -2.5017 0.9775
-4.0161 -3.1436 -2.5017 0.9775
-3.9521 -3.2237 -2.5017 0.9775
-3.8864 -3.3025 -2.5017 0.9775
-3.6084 -3.6042 -2.5017 0.9775
-3.5352 -3.6761 -2.5017 0.9775
-3.1482 -4.0125 -2.5017 0.9775
-3.0669 -4.0750 -2.5017 0.9775
-2.9843 -4.1358 -2.5017 0.9775
-2.9005 -4.1950 -2.5017 0.9775
-2.8156 -4.2525 -2.5017 0.9775
-2.3743 -4.5137 -2.5017 0.9775
-2.2831 -4.5605 -2.5017 0.9775
-2.0978 -4.6487 -2.5017 0.9775
-2.0039 -4.6899 -2.5017 0.9775
-1.8137 -4.7668 -2.5017 0.9775
-1.7174 -4.8023 -2.5017 0.9775
-1.6205 -4.8358 -2.5017 0.9775
-1.2266 -4.9504 -2.5017 0.9775
-0.9258 -5.0154 -2.5017 0.9775
-0.8247 -5.0330 -2.5017 0.9775
-0.7233 -5.0486 -2.5017 0.9775
-0.6216 -5.0621 -2.5017 0.9775
-0.5197 -5.0736 -2.5017 0.9775
-0.4175 -5.0830 -2.5017 0.9775
-0.3152 -5.0904 -2.5017 0.9775
-0.1102 -5.0989 -2.5017 0.9775
-0.0076 -5.1001 -2.5017 0.9775
0.0949 -5.0992 -2.5017 0.9775
0.3000 -5.0913 -2.5017 0.9775
0.4023 -5.0842 -2.5017 0.9775
0.5045 -5.0751 -2.5017 0.9775
0.6065 -5.0639 -2.5017 0.9775
0.9107 -5.0182 -2.5017 0.9775
1.2117 -4.9541 -2.5017 0.9775
1.3111 -4.9287 -2.5017 0.9775
2.1771 -4.6121 -2.5017 0.9775
2.3608 -4.5208 -2.5017 0.9775
2.6292 -4.3702 -2.5017 0.9775
2.7165 -4.3164 -2.5017 0.9775
2.8879 -4.2037 -2.5017 0.9775
2.9719 -4.1447 -2.5017 0.9775
3.2954 -3.8925 -2.5017 0.9775
3.3730 -3.8254 -2.5017 0.9775
3.5242 -3.6866 -2.5017 0.9775
3.6696 -3.5419 -2.5017 0.9775
3.7401 -3.4674 -2.5017 0.9775
3.8091 -3.3915 -2.5017 0.9775
3.9424 -3.2355 -2.5017 0.9775
4.0067 -3.1556 -2.5017 0.9775
4.1303 -2.9919 -2.5017 0.9775
4.1897 -2.9082 -2.5017 0.9775
4.4099 -2.5621 -2.5017 0.9775
4.4605 -2.4729 -2.5017 0.9775
4.5094 -2.3826 -2.5017 0.9775
4.6448 -2.1063 -2.5017 0.9775
4.7258 -1.9178 -2.5017 0.9775
4.7634 -1.8224 -2.5017 0.9775
4.7991 -1.7262 -2.5017 0.9775
4.9720 -1.1359 -2.5017 0.9775
5.0315 -0.8339 -2.5017 0.9775
5.0609 -0.6309 -2.5017 0.9775
5.0898 -0.3245 -2.5017 0.9775
5.0953 -0.2221 -2.5017 0.9775
5.1001 -0.0170 -2.5017 0.9775
5.0966 0.1881 -2.5017 0.9775
5.0918 0.2906 -2.5017 0.9775
5.0849 0.3930 -2.5017 0.9775
5.0520 0.6989 -2.5017 0.9775
5.0369 0.8004 -2.5017 0.9775
4.9795 1.1027 -2.5017 0.9775
4.9039 1.4010 -2.5017 0.9775
4.8747 1.4994 -2.5017 0.9775
4.7385 1.8863 -2.5017 0.9775
4.6996 1.9812 -2.5017 0.9775
4.5715 2.2610 -2.5017 0.9775
4.5251 2.3525 -2.5017 0.9775
4.4268 2.5326 -2.5017 0.9775
4.3750 2.6212 -2.5017 0.9775
4.3214 2.7086 -2.5017 0.9775
4.2660 2.7950 -2.5017 0.9775
4.2090 2.8802 -2.5017 0.9775
4.1502 2.9643 -2.5017 0.9775
3.8985 3.2883 -2.5017 0.9775
3.8316 3.3660 -2.5017 0.9775
3.6931 3.5174 -2.5017 0.9775
3.5486 3.6631 -2.5017 0.9775
3.3213 3.8704 -2.5017 0.9775
3.2427 3.9365 -2.5017 0.9775
3.1629 4.0009 -2.5017 0.9775
3.0818 4.0637 -2.5017 0.9775
2.9994 4.1248 -2.5017 0.9775
2.9159 4.1843 -2.5017 0.9775
2.8311 4.2421 -2.5017 0.9775
2.7452 4.2982 -2.5017 0.9775
2.5701 4.4052 -2.5017 0.9775
2.0211 4.6826 -2.5017 0.9775
1.8311 4.7601 -2.5017 0.9775
1.7350 4.7959 -2.5017 0.9775
1.5407 4.8618 -2.5017 0.9775
0.9441 5.0119 -2.5017 0.9775
0.7418 5.0459 -2.5017 0.9775
0.6402 5.0598 -2.5017 0.9775
0.4361 5.0814 -2.5017 0.9775
0.2314 5.0949 -2.5017 0.9775
-0.2813 5.0923 -2.5017 0.9775
-0.5879 5.0661 -2.5017 0.9775
-4.6050 1.4315 -2.5017 0.9785
-4.6829 1.1512 -2.5017 0.9785
-4.7051 1.0567 -2.5017 0.9785
-4.7254 0.9619 -2.5017 0.9785
-4.7603 0.7711 -2.5017 0.9785
-4.7874 0.5790 -2.5017 0.9785
-4.8136 0.2892 -2.5017 0.9785
-4.8185 0.1924 -2.5017 0.9785
-4.8223 -0.0016 -2.5017 0.9785
-4.7978 -0.4858 -2.5017 0.9785
-4.7744 -0.6784 -2.5017 0.9785
-4.7598 -0.7742 -2.5017 0.9785
-4.7248 -0.9650 -2.5017 0.9785
-4.7044 -1.0599 -2.5017 0.9785
-4.6821 -1.1543 -2.5017 0.9785
-4.6580 -1.2482 -2.5017 0.9785
-4.6319 -1.3417 -2.5017 0.9785
-4.6040 -1.4346 -2.5017 0.9785
-4.4738 -1.8000 -2.5017 0.9785
-4.4367 -1.8896 -2.5017 0.9785
-4.3978 -1.9784 -2.5017 0.9785
-4.3571 -2.0665 -2.5017 0.9785
-4.3147 -2.1537 -2.5017 0.9785
-4.2705 -2.2401 -2.5017 0.9785
-4.2246 -2.3255 -2.5017 0.9785
-4.1769 -2.4100 -2.5017 0.9785
-4.0766 -2.5761 -2.5017 0.9785
-3.8564 -2.8954 -2.5017 0.9785
-3.7974 -2.9723 -2.5017 0.9785
-3.6748 -3.1227 -2.5017 0.9785
-3.5462 -3.2679 -2.5017 0.9785
-3.3426 -3.4758 -2.5017 0.9785
-3.2721 -3.5424 -2.5017 0.9785
-3.1269 -3.6711 -2.5017 0.9785
-3.0525 -3.7333 -2.5017 0.9785
-2.8999 -3.8530 -2.5017 0.9785
-2.8218 -3.9106 -2.5017 0.9785
-2.6622 -4.0209 -2.5017 0.9785
-2.1587 -4.3121 -2.5017 0.9785
-2.0716 -4.3547 -2.5017 0.9785
-1.8052 -4.4717 -2.5017 0.9785
-1.6239 -4.5407 -2.5017 0.9785
-1.5322 -4.5724 -2.5017 0.9785
-1.2537 -4.6565 -2.5017 0.9785
-0.7798 -4.7589 -2.5017 0.9785
-0.4914 -4.7972 -2.5017 0.9785
-0.3948 -4.8062 -2.5017 0.9785
-0.2012 -4.8181 -2.5017 0.9785
-0.1042 -4.8212 -2.5017 0.9785
-0.0072 -4.8223 -2.5017 0.9785
0.2836 -4.8140 -2.5017 0.9785
0.3804 -4.8073 -2.5017 0.9785
0.4770 -4.7987 -2.5017 0.9785
0.6696 -4.7756 -2.5017 0.9785
0.7655 -4.7612 -2.5017 0.9785
0.8611 -4.7448 -2.5017 0.9785
0.9564 -4.7265 -2.5017 0.9785
1.0513 -4.7063 -2.5017 0.9785
1.2397 -4.6603 -2.5017 0.9785
1.3332 -4.6344 -2.5017 0.9785
1.4261 -4.6066 -2.5017 0.9785
1.7014 -4.5122 -2.5017 0.9785
1.7918 -4.4771 -2.5017 0.9785
1.8815 -4.4402 -2.5017 0.9785
2.0585 -4.3609 -2.5017 0.9785
2.3178 -4.2288 -2.5017 0.9785
2.4023 -4.1813 -2.5017 0.9785
2.4860 -4.1321 -2.5017 0.9785
2.6502 -4.0288 -2.5017 0.9785
3.1159 -3.6805 -2.5017 0.9785
3.2614 -3.5522 -2.5017 0.9785
3.4017 -3.4181 -2.5017 0.9785
3.6654 -3.1337 -2.5017 0.9785
3.9615 -2.7498 -2.5017 0.9785
4.0160 -2.6696 -2.5017 0.9785
4.0689 -2.5883 -2.5017 0.9785
4.4310 -1.9029 -2.5017 0.9785
4.4684 -1.8134 -2.5017 0.9785
4.5377 -1.6322 -2.5017 0.9785
4.5696 -1.5406 -2.5017 0.9785
4.5997 -1.4484 -2.5017 0.9785
4.6279 -1.3555 -2.5017 0.9785
4.6542 -1.2622 -2.5017 0.9785
4.6787 -1.1683 -2.5017 0.9785
4.7012 -1.0740 -2.5017 0.9785
4.7219 -0.9792 -2.5017 0.9785
4.7406 -0.8840 -2.5017 0.9785
4.7723 -0.6927 -2.5017 0.9785
4.7853 -0.5965 -2.5017 0.9785
4.7963 -0.5002 -2.5017 0.9785
4.8190 0.1779 -2.5017 0.9785
4.7995 0.4682 -2.5017 0.9785
4.7891 0.5646 -2.5017 0.9785
4.7283 0.9478 -2.5017 0.9785
4.6863 1.1371 -2.5017 0.9785
4.6368 1.3247 -2.5017 0.9785
4.5798 1.5101 -2.5017 0.9785
4.5153 1.6931 -2.5017 0.9785
4.4436 1.8733 -2.5017 0.9785
4.3647 2.0505 -2.5017 0.9785
4.3225 2.1379 -2.5017 0.9785
4.2786 2.2244 -2.5017 0.9785
4.1857 2.3947 -2.5017 0.9785
4.1367 2.4784 -2.5017 0.9785
4.0860 2.5611 -2.5017 0.9785
4.0337 2.6428 -2.5017 0.9785
3.8670 2.8812 -2.5017 0.9785
3.8082 2.9584 -2.5017 0.9785
3.7479 3.0344 -2.5017 0.9785
3.6229 3.1827 -2.5017 0.9785
3.4919 3.3258 -2.5017 0.9785
3.4243 3.3954 -2.5017 0.9785
3.2133 3.5957 -2.5017 0.9785
3.1404 3.6596 -2.5017 0.9785
2.9906 3.7830 -2.5017 0.9785
2.9140 3.8423 -2.5017 0.9785
2.8361 3.9002 -2.5017 0.9785
2.7571 3.9564 -2.5017 0.9785
2.6769 4.0111 -2.5017 0.9785
2.5134 4.1155 -2.5017 0.9785
2.2606 4.2596 -2.5017 0.9785
2.0875 4.3471 -2.5017 0.9785
1.9996 4.3882 -2.5017 0.9785
1.8215 4.4650 -2.5017 0.9785
1.6405 4.5347 -2.5017 0.9785
1.5490 4.5668 -2.5017 0.9785
1.3640 4.6254 -2.5017 0.9785
1.2707 4.6519 -2.5017 0.9785
1.1769 4.6765 -2.5017 0.9785
1.0826 4.6992 -2.5017 0.9785
0.8927 4.7390 -2.5017 0.9785
0.7972 4.7560 -2.5017 0.9785
0.7014 4.7710 -2.5017 0.9785
0.5090 4.7954 -2.5017 0.9785
0.3157 4.8120 -2.5017 0.9785
0.2188 4.8173 -2.5017 0.9785
0.1219 4.8208 -2.5017 0.9785
0.0249 4.8222 -2.5017 0.9785
-0.0721 4.8218 -2.5017 0.9785
-4.3336 1.4434 -2.5017 0.9794
-4.4356 1.0904 -2.5017 0.9794
-4.4759 0.9111 -2.5017 0.9794
-4.4933 0.8209 -2.5017 0.9794
-4.5227 0.6395 -2.5017 0.9794
-4.5346 0.5484 -2.5017 0.9794
-4.5594 0.2739 -2.5017 0.9794
-4.5640 0.1822 -2.5017 0.9794
-4.5668 0.0903 -2.5017 0.9794
-4.5677 -0.0015 -2.5017 0.9794
-4.5639 -0.1852 -2.5017 0.9794
-4.5593 -0.2770 -2.5017 0.9794
-4.5528 -0.3686 -2.5017 0.9794
-4.5444 -0.4601 -2.5017 0.9794
-4.5343 -0.5514 -2.5017 0.9794
-4.5084 -0.7333 -2.5017 0.9794
-4.4927 -0.8239 -2.5017 0.9794
-4.4753 -0.9141 -2.5017 0.9794
-4.4349 -1.0933 -2.5017 0.9794
-4.4120 -1.1823 -2.5017 0.9794
-4.3873 -1.2708 -2.5017 0.9794
-4.3327 -1.4462 -2.5017 0.9794
-4.2375 -1.7049 -2.5017 0.9794
-4.1270 -1.9574 -2.5017 0.9794
-4.0449 -2.1218 -2.5017 0.9794
-4.0015 -2.2027 -2.5017 0.9794
-3.9564 -2.2827 -2.5017 0.9794
-3.9096 -2.3619 -2.5017 0.9794
-3.6527 -2.7425 -2.5017 0.9794
-3.5968 -2.8154 -2.5017 0.9794
-3.5395 -2.8871 -2.5017 0.9794
-3.2960 -3.1623 -2.5017 0.9794
-3.2317 -3.2279 -2.5017 0.9794
-3.1661 -3.2923 -2.5017 0.9794
-3.0311 -3.4170 -2.5017 0.9794
-2.8913 -3.5361 -2.5017 0.9794
-2.7467 -3.6495 -2.5017 0.9794
-2.3664 -3.9069 -2.5017 0.9794
-1.9622 -4.1247 -2.5017 0.9794
-1.8788 -4.1634 -2.5017 0.9794
-1.7947 -4.2003 -2.5017 0.9794
-1.5381 -4.3009 -2.5017 0.9794
-1.2759 -4.3858 -2.5017 0.9794
-1.1875 -4.4106 -2.5017 0.9794
-1.0985 -4.4336 -2.5017 0.9794
-0.7386 -4.5076 -2.5017 0.9794
-0.6478 -4.5215 -2.5017 0.9794
-0.5567 -4.5336 -2.5017 0.9794
-0.4654 -4.5439 -2.5017 0.9794
-0.3739 -4.5523 -2.5017 0.9794
-0.2823 -4.5589 -2.5017 0.9794
-0.1905 -4.5637 -2.5017 0.9794
0.2686 -4.5598 -2.5017 0.9794
0.3603 -4.5534 -2.5017 0.9794
0.4518 -4.5453 -2.5017 0.9794
0.8157 -4.4942 -2.5017 0.9794
0.9958 -4.4578 -2.5017 0.9794
1.2628 -4.3896 -2.5017 0.9794
1.3508 -4.3634 -2.5017 0.9794
1.6971 -4.2407 -2.5017 0.9794
2.0325 -4.0905 -2.5017 0.9794
2.1144 -4.0488 -2.5017 0.9794
2.2755 -3.9605 -2.5017 0.9794
2.7358 -3.6578 -2.5017 0.9794
3.2220 -3.2376 -2.5017 0.9794
3.3496 -3.1054 -2.5017 0.9794
3.4718 -2.9682 -2.5017 0.9794
3.5308 -2.8977 -2.5017 0.9794
3.5884 -2.8262 -2.5017 0.9794
3.6445 -2.7534 -2.5017 0.9794
3.7523 -2.6046 -2.5017 0.9794
3.8039 -2.5286 -2.5017 0.9794
3.9025 -2.3736 -2.5017 0.9794
3.9495 -2.2946 -2.5017 0.9794
4.1599 -1.8864 -2.5017 0.9794
4.2324 -1.7176 -2.5017 0.9794
4.2661 -1.6321 -2.5017 0.9794
4.3568 -1.3719 -2.5017 0.9794
4.5203 -0.6561 -2.5017 0.9794
4.5326 -0.5650 -2.5017 0.9794
4.5430 -0.4737 -2.5017 0.9794
4.5584 -0.2907 -2.5017 0.9794
4.5633 -0.1989 -2.5017 0.9794
4.5362 0.5348 -2.5017 0.9794
4.5246 0.6260 -2.5017 0.9794
4.5111 0.7168 -2.5017 0.9794
4.4957 0.8074 -2.5017 0.9794
4.4786 0.8977 -2.5017 0.9794
4.4163 1.1662 -2.5017 0.9794
4.3658 1.3428 -2.5017 0.9794
4.3083 1.5173 -2.5017 0.9794
4.2769 1.6037 -2.5017 0.9794
4.2438 1.6894 -2.5017 0.9794
4.1724 1.8587 -2.5017 0.9794
4.1342 1.9422 -2.5017 0.9794
4.0095 2.1880 -2.5017 0.9794
