ply
format ascii 1.0
element vertex 1540
property float32 x
property float32 y
property float32 z
property float32 I
end_header
-33.0999 -38.6348 7.7937 0.8139
-40.5579 -49.3121 9.7812 0.7723
-37.5762 -49.6248 9.5358 0.7773
-33.6016 -46.2799 8.7615 0.7934
-31.2286 -46.8636 8.6272 0.7962
-28.1363 -46.1394 8.2789 0.8036
-24.4977 -46.2282 8.0148 0.8092
-23.0824 -45.7571 7.8511 0.8127
-20.0867 -44.1464 7.4301 0.8218
-18.9490 -43.9695 7.3348 0.8239
-12.3917 -42.0912 6.7218 0.8373
-9.5479 -41.5225 6.5270 0.8416
-8.6046 -41.1947 6.4470 0.8434
-7.6715 -40.8090 6.3612 0.8453
-6.7038 -40.0819 6.2256 0.8484
-4.9884 -39.5326 6.1042 0.8511
-4.2346 -40.0195 6.1650 0.8497
-2.5872 -39.6102 6.0810 0.8516
-0.1860 -37.7596 5.7846 0.8583
0.5794 -38.1827 5.8500 0.8568
2.1352 -38.5214 5.9103 0.8555
5.8789 -37.4111 5.8015 0.8579
6.6411 -37.3502 5.8116 0.8577
8.1167 -36.9619 5.7973 0.8580
11.0703 -36.2280 5.8033 0.8579
11.8111 -36.0440 5.8106 0.8577
12.5542 -35.8595 5.8204 0.8575
13.5743 -34.2880 5.6494 0.8614
14.3023 -34.1077 5.6659 0.8610
15.4884 -34.9495 5.8563 0.8567
16.3545 -34.9881 5.9166 0.8553
17.1254 -34.7967 5.9413 0.8548
18.7880 -32.9934 5.8165 0.8576
19.5618 -32.8012 5.8507 0.8568
21.8901 -33.5614 6.1384 0.8503
56.8762 -39.8336 10.6375 0.7550
57.8365 -37.1340 10.5292 0.7572
57.8949 -35.5489 10.4077 0.7596
63.7566 -34.0374 11.0719 0.7464
76.8888 -39.0831 13.2133 0.7054
90.1399 -37.0393 14.9293 0.6741
65.7835 -15.3391 10.3480 0.7608
65.2144 -12.4665 10.1714 0.7644
64.3676 -9.6417 9.9708 0.7684
65.4361 -4.4756 10.0479 0.7669
64.7784 -3.1241 9.9352 0.7692
62.4072 -1.7536 9.5642 0.7767
61.7857 0.7480 9.4659 0.7788
60.8743 4.4153 9.3501 0.7812
65.9011 7.4521 10.1600 0.7646
65.5702 8.7527 10.1341 0.7651
64.6853 12.6416 10.0969 0.7659
64.3657 13.9277 10.0887 0.7661
64.0465 15.2122 10.0845 0.7661
62.7657 20.3546 10.1083 0.7657
62.4158 21.6368 10.1200 0.7654
33.6556 62.5788 10.8852 0.7501
31.8172 62.1220 10.6923 0.7539
28.3257 61.2545 10.3386 0.7610
26.6639 60.8416 10.1764 0.7643
25.0528 60.4413 10.0232 0.7674
23.4889 60.0528 9.8784 0.7703
20.4897 59.3076 9.6125 0.7758
19.0488 58.9496 9.4905 0.7783
17.6433 58.6004 9.3753 0.7806
16.2711 58.2594 9.2666 0.7829
12.3317 57.2806 8.9761 0.7889
11.0712 56.9675 8.8904 0.7907
7.4236 56.0611 8.6632 0.7955
3.9453 55.1969 8.4774 0.7994
0.6013 54.3660 8.3291 0.8025
-0.4891 54.0951 8.2874 0.8034
-1.5689 53.8268 8.2495 0.8042
-2.6394 53.5608 8.2152 0.8049
-4.0134 57.7887 8.8742 0.7910
-5.8428 65.1540 10.0213 0.7674
-11.8079 61.4194 9.5814 0.7764
-15.4657 60.5105 9.5678 0.7767
-16.6843 60.2077 9.5711 0.7766
-17.9042 59.9046 9.5782 0.7765
-19.1264 59.6009 9.5891 0.7762
-20.3520 59.2963 9.6040 0.7759
-21.5818 58.9907 9.6229 0.7755
-22.8170 58.6838 9.6457 0.7751
-27.8321 57.4376 9.7777 0.7724
-29.1100 57.1201 9.8213 0.7715
-30.3998 56.7996 9.8693 0.7705
-33.0204 56.1484 9.9788 0.7683
-34.3537 55.8171 10.0406 0.7670
-37.0733 55.1413 10.1791 0.7642
-39.8734 54.4455 10.3383 0.7610
-44.2540 53.3569 10.6196 0.7554
-45.7697 52.9803 10.7255 0.7533
-34.3310 -34.0989 6.3011 0.8227
-33.9916 -35.1468 6.3672 0.8210
-34.0553 -36.6592 6.5158 0.8172
-33.7617 -37.8407 6.6038 0.8150
-38.3891 -48.6355 8.0686 0.7789
-36.5844 -48.3150 7.8918 0.7831
-32.7781 -47.1088 7.4734 0.7933
-28.1804 -46.2117 7.0484 0.8039
-26.7050 -45.8404 6.9085 0.8073
-23.8833 -45.0688 6.6420 0.8140
-22.5150 -44.6324 6.5097 0.8174
-19.3735 -42.5790 6.0916 0.8280
-18.8623 -43.7681 6.2063 0.8251
-17.7217 -43.5071 6.1175 0.8274
-16.6036 -43.2293 6.0303 0.8296
-14.4243 -42.5959 5.8563 0.8341
-12.3917 -42.0910 5.7137 0.8378
-10.0843 -40.1432 5.3899 0.8462
-9.2736 -40.3299 5.3889 0.8463
-7.6892 -40.9030 5.4197 0.8455
-6.8043 -40.6832 5.3714 0.8467
-5.0694 -40.1747 5.2731 0.8493
-4.2346 -40.0193 5.2404 0.8502
-3.4048 -39.8084 5.2028 0.8512
-1.7834 -39.4949 5.1483 0.8526
-0.1859 -37.7408 4.9147 0.8588
1.3660 -38.7121 5.0443 0.8553
2.8984 -38.3317 5.0058 0.8564
4.9839 -36.4833 4.7950 0.8620
6.6802 -37.5702 4.9692 0.8573
11.1268 -36.4129 4.9582 0.8576
12.5542 -35.8593 4.9475 0.8579
13.1021 -35.1431 4.8841 0.8596
13.6648 -34.5167 4.8342 0.8609
14.3196 -34.1489 4.8220 0.8613
17.1252 -34.7962 5.0502 0.8552
17.7683 -34.3429 5.0353 0.8556
19.5521 -32.7848 4.9708 0.8573
21.0679 -33.7650 5.1826 0.8517
21.8897 -33.5608 5.2178 0.8508
57.4669 -40.2473 9.1362 0.7535
59.0304 -36.2461 9.0204 0.7562
62.4232 -33.3255 9.2147 0.7517
65.1609 -33.1218 9.5186 0.7446
70.7514 -30.7486 10.0458 0.7326
89.3629 -36.7200 12.5810 0.6772
73.6452 -28.5453 10.2853 0.7272
74.4628 -27.1538 10.3212 0.7264
64.3666 -9.6415 8.4754 0.7691
65.9635 -7.1844 8.6406 0.7652
65.7714 -5.8286 8.5984 0.7662
61.7847 0.7480 8.0463 0.7794
61.3176 3.2101 7.9958 0.7806
60.5742 5.6193 7.9219 0.7824
65.4339 10.0769 8.6213 0.7656
64.8170 12.6673 8.6002 0.7661
63.8572 16.5298 8.5896 0.7664
63.2172 19.1056 8.5999 0.7661
12.8507 6.9287 1.9012 0.9428
28.3259 61.2549 8.7882 0.7617
25.0529 60.4417 8.5201 0.7680
23.4890 60.0531 8.3971 0.7710
21.9690 59.6755 8.2809 0.7737
20.4898 59.3080 8.1710 0.7764
16.2712 58.2598 7.8770 0.7835
14.9298 57.9265 7.7898 0.7856
13.6173 57.6004 7.7075 0.7876
12.3318 57.2810 7.6301 0.7895
9.8341 56.6604 7.4887 0.7930
7.4236 56.0614 7.3641 0.7960
3.9453 55.1972 7.2062 0.7999
1.7030 54.6401 7.1187 0.8021
-0.4891 54.0954 7.0446 0.8040
-1.5689 53.8271 7.0124 0.8048
-2.6394 53.5611 6.9832 0.8055
-4.0130 57.7838 7.5428 0.7916
-5.8422 65.1478 8.5177 0.7681
-16.6844 60.2080 8.1358 0.7772
-17.9043 59.9049 8.1418 0.7771
-20.3521 59.2966 8.1638 0.7766
-29.1101 57.1204 8.3485 0.7721
-30.4000 56.7999 8.3893 0.7712
-33.0206 56.1487 8.4824 0.7689
-35.7044 55.4818 8.5916 0.7663
-37.0735 55.1416 8.6526 0.7649
-42.7676 53.7267 8.9423 0.7581
-34.2490 -34.0174 5.1835 0.8235
-33.6901 -36.2661 5.3154 0.8194
-33.3997 -37.4349 5.3872 0.8172
-33.1810 -38.7294 5.4764 0.8145
-35.1872 -46.4698 6.2591 0.7910
-33.6517 -46.3488 6.1505 0.7942
-32.8198 -47.1688 6.1705 0.7936
-28.7335 -45.0560 5.7383 0.8066
-23.8213 -44.9518 5.4629 0.8149
-22.4820 -44.5670 5.3601 0.8181
-17.7760 -43.6404 5.0600 0.8273
-16.6034 -43.2288 4.9726 0.8300
-15.5495 -43.0506 4.9151 0.8318
-13.3890 -42.3200 4.7664 0.8365
-12.3857 -42.0707 4.7093 0.8383
-11.0085 -40.3707 4.4934 0.8451
-7.7345 -41.1442 4.4955 0.8450
-6.8043 -40.6830 4.4293 0.8471
-5.0762 -40.2285 4.3541 0.8495
-3.4199 -39.9851 4.3093 0.8509
-0.1860 -37.7592 4.0547 0.8591
0.5844 -38.5103 4.1358 0.8565
2.8984 -38.3314 4.1278 0.8567
3.5263 -36.7853 3.9682 0.8619
5.8790 -37.4122 4.0667 0.8587
6.6802 -37.5700 4.0976 0.8577
8.1166 -36.9615 4.0636 0.8588
9.5901 -36.5851 4.0613 0.8589
10.3309 -36.4112 4.0642 0.8588
11.8054 -36.0265 4.0710 0.8585
12.5541 -35.8591 4.0798 0.8583
13.1668 -35.3167 4.0474 0.8593
13.6759 -34.5447 3.9896 0.8612
14.3219 -34.1543 3.9769 0.8616
15.4892 -34.9512 4.1052 0.8574
16.4507 -35.1937 4.1716 0.8553
17.1251 -34.7960 4.1645 0.8555
17.7800 -34.3655 4.1549 0.8559
18.9025 -33.1945 4.1019 0.8576
67.7831 -68.6643 10.3607 0.6783
56.3048 -39.4334 7.3815 0.7584
57.6661 -33.8315 7.1793 0.7642
63.0905 -32.0694 7.5998 0.7522
82.9087 -40.0670 9.8880 0.6904
71.5166 -32.8053 8.4490 0.7287
70.5993 -29.0098 8.1961 0.7356
70.7776 -27.4338 8.1512 0.7368
75.8189 -27.6483 8.6660 0.7228
66.1530 -16.8339 7.3300 0.7599
65.7814 -15.3386 7.2532 0.7621
65.4173 -13.8737 7.1809 0.7641
64.7098 -11.0269 7.0488 0.7679
65.6401 -8.4873 7.1072 0.7662
65.3329 -4.4685 7.0320 0.7684
64.9557 -3.1327 6.9832 0.7698
62.4053 -1.7535 6.7038 0.7779
62.2381 -0.4974 6.6834 0.7785
61.7838 0.7480 6.6349 0.7799
61.4775 1.9806 6.6050 0.7808
60.5733 5.6193 6.5324 0.7829
60.4229 6.8327 6.5297 0.7830
60.1264 8.0260 6.5137 0.7835
59.5081 9.1643 6.4654 0.7849
58.6440 12.6896 6.4430 0.7855
58.3569 13.8608 6.4408 0.7856
58.0699 15.0317 6.4412 0.7856
57.7828 16.2033 6.4441 0.7855
57.4952 17.3763 6.4497 0.7853
56.3697 20.8191 6.4527 0.7853
56.0760 22.0012 6.4684 0.7848
35.5628 63.0534 7.7735 0.7473
33.6560 62.5796 7.6301 0.7514
31.8176 62.1228 7.4949 0.7552
28.3261 61.2553 7.2469 0.7622
26.6643 60.8424 7.1332 0.7655
23.4892 60.0535 6.9244 0.7715
20.4900 59.3083 6.7380 0.7769
19.0490 58.9503 6.6525 0.7794
17.6435 58.6011 6.5717 0.7818
16.2713 58.2601 6.4955 0.7840
12.3318 57.2813 6.2919 0.7900
9.8342 56.6607 6.1753 0.7935
6.2472 55.7695 6.0261 0.7979
5.0883 55.4815 5.9827 0.7992
3.9454 55.1975 5.9423 0.8004
2.8174 54.9172 5.9049 0.8015
0.6013 54.3666 5.8383 0.8035
-0.4891 54.0957 5.8091 0.8044
-1.5690 53.8274 5.7825 0.8052
-2.6394 53.5614 5.7585 0.8059
-5.8416 65.1416 7.0231 0.7687
-10.5848 61.7240 6.7248 0.7773
-11.8080 61.4200 6.7162 0.7775
-13.0286 61.1167 6.7103 0.7777
-14.2476 60.8138 6.7071 0.7778
-21.5820 58.9914 6.7452 0.7767
-26.5652 57.7531 6.8262 0.7743
-27.8324 57.4382 6.8538 0.7735
-29.1103 57.1207 6.8843 0.7727
-31.7032 56.4764 6.9547 0.7706
-33.0208 56.1490 6.9947 0.7695
-34.3541 55.8177 7.0381 0.7682
-37.0737 55.1419 7.1351 0.7654
-41.3082 54.0897 7.3083 0.7605
-42.7678 53.7270 7.3740 0.7586
-45.7702 52.9809 7.5182 0.7545
-33.9909 -35.1461 4.1389 0.8218
-33.8532 -36.4417 4.2106 0.8190
-33.4002 -37.4355 4.2470 0.8176
-36.3800 -48.0451 5.1016 0.7851
-32.7827 -47.1155 4.8589 0.7942
-30.1180 -45.1969 4.5977 0.8041
-27.9710 -45.8684 4.5479 0.8060
-26.7574 -45.9302 4.4998 0.8078
-20.5569 -42.8725 4.0249 0.8262
-17.7764 -43.6415 3.9891 0.8276
-13.3953 -42.3399 3.7593 0.8367
-12.3856 -42.0704 3.7125 0.8386
-10.0749 -40.1059 3.5006 0.8470
-9.2635 -40.2861 3.4993 0.8471
-8.5633 -40.9970 3.5454 0.8452
-6.7934 -40.6178 3.4862 0.8476
-3.4226 -40.0164 3.3999 0.8511
-0.9512 -38.0007 3.2179 0.8585
-0.1862 -37.8106 3.2008 0.8592
0.5805 -38.2575 3.2390 0.8576
1.3660 -38.7117 3.2791 0.8560
2.1351 -38.5206 3.2659 0.8565
4.9841 -36.4846 3.1172 0.8626
8.1165 -36.9613 3.2034 0.8591
9.5926 -36.5947 3.2025 0.8591
10.3308 -36.4110 3.2040 0.8590
11.0701 -36.2275 3.2067 0.8589
11.8110 -36.0435 3.2108 0.8588
12.5540 -35.8589 3.2162 0.8585
17.7796 -34.3648 3.2754 0.8561
18.0859 -33.2995 3.2078 0.8589
19.5615 -32.8006 3.2330 0.8579
21.8546 -33.5070 3.3865 0.8516
55.4462 -38.8321 5.7303 0.7621
55.9941 -37.5614 5.7077 0.7629
58.4655 -35.8992 5.8078 0.7593
59.2051 -33.1534 5.7442 0.7616
69.5019 -30.2055 6.4151 0.7377
70.3545 -28.9093 6.4389 0.7369
70.3923 -27.2844 6.3909 0.7386
95.4447 -26.3412 8.3817 0.6720
66.1519 -16.8337 5.7784 0.7603
64.7088 -11.0267 5.5567 0.7684
64.3645 -9.6412 5.5094 0.7701
65.9615 -7.1842 5.6168 0.7662
65.2858 -4.4653 5.5395 0.7690
64.9547 -3.1326 5.5050 0.7702
62.3783 -1.7528 5.2826 0.7784
62.0661 -0.4961 5.2542 0.7795
61.4766 1.9806 5.2069 0.7812
60.8462 4.4132 5.1643 0.7828
60.5724 5.6192 5.1496 0.7833
65.6461 8.7628 5.6064 0.7665
59.5072 9.1642 5.0968 0.7853
59.2185 10.3421 5.0889 0.7856
58.3561 13.8606 5.0774 0.7860
58.0691 15.0315 5.0777 0.7860
54.5114 17.6778 4.8511 0.7945
53.6715 21.0578 4.8806 0.7934
53.6878 22.3195 4.9219 0.7918
53.4019 23.4702 4.9380 0.7912
52.8238 25.7967 4.9764 0.7898
52.5311 26.9746 4.9989 0.7889
53.6104 33.2226 5.3390 0.7763
53.2909 34.5260 5.3753 0.7750
52.9670 35.8477 5.4142 0.7736
52.6382 37.1893 5.4559 0.7720
15.8622 15.5628 1.8811 0.9147
35.5630 63.0538 6.1281 0.7478
26.6644 60.8428 5.6234 0.7659
23.4893 60.0539 5.4588 0.7719
17.6436 58.6014 5.1807 0.7822
14.9300 57.9272 5.0640 0.7865
13.6175 57.6011 5.0105 0.7885
11.0714 56.9684 4.9128 0.7922
9.8342 56.6610 4.8682 0.7939
5.0883 55.4818 4.7164 0.7996
3.9454 55.1978 4.6846 0.8008
0.6013 54.3669 4.6026 0.8039
-4.0124 57.7741 4.9025 0.7926
-10.5848 61.7243 5.3014 0.7777
-14.2476 60.8142 5.2875 0.7782
-19.1267 59.6018 5.2989 0.7778
-20.3523 59.2973 5.3071 0.7775
-24.0589 58.3762 5.3449 0.7761
-25.3079 58.0659 5.3620 0.7755
-26.5654 57.7534 5.3814 0.7748
-31.7034 56.4767 5.4827 0.7711
-33.0209 56.1493 5.5142 0.7699
-37.0738 55.1422 5.6249 0.7659
-39.8741 54.4464 5.7129 0.7627
-45.7705 52.9812 5.9269 0.7550
-34.8942 -33.2921 2.9907 0.8242
-33.9906 -35.1458 3.0319 0.8221
-33.1821 -38.7306 3.1626 0.8151
-38.9129 -47.3120 3.7987 0.7823
-38.0260 -48.1755 3.8059 0.7819
-32.7521 -47.0716 3.5560 0.7947
-30.1177 -45.1965 3.3679 0.8044
-26.6004 -45.6608 3.2769 0.8091
-25.1783 -45.2885 3.2132 0.8125
-22.5119 -44.6263 3.0995 0.8185
-20.5568 -42.8722 2.9483 0.8265
-15.4797 -42.8573 2.8256 0.8331
-14.4240 -42.5950 2.7887 0.8351
-13.3632 -42.2385 2.7472 0.8373
-12.3618 -41.9895 2.7143 0.8391
-10.0966 -40.1922 2.5698 0.8470
-7.6891 -40.9026 2.5808 0.8464
-5.0761 -40.2281 2.5143 0.8500
-4.2345 -40.0190 2.4954 0.8511
-3.4052 -39.8129 2.4778 0.8520
-2.5871 -39.6097 2.4614 0.8529
-1.7833 -39.4939 2.4515 0.8535
-0.1901 -38.6003 2.3936 0.8567
2.1351 -38.5206 2.3923 0.8567
3.6516 -38.0920 2.3729 0.8578
7.3817 -37.1655 2.3497 0.8591
8.1166 -36.9613 2.3466 0.8593
8.8547 -36.7779 2.3458 0.8593
9.5926 -36.5946 2.3459 0.8593
10.3308 -36.4112 2.3470 0.8593
11.0701 -36.2275 2.3490 0.8591
11.8109 -36.0434 2.3520 0.8590
12.5540 -35.8587 2.3559 0.8588
14.8299 -35.3658 2.3780 0.8575
15.5894 -35.1775 2.3860 0.8571
18.3297 -33.7483 2.3815 0.8573
19.0008 -33.3671 2.3811 0.8574
21.0678 -33.7648 2.4679 0.8526
64.0777 -73.2594 6.0354 0.6770
66.5127 -67.3774 5.8709 0.6842
57.3871 -36.8454 4.2289 0.7609
57.6456 -35.3958 4.1947 0.7625
59.0607 -34.6497 4.2461 0.7600
81.4394 -45.6041 5.7880 0.6879
80.6192 -43.0398 5.6670 0.6933
70.4091 -32.2973 4.8035 0.7331
70.5673 -28.9967 4.7309 0.7366
66.1507 -16.8334 4.2328 0.7607
65.7792 -15.3381 4.1884 0.7628
65.4151 -13.8732 4.1466 0.7649
64.3634 -9.6411 4.0357 0.7704
64.1744 -8.2977 4.0126 0.7716
63.6915 -6.9370 3.9729 0.7736
63.2540 -5.6055 3.9378 0.7753
62.1353 -0.4966 3.8532 0.7796
61.2155 3.2048 3.8012 0.7822
60.5703 5.6190 3.7721 0.7837
66.2096 7.4870 4.1319 0.7656
59.5064 9.1640 3.7335 0.7856
58.9297 11.5167 3.7234 0.7861
57.4936 17.3758 3.7245 0.7861
52.1066 18.0631 3.4198 0.8017
51.8377 19.1453 3.4267 0.8013
51.5676 20.2323 3.4350 0.8009
51.2960 21.3251 3.4448 0.8004
51.0229 22.4246 3.4560 0.7998
50.7478 23.5318 3.4687 0.7992
50.4705 24.6475 3.4830 0.7984
49.3289 30.5693 3.5986 0.7925
52.9662 35.8472 3.9660 0.7739
31.8180 62.1237 4.3282 0.7560
28.3264 61.2561 4.1850 0.7630
25.0534 60.4429 4.0573 0.7693
23.4895 60.0543 3.9987 0.7723
21.9694 59.6766 3.9434 0.7750
19.0492 58.9510 3.8417 0.7801
17.6437 58.6018 3.7950 0.7825
13.6176 57.6014 3.6703 0.7888
12.3320 57.2819 3.6335 0.7907
11.0715 56.9687 3.5987 0.7925
8.6189 56.3594 3.5355 0.7957
5.0883 55.4821 3.4549 0.7999
3.9454 55.1981 3.4316 0.8011
2.8174 54.9178 3.4099 0.8022
1.7030 54.6409 3.3899 0.8032
0.6013 54.3672 3.3715 0.8042
-1.5690 53.8279 3.3393 0.8059
-4.0120 57.7693 3.5909 0.7929
-11.8081 61.4207 3.8785 0.7783
-14.2477 60.8145 3.8732 0.7785
-16.6846 60.2089 3.8743 0.7785
-17.9046 59.9058 3.8771 0.7784
-20.3524 59.2976 3.8876 0.7778
-22.8175 58.6850 3.9045 0.7770
-24.0590 58.3765 3.9153 0.7764
-25.3080 58.0662 3.9278 0.7758
-26.5655 57.7537 3.9420 0.7751
-29.1106 57.1213 3.9756 0.7734
-31.7036 56.4770 4.0162 0.7714
-34.3544 55.8183 4.0644 0.7690
-37.0741 55.1425 4.1204 0.7662
-39.8743 54.4467 4.1849 0.7630
-41.3087 54.0903 4.2204 0.7613
-45.7707 52.9815 4.3416 0.7553
-33.9903 -35.1455 1.9279 0.8222
-33.8544 -36.4429 1.9613 0.8195
-33.1827 -38.7313 2.0111 0.8153
-31.2277 -46.8621 2.2205 0.7982
-29.5933 -46.4042 2.1702 0.8023
-28.0666 -46.0251 2.1256 0.8059
-26.6004 -45.6608 2.0837 0.8093
-25.1784 -45.2886 2.0432 0.8127
-23.8211 -44.9514 2.0060 0.8157
-21.2689 -44.3575 1.9397 0.8213
-17.7212 -43.5060 1.8523 0.8286
-16.6032 -43.2282 1.8259 0.8308
-15.4798 -42.8575 1.7968 0.8333
-5.9309 -40.4403 1.6117 0.8491
-5.0691 -40.1726 1.5966 0.8504
-2.5871 -39.6094 1.5652 0.8531
-1.7833 -39.4937 1.5589 0.8536
-0.9886 -39.4956 1.5578 0.8537
2.1712 -39.1707 1.5469 0.8547
3.6515 -38.0917 1.5089 0.8580
7.5064 -37.7935 1.5193 0.8571
8.8838 -36.8991 1.4965 0.8590
10.3308 -36.4110 1.4924 0.8594
11.1315 -36.4284 1.5020 0.8586
11.8109 -36.0432 1.4956 0.8591
12.5539 -35.8586 1.4981 0.8589
14.1470 -35.7347 1.5155 0.8574
13.6627 -32.5824 1.3931 0.8681
17.2241 -34.9971 1.5380 0.8554
18.7582 -34.5374 1.5497 0.8544
19.4551 -34.1649 1.5503 0.8544
21.4238 -34.3353 1.5958 0.8504
22.2164 -34.0617 1.6035 0.8498
65.0851 -71.4605 3.8113 0.6791
68.0126 -66.1820 3.7420 0.6839
82.0564 -55.0443 3.8961 0.6733
78.0892 -39.6933 3.4541 0.7042
72.1337 -31.3493 3.1013 0.7299
66.0909 -16.8181 2.6891 0.7611
65.7781 -15.3378 2.6633 0.7631
65.4141 -13.8730 2.6367 0.7651
65.0571 -12.4365 2.6117 0.7671
64.7067 -11.0264 2.5882 0.7689
63.8071 -9.5577 2.5440 0.7724
64.0238 -8.2783 2.5455 0.7723
62.8298 -5.5679 2.4872 0.7769
63.0381 -4.3116 2.4915 0.7765
62.7184 -3.0248 2.4759 0.7777
62.4024 -1.7534 2.4616 0.7789
62.0890 -0.4963 2.4483 0.7799
61.4736 1.9805 2.4252 0.7818
60.5695 5.6189 2.3986 0.7839
66.2071 7.4868 2.6272 0.7659
77.9556 10.4060 3.1011 0.7299
59.2168 10.3418 2.3703 0.7861
58.3544 13.8602 2.3650 0.7866
57.7802 16.2025 2.3662 0.7865
50.2377 16.2918 2.0825 0.8094
49.9807 17.3261 2.0858 0.8092
49.7228 18.3642 2.0901 0.8088
48.9730 22.7088 2.1286 0.8057
47.3279 29.3294 2.1955 0.8002
52.6365 37.1881 2.5412 0.7726
33.6567 62.5809 2.8019 0.7524
31.8183 62.1241 2.7522 0.7562
30.0430 61.6830 2.7054 0.7598
25.0536 60.4433 2.5800 0.7696
20.4904 59.3094 2.4743 0.7779
19.0493 58.9513 2.4429 0.7804
14.9302 57.9278 2.3588 0.7870
12.3320 57.2823 2.3105 0.7909
8.6189 56.3597 2.2482 0.7959
7.4238 56.0627 2.2299 0.7974
3.9454 55.1984 2.1821 0.8013
2.8174 54.9181 2.1683 0.8024
-0.4891 54.0965 2.1332 0.8053
-1.5690 53.8282 2.1234 0.8061
-4.0117 57.7645 2.2832 0.7931
-11.8082 61.4210 2.4662 0.7785
-13.0288 61.1177 2.4641 0.7787
-14.2478 60.8148 2.4629 0.7788
-15.4661 60.5121 2.4627 0.7788
-17.9047 59.9061 2.4654 0.7786
-19.1269 59.6024 2.4682 0.7783
-21.5824 58.9923 2.4769 0.7777
-24.0591 58.3768 2.4897 0.7767
-27.8328 57.4391 2.5168 0.7745
-34.3546 55.8186 2.5844 0.7692
-35.7051 55.4830 2.6016 0.7679
-37.0742 55.1428 2.6201 0.7664
-44.2552 53.3585 2.7335 0.7577
-45.7710 52.9818 2.7607 0.7556
-14.9745 -14.8732 0.3565 0.9190
-14.3460 -15.4430 0.3561 0.9191
-33.4019 -37.4374 0.8475 0.8181
-33.1034 -38.6387 0.8595 0.8158
-40.3147 -49.0164 1.0720 0.7758
-36.9485 -48.7959 1.0339 0.7828
-32.8943 -47.2758 0.9729 0.7942
-29.7441 -46.6406 0.9344 0.8015
-28.0663 -46.0246 0.9106 0.8060
-27.0195 -46.3802 0.9067 0.8068
-23.8209 -44.9510 0.8593 0.8159
-22.6364 -44.8731 0.8490 0.8179
-18.8723 -43.7915 0.8055 0.8263
-16.6031 -43.2280 0.7822 0.8309
-14.4117 -42.5585 0.7589 0.8355
-12.3913 -42.0898 0.7412 0.8390
-10.5087 -41.8327 0.7286 0.8415
-5.9308 -40.4401 0.6904 0.8492
-4.2345 -40.0186 0.6798 0.8513
-2.5871 -39.6092 0.6705 0.8532
0.5903 -38.9041 0.6572 0.8559
2.6657 -35.2544 0.5972 0.8681
4.4300 -38.1284 0.6484 0.8576
6.7457 -37.9386 0.6509 0.8571
8.9037 -36.9817 0.6425 0.8588
11.1314 -36.4282 0.6434 0.8587
11.8108 -36.0430 0.6407 0.8592
12.5538 -35.8584 0.6418 0.8590
13.3182 -35.7228 0.6440 0.8585
14.1580 -35.7626 0.6497 0.8574
17.8787 -34.5564 0.6572 0.8559
18.7729 -34.5644 0.6644 0.8544
19.4459 -34.1487 0.6638 0.8545
21.4001 -34.2973 0.6829 0.8507
22.2163 -34.0616 0.6869 0.8499
81.8036 -43.6720 1.5664 0.6901
78.2474 -39.7738 1.4827 0.7039
86.2603 -37.4888 1.5888 0.6864
93.0436 -36.0642 1.6856 0.6708
65.7770 -15.3376 1.1409 0.7632
65.2081 -12.4653 1.1214 0.7668
64.7057 -11.0262 1.1088 0.7691
63.9794 -9.5835 1.0928 0.7720
64.0228 -8.2782 1.0905 0.7724
63.2719 -5.6071 1.0730 0.7756
63.1844 -4.3216 1.0698 0.7762
62.7378 -3.0257 1.0610 0.7778
61.2760 3.2080 1.0365 0.7823
60.5686 5.6188 1.0275 0.7840
58.3536 13.8600 1.0131 0.7867
58.0666 15.0309 1.0132 0.7867
57.4919 17.3753 1.0145 0.7864
48.1585 16.6945 0.8610 0.8155
47.1568 20.7255 0.8701 0.8138
46.6464 22.7800 0.8769 0.8125
12.8396 6.9226 0.2464 0.9433
45.5969 27.0037 0.8952 0.8090
52.6357 37.1875 1.0886 0.7727
28.3268 61.2569 1.1400 0.7634
26.6649 60.8440 1.1221 0.7666
23.4897 60.0550 1.0893 0.7726
19.0494 58.9517 1.0465 0.7805
17.6439 58.6025 1.0338 0.7828
11.0716 56.9694 0.9803 0.7928
9.8344 56.6620 0.9714 0.7945
7.4238 56.0630 0.9553 0.7975
6.2474 55.7707 0.9480 0.7989
2.8174 54.9184 0.9289 0.8025
1.7030 54.6415 0.9234 0.8036
0.6013 54.3678 0.9184 0.8045
-2.6395 53.5625 0.9059 0.8069
-4.0114 57.7597 0.9780 0.7932
-10.5850 61.7252 1.0579 0.7784
-13.0289 61.1180 1.0556 0.7788
-16.6848 60.2095 1.0554 0.7788
-21.5825 58.9926 1.0611 0.7778
-25.3083 58.0668 1.0700 0.7762
-26.5658 57.7543 1.0738 0.7754
-27.8330 57.4394 1.0782 0.7746
-29.1109 57.1219 1.0830 0.7738
-33.0215 56.1502 1.1003 0.7706
-34.3548 55.8189 1.1072 0.7693
-37.0745 55.1431 1.1224 0.7666
-38.4637 54.7979 1.1309 0.7650
-42.7688 53.7282 1.1600 0.7598
-44.2555 53.3588 1.1710 0.7578
-45.7712 52.9821 1.1827 0.7557
-14.1259 -15.2060 -0.1169 0.9203
-13.4341 -15.0572 -0.1136 0.9225
-12.1145 -14.7293 -0.1074 0.9266
-37.4842 -47.4891 -0.3406 0.7851
-32.5231 -46.7423 -0.3206 0.7963
-26.2935 -45.1339 -0.2941 0.8114
-25.1781 -45.2880 -0.2917 0.8128
-23.8208 -44.9508 -0.2864 0.8159
-22.5115 -44.6254 -0.2814 0.8188
-21.2699 -44.3595 -0.2770 0.8214
-18.8721 -43.7910 -0.2685 0.8263
-17.8572 -43.8398 -0.2665 0.8275
-16.5497 -43.0889 -0.2599 0.8314
-11.4051 -41.8250 -0.2441 0.8408
-10.4469 -41.5868 -0.2414 0.8424
-8.4245 -40.3326 -0.2320 0.8481
-7.8103 -41.5476 -0.2380 0.8444
-6.2340 -37.2733 -0.2128 0.8597
-5.4378 -37.0781 -0.2110 0.8608
-4.6544 -36.8861 -0.2093 0.8618
-2.3727 -36.3268 -0.2050 0.8645
-0.8980 -35.8773 -0.2021 0.8663
0.5404 -35.6128 -0.2005 0.8672
1.2505 -35.4387 -0.1997 0.8678
1.9547 -35.2661 -0.1989 0.8682
2.6536 -35.0948 -0.1982 0.8687
5.4087 -34.4195 -0.1962 0.8699
6.0903 -34.2524 -0.1959 0.8701
6.7700 -34.0858 -0.1957 0.8702
7.4486 -33.9195 -0.1955 0.8703
8.8042 -33.5872 -0.1955 0.8703
9.4824 -33.4209 -0.1956 0.8703
10.8423 -33.0876 -0.1960 0.8700
12.2107 -32.7522 -0.1968 0.8695
12.8994 -32.5834 -0.1973 0.8692
14.9909 -32.0707 -0.1993 0.8680
17.1333 -31.5456 -0.2021 0.8662
20.1009 -30.8182 -0.2072 0.8631
21.5926 -30.3645 -0.2098 0.8615
59.2581 -70.5622 -0.5188 0.6917
14.7667 -16.2132 -0.1235 0.9160
54.3235 -33.3560 -0.3589 0.7749
80.0297 -46.9519 -0.5224 0.6899
80.3847 -45.0135 -0.5187 0.6918
78.2459 -39.7730 -0.4942 0.7039
80.5227 -38.9140 -0.5035 0.6993
66.1475 -16.8325 -0.3843 0.7611
65.7760 -15.3373 -0.3803 0.7633
65.4120 -13.8725 -0.3765 0.7653
64.7047 -11.0260 -0.3696 0.7691
61.6279 -9.2313 -0.3510 0.7794
63.9087 -8.2634 -0.3628 0.7728
63.1835 -4.3215 -0.3566 0.7762
62.7367 -3.0257 -0.3536 0.7778
62.1326 -0.4966 -0.3498 0.7799
61.7473 0.7476 -0.3477 0.7811
60.8669 4.4147 -0.3436 0.7834
77.9485 10.4050 -0.4428 0.7301
59.2151 10.3415 -0.3384 0.7863
58.0657 15.0306 -0.3377 0.7867
57.7786 16.2021 -0.3379 0.7866
57.4911 17.3751 -0.3381 0.7864
46.1574 18.1097 -0.2792 0.8201
45.9144 19.0878 -0.2800 0.8196
45.1754 22.0616 -0.2831 0.8178
12.8366 6.9210 -0.0821 0.9433
43.3647 29.3489 -0.2948 0.8110
35.5640 63.0556 -0.4076 0.7486
31.8187 62.1249 -0.3930 0.7564
30.0434 61.6838 -0.3863 0.7600
28.3270 61.2573 -0.3800 0.7634
25.0539 60.4440 -0.3684 0.7697
23.4899 60.0554 -0.3631 0.7726
21.9698 59.6777 -0.3580 0.7754
20.4906 59.3101 -0.3533 0.7780
19.0495 58.9520 -0.3488 0.7805
16.2717 58.2618 -0.3406 0.7851
14.9304 57.9285 -0.3368 0.7872
8.6190 56.3603 -0.3210 0.7961
6.2474 55.7710 -0.3160 0.7989
5.0884 55.4830 -0.3137 0.8002
3.9455 55.1990 -0.3116 0.8014
2.8174 54.9187 -0.3096 0.8025
1.7030 54.6418 -0.3078 0.8036
-0.4891 54.0971 -0.3046 0.8054
-2.6395 53.5628 -0.3019 0.8069
-5.8389 65.1110 -0.3680 0.7699
-10.5851 61.7255 -0.3526 0.7784
-13.0289 61.1183 -0.3518 0.7788
-14.2479 60.8154 -0.3517 0.7789
-15.4662 60.5127 -0.3516 0.7789
-16.6849 60.2099 -0.3518 0.7789
-17.9048 59.9067 -0.3520 0.7787
-24.0594 58.3774 -0.3555 0.7768
-27.8331 57.4397 -0.3594 0.7747
-34.3549 55.8192 -0.3690 0.7694
-37.0747 55.1434 -0.3741 0.7666
-39.8749 54.4476 -0.3800 0.7634
-41.3094 54.0912 -0.3832 0.7617
-42.7690 53.7285 -0.3866 0.7598
-44.2557 53.3591 -0.3903 0.7578
-45.7715 52.9824 -0.3942 0.7557
-14.1258 -15.2059 -0.5844 0.9203
-13.4340 -15.0571 -0.5682 0.9224
-35.8186 -47.3037 -1.6707 0.7886
-32.8843 -45.2919 -1.5760 0.7993
-30.8882 -46.3528 -1.5684 0.8002
-26.2940 -45.1349 -1.4708 0.8114
-25.1779 -45.2877 -1.4590 0.8127
-23.8206 -44.9504 -1.4324 0.8158
-22.6248 -44.8501 -1.4145 0.8179
-21.2704 -44.3605 -1.3853 0.8213
-20.1386 -44.2604 -1.3692 0.8232
-16.5501 -43.0900 -1.2997 0.8313
-15.4795 -42.8567 -1.2831 0.8333
-12.4537 -42.3017 -1.2417 0.8382
-10.4470 -41.5870 -1.2074 0.8423
-9.5091 -41.3540 -1.1948 0.8438
-8.3921 -40.1775 -1.1557 0.8485
-7.3100 -38.8860 -1.1141 0.8536
-2.3727 -36.3266 -1.0251 0.8644
-0.1763 -35.7882 -1.0077 0.8666
1.9547 -35.2659 -0.9945 0.8682
4.7132 -34.5017 -0.9805 0.8699
6.0902 -34.2522 -0.9796 0.8700
7.4485 -33.9193 -0.9779 0.8703
8.8042 -33.5870 -0.9777 0.8703
9.4824 -33.4208 -0.9782 0.8702
10.1365 -33.1724 -0.9767 0.8704
10.8423 -33.0874 -0.9804 0.8699
12.2106 -32.7520 -0.9842 0.8695
14.9908 -32.0706 -0.9968 0.8679
16.3719 -31.6440 -1.0032 0.8671
17.8618 -31.3669 -1.0164 0.8655
18.5987 -31.1862 -1.0224 0.8648
19.3448 -31.0033 -1.0290 0.8640
20.1008 -30.8180 -1.0360 0.8631
20.8675 -30.6301 -1.0436 0.8622
21.5925 -30.3643 -1.0491 0.8615
53.7944 -72.5167 -2.5424 0.6968
55.2608 -71.4464 -2.5433 0.6967
56.7059 -70.3469 -2.5442 0.6966
14.7630 -16.2092 -0.6173 0.9160
58.4631 -61.6539 -2.3924 0.7118
59.7095 -60.4858 -2.3932 0.7117
59.9606 -56.0451 -2.3111 0.7201
58.7544 -50.6505 -2.1843 0.7331
51.0003 -42.2093 -1.8641 0.7673
57.1398 -45.3868 -2.0547 0.7468
56.8246 -43.3027 -2.0117 0.7513
56.0521 -40.9599 -1.9548 0.7574
55.7843 -39.0689 -1.9177 0.7615
55.0636 -36.9372 -1.8670 0.7670
54.8484 -35.2155 -1.8353 0.7704
57.8826 -32.4129 -1.8680 0.7668
59.9552 -32.0080 -1.9137 0.7619
52.4831 -26.6776 -1.6578 0.7901
68.6459 -29.8335 -2.1076 0.7412
38.3250 -13.9757 -1.1487 0.8494
85.7833 -23.6752 -2.5058 0.7004
65.4110 -13.8723 -1.8828 0.7652
65.0540 -12.4359 -1.8650 0.7672
61.6270 -9.2312 -1.7545 0.7793
63.8363 -6.9527 -1.8081 0.7734
63.2699 -5.6069 -1.7885 0.7756
63.0353 -4.3113 -1.7791 0.7766
62.7128 -3.0245 -1.7679 0.7778
62.3898 -1.7531 -1.7575 0.7790
61.7550 0.7477 -1.7390 0.7810
61.4436 1.9795 -1.7310 0.7819
61.1354 3.2006 -1.7238 0.7827
60.8301 4.4121 -1.7173 0.7834
60.5274 5.6150 -1.7116 0.7841
66.1993 7.4859 -1.8759 0.7660
77.9449 10.4046 -2.2142 0.7300
59.5030 9.1635 -1.6952 0.7859
58.9263 11.5161 -1.6906 0.7864
58.0649 15.0304 -1.6889 0.7866
57.7778 16.2018 -1.6896 0.7865
48.3918 15.6932 -1.4325 0.8158
44.8178 15.5363 -1.3356 0.8271
44.5865 16.4672 -1.3383 0.8268
44.3541 17.4022 -1.3416 0.8264
44.1206 18.3421 -1.3454 0.8260
43.6490 20.2400 -1.3548 0.8249
12.8337 6.9195 -0.4105 0.9433
42.4338 25.1304 -1.3887 0.8209
41.4087 29.2556 -1.4276 0.8164
72.4369 53.3916 -2.5339 0.6976
71.3590 54.8441 -2.5342 0.6976
69.1134 57.6810 -2.5348 0.6975
67.9464 59.0638 -2.5350 0.6975
66.7516 60.4228 -2.5352 0.6975
15.9289 15.6283 -0.6284 0.9146
61.6952 65.6010 -2.5357 0.6974
57.6301 69.1997 -2.5357 0.6974
56.2057 70.3165 -2.5347 0.6975
53.2901 72.4581 -2.5326 0.6977
51.8011 73.4833 -2.5316 0.6978
48.7644 75.4411 -2.5294 0.6981
47.2179 76.3728 -2.5283 0.6982
45.6533 77.2724 -2.5272 0.6983
35.5643 63.0560 -2.0385 0.7485
33.6574 62.5822 -2.0009 0.7525
31.8189 62.1254 -1.9654 0.7563
23.4900 60.0558 -1.8158 0.7726
19.0497 58.9524 -1.7445 0.7804
17.6441 58.6032 -1.7233 0.7828
11.0717 56.9700 -1.6342 0.7928
7.4239 56.0636 -1.5924 0.7975
6.2474 55.7713 -1.5802 0.7989
5.0884 55.4833 -1.5688 0.8002
1.7031 54.6421 -1.5394 0.8035
-2.6395 53.5630 -1.5100 0.8069
-11.8083 61.4219 -1.7612 0.7786
-15.4663 60.5130 -1.7587 0.7789
-20.3528 59.2988 -1.7653 0.7781
-21.5827 58.9932 -1.7688 0.7777
-22.8179 58.6862 -1.7730 0.7773
-24.0595 58.3777 -1.7779 0.7767
-20.2307 34.4006 -1.1237 0.8524
-21.0912 32.7741 -1.0974 0.8556
-37.0749 55.1437 -1.8710 0.7665
-38.4642 54.7985 -1.8852 0.7650
-41.3096 54.0915 -1.9165 0.7616
-42.7693 53.7288 -1.9337 0.7597
-44.2560 53.3594 -1.9520 0.7577
-15.3543 -14.6493 -1.0762 0.9185
-15.2345 -15.1315 -1.0889 0.9176
-31.9362 -33.0216 -2.3297 0.8319
-13.4339 -15.0569 -1.0233 0.9224
-12.0810 -14.1012 -0.9417 0.9283
-11.9627 -14.5448 -0.9551 0.9273
-27.7679 -36.6716 -2.3328 0.8317
-27.0315 -37.2307 -2.3333 0.8317
-25.5253 -38.3048 -2.3344 0.8316
-24.7562 -38.8193 -2.3349 0.8316
-23.9767 -39.3184 -2.3355 0.8316
-22.3881 -40.2697 -2.3366 0.8315
-21.5795 -40.7214 -2.3372 0.8315
-20.7619 -41.1572 -2.3378 0.8314
-18.5923 -40.8621 -2.2767 0.8354
-17.5679 -40.7647 -2.2512 0.8371
-15.4794 -42.8564 -2.3109 0.8332
-13.6332 -40.2596 -2.1556 0.8435
-12.5025 -39.5180 -2.1021 0.8470
-11.4051 -41.8249 -2.1986 0.8406
-8.1083 -38.8187 -2.0111 0.8531
-7.3107 -38.8897 -2.0068 0.8534
-4.6544 -36.8857 -1.8855 0.8617
-3.8830 -36.6966 -1.8714 0.8626
-0.8980 -35.8769 -1.8200 0.8661
-0.1763 -35.7881 -1.8150 0.8665
1.2505 -35.4383 -1.7983 0.8676
1.9547 -35.2657 -1.7912 0.8681
2.6536 -35.0944 -1.7849 0.8685
3.3479 -34.9242 -1.7793 0.8689
4.0381 -34.7551 -1.7744 0.8692
5.4087 -34.4191 -1.7670 0.8698
6.0902 -34.2521 -1.7643 0.8699
8.1264 -33.7530 -1.7607 0.8702
8.8041 -33.5868 -1.7609 0.8702
10.1365 -33.1722 -1.7591 0.8703
10.8422 -33.0873 -1.7658 0.8698
12.2105 -32.7519 -1.7727 0.8694
12.8993 -32.5831 -1.7772 0.8691
14.2887 -32.2425 -1.7885 0.8683
14.9907 -32.0704 -1.7953 0.8678
17.1331 -31.5453 -1.8205 0.8661
20.1006 -30.8179 -1.8660 0.8630
20.8674 -30.6299 -1.8796 0.8621
28.6002 -36.9772 -2.3707 0.8293
29.3433 -36.4020 -2.3712 0.8292
32.0259 -38.1352 -2.5255 0.8192
14.7594 -16.2052 -1.1116 0.9160
34.2847 -36.1558 -2.5269 0.8191
35.0105 -35.4658 -2.5274 0.8191
36.4198 -34.0416 -2.5282 0.8190
37.1027 -33.3082 -2.5286 0.8190
37.7706 -32.5610 -2.5290 0.8190
39.0604 -31.0262 -2.5298 0.8189
41.4490 -27.8044 -2.5312 0.8188
42.0048 -26.9692 -2.5315 0.8188
42.5435 -26.1227 -2.5318 0.8188
43.0649 -25.2654 -2.5321 0.8188
43.5688 -24.3974 -2.5324 0.8187
44.3436 -22.5402 -2.5227 0.8194
43.6399 -21.0897 -2.4581 0.8236
38.7987 -16.8619 -2.1454 0.8441
37.9430 -15.5911 -2.0804 0.8485
37.3589 -14.4805 -2.0320 0.8517
36.8494 -13.4376 -1.9892 0.8546
33.7047 -8.5768 -1.7638 0.8700
46.0886 -9.7749 -2.3893 0.8280
46.3504 -8.8604 -2.3932 0.8278
46.5952 -7.9401 -2.3971 0.8275
47.0040 -6.0775 -2.4036 0.8271
47.1625 -5.1367 -2.4060 0.8270
47.5998 -2.2957 -2.4168 0.8262
47.7126 -1.3407 -2.4207 0.8260
47.8126 -0.3814 -2.4249 0.8257
47.9143 0.5769 -2.4301 0.8254
26.3932 1.9143 -1.3420 0.8994
24.0081 2.2272 -1.2228 0.9079
48.3139 5.4634 -2.4658 0.8231
48.2127 6.4357 -2.4668 0.8230
47.7908 9.3398 -2.4695 0.8228
47.6108 10.3022 -2.4704 0.8228
47.4110 11.2613 -2.4713 0.8227
46.6950 14.1127 -2.4739 0.8225
46.4177 15.0531 -2.4747 0.8225
42.3987 18.6343 -2.3487 0.8307
42.1701 19.5543 -2.3574 0.8301
12.8307 6.9179 -0.7393 0.9433
41.2357 23.3144 -2.4023 0.8272
40.9960 24.2789 -2.4163 0.8263
40.7535 25.2552 -2.4315 0.8253
40.5077 26.2441 -2.4478 0.8242
40.1213 27.1538 -2.4569 0.8236
39.5500 27.9424 -2.4558 0.8237
38.9662 28.7211 -2.4549 0.8238
36.5758 31.7938 -2.4578 0.8236
35.9274 32.5211 -2.4576 0.8236
35.2534 33.2242 -2.4567 0.8236
15.9287 15.6281 -1.1317 0.9145
33.9041 34.6288 -2.4577 0.8236
33.2188 35.3219 -2.4590 0.8235
32.5044 35.9847 -2.4592 0.8235
29.5317 38.5079 -2.4611 0.8234
27.9543 39.6550 -2.4605 0.8234
26.3574 40.7764 -2.4623 0.8233
25.5215 41.2798 -2.4613 0.8233
24.6936 41.7962 -2.4620 0.8233
23.8602 42.3045 -2.4632 0.8232
22.1366 43.2210 -2.4627 0.8233
19.4999 44.4948 -2.4637 0.8232
18.6081 44.8932 -2.4646 0.8231
17.7096 45.2772 -2.4656 0.8231
16.7949 45.6210 -2.4654 0.8231
14.9579 46.2900 -2.4671 0.8230
14.0193 46.5635 -2.4661 0.8230
13.0853 46.8525 -2.4670 0.8230
12.1449 47.1206 -2.4678 0.8229
9.2848 47.7756 -2.4682 0.8229
7.3589 48.1205 -2.4688 0.8229
6.3899 48.2553 -2.4686 0.8229
5.4199 48.3840 -2.4691 0.8228
4.4469 48.4879 -2.4693 0.8228
1.5166 48.6592 -2.4689 0.8228
0.5383 48.6732 -2.4686 0.8229
-2.3956 48.6147 -2.4684 0.8229
-3.3721 48.5556 -2.4684 0.8229
-4.3471 48.4754 -2.4683 0.8229
-5.3194 48.3691 -2.4678 0.8229
-6.2892 48.2425 -2.4673 0.8230
-11.0849 47.3145 -2.4645 0.8231
-13.9020 46.5138 -2.4620 0.8233
-15.7476 45.8814 -2.4601 0.8234
-16.6593 45.5358 -2.4590 0.8235
-17.5625 45.1695 -2.4578 0.8236
-18.4570 44.7840 -2.4565 0.8237
-19.3432 44.3807 -2.4552 0.8237
-21.0872 43.5180 -2.4524 0.8239
-23.6265 42.0885 -2.4478 0.8242
-20.2317 34.4023 -2.0240 0.8523
-20.2936 32.9725 -1.9635 0.8564
-21.0913 32.7743 -1.9765 0.8555
-26.8527 39.9397 -2.4407 0.8247
-27.6281 39.3607 -2.4388 0.8248
-29.8746 37.5299 -2.4327 0.8252
-30.5955 36.8890 -2.4305 0.8253
-14.1255 -15.2056 -1.5218 0.9201
-13.4338 -15.0568 -1.4795 0.9223
-12.0813 -14.1014 -1.3615 0.9282
-19.7512 -25.0229 -2.3374 0.8800
-19.2473 -25.4188 -2.3378 0.8800
-18.7355 -25.8046 -2.3382 0.8799
-18.2160 -26.1801 -2.3385 0.8799
-16.6134 -27.2437 -2.3397 0.8799
-15.5103 -27.8986 -2.3405 0.8798
-14.9491 -28.2095 -2.3409 0.8798
-13.8080 -28.7974 -2.3417 0.8798
-13.2288 -29.0742 -2.3421 0.8798
-12.6440 -29.3393 -2.3425 0.8797
-12.0540 -29.5927 -2.3429 0.8797
-9.6453 -30.4870 -2.3446 0.8796
-5.9141 -31.4604 -2.3472 0.8795
-4.0098 -31.7773 -2.3485 0.8794
-3.3709 -31.8574 -2.3489 0.8794
-1.4459 -32.0204 -2.3502 0.8794
-0.1579 -32.0645 -2.3511 0.8793
0.4866 -32.0672 -2.3515 0.8793
1.1312 -32.0568 -2.3519 0.8793
2.4194 -31.9971 -2.3528 0.8792
3.0626 -31.9479 -2.3532 0.8792
4.3456 -31.8105 -2.3541 0.8792
4.9849 -31.7225 -2.3545 0.8792
6.2580 -31.5078 -2.3553 0.8791
8.7743 -30.9252 -2.3570 0.8790
9.3957 -30.7479 -2.3574 0.8790
10.6274 -30.3558 -2.3582 0.8790
11.8427 -29.9142 -2.3590 0.8789
12.4436 -29.6750 -2.3594 0.8789
13.0396 -29.4237 -2.3598 0.8789
14.7960 -28.5982 -2.3609 0.8788
15.3702 -28.2994 -2.3613 0.8788
17.6039 -26.9899 -2.3627 0.8788
19.2065 -25.8910 -2.3637 0.8787
20.7402 -24.6965 -2.3647 0.8787
21.2351 -24.2779 -2.3650 0.8787
14.7557 -16.2012 -1.6068 0.9159
22.1992 -23.4108 -2.3656 0.8786
24.1385 -24.4524 -2.5193 0.8713
24.6280 -23.9651 -2.5196 0.8713
26.0361 -22.4450 -2.5205 0.8712
26.9228 -21.3850 -2.5210 0.8712
27.3499 -20.8417 -2.5213 0.8712
28.1707 -19.7295 -2.5217 0.8712
28.9459 -18.5848 -2.5222 0.8711
29.3161 -18.0008 -2.5224 0.8711
29.6743 -17.4093 -2.5226 0.8711
30.0206 -16.8108 -2.5228 0.8711
30.6762 -15.5930 -2.5231 0.8711
30.9855 -14.9743 -2.5233 0.8711
31.2822 -14.3494 -2.5235 0.8711
31.5661 -13.7186 -2.5236 0.8711
31.8372 -13.0822 -2.5238 0.8711
32.0954 -12.4403 -2.5239 0.8710
32.3405 -11.7934 -2.5240 0.8710
32.7912 -10.4851 -2.5242 0.8710
32.9965 -9.8243 -2.5243 0.8710
33.1885 -9.1595 -2.5244 0.8710
33.3668 -8.4908 -2.5245 0.8710
33.5317 -7.8187 -2.5246 0.8710
32.8097 -6.2720 -2.4492 0.8746
32.0690 -4.1465 -2.3709 0.8784
32.2099 -2.8544 -2.3710 0.8784
32.2982 -1.5577 -2.3709 0.8784
32.3339 -0.2584 -2.3709 0.8784
32.3320 0.3915 -2.3708 0.8784
23.8097 1.7269 -1.7504 0.9087
24.6706 2.2886 -1.8167 0.9054
32.1108 4.2864 -2.3753 0.8782
32.0403 4.9342 -2.3770 0.8781
31.8583 6.2261 -2.3801 0.8779
31.7468 6.8695 -2.3816 0.8779
31.6216 7.5107 -2.3831 0.8778
31.3305 8.7856 -2.3858 0.8777
31.1647 9.4187 -2.3871 0.8776
30.3677 11.9147 -2.3919 0.8774
29.6320 13.7404 -2.3949 0.8772
29.3612 14.3387 -2.3958 0.8772
28.1657 16.6804 -2.4002 0.8770
27.8388 17.2519 -2.4014 0.8769
27.4944 17.8130 -2.4021 0.8769
25.5975 20.5047 -2.4048 0.8767
25.1846 21.0187 -2.4052 0.8767
24.7680 21.5301 -2.4063 0.8767
23.9021 22.5263 -2.4082 0.8766
22.9827 23.4739 -2.4088 0.8766
21.5328 24.8237 -2.4095 0.8765
20.0163 26.1002 -2.4117 0.8764
19.4880 26.4976 -2.4117 0.8764
18.9589 26.8943 -2.4127 0.8764
17.3109 27.9996 -2.4137 0.8763
16.7443 28.3412 -2.4136 0.8763
16.1707 28.6708 -2.4135 0.8763
15.5952 28.9974 -2.4141 0.8763
15.0152 29.3167 -2.4151 0.8762
14.4225 29.6115 -2.4150 0.8763
12.6182 30.4421 -2.4162 0.8762
12.0025 30.6862 -2.4160 0.8762
11.3821 30.9174 -2.4157 0.8762
10.7571 31.1366 -2.4154 0.8762
10.1297 31.3480 -2.4155 0.8762
9.5004 31.5545 -2.4162 0.8762
8.8638 31.7375 -2.4161 0.8762
8.2229 31.9042 -2.4157 0.8762
6.2863 32.3465 -2.4161 0.8762
4.9824 32.5800 -2.4166 0.8762
1.6869 32.8815 -2.4141 0.8763
-0.2976 32.9162 -2.4136 0.8763
-0.9590 32.9005 -2.4134 0.8763
-2.2804 32.8350 -2.4133 0.8763
-3.5965 32.7026 -2.4123 0.8764
-5.5574 32.4074 -2.4109 0.8765
-6.2068 32.2849 -2.4105 0.8765
-11.8812 30.5577 -2.4040 0.8768
-12.4888 30.3026 -2.4031 0.8768
-13.0905 30.0347 -2.4023 0.8769
-13.6854 29.7523 -2.4012 0.8769
-14.2743 29.4581 -2.4001 0.8770
-14.8568 29.1522 -2.3991 0.8770
-16.5640 28.1657 -2.3958 0.8772
-17.6652 27.4503 -2.3935 0.8773
-18.7348 26.6907 -2.3910 0.8774
-19.2568 26.2943 -2.3897 0.8775
-19.7700 25.8871 -2.3883 0.8775
-20.2743 25.4695 -2.3869 0.8776
-21.2559 24.6045 -2.3840 0.8777
-17.6223 -16.8132 -2.3383 0.9068
-16.9360 -17.5116 -2.3388 0.9067
-12.0650 -14.0825 -1.7803 0.9282
-14.3247 -19.7295 -2.3407 0.9067
-13.5235 -20.2942 -2.3413 0.9067
-13.1146 -20.5645 -2.3416 0.9066
-12.2807 -21.0803 -2.3422 0.9066
-9.6631 -22.4223 -2.3440 0.9065
-8.2977 -22.9732 -2.3450 0.9065
-7.3698 -23.2945 -2.3456 0.9065
-4.9990 -23.9330 -2.3473 0.9064
-3.0626 -24.2709 -2.3486 0.9064
-0.6126 -24.4730 -2.3503 0.9063
2.3380 -24.3895 -2.3522 0.9062
3.3172 -24.2826 -2.3529 0.9062
4.2916 -24.1363 -2.3535 0.9062
5.2595 -23.9508 -2.3542 0.9062
5.7406 -23.8435 -2.3545 0.9062
6.6959 -23.5998 -2.3551 0.9061
7.1698 -23.4636 -2.3554 0.9061
7.6409 -23.3178 -2.3557 0.9061
8.1091 -23.1625 -2.3561 0.9061
9.4937 -22.6404 -2.3569 0.9061
10.3985 -22.2460 -2.3575 0.9060
10.8448 -22.0353 -2.3578 0.9060
11.2868 -21.8155 -2.3581 0.9060
11.7244 -21.5868 -2.3584 0.9060
12.1573 -21.3493 -2.3587 0.9060
13.0084 -20.8483 -2.3592 0.9060
13.4263 -20.5849 -2.3595 0.9060
13.8388 -20.3132 -2.3597 0.9060
14.2458 -20.0331 -2.3600 0.9059
15.8152 -18.8321 -2.3610 0.9059
16.9262 -17.8500 -2.3616 0.9059
18.3506 -18.5891 -2.5077 0.9004
18.7771 -18.2717 -2.5153 0.9001
19.8491 -17.1114 -2.5160 0.9000
20.1906 -16.7103 -2.5162 0.9000
20.5240 -16.3025 -2.5164 0.9000
21.4739 -15.0393 -2.5169 0.9000
21.7733 -14.6057 -2.5171 0.9000
22.6182 -13.2696 -2.5176 0.9000
22.8816 -12.8132 -2.5177 0.9000
23.1358 -12.3514 -2.5179 0.9000
23.3807 -11.8846 -2.5180 0.9000
24.0578 -10.4555 -2.5184 0.9000
24.4606 -9.4811 -2.5186 0.8999
24.8236 -8.4910 -2.5187 0.8999
24.9900 -7.9906 -2.5188 0.8999
25.2923 -6.9803 -2.5190 0.8999
25.5535 -5.9584 -2.5191 0.8999
25.6686 -5.4438 -2.5191 0.8999
25.7732 -4.9269 -2.5192 0.8999
25.9509 -3.8872 -2.5192 0.8999
26.0239 -3.3649 -2.5192 0.8999
26.0863 -2.8412 -2.5192 0.8999
26.1382 -2.3164 -2.5192 0.8999
26.1794 -1.7906 -2.5192 0.8999
25.5894 -0.2045 -2.4568 0.9023
24.8841 0.3013 -2.3892 0.9048
24.6277 0.7934 -2.3656 0.9057
24.6063 1.2882 -2.3656 0.9057
24.4821 2.7685 -2.3654 0.9057
24.3496 3.7499 -2.3652 0.9057
24.0765 5.2097 -2.3650 0.9058
23.8455 6.1725 -2.3647 0.9058
23.7154 6.6502 -2.3646 0.9058
23.4264 7.5971 -2.3644 0.9058
23.2677 8.0659 -2.3642 0.9058
23.0995 8.5314 -2.3641 0.9058
22.5737 9.9212 -2.3673 0.9057
22.3790 10.3771 -2.3682 0.9056
22.1748 10.8291 -2.3692 0.9056
21.9610 11.2769 -2.3701 0.9056
12.8248 6.9147 -1.3988 0.9431
21.2640 12.5931 -2.3726 0.9055
21.0156 13.0235 -2.3736 0.9054
20.7582 13.4487 -2.3746 0.9054
19.9283 14.6887 -2.3768 0.9053
19.3322 15.4859 -2.3780 0.9053
18.7032 16.2581 -2.3792 0.9052
18.0427 17.0042 -2.3802 0.9052
15.8660 15.5666 -2.1339 0.9146
16.9964 18.0724 -2.3818 0.9051
15.8875 19.0770 -2.3834 0.9051
15.5029 19.3950 -2.3838 0.9050
15.1117 19.7049 -2.3840 0.9050
14.3158 20.3079 -2.3854 0.9050
13.4905 20.8706 -2.3858 0.9050
12.6425 21.3986 -2.3861 0.9050
12.2106 21.6496 -2.3863 0.9049
11.7735 21.8916 -2.3864 0.9049
11.3315 22.1243 -2.3864 0.9049
10.8873 22.3534 -2.3870 0.9049
9.9817 22.7762 -2.3874 0.9049
9.5219 22.9721 -2.3874 0.9049
9.0584 23.1593 -2.3874 0.9049
7.6481 23.6683 -2.3880 0.9049
7.1705 23.8159 -2.3878 0.9049
6.2089 24.0900 -2.3883 0.9049
5.7230 24.2080 -2.3882 0.9049
5.2349 24.3160 -2.3879 0.9049
4.7447 24.4137 -2.3877 0.9049
4.2526 24.5019 -2.3875 0.9049
3.2638 24.6473 -2.3869 0.9049
2.7675 24.7053 -2.3867 0.9049
1.7720 24.7904 -2.3861 0.9050
1.2735 24.8230 -2.3863 0.9049
0.7742 24.8403 -2.3859 0.9050
-0.2246 24.8431 -2.3852 0.9050
-1.7211 24.7816 -2.3849 0.9050
-2.2183 24.7369 -2.3844 0.9050
-2.7144 24.6818 -2.3839 0.9050
-4.1942 24.4582 -2.3824 0.9051
-4.6845 24.3665 -2.3821 0.9051
-5.1725 24.2642 -2.3818 0.9051
-5.6576 24.1489 -2.3812 0.9051
-6.1401 24.0237 -2.3805 0.9052
-6.6199 23.8887 -2.3799 0.9052
-7.0966 23.7441 -2.3792 0.9052
-7.5701 23.5897 -2.3785 0.9052
-8.0409 23.4274 -2.3779 0.9053
-8.5082 23.2560 -2.3774 0.9053
-9.4301 22.8810 -2.3759 0.9053
-9.8846 22.6790 -2.3751 0.9054
-10.3354 22.4693 -2.3744 0.9054
-10.7817 22.2504 -2.3737 0.9054
-11.2227 22.0213 -2.3729 0.9055
-11.6586 21.7831 -2.3720 0.9055
-12.0893 21.5360 -2.3710 0.9055
-12.5149 21.2806 -2.3701 0.9056
-12.9350 21.0165 -2.3692 0.9056
-13.3494 20.7439 -2.3683 0.9056
-13.7581 20.4633 -2.3673 0.9057
-14.1608 20.1744 -2.3664 0.9057
-14.9473 19.5722 -2.3643 0.9058
-15.7078 18.9388 -2.3622 0.9059
-16.0778 18.6107 -2.3611 0.9059
-13.6995 -14.1651 -2.3408 0.9237
-13.1215 -14.7068 -2.3412 0.9237
-12.2149 -15.4752 -2.3419 0.9237
-11.5853 -15.9566 -2.3423 0.9236
-11.2634 -16.1879 -2.3426 0.9236
-10.6059 -16.6308 -2.3430 0.9236
-10.2706 -16.8423 -2.3433 0.9236
-9.5874 -17.2450 -2.3438 0.9236
-9.2399 -17.4360 -2.3440 0.9236
-8.5335 -17.7971 -2.3445 0.9236
-7.8131 -18.1296 -2.3450 0.9236
-6.7086 -18.5735 -2.3458 0.9235
-5.9581 -18.8323 -2.3463 0.9235
-5.1976 -19.0608 -2.3468 0.9235
-4.8140 -19.1636 -2.3471 0.9235
-4.4284 -19.2587 -2.3474 0.9235
-4.0409 -19.3460 -2.3476 0.9235
-3.6517 -19.4255 -2.3479 0.9235
-2.8688 -19.5610 -2.3484 0.9235
-1.2892 -19.7373 -2.3495 0.9234
-0.8923 -19.7614 -2.3498 0.9234
0.3002 -19.7860 -2.3506 0.9234
0.6979 -19.7783 -2.3508 0.9234
1.0954 -19.7625 -2.3511 0.9234
1.4925 -19.7387 -2.3514 0.9234
1.8891 -19.7069 -2.3516 0.9234
2.2851 -19.6672 -2.3519 0.9233
3.0743 -19.5639 -2.3524 0.9233
3.4673 -19.5002 -2.3527 0.9233
3.8589 -19.4288 -2.3529 0.9233
4.2491 -19.3494 -2.3532 0.9233
5.0243 -19.1672 -2.3537 0.9233
5.4091 -19.0644 -2.3540 0.9233
6.1722 -18.8356 -2.3545 0.9233
6.9256 -18.5762 -2.3550 0.9232
7.6681 -18.2866 -2.3554 0.9232
8.0349 -18.1306 -2.3557 0.9232
8.3985 -17.9673 -2.3559 0.9232
8.7587 -17.7966 -2.3561 0.9232
9.1155 -17.6187 -2.3564 0.9232
9.4687 -17.4336 -2.3566 0.9232
10.5050 -16.8360 -2.3573 0.9232
10.8422 -16.6230 -2.3575 0.9232
11.1751 -16.4032 -2.3577 0.9232
11.8273 -15.9436 -2.3581 0.9231
12.4606 -15.4580 -2.3585 0.9231
12.7697 -15.2057 -2.3587 0.9231
14.8593 -15.0525 -2.5125 0.9183
15.1599 -14.7518 -2.5127 0.9183
15.7427 -14.1327 -2.5130 0.9183
16.3001 -13.4904 -2.5133 0.9183
16.5689 -13.1609 -2.5135 0.9183
16.8312 -12.8261 -2.5136 0.9183
17.3350 -12.1407 -2.5139 0.9183
17.5765 -11.7905 -2.5141 0.9183
18.2579 -10.7115 -2.5145 0.9183
18.4704 -10.3429 -2.5146 0.9183
18.8727 -9.5932 -2.5148 0.9183
19.0625 -9.2123 -2.5149 0.9183
19.4188 -8.4394 -2.5151 0.9182
19.7436 -7.6527 -2.5153 0.9182
19.8940 -7.2546 -2.5153 0.9182
20.0363 -6.8535 -2.5154 0.9182
20.7178 -4.3938 -2.5157 0.9182
20.8021 -3.9766 -2.5157 0.9182
20.8781 -3.5577 -2.5158 0.9182
20.9455 -3.1375 -2.5158 0.9182
21.0044 -2.7159 -2.5158 0.9182
21.0967 -1.8696 -2.5158 0.9182
21.1546 -1.0202 -2.5158 0.9182
21.1707 -0.5949 -2.5158 0.9182
21.1782 -0.1693 -2.5158 0.9182
21.1674 0.6819 -2.5157 0.9182
21.1491 1.1072 -2.5157 0.9182
21.0867 1.9562 -2.5156 0.9182
20.7465 2.7694 -2.4863 0.9191
20.1338 3.1006 -2.4198 0.9212
19.5888 3.4210 -2.3621 0.9230
19.5151 3.8139 -2.3620 0.9230
19.4339 4.2052 -2.3619 0.9230
19.2477 4.9824 -2.3617 0.9230
18.1948 7.9966 -2.3608 0.9231
18.0294 8.3602 -2.3607 0.9231
17.8567 8.7204 -2.3605 0.9231
17.6767 9.0770 -2.3604 0.9231
17.2954 9.7787 -2.3601 0.9231
17.0943 10.1237 -2.3599 0.9231
15.7565 12.1099 -2.3606 0.9231
15.0096 13.0474 -2.3624 0.9230
14.7478 13.3495 -2.3629 0.9230
14.4797 13.6462 -2.3635 0.9230
14.2054 13.9374 -2.3639 0.9230
13.6391 14.5026 -2.3649 0.9229
13.0499 15.0444 -2.3657 0.9229
12.1250 15.8105 -2.3668 0.9229
11.8064 16.0530 -2.3671 0.9229
11.1559 16.5207 -2.3679 0.9228
10.8228 16.7434 -2.3682 0.9228
10.1430 17.1679 -2.3686 0.9228
9.4477 17.5668 -2.3693 0.9228
9.0933 17.7545 -2.3695 0.9228
8.3733 18.1074 -2.3697 0.9228
8.0080 18.2726 -2.3698 0.9228
7.6393 18.4302 -2.3699 0.9228
6.5161 18.8609 -2.3703 0.9228
5.7527 19.1070 -2.3703 0.9228
5.3674 19.2183 -2.3702 0.9228
4.9799 19.3218 -2.3702 0.9228
3.8060 19.5838 -2.3698 0.9228
3.4114 19.6553 -2.3697 0.9228
2.2203 19.8206 -2.3691 0.9228
1.0217 19.9152 -2.3688 0.9228
0.2205 19.9353 -2.3682 0.9228
-0.5808 19.9266 -2.3680 0.9228
-0.9811 19.9088 -2.3678 0.9228
-1.7798 19.8469 -2.3670 0.9229
-2.1779 19.8036 -2.3666 0.9229
-2.5751 19.7525 -2.3662 0.9229
-2.9710 19.6931 -2.3657 0.9229
-3.3655 19.6256 -2.3653 0.9229
-4.1504 19.4693 -2.3646 0.9229
-4.5400 19.3783 -2.3642 0.9230
-6.0758 18.9331 -2.3620 0.9230
-6.8283 18.6641 -2.3607 0.9231
-7.9348 18.2054 -2.3590 0.9231
-8.2966 18.0370 -2.3583 0.9231
-8.6549 17.8612 -2.3576 0.9232
-9.0093 17.6782 -2.3569 0.9232
-9.3602 17.4887 -2.3562 0.9232
-10.7204 16.6587 -2.3532 0.9233
-11.0492 16.4341 -2.3523 0.9233
-11.6924 15.9655 -2.3507 0.9234
-12.3154 15.4712 -2.3489 0.9234
-12.6192 15.2149 -2.3480 0.9235
-12.9175 14.9525 -2.3472 0.9235
-11.8395 -12.7448 -2.4648 0.9321
-9.1730 -13.7655 -2.3438 0.9354
-8.6138 -14.1254 -2.3442 0.9353
-8.3289 -14.2970 -2.3444 0.9353
-8.0406 -14.4628 -2.3446 0.9353
-7.7490 -14.6227 -2.3448 0.9353
-7.1564 -14.9250 -2.3452 0.9353
-6.5520 -15.2033 -2.3457 0.9353
-5.9368 -15.4572 -2.3461 0.9353
-5.6255 -15.5748 -2.3463 0.9353
-3.1697 -11.6240 -1.7071 0.9525
-2.9392 -11.7005 -1.7093 0.9524
-3.7130 -16.1475 -2.3476 0.9353
-2.0753 -16.4464 -2.3488 0.9352
-1.7445 -16.4864 -2.3490 0.9352
-1.0807 -16.5463 -2.3494 0.9352
-0.7480 -16.5663 -2.3497 0.9352
-0.0817 -16.5862 -2.3501 0.9352
0.2517 -16.5860 -2.3503 0.9352
0.9182 -16.5657 -2.3508 0.9352
1.5835 -16.5185 -2.3512 0.9352
2.2465 -16.4446 -2.3517 0.9351
2.5768 -16.3977 -2.3519 0.9351
3.5612 -16.2171 -2.3525 0.9351
3.8868 -16.1437 -2.3528 0.9351
4.2108 -16.0638 -2.3530 0.9351
5.1726 -15.7851 -2.3536 0.9351
5.4892 -15.6793 -2.3538 0.9351
6.1160 -15.4487 -2.3542 0.9351
6.4258 -15.3240 -2.3544 0.9351
6.7330 -15.1930 -2.3546 0.9351
7.6382 -14.7633 -2.3552 0.9351
7.9340 -14.6080 -2.3554 0.9350
8.2267 -14.4467 -2.3556 0.9350
8.5160 -14.2796 -2.3557 0.9350
9.3631 -13.7436 -2.3563 0.9350
9.6382 -13.5536 -2.3565 0.9350
10.1765 -13.1572 -2.3568 0.9350
10.7896 -13.3851 -2.4360 0.9329
11.6618 -13.3328 -2.5098 0.9309
12.4485 -12.6104 -2.5107 0.9309
12.7002 -12.3584 -2.5108 0.9309
13.4242 -11.5726 -2.5113 0.9309
13.6548 -11.3011 -2.5114 0.9309
14.0994 -10.7443 -2.5117 0.9309
14.3132 -10.4593 -2.5118 0.9309
14.5212 -10.1700 -2.5119 0.9309
14.7234 -9.8766 -2.5120 0.9309
15.2938 -8.9726 -2.5124 0.9309
15.4716 -8.6637 -2.5125 0.9309
16.1197 -7.3942 -2.5128 0.9309
16.2656 -7.0690 -2.5129 0.9309
16.4048 -6.7409 -2.5130 0.9309
16.5374 -6.4100 -2.5130 0.9309
16.6633 -6.0765 -2.5131 0.9309
16.7825 -5.7405 -2.5132 0.9309
16.8948 -5.4022 -2.5132 0.9308
17.0003 -5.0616 -2.5133 0.9308
17.1906 -4.3745 -2.5133 0.9308
17.4236 -3.3307 -2.5134 0.9308
17.5436 -2.6279 -2.5135 0.9308
17.5929 -2.2748 -2.5135 0.9308
17.7187 -0.8545 -2.5135 0.9308
17.7385 -0.1418 -2.5134 0.9308
17.7376 0.2148 -2.5134 0.9308
17.6917 1.2832 -2.5133 0.9308
17.6621 1.6385 -2.5133 0.9308
17.6252 1.9931 -2.5132 0.9308
17.5301 2.6996 -2.5131 0.9309
17.4066 3.4018 -2.5130 0.9309
16.6897 4.6801 -2.4560 0.9324
16.1930 4.8939 -2.3969 0.9339
15.8399 5.1368 -2.3594 0.9349
15.6194 5.7688 -2.3592 0.9349
15.4997 6.0812 -2.3591 0.9349
15.3737 6.3912 -2.3590 0.9350
15.2414 6.6986 -2.3589 0.9350
15.1030 7.0032 -2.3588 0.9350
14.8078 7.6037 -2.3586 0.9350
12.7361 6.8668 -2.0502 0.9432
14.4887 8.1918 -2.3583 0.9350
14.3204 8.4809 -2.3582 0.9350
14.1462 8.7665 -2.3580 0.9350
13.9664 9.0485 -2.3579 0.9350
13.1913 10.1383 -2.3573 0.9350
12.9840 10.4007 -2.3572 0.9350
12.5538 10.9126 -2.3568 0.9350
12.3310 11.1619 -2.3567 0.9350
12.1034 11.4067 -2.3565 0.9350
11.3914 12.1126 -2.3560 0.9350
10.8938 12.5587 -2.3556 0.9350
10.6384 12.7741 -2.3554 0.9350
10.1151 13.1896 -2.3551 0.9351
9.5795 13.5892 -2.3558 0.9350
9.0278 13.9665 -2.3563 0.9350
8.4609 14.3208 -2.3568 0.9350
7.8801 14.6521 -2.3572 0.9350
7.5846 14.8087 -2.3574 0.9350
6.6796 15.2415 -2.3578 0.9350
5.7495 15.6177 -2.3581 0.9350
4.7981 15.9364 -2.3581 0.9350
4.1537 16.1159 -2.3581 0.9350
3.5025 16.2691 -2.3580 0.9350
2.8456 16.3955 -2.3578 0.9350
2.1842 16.4946 -2.3575 0.9350
1.8522 16.5351 -2.3575 0.9350
1.5195 16.5679 -2.3573 0.9350
