ply
format ascii 1.0
element vertex 1574
property float32 x
property float32 y
property float32 z
property float32 I
end_header
1.8932 -14.3026 -2.3767 0.9432
2.4657 -14.2156 -2.3768 0.9432
2.7505 -14.1633 -2.3768 0.9432
3.0342 -14.1053 -2.3769 0.9432
3.5977 -13.9722 -2.3768 0.9432
3.8774 -13.8970 -2.3768 0.9432
4.1554 -13.8162 -2.3768 0.9432
4.7063 -13.6377 -2.3767 0.9432
5.2495 -13.4371 -2.3765 0.9432
5.7840 -13.2145 -2.3764 0.9432
5.6615 -11.6393 -2.1323 0.9489
7.0767 -12.5651 -2.3757 0.9432
7.3270 -12.4197 -2.3755 0.9432
7.5742 -12.2692 -2.3753 0.9432
7.8183 -12.1138 -2.3752 0.9432
8.2967 -11.7883 -2.3748 0.9432
9.8382 -11.3625 -2.4760 0.9409
10.2438 -11.3619 -2.5202 0.9399
11.1477 -10.5282 -2.5260 0.9397
11.7562 -9.8343 -2.5250 0.9398
12.4995 -8.8546 -2.5235 0.9398
12.8406 -8.3432 -2.5227 0.9398
13.1607 -7.8186 -2.5218 0.9398
13.3127 -7.5516 -2.5214 0.9398
13.4592 -7.2816 -2.5210 0.9398
13.7356 -6.7332 -2.5200 0.9399
14.1080 -5.8912 -2.5186 0.9399
14.2207 -5.6058 -2.5182 0.9399
14.3276 -5.3183 -2.5177 0.9399
14.4286 -5.0287 -2.5172 0.9399
14.5237 -4.7372 -2.5167 0.9399
14.6129 -4.4439 -2.5162 0.9400
14.6961 -4.1489 -2.5157 0.9400
14.7734 -3.8523 -2.5151 0.9400
14.8446 -3.5543 -2.5146 0.9400
14.9099 -3.2550 -2.5141 0.9400
15.1446 -1.7431 -2.5114 0.9401
15.1957 -1.1335 -2.5103 0.9401
15.2120 -0.8281 -2.5097 0.9401
15.2221 -0.5225 -2.5092 0.9401
15.2261 -0.2169 -2.5086 0.9401
15.2239 0.0887 -2.5080 0.9401
15.2156 0.3941 -2.5075 0.9402
15.1806 1.0039 -2.5063 0.9402
15.1540 1.3081 -2.5057 0.9402
4.5923 11.5142 -2.3300 0.9508
4.1257 11.6867 -2.3295 0.9508
3.8899 11.7659 -2.3293 0.9508
3.6526 11.8404 -2.3290 0.9508
3.1739 11.9751 -2.3286 0.9508
2.9327 12.0353 -2.3284 0.9508
2.4470 12.1412 -2.3280 0.9508
1.7116 12.2636 -2.3274 0.9509
1.4650 12.2947 -2.3273 0.9509
1.2179 12.3208 -2.3271 0.9509
0.4742 12.3696 -2.3267 0.9509
-0.5192 12.3656 -2.3263 0.9509
-0.7672 12.3523 -2.3262 0.9509
-0.6762 8.2174 -1.5498 0.9670
-1.7551 12.2498 -2.3260 0.9509
-2.0006 12.2120 -2.3260 0.9509
-1.9790 10.7261 -2.0501 0.9566
-1.9881 9.6822 -1.8578 0.9606
-2.7317 12.0692 -2.3259 0.9509
-2.8010 9.6391 -1.8867 0.9600
-3.3158 8.7276 -1.7549 0.9627
-3.5282 8.7535 -1.7739 0.9623
-3.9453 8.7572 -1.8054 0.9617
-5.5332 11.0726 -2.3266 0.9509
-5.9737 10.8427 -2.3269 0.9509
-6.1904 10.7213 -2.3270 0.9509
-6.4048 10.5956 -2.3271 0.9509
-6.6165 10.4656 -2.3273 0.9509
-6.8257 10.3314 -2.3274 0.9509
-7.6346 9.7539 -2.3282 0.9508
-8.0214 9.4413 -2.3286 0.9508
-8.5775 8.9442 -2.3293 0.9508
-9.1031 8.4146 -2.3300 0.9508
-9.5964 7.8544 -2.3309 0.9508
-9.7533 7.6612 -2.3312 0.9508
-9.9063 7.4649 -2.3315 0.9508
-10.3310 7.1535 -2.3619 0.9501
-10.7312 7.1163 -2.4203 0.9489
-11.5695 6.4000 -2.4852 0.9476
-11.6974 6.1674 -2.4855 0.9476
-11.8206 5.9323 -2.4859 0.9476
-12.0530 5.4549 -2.4867 0.9476
-12.4599 4.4738 -2.4884 0.9475
-12.7131 3.7179 -2.4897 0.9475
-12.7874 3.4626 -2.4901 0.9475
-12.9207 2.9477 -2.4910 0.9475
-12.9797 2.6883 -2.4914 0.9475
-13.0820 2.1661 -2.4924 0.9475
-13.1961 1.3758 -2.4938 0.9474
-13.2236 1.1109 -2.4943 0.9474
-13.2458 0.8455 -2.4948 0.9474
-13.2627 0.5796 -2.4952 0.9474
-13.2742 0.3134 -2.4957 0.9474
-13.2769 -0.4862 -2.4972 0.9474
-13.2671 -0.7527 -2.4977 0.9474
-13.2520 -1.0190 -2.4982 0.9473
-13.1746 -1.8157 -2.4997 0.9473
-13.1382 -2.0801 -2.5002 0.9473
-12.9971 -2.8687 -2.5017 0.9473
-12.9395 -3.1296 -2.5023 0.9473
-12.8767 -3.3893 -2.5028 0.9472
-12.5736 -4.4146 -2.5048 0.9472
-12.4850 -4.6670 -2.5053 0.9472
-12.3913 -4.9176 -2.5058 0.9472
-12.2926 -5.1663 -2.5063 0.9472
-11.8481 -6.1403 -2.5083 0.9471
-11.7248 -6.3781 -2.5088 0.9471
-11.5967 -6.6134 -2.5093 0.9471
-11.3264 -7.0762 -2.5102 0.9471
-11.1842 -7.3034 -2.5107 0.9471
-11.0375 -7.5279 -2.5112 0.9471
-10.7306 -7.9677 -2.5121 0.9471
-10.5705 -8.1830 -2.5126 0.9470
-10.4060 -8.3950 -2.5131 0.9470
-10.0644 -8.8090 -2.5140 0.9470
-9.8874 -9.0108 -2.5144 0.9470
-9.7063 -9.2090 -2.5149 0.9470
-9.5211 -9.4036 -2.5153 0.9470
-8.9426 -9.9645 -2.5166 0.9470
-8.1199 -10.6565 -2.5182 0.9469
-7.9057 -10.8190 -2.5186 0.9469
-7.4674 -11.1308 -2.5194 0.9469
-7.2378 -11.2711 -2.5177 0.9469
-7.0041 -11.4043 -2.5156 0.9470
-6.4742 -11.5572 -2.4899 0.9475
-5.8629 -11.5279 -2.4309 0.9487
-5.5676 -11.5135 -2.4038 0.9493
-5.0267 -11.5566 -2.3688 0.9500
-4.7944 -11.6565 -2.3691 0.9500
-4.3237 -11.8422 -2.3696 0.9500
-3.8459 -12.0088 -2.3701 0.9500
-3.6045 -12.0847 -2.3703 0.9500
-3.1172 -12.2220 -2.3708 0.9500
-2.8716 -12.2832 -2.3710 0.9500
-2.3768 -12.3907 -2.3714 0.9499
-2.1278 -12.4369 -2.3716 0.9499
-1.8779 -12.4780 -2.3718 0.9499
-1.3759 -12.5451 -2.3721 0.9499
-0.8714 -12.5918 -2.3724 0.9499
-0.6186 -12.6075 -2.3726 0.9499
-0.1122 -12.6234 -2.3728 0.9499
0.1412 -12.6237 -2.3729 0.9499
0.6477 -12.6088 -2.3731 0.9499
0.9006 -12.5937 -2.3732 0.9499
1.1532 -12.5734 -2.3732 0.9499
1.6569 -12.5176 -2.3733 0.9499
1.9078 -12.4820 -2.3734 0.9499
2.1579 -12.4414 -2.3734 0.9499
2.4072 -12.3957 -2.3734 0.9499
2.6555 -12.3449 -2.3734 0.9499
3.1487 -12.2283 -2.3734 0.9499
3.3934 -12.1626 -2.3734 0.9499
3.6368 -12.0919 -2.3734 0.9499
4.1190 -11.9358 -2.3733 0.9499
4.5944 -11.7602 -2.3732 0.9499
5.0623 -11.5656 -2.3730 0.9499
5.7482 -11.2385 -2.3727 0.9499
5.9723 -11.1203 -2.3725 0.9499
6.2596 -11.1143 -2.3976 0.9494
6.5619 -11.1229 -2.4274 0.9488
7.1938 -11.1462 -2.4935 0.9474
7.4911 -11.1110 -2.5187 0.9469
7.7202 -10.9692 -2.5212 0.9469
7.9469 -10.8232 -2.5238 0.9468
8.5863 -10.3284 -2.5246 0.9468
8.9921 -9.9736 -2.5241 0.9468
9.1895 -9.7901 -2.5238 0.9468
9.5730 -9.4115 -2.5233 0.9468
9.7588 -9.2165 -2.5230 0.9468
9.9406 -9.0177 -2.5227 0.9468
10.1184 -8.8153 -2.5224 0.9468
10.6265 -8.1874 -2.5214 0.9469
11.2427 -7.3049 -2.5201 0.9469
11.3854 -7.0768 -2.5197 0.9469
11.5234 -6.8459 -2.5193 0.9469
11.7853 -6.3760 -2.5186 0.9469
12.1418 -5.6526 -2.5174 0.9469
12.4538 -4.9093 -2.5161 0.9470
12.5477 -4.6576 -2.5157 0.9470
12.6364 -4.4041 -2.5153 0.9470
12.7985 -3.8921 -2.5144 0.9470
12.8717 -3.6338 -2.5139 0.9470
12.9397 -3.3742 -2.5135 0.9470
13.0599 -2.8512 -2.5126 0.9470
13.1121 -2.5880 -2.5121 0.9471
13.2673 -1.5270 -2.5102 0.9471
13.2928 -1.2602 -2.5097 0.9471
13.3367 -0.4578 -2.5082 0.9471
13.3321 0.3453 -2.5068 0.9472
13.3022 0.8797 -2.5058 0.9472
13.2792 1.1462 -2.5053 0.9472
13.2509 1.4122 -2.5047 0.9472
13.2172 1.6775 -2.5042 0.9472
4.0873 10.2480 -2.3321 0.9559
3.8804 10.3269 -2.3319 0.9559
2.6104 10.7125 -2.3307 0.9559
2.1781 10.8070 -2.3303 0.9559
1.0841 10.9673 -2.3296 0.9559
0.8637 10.9862 -2.3294 0.9559
0.4221 11.0110 -2.3292 0.9559
-0.4621 11.0076 -2.3288 0.9560
-0.6829 10.9958 -2.3288 0.9560
-1.1236 10.9590 -2.3287 0.9560
-1.3433 10.9340 -2.3286 0.9560
-1.5624 10.9047 -2.3286 0.9560
-1.7809 10.8710 -2.3285 0.9560
-1.8909 10.2490 -2.2030 0.9583
-1.9881 9.6826 -2.0894 0.9604
-2.1594 8.7233 -1.8996 0.9639
-2.7332 8.7468 -1.9371 0.9632
-3.1249 8.7503 -1.9641 0.9627
-3.3251 8.7521 -1.9790 0.9624
-3.5284 8.7540 -1.9951 0.9621
-3.9455 8.7577 -2.0304 0.9615
-5.1225 9.7560 -2.3292 0.9559
-5.7012 9.4316 -2.3296 0.9559
-6.0758 9.1963 -2.3299 0.9559
-6.4408 8.9463 -2.3302 0.9559
-6.6195 8.8159 -2.3303 0.9559
-6.9690 8.5445 -2.3307 0.9559
-7.1397 8.4036 -2.3309 0.9559
-7.3075 8.2593 -2.3311 0.9559
-7.4724 8.1117 -2.3313 0.9559
-7.9493 7.6495 -2.3319 0.9559
-8.1020 7.4892 -2.3322 0.9559
-8.2515 7.3258 -2.3324 0.9559
-8.8477 7.2416 -2.4168 0.9543
-9.5201 6.8787 -2.4827 0.9531
-9.6668 6.6936 -2.4854 0.9531
-10.0558 6.1021 -2.4863 0.9530
-10.2953 5.6951 -2.4870 0.9530
-10.4089 5.4881 -2.4873 0.9530
-10.5184 5.2788 -2.4877 0.9530
-10.8216 4.6383 -2.4887 0.9530
-11.1654 3.7578 -2.4902 0.9530
-11.4380 2.8521 -2.4918 0.9529
-11.5469 2.3916 -2.4926 0.9529
-11.5945 2.1597 -2.4930 0.9529
-11.7383 1.2238 -2.4947 0.9529
-11.7967 0.5155 -2.4960 0.9529
-11.8067 0.2787 -2.4964 0.9529
-11.8120 0.0417 -2.4968 0.9529
-11.8083 -0.4325 -2.4977 0.9528
-11.7994 -0.6695 -2.4982 0.9528
-11.7857 -0.9063 -2.4986 0.9528
-11.6039 -2.3180 -2.5013 0.9528
-11.5572 -2.5508 -2.5018 0.9528
-11.5057 -2.7828 -2.5022 0.9528
-11.4496 -3.0137 -2.5027 0.9527
-11.3236 -3.4720 -2.5036 0.9527
-11.2536 -3.6992 -2.5040 0.9527
-11.1791 -3.9250 -2.5045 0.9527
-11.1001 -4.1493 -2.5049 0.9527
-10.9286 -4.5930 -2.5058 0.9527
-10.8361 -4.8122 -2.5062 0.9527
-10.1902 -6.0855 -2.5089 0.9526
-9.9412 -6.4917 -2.5097 0.9526
-9.8106 -6.6911 -2.5102 0.9526
-9.6759 -6.8878 -2.5106 0.9526
-9.5374 -7.0817 -2.5110 0.9526
-9.2485 -7.4612 -2.5118 0.9526
-9.0984 -7.6465 -2.5122 0.9526
-8.9446 -7.8288 -2.5126 0.9526
-8.2931 -8.5262 -2.5142 0.9525
-7.9466 -8.8548 -2.5149 0.9525
-7.7685 -9.0138 -2.5153 0.9525
-7.4026 -9.3210 -2.5160 0.9525
-6.8312 -9.7535 -2.5171 0.9525
-6.6349 -9.8900 -2.5174 0.9525
-6.4360 -10.0224 -2.5177 0.9525
-5.4029 -10.6233 -2.5193 0.9524
-5.1892 -10.7308 -2.5196 0.9524
-4.7554 -10.9328 -2.5201 0.9524
-4.5340 -11.0235 -2.5196 0.9524
-4.3095 -11.1061 -2.5181 0.9525
-4.0836 -11.1844 -2.5168 0.9525
-3.8564 -11.2584 -2.5155 0.9525
-3.6279 -11.3281 -2.5143 0.9525
-2.8882 -11.3239 -2.4703 0.9533
-2.1645 -11.2839 -2.4287 0.9541
-1.9282 -11.2705 -2.4170 0.9543
-1.0028 -11.2162 -2.3803 0.9550
-0.5495 -11.1984 -2.3700 0.9552
-0.3246 -11.2077 -2.3701 0.9552
-0.0997 -11.2125 -2.3702 0.9552
0.1254 -11.2127 -2.3703 0.9552
0.5753 -11.1994 -2.3704 0.9552
0.7999 -11.1859 -2.3705 0.9552
1.2482 -11.1453 -2.3706 0.9552
1.4717 -11.1182 -2.3707 0.9552
1.9215 -11.0780 -2.3766 0.9551
2.1499 -11.0709 -2.3839 0.9549
2.3802 -11.0649 -2.3924 0.9548
2.6121 -11.0588 -2.4019 0.9546
3.0828 -11.0490 -2.4247 0.9542
3.3224 -11.0464 -2.4383 0.9539
3.5647 -11.0436 -2.4530 0.9537
3.8101 -11.0407 -2.4688 0.9534
4.0586 -11.0375 -2.4858 0.9531
4.3124 -11.0384 -2.5050 0.9527
4.5550 -11.0027 -2.5172 0.9525
4.7777 -10.9154 -2.5186 0.9525
4.9988 -10.8240 -2.5202 0.9524
5.2184 -10.7283 -2.5218 0.9524
5.4363 -10.6287 -2.5235 0.9524
5.8586 -10.4022 -2.5236 0.9524
6.2706 -10.1576 -2.5233 0.9524
6.4728 -10.0291 -2.5231 0.9524
6.8691 -9.7600 -2.5228 0.9524
7.0631 -9.6195 -2.5226 0.9524
7.2542 -9.4751 -2.5224 0.9524
7.4423 -9.3269 -2.5222 0.9524
7.6273 -9.1749 -2.5220 0.9524
7.8093 -9.0192 -2.5218 0.9524
8.3356 -8.5307 -2.5211 0.9524
9.1435 -7.6487 -2.5198 0.9524
9.5839 -7.0823 -2.5190 0.9524
9.9890 -6.4903 -2.5180 0.9525
10.1160 -6.2877 -2.5177 0.9525
10.3574 -5.8752 -2.5171 0.9525
10.4718 -5.6654 -2.5167 0.9525
10.5819 -5.4533 -2.5164 0.9525
10.6877 -5.2391 -2.5160 0.9525
10.7892 -5.0229 -2.5157 0.9525
10.8863 -4.8046 -2.5153 0.9525
10.9789 -4.5845 -2.5149 0.9525
11.0670 -4.3626 -2.5145 0.9525
11.1506 -4.1390 -2.5142 0.9525
11.2297 -3.9138 -2.5138 0.9525
11.4395 -3.2295 -2.5126 0.9526
11.5562 -2.7670 -2.5118 0.9526
11.6075 -2.5341 -2.5114 0.9526
11.6541 -2.3003 -2.5110 0.9526
11.6959 -2.0655 -2.5105 0.9526
11.7331 -1.8301 -2.5101 0.9526
11.8472 -0.6449 -2.5080 0.9526
11.8557 -0.4070 -2.5075 0.9527
11.8594 -0.1689 -2.5071 0.9527
11.8264 0.7821 -2.5053 0.9527
11.7172 1.7267 -2.5035 0.9527
3.6788 9.2239 -2.3339 0.9600
3.3051 9.3624 -2.3335 0.9600
1.5684 9.7974 -2.3319 0.9600
1.3714 9.8263 -2.3318 0.9601
1.1739 9.8513 -2.3317 0.9601
0.9759 9.8724 -2.3315 0.9601
0.7775 9.8895 -2.3314 0.9601
0.5789 9.9026 -2.3313 0.9601
-0.0180 9.9184 -2.3310 0.9601
-0.2171 9.9157 -2.3310 0.9601
-0.6694 8.1357 -1.9185 0.9670
-1.0115 9.8653 -2.3307 0.9601
-1.8997 9.2518 -2.2198 0.9619
-1.9720 8.7128 -2.0995 0.9640
-2.1640 8.7422 -2.1166 0.9637
-2.3516 8.7439 -2.1280 0.9635
-2.9279 8.7490 -2.1683 0.9628
-3.2954 8.6740 -2.1807 0.9626
-3.4912 8.6617 -2.1948 0.9624
-3.9039 8.6654 -2.2337 0.9617
-4.1159 8.6673 -2.2550 0.9613
-4.9603 8.5909 -2.3314 0.9601
-5.4692 8.2781 -2.3318 0.9601
-5.6345 8.1672 -2.3320 0.9600
-6.2730 7.6911 -2.3326 0.9600
-6.5775 7.4342 -2.3329 0.9600
-6.8050 7.3872 -2.3605 0.9596
-7.0615 7.3633 -2.3977 0.9589
-7.3260 7.3386 -2.4371 0.9583
-7.7490 7.1629 -2.4801 0.9576
-8.0471 6.8606 -2.4853 0.9575
-8.1855 6.6996 -2.4860 0.9575
-8.3192 6.5347 -2.4863 0.9575
-8.4495 6.3671 -2.4865 0.9575
-8.5765 6.1969 -2.4868 0.9575
-8.9368 5.6715 -2.4876 0.9574
-9.2651 5.1252 -2.4885 0.9574
-9.4656 4.7505 -2.4891 0.9574
-9.5603 4.5601 -2.4894 0.9574
-9.8212 3.9781 -2.4904 0.9574
-10.0469 3.3814 -2.4914 0.9574
-10.2364 2.7718 -2.4924 0.9574
-10.3892 2.1518 -2.4935 0.9573
-10.4318 1.9432 -2.4939 0.9573
-10.4703 1.7337 -2.4943 0.9573
-10.5045 1.5234 -2.4946 0.9573
-10.5346 1.3125 -2.4950 0.9573
-10.5820 0.8890 -2.4958 0.9573
-10.6125 0.4638 -2.4966 0.9573
-10.6139 -0.6022 -2.4985 0.9573
-10.5636 -1.2404 -2.4997 0.9572
-10.5382 -1.4524 -2.5001 0.9572
-10.5087 -1.6638 -2.5005 0.9572
-10.3481 -2.5028 -2.5022 0.9572
-10.2975 -2.7104 -2.5026 0.9572
-10.2427 -2.9170 -2.5030 0.9572
-10.1206 -3.3268 -2.5038 0.9572
-10.0535 -3.5297 -2.5042 0.9572
-9.9822 -3.7314 -2.5046 0.9572
-9.9069 -3.9316 -2.5050 0.9571
-9.8276 -4.1303 -2.5054 0.9571
-9.7443 -4.3274 -2.5058 0.9571
-9.4707 -4.9082 -2.5070 0.9571
-9.2690 -5.2860 -2.5078 0.9571
-8.9383 -5.8368 -2.5089 0.9571
-8.6995 -6.1927 -2.5097 0.9571
-8.3148 -6.7079 -2.5108 0.9571
-8.0413 -7.0382 -2.5115 0.9570
-7.3008 -7.8138 -2.5133 0.9570
-7.1435 -7.9598 -2.5136 0.9570
-6.6541 -8.3785 -2.5146 0.9570
-6.3141 -8.6409 -2.5152 0.9570
-6.1402 -8.7670 -2.5155 0.9570
-5.9637 -8.8895 -2.5158 0.9570
-5.6035 -9.1238 -2.5164 0.9570
-5.4199 -9.2354 -2.5167 0.9570
-5.0460 -9.4475 -2.5173 0.9569
-4.8559 -9.5479 -2.5175 0.9569
-4.0762 -9.9105 -2.5185 0.9569
-3.8769 -9.9912 -2.5187 0.9569
-3.2695 -10.2091 -2.5194 0.9569
-3.0642 -10.2735 -2.5196 0.9569
-2.8576 -10.3337 -2.5198 0.9569
-2.4410 -10.4416 -2.5202 0.9569
-2.0203 -10.5326 -2.5205 0.9569
-1.8087 -10.5717 -2.5207 0.9569
-1.5962 -10.6065 -2.5208 0.9569
-1.3832 -10.6370 -2.5210 0.9569
-0.3106 -10.7228 -2.5212 0.9569
0.1199 -10.7255 -2.5209 0.9569
0.3351 -10.7207 -2.5208 0.9569
0.7651 -10.6993 -2.5210 0.9569
0.9798 -10.6827 -2.5212 0.9569
1.1941 -10.6620 -2.5215 0.9569
1.8340 -10.5739 -2.5222 0.9569
2.8841 -10.3370 -2.5222 0.9569
3.9048 -9.9952 -2.5220 0.9569
4.1045 -9.9145 -2.5219 0.9569
4.3025 -9.8299 -2.5219 0.9569
4.4988 -9.7413 -2.5218 0.9569
5.0762 -9.4518 -2.5215 0.9569
5.2646 -9.3476 -2.5214 0.9569
5.4509 -9.2396 -2.5212 0.9569
5.6349 -9.1279 -2.5211 0.9569
5.9960 -8.8934 -2.5208 0.9569
6.1729 -8.7708 -2.5207 0.9569
6.3473 -8.6445 -2.5205 0.9569
6.5190 -8.5149 -2.5203 0.9569
6.6881 -8.3817 -2.5202 0.9569
7.0180 -8.1054 -2.5198 0.9569
7.1787 -7.9623 -2.5196 0.9569
7.3365 -7.8160 -2.5194 0.9569
7.6429 -7.5140 -2.5190 0.9569
7.7914 -7.3584 -2.5187 0.9569
7.9368 -7.1999 -2.5185 0.9569
8.0789 -7.0385 -2.5183 0.9569
8.4853 -6.5377 -2.5175 0.9569
8.6138 -6.3654 -2.5172 0.9569
8.7389 -6.1906 -2.5170 0.9569
8.8604 -6.0133 -2.5167 0.9570
8.9783 -5.8336 -2.5164 0.9570
9.0925 -5.6516 -2.5161 0.9570
9.3098 -5.2809 -2.5155 0.9570
9.4127 -5.0924 -2.5152 0.9570
9.5118 -4.9019 -2.5149 0.9570
9.6984 -4.5151 -2.5143 0.9570
10.0239 -3.7208 -2.5129 0.9570
10.1623 -3.3147 -2.5122 0.9570
10.2254 -3.1096 -2.5119 0.9570
10.2843 -2.9034 -2.5115 0.9570
10.3390 -2.6960 -2.5111 0.9570
10.4358 -2.2783 -2.5104 0.9571
10.4778 -2.0681 -2.5100 0.9571
10.5785 -1.4332 -2.5089 0.9571
10.6407 -0.7937 -2.5077 0.9571
10.6606 -0.3659 -2.5070 0.9571
10.6641 -0.1519 -2.5066 0.9571
10.6633 0.0621 -2.5062 0.9571
10.6489 0.4898 -2.5054 0.9571
10.6352 0.7033 -2.5050 0.9571
10.5377 1.5529 -2.5034 0.9572
3.3414 8.3777 -2.3353 0.9634
3.1723 8.4424 -2.3351 0.9634
3.0020 8.5037 -2.3349 0.9634
2.4843 8.6670 -2.3344 0.9634
2.3097 8.7145 -2.3342 0.9634
2.1342 8.7585 -2.3341 0.9634
1.9579 8.7990 -2.3339 0.9634
1.4247 8.8993 -2.3335 0.9634
1.2457 8.9257 -2.3334 0.9634
0.7063 8.9832 -2.3331 0.9635
0.5258 8.9952 -2.3330 0.9635
0.3452 9.0036 -2.3329 0.9635
0.1644 9.0083 -2.3328 0.9635
-0.3779 9.0011 -2.3326 0.9635
-0.6688 8.1279 -2.1116 0.9669
-1.4563 8.8896 -2.3324 0.9635
-1.6344 8.8585 -2.3323 0.9635
-1.9575 8.6484 -2.2959 0.9640
-2.1412 8.6500 -2.3072 0.9638
-2.5136 8.6503 -2.3324 0.9635
-2.6868 8.5982 -2.3324 0.9635
-3.1994 8.4213 -2.3325 0.9635
-3.5350 8.2866 -2.3326 0.9635
-3.8648 8.1385 -2.3327 0.9635
-4.0275 8.0596 -2.3328 0.9635
-4.1886 7.9774 -2.3329 0.9635
-4.3481 7.8921 -2.3330 0.9635
-4.5058 7.8035 -2.3331 0.9635
-4.6617 7.7119 -2.3332 0.9635
-4.8157 7.6172 -2.3333 0.9634
-4.9681 7.5198 -2.3336 0.9634
-5.3828 7.4767 -2.3854 0.9626
-5.5992 7.4571 -2.4145 0.9622
-5.8210 7.4367 -2.4452 0.9617
-6.0484 7.4157 -2.4777 0.9612
-6.2015 7.2992 -2.4799 0.9612
-6.3519 7.1792 -2.4819 0.9612
-6.5001 7.0562 -2.4840 0.9611
-6.6461 6.9303 -2.4861 0.9611
-6.7846 6.7962 -2.4864 0.9611
-7.0530 6.5195 -2.4868 0.9611
-7.3102 6.2324 -2.4872 0.9611
-7.4344 6.0849 -2.4875 0.9611
-7.6741 5.7828 -2.4879 0.9611
-7.9015 5.4712 -2.4884 0.9611
-8.0105 5.3121 -2.4887 0.9611
-8.2189 4.9874 -2.4892 0.9611
-8.3182 4.8220 -2.4894 0.9611
-8.4142 4.6546 -2.4897 0.9610
-8.5069 4.4852 -2.4900 0.9610
-8.5961 4.3141 -2.4903 0.9610
-8.6820 4.1412 -2.4905 0.9610
-8.9186 3.6125 -2.4914 0.9610
-8.9904 3.4333 -2.4917 0.9610
-9.1232 3.0705 -2.4923 0.9610
-9.1841 2.8871 -2.4927 0.9610
-9.2950 2.5169 -2.4933 0.9610
-9.3909 2.1425 -2.4940 0.9610
-9.4333 1.9538 -2.4943 0.9610
-9.4719 1.7644 -2.4946 0.9610
-9.5067 1.5741 -2.4950 0.9610
-9.5648 1.1917 -2.4956 0.9610
-9.5881 0.9996 -2.4960 0.9610
-9.6232 0.6142 -2.4967 0.9609
-9.6350 0.4211 -2.4970 0.9609
-9.6428 0.2276 -2.4974 0.9609
-9.6468 0.0341 -2.4978 0.9609
-9.6470 -0.1596 -2.4981 0.9609
-9.6432 -0.3532 -2.4985 0.9609
-9.6356 -0.5467 -2.4988 0.9609
-9.6241 -0.7401 -2.4992 0.9609
-9.6087 -0.9332 -2.4996 0.9609
-9.5663 -1.3184 -2.5003 0.9609
-9.5393 -1.5104 -2.5007 0.9609
-9.5085 -1.7017 -2.5010 0.9609
-9.3930 -2.2718 -2.5021 0.9609
-9.1860 -3.0195 -2.5036 0.9608
-8.9916 -3.5683 -2.5047 0.9608
-8.9194 -3.7486 -2.5051 0.9608
-8.7644 -4.1047 -2.5058 0.9608
-8.6815 -4.2804 -2.5062 0.9608
-8.5951 -4.4544 -2.5065 0.9608
-8.5052 -4.6267 -2.5069 0.9608
-8.4118 -4.7971 -2.5072 0.9608
-8.1113 -5.2968 -2.5083 0.9608
-8.0045 -5.4592 -2.5086 0.9608
-7.5450 -6.0868 -2.5100 0.9607
-7.4223 -6.2378 -2.5103 0.9607
-7.1678 -6.5324 -2.5110 0.9607
-7.0362 -6.6758 -2.5113 0.9607
-6.9017 -6.8165 -2.5116 0.9607
-6.7643 -6.9545 -2.5119 0.9607
-6.6242 -7.0897 -2.5122 0.9607
-6.4814 -7.2221 -2.5125 0.9607
-6.1878 -7.4781 -2.5131 0.9607
-5.8841 -7.7222 -2.5137 0.9607
-5.7286 -7.8396 -2.5140 0.9607
-5.4106 -8.0649 -2.5145 0.9607
-5.0836 -8.2773 -2.5151 0.9607
-4.9170 -8.3785 -2.5153 0.9607
-4.7484 -8.4764 -2.5156 0.9607
-4.5777 -8.5708 -2.5158 0.9606
-4.2309 -8.7492 -2.5163 0.9606
-4.0549 -8.8332 -2.5165 0.9606
-3.8771 -8.9136 -2.5168 0.9606
-3.5169 -9.0635 -2.5172 0.9606
-2.5922 -9.3738 -2.5181 0.9606
-2.4037 -9.4246 -2.5183 0.9606
-2.2143 -9.4716 -2.5185 0.9606
-2.0239 -9.5147 -2.5186 0.9606
-1.8326 -9.5540 -2.5188 0.9606
-1.6406 -9.5894 -2.5189 0.9606
-1.2546 -9.6485 -2.5192 0.9606
-0.0865 -9.7318 -2.5198 0.9606
0.3041 -9.7281 -2.5200 0.9606
0.4993 -9.7203 -2.5201 0.9606
0.6943 -9.7085 -2.5201 0.9606
1.0834 -9.6732 -2.5202 0.9606
1.2773 -9.6497 -2.5203 0.9606
1.4707 -9.6222 -2.5203 0.9606
2.0471 -9.5164 -2.5203 0.9606
2.8036 -9.3215 -2.5203 0.9606
3.1753 -9.2012 -2.5202 0.9606
3.3592 -9.1355 -2.5202 0.9606
3.5418 -9.0660 -2.5201 0.9606
3.7230 -8.9929 -2.5201 0.9606
3.9026 -8.9161 -2.5200 0.9606
4.0806 -8.8358 -2.5199 0.9606
4.2570 -8.7518 -2.5198 0.9606
4.4316 -8.6643 -2.5198 0.9606
4.6044 -8.5733 -2.5197 0.9606
4.7753 -8.4788 -2.5196 0.9606
4.9443 -8.3809 -2.5194 0.9606
5.2761 -8.1750 -2.5192 0.9606
5.4388 -8.0670 -2.5191 0.9606
5.5993 -7.9558 -2.5189 0.9606
5.7575 -7.8414 -2.5188 0.9606
5.9134 -7.7238 -2.5186 0.9606
6.0668 -7.6031 -2.5185 0.9606
6.2177 -7.4793 -2.5183 0.9606
6.5119 -7.2227 -2.5179 0.9606
6.6551 -7.0901 -2.5178 0.9606
6.7955 -6.9546 -2.5176 0.9606
6.9332 -6.8162 -2.5174 0.9606
7.0680 -6.6752 -2.5172 0.9606
7.5779 -6.0848 -2.5163 0.9606
7.6977 -5.9309 -2.5160 0.9606
7.8145 -5.7747 -2.5158 0.9606
7.9280 -5.6161 -2.5156 0.9607
8.0383 -5.4554 -2.5153 0.9607
8.1453 -5.2924 -2.5150 0.9607
8.2490 -5.1273 -2.5148 0.9607
8.3494 -4.9602 -2.5145 0.9607
8.4463 -4.7912 -2.5142 0.9607
8.7994 -4.0965 -2.5131 0.9607
8.8787 -3.9186 -2.5128 0.9607
9.0951 -3.3761 -2.5119 0.9607
9.1599 -3.1925 -2.5116 0.9607
9.2783 -2.8216 -2.5109 0.9607
9.3318 -2.6345 -2.5106 0.9607
9.3816 -2.4463 -2.5103 0.9607
9.4697 -2.0674 -2.5096 0.9607
9.5424 -1.6852 -2.5089 0.9608
9.5731 -1.4932 -2.5086 0.9608
9.5998 -1.3006 -2.5083 0.9608
9.6415 -0.9141 -2.5076 0.9608
9.6566 -0.7203 -2.5072 0.9608
9.6749 -0.3321 -2.5065 0.9608
9.6526 0.6383 -2.5047 0.9608
9.6164 1.0249 -2.5039 0.9608
9.5647 1.4095 -2.5032 0.9608
3.1432 7.8809 -2.4019 0.9653
2.4344 7.8915 -2.3379 0.9663
2.2734 7.9312 -2.3357 0.9663
1.9531 8.0150 -2.3354 0.9663
1.7917 8.0521 -2.3353 0.9663
1.4670 8.1167 -2.3350 0.9663
1.3037 8.1441 -2.3349 0.9663
1.1400 8.1682 -2.3348 0.9663
0.9758 8.1891 -2.3347 0.9663
0.6463 8.2209 -2.3345 0.9663
0.4812 8.2319 -2.3344 0.9663
0.3159 8.2396 -2.3343 0.9663
-0.0150 8.2451 -2.3341 0.9663
-0.1805 8.2430 -2.3341 0.9663
-0.3458 8.2375 -2.3340 0.9663
-0.6681 8.1200 -2.3065 0.9667
-1.0052 8.1826 -2.3339 0.9663
-1.3328 8.1355 -2.3338 0.9663
-1.4958 8.1071 -2.3338 0.9663
-1.9809 8.0023 -2.3338 0.9663
-2.3004 7.9165 -2.3338 0.9663
-2.6163 7.8180 -2.3339 0.9663
-2.7727 7.7640 -2.3339 0.9663
-2.9280 7.7069 -2.3339 0.9663
-3.0822 7.6468 -2.3340 0.9663
-3.4285 7.6102 -2.3629 0.9659
-3.7878 7.5798 -2.3988 0.9654
-3.9716 7.5641 -2.4186 0.9651
-4.1584 7.5478 -2.4396 0.9648
-4.5297 7.4936 -2.4788 0.9643
-4.6818 7.4054 -2.4802 0.9642
-4.9813 7.2203 -2.4833 0.9642
-5.1285 7.1234 -2.4848 0.9642
-5.2739 7.0237 -2.4865 0.9641
-5.8218 6.5801 -2.4872 0.9641
-6.5729 5.8356 -2.4883 0.9641
-6.8029 5.5680 -2.4887 0.9641
-6.9139 5.4308 -2.4889 0.9641
-7.3297 4.8606 -2.4898 0.9641
-7.5203 4.5634 -2.4902 0.9641
-7.6989 4.2588 -2.4907 0.9641
-7.7836 4.1039 -2.4910 0.9641
-7.8652 3.9472 -2.4912 0.9641
-7.9436 3.7890 -2.4915 0.9641
-8.0910 3.4679 -2.4920 0.9641
-8.2255 3.1411 -2.4926 0.9641
-8.3468 2.8092 -2.4932 0.9641
-8.5037 2.3027 -2.4940 0.9640
-8.5492 2.1318 -2.4943 0.9640
-8.5913 1.9600 -2.4946 0.9640
-8.6651 1.6141 -2.4952 0.9640
-8.6969 1.4400 -2.4955 0.9640
-8.7498 1.0902 -2.4962 0.9640
-8.7711 0.9144 -2.4965 0.9640
-8.8030 0.5619 -2.4971 0.9640
-8.8136 0.3852 -2.4975 0.9640
-8.8207 0.2083 -2.4978 0.9640
-8.8207 -0.3230 -2.4988 0.9640
-8.8136 -0.5000 -2.4991 0.9640
-8.8030 -0.6769 -2.4994 0.9640
-8.7888 -0.8536 -2.4998 0.9640
-8.7711 -1.0299 -2.5001 0.9640
-8.7498 -1.2059 -2.5004 0.9639
-8.7250 -1.3814 -2.5008 0.9639
-8.6967 -1.5564 -2.5011 0.9639
-8.6649 -1.7309 -2.5014 0.9639
-8.6296 -1.9047 -2.5018 0.9639
-8.5908 -2.0778 -2.5021 0.9639
-8.5485 -2.2501 -2.5025 0.9639
-8.5028 -2.4215 -2.5028 0.9639
-8.4536 -2.5920 -2.5031 0.9639
-8.3450 -2.9299 -2.5038 0.9639
-8.2229 -3.2633 -2.5045 0.9639
-8.1569 -3.4281 -2.5048 0.9639
-8.0148 -3.7537 -2.5055 0.9639
-7.8598 -4.0733 -2.5061 0.9639
-7.7775 -4.2308 -2.5064 0.9639
-7.6920 -4.3866 -2.5068 0.9639
-7.6034 -4.5407 -2.5071 0.9639
-7.5117 -4.6930 -2.5074 0.9638
-7.4170 -4.8434 -2.5077 0.9638
-7.3192 -4.9919 -2.5080 0.9638
-7.0082 -5.4253 -2.5090 0.9638
-6.8987 -5.5655 -2.5093 0.9638
-6.6714 -5.8393 -2.5099 0.9638
-6.5537 -5.9726 -2.5102 0.9638
-6.3102 -6.2323 -2.5108 0.9638
-6.1846 -6.3584 -2.5111 0.9638
-6.0564 -6.4820 -2.5113 0.9638
-5.9257 -6.6029 -2.5116 0.9638
-5.5195 -6.9498 -2.5124 0.9638
-5.2372 -7.1672 -2.5129 0.9638
-5.0929 -7.2716 -2.5132 0.9638
-4.9464 -7.3730 -2.5134 0.9638
-4.7979 -7.4715 -2.5137 0.9638
-4.4951 -7.6595 -2.5142 0.9638
-4.3408 -7.7489 -2.5144 0.9637
-4.0271 -7.9182 -2.5148 0.9637
-3.8677 -7.9981 -2.5151 0.9637
-3.7067 -8.0748 -2.5153 0.9637
-2.8802 -8.4087 -2.5162 0.9637
-2.5408 -8.5187 -2.5166 0.9637
-2.3695 -8.5686 -2.5167 0.9637
-2.1972 -8.6149 -2.5169 0.9637
-1.8500 -8.6972 -2.5172 0.9637
-1.4996 -8.7654 -2.5175 0.9637
-1.3235 -8.7941 -2.5176 0.9637
-1.1468 -8.8193 -2.5177 0.9637
-0.6141 -8.8735 -2.5180 0.9637
-0.0791 -8.8953 -2.5183 0.9637
0.0995 -8.8954 -2.5184 0.9637
0.6346 -8.8739 -2.5186 0.9637
1.1675 -8.8200 -2.5187 0.9637
1.3443 -8.7950 -2.5187 0.9637
1.6961 -8.7340 -2.5187 0.9637
2.3911 -8.5699 -2.5187 0.9637
2.5626 -8.5201 -2.5187 0.9637
2.7330 -8.4668 -2.5187 0.9637
2.9023 -8.4102 -2.5186 0.9637
3.0704 -8.3501 -2.5186 0.9637
3.2373 -8.2867 -2.5186 0.9637
3.5671 -8.1497 -2.5184 0.9637
3.8910 -7.9995 -2.5183 0.9637
4.2086 -7.8364 -2.5181 0.9637
4.3649 -7.7501 -2.5180 0.9637
4.5194 -7.6606 -2.5179 0.9637
4.6720 -7.5680 -2.5178 0.9637
4.8227 -7.4724 -2.5177 0.9637
4.9714 -7.3738 -2.5176 0.9637
5.2628 -7.1676 -2.5173 0.9637
6.0835 -6.4811 -2.5164 0.9637
6.2119 -6.3573 -2.5162 0.9637
6.3377 -6.2309 -2.5160 0.9637
6.4610 -6.1020 -2.5158 0.9637
6.5817 -5.9706 -2.5157 0.9637
6.8149 -5.7008 -2.5153 0.9637
6.9273 -5.5624 -2.5150 0.9637
7.0370 -5.4218 -2.5148 0.9637
7.2476 -5.1341 -2.5144 0.9637
7.4464 -4.8383 -2.5139 0.9638
7.6331 -4.5347 -2.5134 0.9638
7.8897 -4.0659 -2.5127 0.9638
8.1869 -3.4187 -2.5116 0.9638
8.3156 -3.0867 -2.5110 0.9638
8.3749 -2.9188 -2.5107 0.9638
8.4833 -2.5798 -2.5102 0.9638
8.5324 -2.4088 -2.5099 0.9638
8.5780 -2.2368 -2.5096 0.9638
8.6938 -1.7159 -2.5086 0.9638
8.7254 -1.5410 -2.5083 0.9638
8.7535 -1.3654 -2.5080 0.9638
8.7780 -1.1893 -2.5077 0.9638
8.7990 -1.0127 -2.5074 0.9638
8.8303 -0.6587 -2.5067 0.9639
8.8406 -0.4813 -2.5064 0.9639
8.8473 -0.3037 -2.5061 0.9639
8.8501 0.0515 -2.5054 0.9639
8.8461 0.2291 -2.5051 0.9639
8.8385 0.4066 -2.5048 0.9639
8.7945 0.9373 -2.5038 0.9639
2.3800 7.7152 -2.4834 0.9668
2.2239 7.7584 -2.4824 0.9668
2.0670 7.7988 -2.4816 0.9668
1.2559 7.8452 -2.4437 0.9673
0.7742 7.8322 -2.4208 0.9676
0.2997 7.8169 -2.4061 0.9678
-0.1708 7.8003 -2.3998 0.9679
-0.3272 7.7944 -2.3995 0.9679
-0.4836 7.7856 -2.3993 0.9679
-0.6399 7.7766 -2.4000 0.9679
-0.9531 7.7580 -2.4041 0.9678
-1.1102 7.7485 -2.4076 0.9678
-1.2678 7.7387 -2.4120 0.9677
-1.4260 7.7287 -2.4173 0.9676
-1.7447 7.7082 -2.4308 0.9675
-2.0668 7.6848 -2.4477 0.9672
-2.2294 7.6722 -2.4574 0.9671
-2.5578 7.6432 -2.4790 0.9668
-2.7115 7.5926 -2.4798 0.9668
-3.0159 7.4824 -2.4814 0.9668
-3.3162 7.3608 -2.4832 0.9668
-3.7578 7.1570 -2.4863 0.9667
-4.0434 7.0028 -2.4872 0.9667
-4.3215 6.8354 -2.4874 0.9667
-4.7256 6.5639 -2.4877 0.9667
-4.8566 6.4680 -2.4878 0.9667
-4.9857 6.3696 -2.4880 0.9667
-5.4817 5.9507 -2.4885 0.9667
-5.6004 5.8398 -2.4887 0.9667
-5.7168 5.7266 -2.4888 0.9667
-5.8310 5.6111 -2.4890 0.9667
-5.9428 5.4933 -2.4892 0.9667
-6.3661 5.0006 -2.4899 0.9667
-6.4657 4.8722 -2.4901 0.9667
-6.5627 4.7418 -2.4903 0.9667
-6.7488 4.4754 -2.4907 0.9667
-7.1664 3.7785 -2.4919 0.9667
-7.2415 3.6342 -2.4921 0.9667
-7.3137 3.4885 -2.4923 0.9667
-7.4492 3.1928 -2.4928 0.9667
-7.5126 3.0430 -2.4931 0.9666
-7.5729 2.8919 -2.4933 0.9666
-7.6844 2.5863 -2.4938 0.9666
-7.8705 1.9625 -2.4949 0.9666
-7.9092 1.8044 -2.4952 0.9666
-7.9770 1.4859 -2.4958 0.9666
-8.0062 1.3257 -2.4960 0.9666
-8.0321 1.1649 -2.4963 0.9666
-8.0548 1.0035 -2.4966 0.9666
-8.0742 0.8418 -2.4969 0.9666
-8.0904 0.6797 -2.4972 0.9666
-8.1034 0.5172 -2.4975 0.9666
-8.1196 0.1917 -2.4981 0.9666
-8.1228 0.0287 -2.4984 0.9666
-8.1227 -0.1343 -2.4987 0.9666
-8.1127 -0.4603 -2.4993 0.9666
-8.0536 -1.1100 -2.5005 0.9665
-8.0307 -1.2715 -2.5009 0.9665
-8.0046 -1.4326 -2.5012 0.9665
-7.9068 -1.9124 -2.5021 0.9665
-7.8256 -2.2286 -2.5027 0.9665
-7.6255 -2.8504 -2.5039 0.9665
-7.5677 -3.0033 -2.5043 0.9665
-7.5068 -3.1549 -2.5046 0.9665
-7.3060 -3.6022 -2.5055 0.9665
-7.1573 -3.8934 -2.5061 0.9665
-6.9125 -4.3186 -2.5070 0.9665
-6.7352 -4.5936 -2.5076 0.9665
-6.6424 -4.7283 -2.5078 0.9665
-6.5470 -4.8613 -2.5081 0.9665
-6.2447 -5.2482 -2.5090 0.9664
-6.0304 -5.4957 -2.5095 0.9664
-5.6905 -5.8505 -2.5103 0.9664
-5.3298 -6.1842 -2.5111 0.9664
-5.2052 -6.2906 -2.5113 0.9664
-4.9495 -6.4956 -2.5118 0.9664
-4.8186 -6.5943 -2.5121 0.9664
-4.6857 -6.6903 -2.5123 0.9664
-4.4143 -6.8742 -2.5127 0.9664
-3.8501 -7.2085 -2.5136 0.9664
-3.7050 -7.2849 -2.5138 0.9664
-2.9576 -7.6222 -2.5147 0.9664
-2.8043 -7.6806 -2.5149 0.9664
-2.4941 -7.7879 -2.5152 0.9664
-2.1799 -7.8827 -2.5155 0.9664
-2.0213 -7.9253 -2.5157 0.9664
-1.3796 -8.0636 -2.5162 0.9663
-1.0550 -8.1132 -2.5164 0.9663
-0.8920 -8.1330 -2.5165 0.9663
-0.7286 -8.1496 -2.5166 0.9663
-0.5649 -8.1629 -2.5167 0.9663
-0.0727 -8.1829 -2.5170 0.9663
0.4198 -8.1731 -2.5172 0.9663
0.5838 -8.1632 -2.5172 0.9663
1.2366 -8.0905 -2.5174 0.9663
1.5603 -8.0344 -2.5174 0.9663
1.8814 -7.9654 -2.5174 0.9663
2.0409 -7.9260 -2.5174 0.9663
2.1995 -7.8834 -2.5174 0.9663
2.5141 -7.7887 -2.5173 0.9663
2.8245 -7.6813 -2.5173 0.9663
2.9780 -7.6229 -2.5172 0.9663
3.2814 -7.4970 -2.5171 0.9663
3.4311 -7.4294 -2.5170 0.9663
3.8716 -7.2088 -2.5168 0.9663
4.1575 -7.0472 -2.5166 0.9663
4.2979 -6.9620 -2.5165 0.9663
4.4365 -6.8741 -2.5164 0.9663
4.7084 -6.6899 -2.5162 0.9663
4.9726 -6.4949 -2.5160 0.9663
5.2286 -6.2895 -2.5157 0.9664
5.3535 -6.1829 -2.5155 0.9664
5.4761 -6.0739 -2.5154 0.9664
5.8306 -5.7323 -2.5149 0.9664
5.9440 -5.6137 -2.5147 0.9664
6.0551 -5.4929 -2.5145 0.9664
6.1636 -5.3699 -2.5144 0.9664
6.2697 -5.2447 -2.5142 0.9664
6.4741 -4.9881 -2.5138 0.9664
6.5724 -4.8568 -2.5136 0.9664
6.8510 -4.4514 -2.5129 0.9664
6.9383 -4.3126 -2.5127 0.9664
7.1833 -3.8863 -2.5120 0.9664
7.2591 -3.7410 -2.5118 0.9664
7.5328 -3.1455 -2.5108 0.9664
7.8059 -2.3738 -2.5095 0.9664
7.8931 -2.0582 -2.5089 0.9664
7.9320 -1.8992 -2.5087 0.9664
8.0000 -1.5790 -2.5081 0.9665
8.0292 -1.4180 -2.5078 0.9665
8.0777 -1.0944 -2.5072 0.9665
8.0971 -0.9320 -2.5069 0.9665
8.1356 -0.4429 -2.5061 0.9665
8.1446 0.0475 -2.5051 0.9665
8.0740 1.0247 -2.5033 0.9665
8.0508 1.1864 -2.5030 0.9665
2.6348 7.0120 -2.4899 0.9689
2.3510 7.1112 -2.4896 0.9689
2.2077 7.1565 -2.4895 0.9689
2.0635 7.1990 -2.4894 0.9689
1.9185 7.2386 -2.4892 0.9689
1.6264 7.3090 -2.4890 0.9689
1.4793 7.3398 -2.4889 0.9689
1.1834 7.3923 -2.4885 0.9689
0.8854 7.4308 -2.4875 0.9689
0.5863 7.4579 -2.4867 0.9690
0.4365 7.4671 -2.4863 0.9690
0.2865 7.4735 -2.4861 0.9690
0.1365 7.4771 -2.4858 0.9690
-0.0136 7.4778 -2.4857 0.9690
-0.1637 7.4757 -2.4855 0.9690
-0.3137 7.4707 -2.4855 0.9690
-0.4635 7.4627 -2.4854 0.9690
-0.6132 7.4519 -2.4854 0.9690
-0.7626 7.4382 -2.4855 0.9690
-1.3571 7.3553 -2.4862 0.9690
-1.6516 7.2970 -2.4869 0.9690
-2.0883 7.1865 -2.4876 0.9689
-2.2321 7.1432 -2.4877 0.9689
-2.3751 7.0971 -2.4877 0.9689
-2.5170 7.0480 -2.4877 0.9689
-2.6580 6.9962 -2.4878 0.9689
-2.7979 6.9416 -2.4878 0.9689
-3.0744 6.8240 -2.4879 0.9689
-3.2107 6.7611 -2.4880 0.9689
-3.8725 6.4064 -2.4884 0.9689
-4.1268 6.2463 -2.4885 0.9689
-4.4958 5.9875 -2.4889 0.9689
-4.6153 5.8963 -2.4890 0.9689
-4.7329 5.8028 -2.4891 0.9689
-5.0743 5.5084 -2.4895 0.9689
-5.2919 5.3010 -2.4898 0.9689
-5.3975 5.1940 -2.4900 0.9689
-5.5010 5.0850 -2.4901 0.9689
-5.7014 4.8608 -2.4905 0.9689
-5.7982 4.7457 -2.4906 0.9689
-5.9848 4.5099 -2.4910 0.9689
-6.1619 4.2667 -2.4914 0.9689
-6.2468 4.1425 -2.4916 0.9689
-6.4090 3.8891 -2.4920 0.9689
-6.7026 3.3638 -2.4928 0.9689
-6.7693 3.2289 -2.4930 0.9689
-6.9533 2.8165 -2.4937 0.9689
-7.0620 2.5357 -2.4942 0.9689
-7.1122 2.3937 -2.4944 0.9689
-7.2455 1.9619 -2.4952 0.9689
-7.2842 1.8163 -2.4954 0.9689
-7.3527 1.5229 -2.4960 0.9688
-7.4094 1.2269 -2.4965 0.9688
-7.4334 1.0780 -2.4967 0.9688
-7.4722 0.7790 -2.4973 0.9688
-7.4872 0.6290 -2.4976 0.9688
-7.5081 0.3281 -2.4981 0.9688
-7.5140 0.1774 -2.4984 0.9688
-7.5169 0.0266 -2.4987 0.9688
-7.5167 -0.1243 -2.4989 0.9688
-7.5135 -0.2751 -2.4992 0.9688
-7.5073 -0.4259 -2.4995 0.9688
-7.4707 -0.8772 -2.5004 0.9688
-7.4524 -1.0271 -2.5006 0.9688
-7.4312 -1.1766 -2.5009 0.9688
-7.3494 -1.6221 -2.5018 0.9688
-7.3162 -1.7695 -2.5021 0.9688
-7.2801 -1.9162 -2.5024 0.9688
-7.1990 -2.2073 -2.5029 0.9688
-7.0555 -2.6374 -2.5038 0.9687
-6.9456 -2.9191 -2.5044 0.9687
-6.7596 -3.3328 -2.5052 0.9687
-6.6921 -3.4682 -2.5055 0.9687
-6.5490 -3.7348 -2.5060 0.9687
-6.3952 -3.9954 -2.5066 0.9687
-6.1452 -4.3744 -2.5074 0.9687
-5.9660 -4.6185 -2.5079 0.9687
-5.8727 -4.7378 -2.5082 0.9687
-5.6790 -4.9706 -2.5087 0.9687
-5.5787 -5.0841 -2.5089 0.9687
-5.2642 -5.4122 -2.5097 0.9687
-5.1550 -5.5172 -2.5099 0.9687
-4.4573 -6.0999 -2.5113 0.9687
-4.2097 -6.2749 -2.5117 0.9687
-4.0833 -6.3587 -2.5119 0.9686
-3.9551 -6.4399 -2.5121 0.9686
-3.6941 -6.5944 -2.5125 0.9686
-3.5613 -6.6677 -2.5127 0.9686
-3.2913 -6.8063 -2.5131 0.9686
-3.1543 -6.8714 -2.5133 0.9686
-3.0160 -6.9338 -2.5134 0.9686
-2.8764 -6.9934 -2.5136 0.9686
-2.3069 -7.2034 -2.5142 0.9686
-2.1620 -7.2486 -2.5144 0.9686
-2.0162 -7.2910 -2.5145 0.9686
-1.8696 -7.3304 -2.5147 0.9686
-1.5741 -7.4002 -2.5149 0.9686
-1.4253 -7.4307 -2.5150 0.9686
-1.2760 -7.4581 -2.5151 0.9686
-0.8250 -7.5223 -2.5154 0.9686
-0.2191 -7.5652 -2.5158 0.9686
-0.0673 -7.5683 -2.5158 0.9686
0.0846 -7.5683 -2.5159 0.9686
0.6913 -7.5378 -2.5161 0.9686
0.9933 -7.5041 -2.5162 0.9686
1.1437 -7.4827 -2.5162 0.9686
1.2936 -7.4583 -2.5162 0.9686
1.4431 -7.4309 -2.5162 0.9686
1.5919 -7.4005 -2.5162 0.9686
2.0343 -7.2912 -2.5162 0.9686
2.3252 -7.2036 -2.5162 0.9686
2.4693 -7.1554 -2.5161 0.9686
2.6124 -7.1043 -2.5161 0.9686
2.7544 -7.0503 -2.5161 0.9686
2.8952 -6.9935 -2.5160 0.9686
3.5808 -6.6674 -2.5157 0.9686
3.7138 -6.5940 -2.5156 0.9686
3.8452 -6.5179 -2.5155 0.9686
4.3549 -6.1876 -2.5151 0.9686
4.4780 -6.0987 -2.5150 0.9686
4.5992 -6.0073 -2.5149 0.9686
4.8361 -5.8173 -2.5146 0.9686
5.1765 -5.5149 -2.5142 0.9686
5.4980 -5.1924 -2.5138 0.9686
5.6007 -5.0807 -2.5136 0.9686
5.7011 -4.9669 -2.5134 0.9686
5.7993 -4.8512 -2.5133 0.9686
5.8951 -4.7335 -2.5131 0.9686
5.9884 -4.6139 -2.5129 0.9686
6.0794 -4.4925 -2.5127 0.9686
6.1678 -4.3692 -2.5125 0.9686
6.2538 -4.2442 -2.5123 0.9686
6.3372 -4.1176 -2.5121 0.9686
6.4180 -3.9892 -2.5119 0.9686
6.7150 -3.4605 -2.5111 0.9687
6.7825 -3.3247 -2.5108 0.9687
6.8472 -3.1877 -2.5106 0.9687
6.9092 -3.0494 -2.5104 0.9687
6.9683 -2.9098 -2.5101 0.9687
7.0246 -2.7692 -2.5099 0.9687
7.0781 -2.6274 -2.5097 0.9687
7.1287 -2.4845 -2.5094 0.9687
7.1764 -2.3407 -2.5092 0.9687
7.2212 -2.1960 -2.5089 0.9687
7.2631 -2.0505 -2.5087 0.9687
7.3711 -1.6092 -2.5079 0.9687
7.4011 -1.4608 -2.5076 0.9687
7.4732 -1.0125 -2.5068 0.9687
7.5062 -0.7116 -2.5063 0.9687
7.5329 -0.2586 -2.5055 0.9687
7.5260 0.3462 -2.5043 0.9687
7.5167 0.4971 -2.5041 0.9687
7.4890 0.7981 -2.5035 0.9688
7.4706 0.9482 -2.5032 0.9688
2.5805 6.4699 -2.4909 0.9708
2.4500 6.5200 -2.4908 0.9708
2.3185 6.5675 -2.4906 0.9708
2.0529 6.6545 -2.4904 0.9708
1.5123 6.7964 -2.4899 0.9709
1.3755 6.8250 -2.4898 0.9709
1.2382 6.8510 -2.4897 0.9709
1.1004 6.8742 -2.4896 0.9709
0.8236 6.9123 -2.4894 0.9709
0.6848 6.9272 -2.4893 0.9709
0.5456 6.9393 -2.4892 0.9709
-0.0127 6.9600 -2.4889 0.9709
-0.1523 6.9582 -2.4889 0.9709
-0.2919 6.9535 -2.4888 0.9709
-0.5707 6.9360 -2.4887 0.9709
-0.7098 6.9231 -2.4887 0.9709
-0.8486 6.9073 -2.4887 0.9709
-1.2626 6.8436 -2.4886 0.9709
-1.3997 6.8169 -2.4886 0.9709
-1.5362 6.7874 -2.4886 0.9709
-1.6722 6.7552 -2.4886 0.9709
-1.8074 6.7203 -2.4886 0.9709
-2.3406 6.5540 -2.4887 0.9709
-2.6018 6.4549 -2.4888 0.9709
-2.8588 6.3456 -2.4889 0.9709
-3.1113 6.2260 -2.4890 0.9709
-3.2357 6.1625 -2.4891 0.9709
-3.3588 6.0965 -2.4891 0.9709
-3.4806 6.0281 -2.4892 0.9709
-3.8374 5.8083 -2.4895 0.9709
-4.0677 5.6501 -2.4897 0.9709
-4.2915 5.4828 -2.4899 0.9709
-4.4009 5.3958 -2.4900 0.9709
-4.8204 5.0265 -2.4905 0.9708
-4.9206 4.9291 -2.4907 0.9708
-5.2092 4.6249 -2.4911 0.9708
-5.3913 4.4127 -2.4914 0.9708
-5.6482 4.0811 -2.4919 0.9708
-5.7294 3.9672 -2.4921 0.9708
-5.8083 3.8517 -2.4923 0.9708
-5.8848 3.7346 -2.4925 0.9708
-6.0309 3.4960 -2.4928 0.9708
-6.1003 3.3746 -2.4930 0.9708
-6.2318 3.1275 -2.4934 0.9708
-6.2938 3.0021 -2.4937 0.9708
-6.4103 2.7476 -2.4941 0.9708
-6.4647 2.6186 -2.4943 0.9708
-6.5166 2.4886 -2.4945 0.9708
-6.5658 2.3575 -2.4947 0.9708
-6.6976 1.9587 -2.4954 0.9708
-6.7362 1.8240 -2.4957 0.9708
-6.8052 1.5525 -2.4961 0.9708
-6.8883 1.1406 -2.4969 0.9708
-6.9105 1.0022 -2.4971 0.9708
-6.9466 0.7242 -2.4976 0.9708
-6.9714 0.4450 -2.4981 0.9708
-6.9797 0.3050 -2.4984 0.9708
-6.9851 0.1649 -2.4986 0.9708
-6.9846 -0.2558 -2.4994 0.9707
-6.9788 -0.3960 -2.4997 0.9707
-6.9701 -0.5360 -2.4999 0.9707
-6.9076 -1.0937 -2.5010 0.9707
-6.8850 -1.2322 -2.5013 0.9707
-6.8596 -1.3703 -2.5015 0.9707
-6.8315 -1.5078 -2.5018 0.9707
-6.7669 -1.7811 -2.5023 0.9707
-6.6914 -2.0517 -2.5029 0.9707
-6.6496 -2.1858 -2.5031 0.9707
-6.5081 -2.5828 -2.5039 0.9707
-6.4556 -2.7131 -2.5042 0.9707
-6.4006 -2.8424 -2.5044 0.9707
-6.2826 -3.0977 -2.5050 0.9707
-6.2199 -3.2235 -2.5052 0.9707
-6.1546 -3.3480 -2.5055 0.9707
-5.9438 -3.7134 -2.5062 0.9707
-5.8686 -3.8323 -2.5065 0.9707
-5.4579 -4.4031 -2.5077 0.9706
-5.0891 -4.8284 -2.5087 0.9706
-4.6872 -5.2228 -2.5096 0.9706
-4.5818 -5.3163 -2.5098 0.9706
-4.3655 -5.4968 -2.5102 0.9706
-4.2547 -5.5838 -2.5104 0.9706
-4.1421 -5.6685 -2.5106 0.9706
-4.0278 -5.7509 -2.5108 0.9706
-3.7944 -5.9089 -2.5112 0.9706
-3.6753 -5.9843 -2.5114 0.9706
-3.3093 -6.1959 -2.5119 0.9706
-3.1845 -6.2616 -2.5121 0.9706
-2.9311 -6.3851 -2.5125 0.9706
-2.8025 -6.4431 -2.5126 0.9706
-2.5420 -6.5512 -2.5129 0.9706
-2.2774 -6.6487 -2.5132 0.9706
-1.8735 -6.7747 -2.5136 0.9706
-1.7372 -6.8113 -2.5137 0.9706
-1.1856 -6.9299 -2.5142 0.9706
-0.9066 -6.9725 -2.5144 0.9706
-0.7665 -6.9895 -2.5145 0.9706
-0.6262 -7.0037 -2.5146 0.9706
-0.3446 -7.0236 -2.5147 0.9706
-0.0625 -7.0322 -2.5149 0.9706
0.0786 -7.0322 -2.5149 0.9706
0.3608 -7.0236 -2.5150 0.9706
0.5017 -7.0151 -2.5151 0.9706
0.6424 -7.0037 -2.5151 0.9706
0.7828 -6.9895 -2.5151 0.9706
0.9229 -6.9725 -2.5152 0.9706
1.0627 -6.9526 -2.5152 0.9706
1.3408 -6.9044 -2.5152 0.9706
1.6168 -6.8451 -2.5152 0.9706
1.7539 -6.8112 -2.5152 0.9706
1.8902 -6.7746 -2.5152 0.9706
2.0257 -6.7353 -2.5152 0.9706
2.1605 -6.6932 -2.5152 0.9706
2.5592 -6.5508 -2.5151 0.9706
2.6901 -6.4981 -2.5150 0.9706
2.9486 -6.3846 -2.5149 0.9706
3.2023 -6.2608 -2.5148 0.9706
3.5729 -6.0563 -2.5146 0.9706
3.6936 -5.9831 -2.5145 0.9706
3.8128 -5.9076 -2.5144 0.9706
3.9304 -5.8297 -2.5143 0.9706
4.0464 -5.7494 -2.5142 0.9706
4.1608 -5.6668 -2.5141 0.9706
4.4937 -5.4054 -2.5137 0.9706
4.6010 -5.3139 -2.5136 0.9706
4.7065 -5.2202 -2.5135 0.9706
4.9116 -5.0266 -2.5132 0.9706
5.0112 -4.9267 -2.5131 0.9706
5.1088 -4.8249 -2.5129 0.9706
5.2043 -4.7211 -2.5128 0.9706
5.5647 -4.2874 -2.5121 0.9706
5.7314 -4.0601 -2.5118 0.9706
5.8113 -3.9440 -2.5116 0.9706
5.9640 -3.7070 -2.5112 0.9706
6.1070 -3.4642 -2.5108 0.9706
6.2401 -3.2158 -2.5104 0.9706
6.3029 -3.0897 -2.5102 0.9706
6.4207 -2.8338 -2.5098 0.9706
6.4757 -2.7041 -2.5096 0.9706
6.5778 -2.4417 -2.5091 0.9706
6.6693 -2.1753 -2.5087 0.9706
6.7110 -2.0409 -2.5084 0.9706
6.7500 -1.9056 -2.5082 0.9706
6.8504 -1.4955 -2.5075 0.9707
6.9260 -1.0803 -2.5067 0.9707
6.9875 -0.5212 -2.5057 0.9707
7.0013 -0.2403 -2.5052 0.9707
7.0040 -0.0998 -2.5049 0.9707
7.0039 0.0408 -2.5047 0.9707
6.9439 0.8813 -2.5031 0.9707
2.2869 6.0861 -2.4915 0.9725
1.4117 6.3442 -2.4907 0.9725
1.0272 6.4169 -2.4904 0.9725
0.7689 6.4525 -2.4902 0.9725
0.5093 6.4777 -2.4900 0.9725
0.2489 6.4926 -2.4899 0.9726
-0.0118 6.4970 -2.4898 0.9726
-0.2725 6.4911 -2.4897 0.9726
-0.4027 6.4842 -2.4897 0.9726
-0.5328 6.4747 -2.4896 0.9726
-0.6626 6.4626 -2.4896 0.9726
-1.0502 6.4109 -2.4895 0.9726
-1.4341 6.3360 -2.4895 0.9726
-1.5609 6.3060 -2.4895 0.9726
-1.8128 6.2383 -2.4895 0.9726
-1.9376 6.2007 -2.4895 0.9726
-2.0617 6.1606 -2.4896 0.9726
-2.1849 6.1181 -2.4896 0.9726
-2.3073 6.0731 -2.4896 0.9726
-2.4287 6.0257 -2.4897 0.9726
-2.9044 5.8119 -2.4899 0.9726
-3.1354 5.6910 -2.4900 0.9726
-3.3614 5.5609 -2.4901 0.9725
-3.4725 5.4925 -2.4902 0.9725
-3.9023 5.1971 -2.4906 0.9725
-4.0060 5.1180 -2.4907 0.9725
-4.4044 4.7811 -2.4911 0.9725
-4.9484 4.2188 -2.4920 0.9725
-5.0324 4.1189 -2.4921 0.9725
-5.1144 4.0173 -2.4923 0.9725
-5.3479 3.7030 -2.4927 0.9725
-5.4929 3.4859 -2.4931 0.9725
-5.5621 3.3752 -2.4933 0.9725
-5.6292 3.2631 -2.4934 0.9725
-5.8745 2.8021 -2.4942 0.9725
-5.9300 2.6838 -2.4944 0.9725
-5.9832 2.5645 -2.4946 0.9725
-6.0339 2.4441 -2.4948 0.9725
-6.0822 2.3227 -2.4950 0.9725
-6.1281 2.2003 -2.4952 0.9725
-6.2125 1.9530 -2.4956 0.9725
-6.2510 1.8281 -2.4958 0.9725
-6.2870 1.7024 -2.4961 0.9725
-6.3205 1.5760 -2.4963 0.9725
-6.4288 1.0645 -2.4972 0.9725
-6.4676 0.8058 -2.4977 0.9725
-6.4830 0.6759 -2.4979 0.9725
-6.4959 0.5457 -2.4981 0.9725
-6.5212 0.0231 -2.4991 0.9725
-6.5182 -0.2387 -2.4996 0.9724
-6.5127 -0.3695 -2.4998 0.9724
-6.5046 -0.5002 -2.5001 0.9724
-6.4939 -0.6307 -2.5003 0.9724
-6.4647 -0.8909 -2.5008 0.9724
-6.4461 -1.0206 -2.5010 0.9724
-6.4012 -1.2787 -2.5015 0.9724
-6.3749 -1.4071 -2.5018 0.9724
-6.3460 -1.5349 -2.5020 0.9724
-6.3146 -1.6621 -2.5023 0.9724
-6.2806 -1.7887 -2.5025 0.9724
-6.1634 -2.1640 -2.5033 0.9724
-6.0728 -2.4100 -2.5038 0.9724
-6.0238 -2.5317 -2.5040 0.9724
-5.9724 -2.6523 -2.5043 0.9724
-5.9185 -2.7719 -2.5045 0.9724
-5.8623 -2.8904 -2.5048 0.9724
-5.8037 -3.0078 -2.5050 0.9724
-5.7427 -3.1239 -2.5052 0.9724
-5.6138 -3.3525 -2.5057 0.9724
-5.5459 -3.4648 -2.5060 0.9724
-5.3288 -3.7933 -2.5067 0.9724
-5.2521 -3.8998 -2.5069 0.9724
-5.0093 -4.2099 -2.5076 0.9724
-4.9242 -4.3100 -2.5078 0.9724
-4.8372 -4.4083 -2.5080 0.9724
-4.7481 -4.5049 -2.5082 0.9724
-4.6572 -4.5997 -2.5084 0.9724
-4.5643 -4.6926 -2.5086 0.9723
-4.3730 -4.8728 -2.5091 0.9723
-4.1746 -5.0452 -2.5095 0.9723
-3.8644 -5.2884 -2.5100 0.9723
-3.5399 -5.5126 -2.5106 0.9723
-3.3163 -5.6510 -2.5109 0.9723
-2.6145 -6.0107 -2.5119 0.9723
-2.4935 -6.0624 -2.5120 0.9723
-2.3714 -6.1115 -2.5122 0.9723
-2.1245 -6.2024 -2.5125 0.9723
-1.7477 -6.3200 -2.5128 0.9723
-1.3644 -6.4145 -2.5132 0.9723
-1.1060 -6.4646 -2.5134 0.9723
-0.5841 -6.5334 -2.5137 0.9723
-0.4529 -6.5440 -2.5138 0.9723
-0.3215 -6.5520 -2.5139 0.9723
0.8609 -6.5042 -2.5143 0.9723
1.1213 -6.4645 -2.5143 0.9723
1.3798 -6.4143 -2.5143 0.9723
1.6361 -6.3538 -2.5143 0.9723
2.0154 -6.2437 -2.5143 0.9723
2.2643 -6.1576 -2.5142 0.9723
2.3873 -6.1109 -2.5142 0.9723
2.6306 -6.0100 -2.5141 0.9723
2.9872 -5.8404 -2.5139 0.9723
3.1038 -5.7791 -2.5138 0.9723
3.3330 -5.6496 -2.5137 0.9723
3.4456 -5.5814 -2.5136 0.9723
3.5568 -5.5109 -2.5135 0.9723
3.6665 -5.4383 -2.5135 0.9723
3.8815 -5.2863 -2.5133 0.9723
4.1920 -5.0425 -2.5129 0.9723
4.2922 -4.9572 -2.5128 0.9723
4.3906 -4.8698 -2.5127 0.9723
4.5820 -4.6892 -2.5124 0.9723
4.8551 -4.4043 -2.5120 0.9723
4.9422 -4.3057 -2.5119 0.9723
5.1104 -4.1034 -2.5116 0.9723
5.1914 -3.9998 -2.5114 0.9723
5.3470 -3.7877 -2.5111 0.9723
5.4215 -3.6794 -2.5109 0.9723
5.4939 -3.5696 -2.5107 0.9723
5.5640 -3.4584 -2.5106 0.9723
5.8803 -2.8825 -2.5096 0.9723
5.9365 -2.7637 -2.5094 0.9723
5.9903 -2.6438 -2.5092 0.9723
6.0417 -2.5229 -2.5090 0.9723
6.0906 -2.4009 -2.5088 0.9723
6.1810 -2.1542 -2.5084 0.9724
6.2225 -2.0296 -2.5082 0.9724
6.2614 -1.9041 -2.5080 0.9724
6.2978 -1.7779 -2.5078 0.9724
6.3317 -1.6510 -2.5075 0.9724
6.3630 -1.5235 -2.5073 0.9724
6.4178 -1.2667 -2.5069 0.9724
6.4623 -1.0080 -2.5064 0.9724
6.4963 -0.7477 -2.5059 0.9724
6.5277 -0.3553 -2.5052 0.9724
6.5328 -0.2242 -2.5050 0.9724
6.5273 0.3002 -2.5040 0.9724
6.4796 0.8224 -2.5030 0.9724
2.1419 5.7001 -2.4922 0.9740
2.0269 5.7417 -2.4920 0.9740
1.9112 5.7809 -2.4919 0.9740
1.6775 5.8524 -2.4917 0.9740
1.4412 5.9145 -2.4915 0.9740
1.3222 5.9420 -2.4914 0.9740
1.2026 5.9671 -2.4913 0.9740
1.0826 5.9898 -2.4912 0.9740
0.8413 6.0280 -2.4910 0.9740
0.4770 6.0672 -2.4908 0.9740
0.3551 6.0753 -2.4907 0.9740
0.1111 6.0844 -2.4906 0.9740
-0.0111 6.0853 -2.4906 0.9740
-0.1332 6.0837 -2.4905 0.9740
-0.4990 6.0644 -2.4904 0.9740
-0.6206 6.0531 -2.4904 0.9740
-0.7419 6.0393 -2.4903 0.9740
-0.9837 6.0046 -2.4903 0.9740
-1.3432 5.9345 -2.4903 0.9740
-1.6979 5.8430 -2.4903 0.9740
-1.8148 5.8078 -2.4903 0.9740
-2.0465 5.7304 -2.4904 0.9740
-2.1611 5.6882 -2.4904 0.9740
-2.2748 5.6438 -2.4904 0.9740
-2.3877 5.5971 -2.4905 0.9740
-2.4995 5.5481 -2.4905 0.9740
-2.8290 5.3880 -2.4907 0.9740
-3.0431 5.2704 -2.4908 0.9740
-3.3551 5.0782 -2.4910 0.9740
-3.4564 5.0100 -2.4911 0.9740
-3.5564 4.9399 -2.4912 0.9740
-3.6549 4.8677 -2.4913 0.9740
-3.8476 4.7175 -2.4915 0.9740
-4.3877 4.2222 -2.4922 0.9740
-4.4718 4.1335 -2.4923 0.9740
-4.7132 3.8576 -2.4927 0.9740
-4.7899 3.7625 -2.4929 0.9740
-4.8648 3.6658 -2.4930 0.9740
-4.9376 3.5677 -2.4932 0.9740
-5.0775 3.3671 -2.4935 0.9740
-5.3326 2.9498 -2.4942 0.9740
-5.4474 2.7338 -2.4945 0.9740
-5.5016 2.6242 -2.4947 0.9740
-5.5535 2.5134 -2.4949 0.9740
-5.6960 2.1752 -2.4954 0.9740
-5.7796 1.9452 -2.4958 0.9740
-5.8539 1.7120 -2.4962 0.9740
-5.9478 1.3570 -2.4968 0.9740
-6.0202 0.9968 -2.4975 0.9740
-6.0709 0.6329 -2.4981 0.9740
-6.0829 0.5110 -2.4984 0.9740
-6.1043 0.1441 -2.4990 0.9740
-6.1065 0.0216 -2.4993 0.9740
-6.1036 -0.2235 -2.4997 0.9739
-6.0984 -0.3460 -2.4999 0.9739
-6.0908 -0.4684 -2.5002 0.9739
-6.0807 -0.5905 -2.5004 0.9739
-5.9938 -1.1973 -2.5016 0.9739
-5.9691 -1.3175 -2.5018 0.9739
-5.8806 -1.6747 -2.5025 0.9739
-5.8098 -1.9097 -2.5030 0.9739
-5.7708 -2.0261 -2.5032 0.9739
-5.6859 -2.2565 -2.5037 0.9739
-5.6400 -2.3704 -2.5039 0.9739
-5.5413 -2.5952 -2.5043 0.9739
-5.4886 -2.7062 -2.5046 0.9739
-5.3173 -3.0324 -2.5052 0.9739
-5.1922 -3.2439 -2.5057 0.9739
-5.1265 -3.3477 -2.5059 0.9739
-4.9890 -3.5514 -2.5063 0.9739
-4.8433 -3.7493 -2.5068 0.9739
-4.6897 -3.9413 -2.5072 0.9739
-4.4451 -4.2174 -2.5078 0.9739
-4.3599 -4.3061 -2.5080 0.9739
-4.2730 -4.3931 -2.5082 0.9739
-4.1843 -4.4783 -2.5084 0.9739
-3.9081 -4.7230 -2.5090 0.9739
-3.8128 -4.8009 -2.5092 0.9739
-3.6176 -4.9507 -2.5095 0.9738
-3.4165 -5.0926 -2.5099 0.9738
-3.3138 -5.1605 -2.5100 0.9738
-3.1045 -5.2900 -2.5104 0.9738
-2.9979 -5.3516 -2.5105 0.9738
-2.8901 -5.4110 -2.5107 0.9738
-2.7811 -5.4682 -2.5108 0.9738
-2.5597 -5.5761 -2.5111 0.9738
-2.3341 -5.6749 -2.5114 0.9738
-1.9887 -5.8060 -2.5118 0.9738
-1.5170 -5.9479 -2.5122 0.9738
-1.2772 -6.0044 -2.5124 0.9738
-1.0353 -6.0513 -2.5126 0.9738
-0.9137 -6.0711 -2.5127 0.9738
-0.5468 -6.1156 -2.5130 0.9738
-0.3009 -6.1330 -2.5131 0.9738
-0.1778 -6.1379 -2.5131 0.9738
-0.0546 -6.1404 -2.5132 0.9738
0.0687 -6.1404 -2.5133 0.9738
0.1919 -6.1379 -2.5133 0.9738
0.6835 -6.1031 -2.5134 0.9738
0.9279 -6.0708 -2.5135 0.9738
1.1708 -6.0287 -2.5135 0.9738
1.7688 -5.8811 -2.5135 0.9738
1.8865 -5.8443 -2.5135 0.9738
2.2347 -5.7200 -2.5134 0.9738
2.3490 -5.6740 -2.5133 0.9738
2.4623 -5.6256 -2.5133 0.9738
2.5747 -5.5749 -2.5133 0.9738
2.6860 -5.5220 -2.5132 0.9738
2.7962 -5.4669 -2.5131 0.9738
2.9053 -5.4095 -2.5131 0.9738
3.0132 -5.3500 -2.5130 0.9738
3.1198 -5.2883 -2.5129 0.9738
3.4321 -5.0905 -2.5127 0.9738
3.5334 -5.0204 -2.5126 0.9738
3.6333 -4.9483 -2.5125 0.9738
3.7317 -4.8742 -2.5124 0.9738
3.9240 -4.7202 -2.5122 0.9738
4.0178 -4.6403 -2.5121 0.9738
4.1099 -4.5585 -2.5120 0.9738
4.7060 -3.9367 -2.5111 0.9738
4.7838 -3.8412 -2.5110 0.9738
5.0752 -3.4444 -2.5103 0.9738
5.1430 -3.3416 -2.5102 0.9738
5.2722 -3.1321 -2.5098 0.9738
5.4500 -2.8086 -2.5093 0.9738
5.5575 -2.5873 -2.5090 0.9739
5.7453 -2.1326 -2.5082 0.9739
5.8619 -1.7826 -2.5076 0.9739
5.8960 -1.6645 -2.5074 0.9739
5.9277 -1.5457 -2.5072 0.9739
6.0305 -1.0650 -2.5063 0.9739
6.0501 -0.9437 -2.5061 0.9739
6.0821 -0.7000 -2.5057 0.9739
6.1042 -0.4553 -2.5052 0.9739
6.1164 -0.2100 -2.5048 0.9739
6.1189 -0.0872 -2.5046 0.9739
6.1188 0.0356 -2.5043 0.9739
6.1113 0.2811 -2.5039 0.9739
6.1039 0.4037 -2.5036 0.9739
6.0817 0.6482 -2.5032 0.9739
6.0497 0.8915 -2.5027 0.9739
2.0119 5.3542 -2.4928 0.9754
1.6858 5.4648 -2.4924 0.9754
1.3538 5.5557 -2.4921 0.9754
0.9038 5.6455 -2.4918 0.9754
0.6764 5.6769 -2.4916 0.9754
0.5624 5.6892 -2.4915 0.9754
0.4481 5.6992 -2.4915 0.9754
0.3336 5.7069 -2.4914 0.9754
0.2190 5.7123 -2.4913 0.9754
-0.0104 5.7163 -2.4912 0.9754
-0.3543 5.7050 -2.4911 0.9754
-0.4688 5.6967 -2.4911 0.9754
-0.5830 5.6860 -2.4911 0.9754
-0.6969 5.6731 -2.4910 0.9754
-0.8107 5.6580 -2.4910 0.9754
-1.1496 5.5989 -2.4910 0.9754
-1.2618 5.5746 -2.4910 0.9754
-1.9224 5.3829 -2.4911 0.9754
-2.0300 5.3433 -2.4911 0.9754
-2.2429 5.2577 -2.4912 0.9754
-2.3480 5.2117 -2.4912 0.9754
-2.4521 5.1636 -2.4912 0.9754
-2.6575 5.0613 -2.4914 0.9754
-2.7586 5.0070 -2.4914 0.9754
-2.8586 4.9508 -2.4915 0.9754
-3.2468 4.7061 -2.4918 0.9754
-3.5244 4.5027 -2.4920 0.9754
-3.9586 4.1278 -2.4925 0.9754
-4.0408 4.0477 -2.4927 0.9754
-4.1214 3.9660 -2.4928 0.9754
-4.2777 3.7978 -2.4930 0.9753
-4.3533 3.7114 -2.4931 0.9753
-4.4271 3.6235 -2.4933 0.9753
-4.4992 3.5341 -2.4934 0.9753
-4.5695 3.4433 -2.4936 0.9753
-4.6379 3.3511 -2.4937 0.9753
-4.7692 3.1626 -2.4940 0.9753
-4.8929 2.9691 -2.4943 0.9753
