ply
format ascii 1.0
element vertex 1586
property float32 x
property float32 y
property float32 z
property float32 I
end_header
3.6749 -13.7843 -2.3501 0.9438
3.9519 -13.7087 -2.3503 0.9438
4.2273 -13.6276 -2.3505 0.9438
5.8408 -13.0258 -2.3517 0.9438
6.1022 -12.9067 -2.3519 0.9438
6.3612 -12.7823 -2.3521 0.9438
6.8714 -12.5181 -2.3525 0.9438
7.1225 -12.3783 -2.3527 0.9437
13.2209 1.9109 -2.5108 0.9471
13.1798 2.1766 -2.5108 0.9471
13.0815 2.7051 -2.5108 0.9471
13.0244 2.9677 -2.5108 0.9471
12.9619 3.2291 -2.5108 0.9471
12.8943 3.4893 -2.5108 0.9471
12.8213 3.7480 -2.5108 0.9471
12.7432 4.0052 -2.5107 0.9471
12.6598 4.2607 -2.5107 0.9471
12.4778 4.7665 -2.5106 0.9471
12.3792 5.0165 -2.5106 0.9471
12.1669 5.5103 -2.5105 0.9471
12.0533 5.7539 -2.5104 0.9471
11.8115 6.2339 -2.5103 0.9471
11.6834 6.4701 -2.5103 0.9471
11.4129 6.9346 -2.5101 0.9471
11.2708 7.1626 -2.5101 0.9471
11.1133 7.3806 -2.5076 0.9471
10.9465 7.5916 -2.5039 0.9472
10.6322 7.6950 -2.4669 0.9480
9.8533 7.7540 -2.3567 0.9502
9.5327 8.1435 -2.3566 0.9503
9.3665 8.3334 -2.3565 0.9503
9.1965 8.5198 -2.3564 0.9503
9.0229 8.7027 -2.3563 0.9503
8.8455 8.8821 -2.3562 0.9503
8.2924 9.3983 -2.3558 0.9503
8.1012 9.5628 -2.3557 0.9503
7.7092 9.8800 -2.3555 0.9503
7.3046 10.1811 -2.3552 0.9503
7.0979 10.3254 -2.3551 0.9503
6.8883 10.4656 -2.3550 0.9503
6.6760 10.6015 -2.3548 0.9503
6.2433 10.8603 -2.3546 0.9503
6.0232 10.9830 -2.3544 0.9503
5.8006 11.1013 -2.3543 0.9503
4.0747 8.1959 -1.7204 0.9634
4.0577 8.5910 -1.7858 0.9621
4.1737 9.3178 -1.9190 0.9593
4.8880 11.5289 -2.3537 0.9503
4.1828 11.8005 -2.3532 0.9503
2.8188 9.0998 -1.7906 0.9620
3.2196 12.0954 -2.3526 0.9503
1.7049 9.3870 -1.7933 0.9619
1.3177 9.3901 -1.7823 0.9621
1.1257 9.3916 -1.7779 0.9622
0.8473 8.5155 -1.6085 0.9658
0.7366 12.4859 -2.3509 0.9504
0.2336 12.5036 -2.3506 0.9504
-0.2696 12.5010 -2.3502 0.9504
-0.5210 12.4921 -2.3501 0.9504
-0.7722 12.4782 -2.3499 0.9504
-1.2735 12.4352 -2.3495 0.9504
-1.7725 12.3720 -2.3492 0.9504
-2.0209 12.3329 -2.3490 0.9504
-2.2685 12.2888 -2.3488 0.9504
-2.5151 12.2397 -2.3487 0.9504
-2.7607 12.1857 -2.3485 0.9504
-3.0051 12.1268 -2.3483 0.9504
-3.2482 12.0630 -2.3481 0.9504
-3.4900 11.9943 -2.3480 0.9504
-3.9692 11.8424 -2.3476 0.9504
-4.4418 11.6714 -2.3473 0.9504
-3.6621 8.1129 -1.6731 0.9644
-5.5896 11.1622 -2.3464 0.9505
-5.8127 11.0467 -2.3462 0.9505
-6.4672 10.6736 -2.3458 0.9505
-6.8904 10.4034 -2.3454 0.9505
-7.0979 10.2619 -2.3453 0.9505
-7.5040 9.9667 -2.3450 0.9505
-7.7025 9.8131 -2.3448 0.9505
-7.8979 9.6555 -2.3447 0.9505
-8.0901 9.4940 -2.3445 0.9505
-8.2789 9.3287 -2.3444 0.9505
-8.6465 8.9869 -2.3441 0.9505
-8.8250 8.8106 -2.3439 0.9505
-9.0000 8.6307 -2.3438 0.9505
-9.1713 8.4474 -2.3436 0.9505
-9.6625 7.8773 -2.3432 0.9505
-9.8880 7.7353 -2.3597 0.9502
-11.0736 7.3083 -2.4938 0.9474
-11.2213 7.0858 -2.4945 0.9474
-11.3610 6.8583 -2.4944 0.9474
-11.4962 6.6279 -2.4942 0.9474
-11.6267 6.3950 -2.4941 0.9474
-11.9897 5.6811 -2.4938 0.9474
-12.2076 5.1937 -2.4936 0.9474
-12.6652 3.9406 -2.4931 0.9474
-12.7416 3.6848 -2.4931 0.9474
-12.8787 3.1690 -2.4929 0.9475
-12.9395 2.9092 -2.4928 0.9475
-12.9951 2.6481 -2.4928 0.9475
-13.0454 2.3861 -2.4927 0.9475
-13.0905 2.1231 -2.4926 0.9475
-13.1939 1.3293 -2.4925 0.9475
-13.2362 0.7974 -2.4924 0.9475
-13.2486 -0.5361 -2.4922 0.9475
-13.2350 -0.8025 -2.4922 0.9475
-13.2161 -1.0687 -2.4922 0.9475
-13.1918 -1.3344 -2.4922 0.9475
-12.9911 -2.6527 -2.4922 0.9475
-12.8740 -3.1732 -2.4922 0.9475
-12.8076 -3.4316 -2.4922 0.9475
-12.7361 -3.6887 -2.4923 0.9475
-12.6594 -3.9442 -2.4923 0.9475
-12.5776 -4.1982 -2.4923 0.9475
-12.4908 -4.4505 -2.4923 0.9475
-12.3989 -4.7010 -2.4924 0.9475
-12.0933 -5.4408 -2.4925 0.9475
-11.9816 -5.6831 -2.4926 0.9475
-11.8651 -5.9231 -2.4926 0.9475
-11.2117 -7.0859 -2.4929 0.9474
-10.7648 -7.7501 -2.4932 0.9474
-10.6070 -7.9654 -2.4933 0.9474
-10.4449 -8.1775 -2.4934 0.9474
-10.2787 -8.3863 -2.4935 0.9474
-10.1082 -8.5918 -2.4935 0.9474
-9.7552 -8.9923 -2.4938 0.9474
-9.5727 -9.1871 -2.4939 0.9474
-9.3863 -9.3783 -2.4940 0.9474
-9.1961 -9.5657 -2.4941 0.9474
-9.0022 -9.7492 -2.4942 0.9474
-8.3988 -10.2761 -2.4946 0.9474
-8.1907 -10.4435 -2.4947 0.9474
-7.9794 -10.6067 -2.4948 0.9474
-6.8755 -11.3577 -2.4955 0.9474
-5.2151 -12.2156 -2.4965 0.9474
-4.9686 -12.3189 -2.4967 0.9474
-4.7200 -12.4171 -2.4969 0.9474
-3.9631 -12.6818 -2.4974 0.9474
-3.4501 -12.8327 -2.4977 0.9474
-3.1914 -12.9004 -2.4979 0.9473
-2.9314 -12.9629 -2.4980 0.9473
-2.6702 -13.0202 -2.4982 0.9473
-2.4078 -13.0722 -2.4984 0.9473
-2.1438 -13.1150 -2.4978 0.9473
-1.0409 -12.7373 -2.4021 0.9493
-0.7725 -12.5629 -2.3658 0.9501
-0.5156 -12.4780 -2.3474 0.9504
0.2382 -12.4891 -2.3479 0.9504
0.4895 -12.4827 -2.3481 0.9504
0.7406 -12.4713 -2.3482 0.9504
1.2420 -12.4332 -2.3486 0.9504
1.7415 -12.3751 -2.3489 0.9504
2.7317 -12.1986 -2.3496 0.9504
3.7047 -11.9431 -2.3504 0.9504
4.8874 -11.5148 -2.3512 0.9504
5.5895 -11.2317 -2.3581 0.9502
6.1602 -11.2225 -2.4063 0.9492
6.7560 -11.2132 -2.4606 0.9481
11.8496 0.7482 -2.5098 0.9526
11.8323 0.9864 -2.5098 0.9526
11.8101 1.2243 -2.5098 0.9526
11.7513 1.6985 -2.5098 0.9526
11.7147 1.9346 -2.5098 0.9526
11.5211 2.8702 -2.5098 0.9526
11.4609 3.1014 -2.5097 0.9526
11.3961 3.3314 -2.5097 0.9526
11.3267 3.5600 -2.5097 0.9526
11.1740 4.0127 -2.5096 0.9526
11.0909 4.2367 -2.5096 0.9526
11.0032 4.4589 -2.5096 0.9526
10.8146 4.8978 -2.5095 0.9526
10.7136 5.1143 -2.5094 0.9526
10.6083 5.3288 -2.5094 0.9526
10.3849 5.7511 -2.5093 0.9526
9.8879 6.5667 -2.5090 0.9526
9.7535 6.7642 -2.5090 0.9526
9.3208 7.3349 -2.5071 0.9527
8.6549 7.7003 -2.4487 0.9537
8.3224 7.7100 -2.3981 0.9547
8.0205 7.7359 -2.3555 0.9555
7.8629 7.8954 -2.3554 0.9555
7.5383 8.2047 -2.3552 0.9555
7.3713 8.3544 -2.3551 0.9555
7.2014 8.5006 -2.3550 0.9555
7.0286 8.6435 -2.3549 0.9555
6.8530 8.7827 -2.3548 0.9555
6.4935 9.0505 -2.3546 0.9555
6.1235 9.3035 -2.3543 0.9555
5.7436 9.5414 -2.3541 0.9555
5.5502 9.6545 -2.3540 0.9555
5.1567 9.8690 -2.3537 0.9555
4.9568 9.9702 -2.3536 0.9555
4.7549 10.0674 -2.3535 0.9555
4.1737 9.3177 -2.1582 0.9591
4.3455 10.2494 -2.3532 0.9555
3.9292 10.4147 -2.3529 0.9555
3.0784 10.6944 -2.3524 0.9555
1.8904 9.3359 -2.0135 0.9618
1.2419 8.8503 -1.8891 0.9641
1.0605 8.8477 -1.8836 0.9642
0.2077 11.1175 -2.3504 0.9556
-0.2397 11.1154 -2.3501 0.9556
-0.9097 11.0785 -2.3496 0.9556
-1.5761 11.0012 -2.3492 0.9556
-1.7970 10.9665 -2.3490 0.9556
-2.2365 10.8839 -2.3487 0.9556
-3.3173 10.6007 -2.3479 0.9556
-3.5297 10.5311 -2.3478 0.9556
-3.7406 10.4573 -2.3476 0.9556
-3.9500 10.3792 -2.3475 0.9556
-3.4632 8.1033 -1.8627 0.9646
-4.7705 10.0254 -2.3469 0.9556
-4.9710 9.9268 -2.3467 0.9556
-5.1694 9.8241 -2.3466 0.9556
-5.5597 9.6070 -2.3463 0.9556
-6.4946 8.9972 -2.3456 0.9556
-6.6739 8.8642 -2.3454 0.9556
-6.8505 8.7276 -2.3453 0.9557
-7.3633 8.2970 -2.3449 0.9557
-7.5284 8.1467 -2.3447 0.9557
-7.8492 7.8363 -2.3445 0.9557
-8.0639 7.7331 -2.3617 0.9553
-9.2989 7.2744 -2.4956 0.9529
-9.4438 7.0861 -2.4957 0.9529
-9.5840 6.8943 -2.4956 0.9529
-10.2258 5.8955 -2.4950 0.9529
-10.3419 5.6883 -2.4949 0.9529
-10.7641 4.8376 -2.4945 0.9529
-10.9493 4.4003 -2.4944 0.9529
-11.0352 4.1790 -2.4943 0.9529
-11.1167 3.9560 -2.4942 0.9529
-11.1937 3.7314 -2.4941 0.9529
-11.2662 3.5053 -2.4941 0.9529
-11.3341 3.2778 -2.4940 0.9529
-11.6046 2.1225 -2.4937 0.9529
-11.6801 1.6538 -2.4936 0.9529
-11.7108 1.4185 -2.4935 0.9529
-11.7580 0.9461 -2.4934 0.9529
-11.7745 0.7093 -2.4934 0.9529
-11.7862 0.4723 -2.4934 0.9529
-11.7954 -0.0023 -2.4933 0.9529
-11.7929 -0.2397 -2.4933 0.9529
-11.7855 -0.4769 -2.4933 0.9529
-11.7088 -1.4229 -2.4932 0.9529
-11.6778 -1.6582 -2.4932 0.9529
-11.6421 -1.8929 -2.4932 0.9529
-11.5068 -2.5918 -2.4932 0.9529
-11.3933 -3.0527 -2.4933 0.9529
-11.3297 -3.2813 -2.4933 0.9529
-11.2614 -3.5087 -2.4933 0.9529
-10.8528 -4.6224 -2.4935 0.9529
-10.3346 -5.6896 -2.4937 0.9529
-10.2183 -5.8966 -2.4938 0.9529
-10.0978 -6.1011 -2.4938 0.9529
-9.9733 -6.3032 -2.4939 0.9529
-9.8447 -6.5028 -2.4940 0.9529
-9.5756 -6.8940 -2.4941 0.9529
-9.4353 -7.0855 -2.4942 0.9529
-9.1431 -7.4599 -2.4943 0.9529
-8.9915 -7.6426 -2.4944 0.9529
-8.5150 -8.1720 -2.4947 0.9529
-8.0074 -8.6719 -2.4950 0.9529
-7.8316 -8.8316 -2.4951 0.9529
-7.6526 -8.9878 -2.4952 0.9529
-7.4706 -9.1404 -2.4953 0.9529
-7.2855 -9.2892 -2.4954 0.9529
-7.0974 -9.4344 -2.4955 0.9529
-6.7127 -9.7132 -2.4958 0.9529
-6.5162 -9.8468 -2.4959 0.9529
-5.9112 -10.2235 -2.4963 0.9529
-5.7046 -10.3410 -2.4964 0.9529
-5.4957 -10.4542 -2.4965 0.9529
-5.2845 -10.5632 -2.4967 0.9529
-5.0712 -10.6680 -2.4968 0.9529
-4.8557 -10.7685 -2.4970 0.9529
-4.6383 -10.8646 -2.4971 0.9529
-4.4190 -10.9564 -2.4972 0.9528
-4.1979 -11.0437 -2.4974 0.9528
-3.7506 -11.2050 -2.4977 0.9528
-3.5246 -11.2788 -2.4978 0.9528
-3.2972 -11.3481 -2.4980 0.9528
-3.0684 -11.4129 -2.4981 0.9528
-2.8383 -11.4730 -2.4983 0.9528
-2.3747 -11.5794 -2.4986 0.9528
-2.1413 -11.6255 -2.4987 0.9528
-1.6721 -11.7037 -2.4991 0.9528
-1.4363 -11.7358 -2.4992 0.9528
-1.2000 -11.7630 -2.4994 0.9528
-0.7258 -11.8033 -2.4997 0.9528
-0.2502 -11.8164 -2.4983 0.9528
0.4624 -11.7896 -2.4940 0.9529
0.9296 -11.6764 -2.4760 0.9532
1.1590 -11.6023 -2.4647 0.9534
1.6141 -11.4698 -2.4484 0.9537
2.9957 -11.2367 -2.4582 0.9536
3.7235 -11.2019 -2.4952 0.9529
4.1759 -11.0555 -2.4981 0.9528
4.6231 -10.8921 -2.5012 0.9528
5.0629 -10.7086 -2.5038 0.9527
5.2777 -10.6052 -2.5040 0.9527
5.7009 -10.3856 -2.5043 0.9527
6.1149 -10.1491 -2.5046 0.9527
6.3182 -10.0246 -2.5048 0.9527
10.5656 1.5271 -2.5090 0.9571
10.5327 1.7394 -2.5090 0.9571
10.4085 2.3717 -2.5089 0.9571
10.3586 2.5806 -2.5089 0.9571
10.2463 2.9952 -2.5089 0.9571
10.1839 3.2008 -2.5089 0.9571
10.1173 3.4050 -2.5089 0.9571
9.9719 3.8092 -2.5088 0.9571
9.8103 4.2072 -2.5087 0.9571
9.7235 4.4037 -2.5087 0.9571
9.5381 4.7913 -2.5086 0.9571
9.4396 4.9820 -2.5086 0.9571
9.3373 5.1708 -2.5085 0.9571
9.0077 5.7244 -2.5083 0.9571
8.8904 5.9043 -2.5083 0.9571
7.5133 7.5443 -2.5024 0.9572
7.0747 7.7002 -2.4576 0.9579
6.1621 7.8973 -2.3542 0.9597
6.0017 8.0193 -2.3541 0.9597
5.8388 8.1381 -2.3540 0.9597
5.6737 8.2536 -2.3539 0.9597
4.8149 8.7797 -2.3534 0.9597
4.2758 9.0529 -2.3530 0.9597
4.0926 9.1367 -2.3529 0.9597
3.9077 9.2167 -2.3528 0.9597
3.7213 9.2929 -2.3527 0.9597
3.5333 9.3655 -2.3525 0.9597
3.0960 9.3263 -2.3096 0.9604
2.3789 9.7197 -2.3518 0.9597
2.1827 9.7651 -2.3516 0.9597
1.8904 9.3359 -2.2387 0.9616
1.5893 9.8773 -2.3512 0.9597
1.1905 9.9321 -2.3510 0.9597
0.8473 8.5154 -2.0112 0.9654
0.5890 9.9841 -2.3506 0.9597
0.3880 9.9933 -2.3504 0.9597
0.1868 9.9985 -2.3503 0.9597
-0.0144 9.9996 -2.3501 0.9597
-0.6176 9.9788 -2.3497 0.9598
-1.0184 9.9447 -2.3494 0.9598
-1.2182 9.9215 -2.3493 0.9598
-1.4175 9.8944 -2.3492 0.9598
-1.6163 9.8633 -2.3490 0.9598
-1.8143 9.8282 -2.3489 0.9598
-2.0115 9.7892 -2.3487 0.9598
-2.4035 9.6991 -2.3485 0.9598
-2.5980 9.6482 -2.3483 0.9598
-2.7914 9.5934 -2.3482 0.9598
-3.5529 9.3357 -2.3476 0.9598
-3.7398 9.2618 -2.3475 0.9598
-3.6541 8.0952 -2.0874 0.9642
-4.2910 9.0177 -2.3471 0.9598
-4.4713 8.9291 -2.3469 0.9598
-4.8264 8.7409 -2.3467 0.9598
-5.1736 8.5387 -2.3464 0.9598
-5.3441 8.4324 -2.3463 0.9598
-5.5124 8.3228 -2.3462 0.9598
-5.6784 8.2097 -2.3460 0.9598
-6.1624 7.8509 -2.3457 0.9598
-6.3286 7.7369 -2.3492 0.9598
-6.5845 7.7271 -2.3860 0.9591
-7.1271 7.7124 -2.4680 0.9578
-7.3480 7.6373 -2.4908 0.9574
-7.5071 7.4948 -2.4931 0.9573
-7.6635 7.3491 -2.4954 0.9573
-7.9571 7.0384 -2.4967 0.9573
-8.0967 6.8766 -2.4966 0.9573
-8.3661 6.5447 -2.4964 0.9573
-8.9793 5.6701 -2.4959 0.9573
-9.0912 5.4881 -2.4958 0.9573
-9.1995 5.3038 -2.4957 0.9573
-9.3040 5.1174 -2.4956 0.9573
-9.4047 4.9290 -2.4955 0.9573
-9.5017 4.7386 -2.4954 0.9573
-9.5948 4.5463 -2.4953 0.9573
-9.6840 4.3522 -2.4952 0.9573
-9.8506 3.9588 -2.4951 0.9573
-9.9280 3.7597 -2.4950 0.9573
-10.0013 3.5591 -2.4949 0.9573
-10.1970 2.9490 -2.4947 0.9573
-10.3069 2.5362 -2.4946 0.9573
-10.3556 2.3282 -2.4946 0.9573
-10.4405 1.9096 -2.4945 0.9573
-10.4766 1.6991 -2.4944 0.9573
-10.5084 1.4879 -2.4944 0.9573
-10.5595 1.0639 -2.4943 0.9573
-10.5786 0.8512 -2.4942 0.9573
-10.5934 0.6382 -2.4942 0.9573
-10.6040 0.4249 -2.4942 0.9573
-10.6103 0.2114 -2.4942 0.9573
-10.6100 -0.2156 -2.4941 0.9573
-10.6034 -0.4291 -2.4941 0.9573
-10.5926 -0.6423 -2.4941 0.9573
-10.5775 -0.8553 -2.4941 0.9573
-10.5581 -1.0680 -2.4941 0.9573
-10.5065 -1.4919 -2.4940 0.9573
-10.4744 -1.7030 -2.4940 0.9573
-10.3974 -2.1230 -2.4940 0.9573
-10.1319 -3.1567 -2.4941 0.9573
-10.0664 -3.3600 -2.4941 0.9573
-9.6786 -4.3544 -2.4943 0.9573
-9.5892 -4.5483 -2.4943 0.9573
-9.4959 -4.7404 -2.4944 0.9573
-9.3988 -4.9306 -2.4944 0.9573
-9.2979 -5.1188 -2.4945 0.9573
-9.1932 -5.3050 -2.4945 0.9573
-9.0848 -5.4890 -2.4946 0.9573
-8.9727 -5.6709 -2.4947 0.9573
-8.8570 -5.8504 -2.4947 0.9573
-8.7377 -6.0275 -2.4948 0.9573
-8.0892 -6.8757 -2.4951 0.9573
-7.9495 -7.0373 -2.4952 0.9573
-7.8066 -7.1961 -2.4953 0.9573
-7.6605 -7.3519 -2.4954 0.9573
-7.2037 -7.8015 -2.4956 0.9573
-6.8845 -8.0857 -2.4958 0.9573
-6.5542 -8.3568 -2.4960 0.9573
-6.3849 -8.4873 -2.4961 0.9573
-6.2131 -8.6144 -2.4962 0.9573
-6.0388 -8.7381 -2.4964 0.9573
-5.6829 -8.9748 -2.4966 0.9573
-5.3177 -9.1970 -2.4968 0.9573
-5.1318 -9.3026 -2.4969 0.9573
-4.7538 -9.5024 -2.4972 0.9573
-4.3681 -9.6869 -2.4974 0.9573
-3.9752 -9.8558 -2.4977 0.9573
-3.7763 -9.9343 -2.4978 0.9573
-3.5758 -10.0088 -2.4979 0.9573
-3.1705 -10.1457 -2.4982 0.9573
-2.7601 -10.2662 -2.4985 0.9573
-2.5531 -10.3202 -2.4986 0.9573
-2.1360 -10.4157 -2.4989 0.9573
-1.5040 -10.5274 -2.4993 0.9572
-0.6529 -10.6167 -2.4999 0.9572
-0.2252 -10.6356 -2.5002 0.9572
-0.0112 -10.6386 -2.5003 0.9572
0.2029 -10.6373 -2.5005 0.9572
0.4169 -10.6317 -2.5006 0.9572
1.4832 -10.5392 -2.5014 0.9572
1.6950 -10.5079 -2.5015 0.9572
1.9062 -10.4722 -2.5017 0.9572
2.1167 -10.4324 -2.5018 0.9572
2.5350 -10.3400 -2.5021 0.9572
2.9493 -10.2309 -2.5024 0.9572
3.3590 -10.1052 -2.5027 0.9572
3.9632 -9.8858 -2.5032 0.9572
4.3582 -9.7195 -2.5034 0.9572
4.5532 -9.6304 -2.5036 0.9572
4.9375 -9.4405 -2.5039 0.9572
5.1268 -9.3398 -2.5040 0.9572
5.4990 -9.1270 -2.5043 0.9572
9.6681 0.6104 -2.5082 0.9608
9.6539 0.8048 -2.5082 0.9608
9.6358 0.9989 -2.5083 0.9608
9.5580 1.5784 -2.5083 0.9608
9.4868 1.9617 -2.5083 0.9608
9.2415 2.9046 -2.5082 0.9608
9.1811 3.0899 -2.5082 0.9608
9.1170 3.2740 -2.5081 0.9608
9.0492 3.4567 -2.5081 0.9608
8.8238 3.9962 -2.5080 0.9608
8.4733 4.6924 -2.5079 0.9608
8.3771 4.8619 -2.5078 0.9608
8.2774 5.0294 -2.5078 0.9608
8.1743 5.1948 -2.5077 0.9608
8.0680 5.3581 -2.5076 0.9608
7.8455 5.6781 -2.5075 0.9608
7.7294 5.8346 -2.5075 0.9608
7.4880 6.1406 -2.5073 0.9608
7.3627 6.2898 -2.5073 0.9608
7.1033 6.5806 -2.5071 0.9608
6.9692 6.7220 -2.5070 0.9608
6.8324 6.8606 -2.5069 0.9608
6.5504 7.1295 -2.5068 0.9608
6.4047 7.2588 -2.5064 0.9608
6.2520 7.3799 -2.5043 0.9608
5.9402 7.6129 -2.5002 0.9609
5.5262 7.7023 -2.4545 0.9616
5.0776 7.7145 -2.3912 0.9626
4.8615 7.7201 -2.3622 0.9630
4.6872 7.7865 -2.3532 0.9631
4.5294 7.8789 -2.3531 0.9631
4.3698 7.9681 -2.3530 0.9631
4.0453 8.1368 -2.3528 0.9631
3.8806 8.2162 -2.3527 0.9632
2.8620 8.6213 -2.3520 0.9632
2.6878 8.6767 -2.3519 0.9632
2.1591 8.8218 -2.3515 0.9632
1.8022 8.9006 -2.3513 0.9632
1.4425 8.9650 -2.3510 0.9632
1.2618 8.9917 -2.3509 0.9632
1.0805 9.0148 -2.3508 0.9632
0.8473 8.5154 -2.2157 0.9653
0.7169 9.0500 -2.3506 0.9632
0.5346 9.0621 -2.3504 0.9632
0.3521 9.0706 -2.3503 0.9632
0.1696 9.0753 -2.3502 0.9632
-0.0131 9.0764 -2.3500 0.9632
-0.3782 9.0676 -2.3498 0.9632
-0.5606 9.0576 -2.3497 0.9632
-0.9244 9.0268 -2.3494 0.9632
-1.2867 8.9813 -2.3492 0.9632
-1.6469 8.9213 -2.3489 0.9632
-2.0042 8.8468 -2.3486 0.9632
-2.1817 8.8042 -2.3485 0.9632
-2.7085 8.6552 -2.3481 0.9632
-2.8819 8.5985 -2.3480 0.9632
-3.4557 8.0856 -2.2767 0.9643
-4.0590 8.1057 -2.3471 0.9632
-4.2211 8.0220 -2.3470 0.9632
-5.3382 7.7177 -2.4297 0.9620
-5.5668 7.7119 -2.4626 0.9615
-5.7869 7.6860 -2.4910 0.9610
-6.1003 7.4578 -2.4947 0.9610
-6.2539 7.3391 -2.4966 0.9609
-6.4035 7.2155 -2.4978 0.9609
-6.5471 7.0848 -2.4977 0.9609
-6.6880 6.9513 -2.4976 0.9609
-6.8263 6.8151 -2.4975 0.9609
-7.0943 6.5343 -2.4973 0.9609
-7.2240 6.3900 -2.4972 0.9609
-7.3508 6.2431 -2.4971 0.9609
-7.4747 6.0937 -2.4970 0.9609
-7.8278 5.6310 -2.4967 0.9609
-7.9392 5.4721 -2.4966 0.9609
-8.0474 5.3111 -2.4965 0.9609
-8.3523 4.8154 -2.4962 0.9609
-8.4472 4.6462 -2.4961 0.9609
-8.7113 4.1277 -2.4959 0.9610
-8.7923 3.9515 -2.4958 0.9610
-8.9436 3.5943 -2.4957 0.9610
-9.0139 3.4135 -2.4956 0.9610
-9.0805 3.2314 -2.4955 0.9610
-9.1435 3.0480 -2.4955 0.9610
-9.2583 2.6775 -2.4954 0.9610
-9.3100 2.4906 -2.4953 0.9610
-9.3581 2.3027 -2.4952 0.9610
-9.4023 2.1139 -2.4952 0.9610
-9.4794 1.7338 -2.4951 0.9610
-9.5122 1.5427 -2.4951 0.9610
-9.6280 0.3858 -2.4949 0.9610
-9.6355 -0.0019 -2.4948 0.9610
-9.5863 -0.9697 -2.4947 0.9610
-9.5649 -1.1624 -2.4947 0.9610
-9.5103 -1.5463 -2.4947 0.9610
-9.4773 -1.7373 -2.4947 0.9610
-9.4404 -1.9277 -2.4947 0.9610
-9.3553 -2.3059 -2.4948 0.9610
-9.1399 -3.0508 -2.4948 0.9610
-8.7065 -4.1297 -2.4950 0.9610
-8.2485 -4.9837 -2.4952 0.9610
-7.4683 -6.0934 -2.4956 0.9610
-7.3444 -6.2426 -2.4957 0.9610
-7.0877 -6.5335 -2.4959 0.9610
-6.8196 -6.8138 -2.4960 0.9610
-6.6813 -6.9498 -2.4961 0.9609
-6.3967 -7.2135 -2.4963 0.9609
-5.7968 -7.7056 -2.4966 0.9609
-5.4826 -7.9332 -2.4968 0.9609
-5.1593 -8.1480 -2.4970 0.9609
-4.9946 -8.2505 -2.4971 0.9609
-4.8277 -8.3497 -2.4972 0.9609
-4.1415 -8.7123 -2.4977 0.9609
-3.9655 -8.7943 -2.4978 0.9609
-3.7880 -8.8727 -2.4979 0.9609
-3.6088 -8.9475 -2.4980 0.9609
-3.4282 -9.0188 -2.4981 0.9609
-2.6925 -9.2670 -2.4986 0.9609
-2.5056 -9.3197 -2.4987 0.9609
-2.1288 -9.4140 -2.4990 0.9609
-1.9391 -9.4554 -2.4991 0.9609
-1.5573 -9.5267 -2.4994 0.9609
-1.3653 -9.5566 -2.4995 0.9609
-1.1728 -9.5826 -2.4996 0.9609
-0.3986 -9.6479 -2.5002 0.9609
-0.0101 -9.6572 -2.5004 0.9609
0.1842 -9.6560 -2.5006 0.9609
0.5726 -9.6418 -2.5008 0.9609
0.7665 -9.6288 -2.5010 0.9609
0.9602 -9.6120 -2.5011 0.9609
1.1535 -9.5912 -2.5012 0.9609
1.3463 -9.5666 -2.5014 0.9609
1.5386 -9.5381 -2.5015 0.9609
2.4895 -9.3379 -2.5022 0.9609
2.6770 -9.2864 -2.5023 0.9609
3.0488 -9.1721 -2.5026 0.9608
3.2329 -9.1094 -2.5027 0.9608
3.9557 -8.8219 -2.5033 0.9608
4.4815 -8.5685 -2.5037 0.9608
8.8109 0.9134 -2.5077 0.9638
8.7908 1.0905 -2.5077 0.9638
8.7671 1.2672 -2.5077 0.9638
8.7398 1.4433 -2.5077 0.9638
8.5954 2.1413 -2.5077 0.9638
8.5505 2.3138 -2.5076 0.9638
8.5022 2.4854 -2.5076 0.9638
8.2092 3.3266 -2.5075 0.9638
8.0685 3.6541 -2.5075 0.9638
7.9932 3.8157 -2.5074 0.9638
7.7481 4.2908 -2.5073 0.9639
7.6600 4.4457 -2.5073 0.9639
7.5689 4.5989 -2.5072 0.9639
7.4747 4.7502 -2.5072 0.9639
7.2772 5.0468 -2.5071 0.9639
7.1740 5.1921 -2.5070 0.9639
6.9590 5.4763 -2.5069 0.9639
6.8472 5.6151 -2.5068 0.9639
5.9899 6.5195 -2.5063 0.9639
5.7224 6.7547 -2.5062 0.9639
5.1600 7.1920 -2.5058 0.9639
5.0125 7.2918 -2.5049 0.9639
4.8615 7.3862 -2.5033 0.9639
4.7088 7.4776 -2.5016 0.9639
4.3986 7.6514 -2.4985 0.9640
4.2216 7.6979 -2.4854 0.9642
3.6423 7.7116 -2.4144 0.9652
3.4561 7.7157 -2.3934 0.9655
3.2729 7.7196 -2.3737 0.9657
3.0939 7.7260 -2.3560 0.9660
2.9326 7.7733 -2.3519 0.9661
2.1366 8.0267 -2.3514 0.9661
1.6482 8.1399 -2.3511 0.9661
1.4840 8.1710 -2.3510 0.9661
1.3192 8.1988 -2.3509 0.9661
1.1539 8.2233 -2.3508 0.9661
0.9882 8.2445 -2.3507 0.9661
0.4889 8.2879 -2.3503 0.9661
0.1551 8.3000 -2.3501 0.9661
-0.5127 8.2840 -2.3496 0.9661
-0.8455 8.2558 -2.3494 0.9661
-1.5062 8.1595 -2.3489 0.9661
-1.6700 8.1271 -2.3488 0.9661
-1.9955 8.0525 -2.3486 0.9661
-2.1570 8.0104 -2.3485 0.9661
-2.6359 7.8645 -2.3481 0.9661
-2.7935 7.8095 -2.3480 0.9661
-2.9499 7.7513 -2.3479 0.9661
-3.3017 7.7252 -2.3783 0.9657
-3.4855 7.7217 -2.3983 0.9654
-3.8629 7.7139 -2.4423 0.9648
-4.2545 7.7052 -2.4917 0.9641
-4.4110 7.6221 -2.4930 0.9641
-4.5660 7.5358 -2.4944 0.9640
-4.7193 7.4466 -2.4958 0.9640
-4.8710 7.3544 -2.4972 0.9640
-5.5876 6.8310 -2.4983 0.9640
-5.8574 6.6001 -2.4981 0.9640
-5.9888 6.4806 -2.4980 0.9640
-6.2442 6.2339 -2.4978 0.9640
-6.6081 5.8452 -2.4975 0.9640
-7.0556 5.2942 -2.4972 0.9640
-7.1605 5.1509 -2.4971 0.9640
-7.3614 4.8583 -2.4969 0.9640
-7.6404 4.4049 -2.4967 0.9640
-7.8109 4.0937 -2.4965 0.9640
-7.8915 3.9356 -2.4964 0.9640
-7.9689 3.7759 -2.4964 0.9640
-8.2458 3.1227 -2.4961 0.9640
-8.3644 2.7882 -2.4960 0.9640
-8.4186 2.6193 -2.4959 0.9640
-8.4694 2.4493 -2.4959 0.9640
-8.5607 2.1065 -2.4958 0.9640
-8.6012 1.9338 -2.4957 0.9640
-8.7707 0.8837 -2.4955 0.9640
-8.7990 0.5301 -2.4954 0.9640
-8.8128 -0.1791 -2.4954 0.9640
-8.7697 -0.8871 -2.4953 0.9640
-8.7500 -1.0633 -2.4953 0.9640
-8.7269 -1.2392 -2.4953 0.9640
-8.7002 -1.4145 -2.4953 0.9640
-8.6700 -1.5893 -2.4953 0.9640
-8.5990 -1.9369 -2.4953 0.9640
-8.5584 -2.1095 -2.4953 0.9640
-8.5142 -2.2813 -2.4953 0.9640
-8.4667 -2.4521 -2.4954 0.9640
-8.4157 -2.6221 -2.4954 0.9640
-8.3612 -2.7909 -2.4954 0.9640
-8.3035 -2.9586 -2.4954 0.9640
-8.2423 -3.1251 -2.4954 0.9640
-8.1101 -3.4542 -2.4955 0.9640
-8.0391 -3.6168 -2.4955 0.9640
-7.9648 -3.7778 -2.4956 0.9640
-7.8873 -3.9374 -2.4956 0.9640
-7.6357 -4.4063 -2.4957 0.9640
-7.4526 -4.7101 -2.4958 0.9640
-7.1553 -5.1515 -2.4960 0.9640
-7.0503 -5.2945 -2.4960 0.9640
-6.9425 -5.4354 -2.4961 0.9640
-6.8319 -5.5742 -2.4961 0.9640
-6.4837 -5.9767 -2.4963 0.9640
-6.3623 -6.1061 -2.4964 0.9640
-6.1119 -6.3575 -2.4966 0.9640
-5.9829 -6.4794 -2.4966 0.9640
-5.8515 -6.5987 -2.4967 0.9640
-5.7177 -6.7153 -2.4968 0.9640
-4.2617 -7.7254 -2.4977 0.9640
-4.1056 -7.8098 -2.4978 0.9640
-3.7883 -7.9694 -2.4980 0.9640
-3.3010 -8.1844 -2.4983 0.9640
-3.1358 -8.2495 -2.4984 0.9640
-2.6328 -8.4248 -2.4987 0.9640
-2.4628 -8.4765 -2.4989 0.9640
-2.1200 -8.5695 -2.4991 0.9640
-1.9472 -8.6108 -2.4992 0.9640
-1.5993 -8.6829 -2.4994 0.9640
-0.8962 -8.7851 -2.4999 0.9640
-0.7193 -8.8018 -2.5000 0.9640
-0.0093 -8.8329 -2.5005 0.9639
0.3462 -8.8269 -2.5008 0.9639
0.5237 -8.8186 -2.5009 0.9639
0.8782 -8.7913 -2.5011 0.9639
1.2313 -8.7497 -2.5014 0.9639
1.7572 -8.6608 -2.5018 0.9639
1.9312 -8.6241 -2.5019 0.9639
2.1045 -8.5839 -2.5020 0.9639
2.6189 -8.4426 -2.5024 0.9639
2.7884 -8.3886 -2.5025 0.9639
2.9567 -8.3312 -2.5026 0.9639
3.1239 -8.2704 -2.5027 0.9639
3.2898 -8.2063 -2.5029 0.9639
3.9398 -7.9167 -2.5033 0.9639
4.2555 -7.7525 -2.5036 0.9639
4.4108 -7.6657 -2.5037 0.9639
8.1351 0.5136 -2.5072 0.9665
8.1232 0.6772 -2.5072 0.9665
8.0894 1.0035 -2.5072 0.9665
8.0675 1.1661 -2.5072 0.9665
8.0425 1.3282 -2.5072 0.9665
8.0141 1.4897 -2.5072 0.9665
7.9476 1.8109 -2.5072 0.9665
7.8683 2.1292 -2.5072 0.9665
7.8238 2.2871 -2.5071 0.9665
7.7761 2.4440 -2.5071 0.9665
7.7253 2.6000 -2.5071 0.9665
7.4910 3.2126 -2.5070 0.9665
7.4248 3.3626 -2.5070 0.9665
7.3555 3.5113 -2.5069 0.9665
7.2081 3.8043 -2.5069 0.9665
6.7889 4.5087 -2.5067 0.9665
6.6967 4.6442 -2.5066 0.9665
6.6017 4.7779 -2.5066 0.9665
6.5041 4.9097 -2.5065 0.9665
6.4039 5.0395 -2.5065 0.9665
6.0878 5.4163 -2.5063 0.9665
5.6320 5.8876 -2.5060 0.9665
5.5122 5.9996 -2.5059 0.9665
5.3902 6.1091 -2.5059 0.9665
5.2661 6.2161 -2.5058 0.9665
5.0114 6.4225 -2.5056 0.9665
4.8810 6.5219 -2.5056 0.9665
4.7486 6.6185 -2.5055 0.9665
4.6143 6.7125 -2.5054 0.9665
4.3402 6.8923 -2.5052 0.9665
4.0591 7.0608 -2.5051 0.9665
3.7715 7.2179 -2.5049 0.9665
3.4751 7.3577 -2.5028 0.9665
3.3248 7.4226 -2.5016 0.9665
2.8672 7.5997 -2.4983 0.9666
2.7126 7.6528 -2.4973 0.9666
2.3855 7.7008 -2.4796 0.9668
2.2175 7.7036 -2.4657 0.9670
2.0512 7.7061 -2.4528 0.9672
1.5617 7.7126 -2.4204 0.9676
1.4011 7.7144 -2.4116 0.9677
1.0830 7.7174 -2.3970 0.9679
0.9252 7.7187 -2.3911 0.9680
0.7681 7.7197 -2.3861 0.9681
0.6116 7.7206 -2.3821 0.9681
0.4555 7.7214 -2.3791 0.9681
0.2998 7.7219 -2.3769 0.9682
-0.3221 7.7224 -2.3773 0.9682
-0.4779 7.7222 -2.3797 0.9681
-0.6341 7.7217 -2.3830 0.9681
-0.9480 7.7203 -2.3924 0.9680
-1.1059 7.7193 -2.3985 0.9679
-1.2647 7.7182 -2.4056 0.9678
-1.4245 7.7168 -2.4136 0.9677
-1.5854 7.7153 -2.4226 0.9676
-1.7475 7.7136 -2.4327 0.9674
-1.9110 7.7118 -2.4437 0.9673
-2.0760 7.7097 -2.4558 0.9671
-2.2427 7.7074 -2.4689 0.9670
-2.5760 7.6857 -2.4932 0.9666
-2.7310 7.6346 -2.4940 0.9666
-3.0379 7.5236 -2.4956 0.9666
-3.4903 7.3350 -2.4985 0.9666
-3.7843 7.1919 -2.4996 0.9666
-3.9281 7.1140 -2.4995 0.9666
-4.0703 7.0333 -2.4994 0.9666
-4.6218 6.6821 -2.4990 0.9666
-5.0159 6.3903 -2.4987 0.9666
-5.2686 6.1828 -2.4985 0.9666
-5.3917 6.0753 -2.4984 0.9666
-6.0828 5.3805 -2.4978 0.9666
-6.1896 5.2569 -2.4978 0.9666
-6.4948 4.8733 -2.4975 0.9666
-6.5914 4.7416 -2.4974 0.9666
-6.7764 4.4722 -2.4973 0.9666
-6.8648 4.3348 -2.4972 0.9666
-7.0332 4.0549 -2.4970 0.9666
-7.1132 3.9125 -2.4970 0.9666
-7.2645 3.6229 -2.4968 0.9666
-7.4692 3.1778 -2.4966 0.9666
-7.5315 3.0268 -2.4966 0.9666
-7.5907 2.8746 -2.4965 0.9666
-7.7966 2.2548 -2.4963 0.9666
-7.8402 2.0974 -2.4963 0.9666
-7.9521 1.6204 -2.4961 0.9666
-7.9829 1.4601 -2.4961 0.9666
-8.0350 1.1377 -2.4960 0.9666
-8.0561 0.9758 -2.4960 0.9666
-8.0740 0.8135 -2.4960 0.9666
-8.0887 0.6508 -2.4959 0.9666
-8.1001 0.4880 -2.4959 0.9666
-8.1082 0.3249 -2.4959 0.9666
-8.1145 -0.0016 -2.4959 0.9666
-8.1128 -0.1649 -2.4958 0.9666
-8.1078 -0.3281 -2.4958 0.9666
-8.0880 -0.6540 -2.4958 0.9666
-8.0731 -0.8166 -2.4958 0.9666
-8.0551 -0.9789 -2.4958 0.9666
-8.0092 -1.3022 -2.4958 0.9666
-7.9813 -1.4631 -2.4958 0.9666
-7.8380 -2.1001 -2.4958 0.9666
-7.7472 -2.4138 -2.4959 0.9666
-7.6971 -2.5692 -2.4959 0.9666
-7.5877 -2.8768 -2.4959 0.9666
-7.5283 -3.0290 -2.4959 0.9666
-7.4659 -3.1799 -2.4960 0.9666
-7.3321 -3.4777 -2.4960 0.9666
-6.9463 -4.1970 -2.4962 0.9666
-6.7720 -4.4732 -2.4963 0.9666
-6.4902 -4.8739 -2.4965 0.9666
-6.3910 -5.0036 -2.4965 0.9666
-6.2891 -5.1313 -2.4966 0.9666
-6.1848 -5.2569 -2.4966 0.9666
-6.0779 -5.3804 -2.4967 0.9666
-5.9685 -5.5018 -2.4968 0.9666
-5.8568 -5.6209 -2.4968 0.9666
-5.2633 -6.1816 -2.4972 0.9666
-5.1380 -6.2865 -2.4972 0.9666
-4.8812 -6.4885 -2.4974 0.9666
-4.6165 -6.6801 -2.4976 0.9666
-3.9229 -7.1112 -2.4980 0.9666
-3.7792 -7.1890 -2.4981 0.9666
-3.6339 -7.2638 -2.4982 0.9666
-3.1894 -7.4707 -2.4985 0.9666
-2.7332 -7.6504 -2.4988 0.9666
-2.5788 -7.7042 -2.4989 0.9666
-2.4234 -7.7548 -2.4990 0.9666
-2.2670 -7.8023 -2.4991 0.9666
-1.9514 -7.8879 -2.4993 0.9666
-1.7923 -7.9259 -2.4994 0.9666
-1.4721 -7.9922 -2.4996 0.9666
-1.1495 -8.0457 -2.4998 0.9666
-0.3356 -8.1223 -2.5004 0.9666
-0.1721 -8.1277 -2.5005 0.9666
-0.0085 -8.1299 -2.5006 0.9665
0.1551 -8.1288 -2.5007 0.9665
0.3186 -8.1244 -2.5008 0.9665
0.4820 -8.1167 -2.5009 0.9665
0.6453 -8.1058 -2.5010 0.9665
0.8083 -8.0915 -2.5012 0.9665
1.4565 -8.0018 -2.5016 0.9665
1.9369 -7.9004 -2.5020 0.9665
2.0956 -7.8602 -2.5021 0.9665
2.8751 -7.6117 -2.5026 0.9665
3.0278 -7.5527 -2.5028 0.9665
3.3295 -7.4254 -2.5030 0.9665
3.4784 -7.3572 -2.5031 0.9665
3.7719 -7.2119 -2.5033 0.9665
3.9165 -7.1349 -2.5034 0.9665
4.2007 -6.9721 -2.5036 0.9665
4.3403 -6.8865 -2.5037 0.9665
7.5010 0.7776 -2.5068 0.9687
7.4839 0.9284 -2.5068 0.9687
7.4405 1.2288 -2.5068 0.9687
7.4143 1.3782 -2.5068 0.9687
7.3528 1.6754 -2.5067 0.9687
7.2382 2.1159 -2.5067 0.9687
7.1941 2.2611 -2.5067 0.9687
7.1471 2.4054 -2.5067 0.9687
7.0972 2.5487 -2.5067 0.9687
7.0445 2.6910 -2.5066 0.9687
6.9888 2.8321 -2.5066 0.9687
6.9304 2.9721 -2.5066 0.9687
6.2809 4.1712 -2.5063 0.9687
6.1077 4.4204 -2.5062 0.9687
6.0174 4.5423 -2.5061 0.9687
5.8296 4.7806 -2.5060 0.9687
5.7321 4.8968 -2.5060 0.9687
5.6323 5.0110 -2.5059 0.9687
5.4258 5.2333 -2.5058 0.9687
5.2106 5.4471 -2.5057 0.9687
4.8721 5.7511 -2.5055 0.9687
4.7553 5.8478 -2.5054 0.9687
4.6365 5.9421 -2.5053 0.9687
4.3934 6.1235 -2.5052 0.9687
3.8864 6.4561 -2.5049 0.9687
3.3542 6.7467 -2.5045 0.9687
3.2177 6.8127 -2.5044 0.9687
3.0798 6.8758 -2.5044 0.9687
2.9408 6.9361 -2.5043 0.9687
2.6591 7.0483 -2.5041 0.9687
2.3732 7.1490 -2.5039 0.9687
2.2288 7.1951 -2.5038 0.9687
1.9370 7.2770 -2.5031 0.9688
1.7897 7.3124 -2.5024 0.9688
1.6418 7.3450 -2.5018 0.9688
1.4933 7.3748 -2.5012 0.9688
1.1949 7.4258 -2.5001 0.9688
1.0450 7.4470 -2.4997 0.9688
0.8948 7.4652 -2.4993 0.9688
0.7443 7.4806 -2.4989 0.9688
0.2915 7.5096 -2.4981 0.9688
-0.3131 7.5076 -2.4977 0.9688
-0.4642 7.4998 -2.4978 0.9688
-0.6150 7.4892 -2.4978 0.9688
-1.0659 7.4400 -2.4984 0.9688
-1.2155 7.4179 -2.4986 0.9688
-1.3647 7.3929 -2.4990 0.9688
-1.5134 7.3650 -2.4993 0.9688
-1.8092 7.3007 -2.5002 0.9688
-2.1019 7.2237 -2.5008 0.9688
-2.3907 7.1327 -2.5006 0.9688
-2.8163 6.9747 -2.5003 0.9688
-3.0944 6.8551 -2.5001 0.9688
-3.3674 6.7245 -2.4999 0.9688
-3.7665 6.5084 -2.4996 0.9688
-3.8966 6.4310 -2.4995 0.9688
-4.0250 6.3510 -2.4994 0.9688
-4.1518 6.2685 -2.4993 0.9688
-4.2769 6.1835 -2.4992 0.9688
-4.4003 6.0959 -2.4991 0.9688
-4.5219 6.0059 -2.4990 0.9688
-4.9894 5.6221 -2.4986 0.9688
-5.1014 5.5204 -2.4985 0.9688
-5.2112 5.4164 -2.4985 0.9688
-5.3190 5.3103 -2.4984 0.9688
-5.4246 5.2020 -2.4983 0.9688
-5.5280 5.0916 -2.4982 0.9688
-6.0998 4.3879 -2.4977 0.9688
-6.2711 4.1387 -2.4976 0.9688
-6.4321 3.8829 -2.4974 0.9688
-6.6541 3.4874 -2.4972 0.9688
-6.7228 3.3528 -2.4972 0.9688
-6.8519 3.0794 -2.4971 0.9688
-7.0767 2.5183 -2.4969 0.9688
-7.2154 2.0867 -2.4967 0.9688
-7.2558 1.9410 -2.4967 0.9688
-7.2932 1.7946 -2.4966 0.9688
-7.3277 1.6475 -2.4966 0.9688
-7.3879 1.3513 -2.4965 0.9688
-7.4135 1.2023 -2.4965 0.9688
-7.4557 0.9031 -2.4964 0.9688
-7.4722 0.7529 -2.4964 0.9688
-7.4858 0.6024 -2.4964 0.9688
-7.4963 0.4516 -2.4963 0.9688
-7.5038 0.3007 -2.4963 0.9688
-7.5081 -0.1526 -2.4963 0.9688
-7.5035 -0.3036 -2.4962 0.9688
-7.4852 -0.6053 -2.4962 0.9688
-7.4714 -0.7558 -2.4962 0.9688
-7.4547 -0.9059 -2.4962 0.9688
-7.4350 -1.0558 -2.4962 0.9688
-7.4122 -1.2051 -2.4962 0.9688
-7.3865 -1.3540 -2.4962 0.9688
-7.2914 -1.7972 -2.4962 0.9688
-7.2538 -1.9436 -2.4962 0.9688
-7.1234 -2.3777 -2.4963 0.9688
-7.0742 -2.5206 -2.4963 0.9688
-7.0221 -2.6624 -2.4963 0.9688
-6.9672 -2.8032 -2.4964 0.9688
-6.8489 -3.0813 -2.4964 0.9688
-6.7195 -3.3545 -2.4965 0.9688
-6.5793 -3.6222 -2.4965 0.9688
-6.5052 -3.7539 -2.4966 0.9688
-6.4285 -3.8841 -2.4966 0.9688
-6.1827 -4.2651 -2.4967 0.9688
-5.8203 -4.7487 -2.4969 0.9688
-5.6247 -4.9793 -2.4970 0.9688
-5.5235 -5.0916 -2.4971 0.9688
-5.3145 -5.3100 -2.4972 0.9688
-5.2067 -5.4159 -2.4973 0.9688
-5.0968 -5.5197 -2.4974 0.9688
-4.6370 -5.9123 -2.4976 0.9688
-4.5172 -6.0046 -2.4977 0.9688
-4.3956 -6.0945 -2.4978 0.9688
-4.1471 -6.2668 -2.4979 0.9688
-4.0203 -6.3491 -2.4980 0.9688
-3.6303 -6.5808 -2.4983 0.9688
-3.4973 -6.6527 -2.4983 0.9688
-3.3628 -6.7220 -2.4984 0.9688
-2.9515 -6.9133 -2.4987 0.9688
-2.6711 -7.0270 -2.4989 0.9688
-2.5293 -7.0796 -2.4990 0.9688
-2.3864 -7.1293 -2.4991 0.9688
-2.2426 -7.1761 -2.4991 0.9688
-1.6586 -7.3343 -2.4995 0.9688
-1.5107 -7.3665 -2.4996 0.9688
-0.9137 -7.4654 -2.5000 0.9688
-0.3105 -7.5159 -2.5004 0.9688
-0.1593 -7.5209 -2.5006 0.9688
-0.0079 -7.5229 -2.5007 0.9688
0.2948 -7.5178 -2.5009 0.9688
0.4460 -7.5106 -2.5010 0.9688
0.8985 -7.4710 -2.5013 0.9688
1.4965 -7.3758 -2.5017 0.9688
1.6447 -7.3445 -2.5018 0.9688
1.7922 -7.3103 -2.5019 0.9688
2.5179 -7.0947 -2.5025 0.9688
3.2185 -6.8074 -2.5030 0.9688
3.3549 -6.7415 -2.5031 0.9688
3.4900 -6.6729 -2.5032 0.9688
3.7560 -6.5276 -2.5034 0.9688
6.9948 0.4416 -2.5064 0.9707
6.9714 0.7227 -2.5064 0.9707
6.9367 1.0026 -2.5064 0.9707
6.9151 1.1420 -2.5064 0.9707
6.8635 1.4193 -2.5064 0.9707
6.8336 1.5571 -2.5064 0.9707
6.7654 1.8308 -2.5064 0.9707
6.7271 1.9665 -2.5063 0.9707
6.5471 2.5010 -2.5063 0.9707
6.4410 2.7623 -2.5062 0.9707
6.2624 3.1457 -2.5062 0.9707
6.1978 3.2711 -2.5061 0.9707
5.9889 3.6389 -2.5060 0.9707
5.9144 3.7586 -2.5060 0.9707
5.8375 3.8768 -2.5059 0.9707
5.7582 3.9934 -2.5059 0.9707
5.6766 4.1084 -2.5059 0.9707
5.5926 4.2217 -2.5058 0.9707
5.5065 4.3333 -2.5058 0.9707
5.3275 4.5511 -2.5057 0.9707
5.2347 4.6573 -2.5056 0.9707
5.1398 4.7616 -2.5056 0.9707
4.9438 4.9643 -2.5054 0.9707
4.8428 5.0626 -2.5054 0.9707
4.7399 5.1589 -2.5053 0.9707
4.5282 5.3452 -2.5052 0.9707
4.3093 5.5228 -2.5051 0.9707
4.1972 5.6082 -2.5050 0.9707
3.9679 5.7722 -2.5048 0.9707
3.8509 5.8507 -2.5048 0.9707
3.7323 5.9268 -2.5047 0.9707
3.6121 6.0005 -2.5046 0.9707
3.4906 6.0718 -2.5046 0.9707
3.3676 6.1406 -2.5045 0.9707
2.9907 6.3320 -2.5042 0.9707
2.8626 6.3907 -2.5042 0.9707
2.7333 6.4468 -2.5041 0.9707
2.4716 6.5511 -2.5039 0.9707
2.3392 6.5993 -2.5038 0.9707
2.0716 6.6876 -2.5036 0.9707
1.5270 6.8315 -2.5033 0.9707
1.3892 6.8606 -2.5032 0.9707
0.6929 6.9641 -2.5027 0.9707
0.4121 6.9858 -2.5025 0.9707
0.1307 6.9962 -2.5023 0.9707
-0.0101 6.9971 -2.5022 0.9707
-0.1509 6.9953 -2.5021 0.9707
-0.4322 6.9830 -2.5019 0.9707
-0.5726 6.9726 -2.5018 0.9707
-0.7127 6.9594 -2.5017 0.9707
-0.9920 6.9245 -2.5015 0.9707
-1.1311 6.9029 -2.5014 0.9707
-1.4079 6.8512 -2.5012 0.9707
-1.6822 6.7885 -2.5010 0.9707
-1.9538 6.7148 -2.5009 0.9707
-2.0885 6.6739 -2.5008 0.9707
-2.4870 6.5350 -2.5005 0.9707
-2.7477 6.4291 -2.5003 0.9707
-3.1302 6.2509 -2.5000 0.9707
-3.2552 6.1864 -2.4999 0.9707
-3.3789 6.1195 -2.4998 0.9707
-3.7416 5.9038 -2.4995 0.9707
-3.9758 5.7481 -2.4993 0.9707
-4.3149 5.4972 -2.4991 0.9707
-4.4245 5.4090 -2.4990 0.9708
-4.6382 5.2263 -2.4988 0.9708
-4.8444 5.0351 -2.4987 0.9708
-4.9446 4.9365 -2.4986 0.9708
-5.4146 4.4142 -2.4982 0.9708
-5.6705 4.0791 -2.4980 0.9708
-5.8298 3.8475 -2.4979 0.9708
-5.9795 3.6096 -2.4977 0.9708
-6.0508 3.4885 -2.4977 0.9708
-6.1860 3.2421 -2.4975 0.9708
-6.2498 3.1169 -2.4975 0.9708
-6.3111 2.9904 -2.4974 0.9708
-6.3698 2.8628 -2.4974 0.9708
-6.4260 2.7340 -2.4973 0.9708
-6.5306 2.4731 -2.4972 0.9708
-6.5789 2.3411 -2.4972 0.9708
-6.7078 1.9399 -2.4970 0.9708
-6.7453 1.8045 -2.4970 0.9708
-6.7802 1.6684 -2.4970 0.9708
-6.8123 1.5316 -2.4969 0.9708
-6.8416 1.3942 -2.4969 0.9708
-6.8682 1.2562 -2.4969 0.9708
-6.8920 1.1178 -2.4968 0.9708
-6.9130 0.9789 -2.4968 0.9708
-6.9466 0.6999 -2.4967 0.9708
-6.9593 0.5600 -2.4967 0.9708
-6.9690 0.4198 -2.4967 0.9708
-6.9802 0.1391 -2.4967 0.9708
-6.9815 -0.0014 -2.4966 0.9708
-6.9801 -0.1419 -2.4966 0.9708
-6.9757 -0.2823 -2.4966 0.9708
-6.9686 -0.4226 -2.4966 0.9708
-6.9587 -0.5627 -2.4966 0.9708
-6.9459 -0.7026 -2.4966 0.9708
-6.9120 -0.9815 -2.4966 0.9708
-6.8669 -1.2588 -2.4966 0.9708
-6.7785 -1.6708 -2.4966 0.9708
-6.7436 -1.8069 -2.4966 0.9708
-6.7059 -1.9422 -2.4966 0.9708
-6.6224 -2.2104 -2.4967 0.9708
-6.3671 -2.8646 -2.4968 0.9708
-6.2469 -3.1185 -2.4968 0.9708
-6.1165 -3.3674 -2.4969 0.9708
-5.9025 -3.7304 -2.4970 0.9708
-5.5838 -4.1932 -2.4972 0.9708
-5.3210 -4.5227 -2.4973 0.9708
-5.2290 -4.6289 -2.4974 0.9708
-5.1349 -4.7333 -2.4974 0.9708
-5.0387 -4.8358 -2.4975 0.9708
-4.9405 -4.9363 -2.4975 0.9708
-4.7381 -5.1314 -2.4976 0.9708
-4.6341 -5.2258 -2.4977 0.9708
-4.3107 -5.4963 -2.4979 0.9708
-4.1993 -5.5820 -2.4980 0.9708
-4.0863 -5.6655 -2.4980 0.9708
-3.7373 -5.9023 -2.4983 0.9708
-3.6179 -5.9765 -2.4983 0.9708
-3.4971 -6.0482 -2.4984 0.9708
-3.3748 -6.1176 -2.4985 0.9708
-3.2511 -6.1844 -2.4986 0.9708
-2.6139 -6.4807 -2.4990 0.9708
-2.3512 -6.5811 -2.4991 0.9707
-1.9501 -6.7117 -2.4994 0.9707
-1.8147 -6.7498 -2.4995 0.9707
-1.6786 -6.7852 -2.4996 0.9707
-1.5418 -6.8179 -2.4997 0.9707
-1.1278 -6.8992 -2.5000 0.9707
-0.7095 -6.9555 -2.5002 0.9707
-0.4292 -6.9789 -2.5004 0.9707
-0.1480 -6.9911 -2.5006 0.9707
-0.0073 -6.9929 -2.5007 0.9707
0.2741 -6.9881 -2.5009 0.9707
0.4146 -6.9814 -2.5010 0.9707
1.2528 -6.8823 -2.5016 0.9707
1.3910 -6.8560 -2.5017 0.9707
1.8023 -6.7604 -2.5020 0.9707
1.9381 -6.7230 -2.5021 0.9707
2.0730 -6.6829 -2.5022 0.9707
2.2072 -6.6401 -2.5023 0.9707
2.3404 -6.5946 -2.5024 0.9707
2.7343 -6.4421 -2.5027 0.9707
2.8635 -6.3861 -2.5028 0.9707
2.9915 -6.3274 -2.5029 0.9707
3.1184 -6.2661 -2.5030 0.9707
3.3682 -6.1361 -2.5031 0.9707
6.5265 0.4121 -2.5060 0.9724
6.5169 0.5433 -2.5060 0.9724
6.5046 0.6743 -2.5061 0.9724
6.4898 0.8051 -2.5061 0.9724
6.4723 0.9355 -2.5061 0.9724
6.4294 1.1951 -2.5061 0.9724
6.4040 1.3243 -2.5061 0.9724
6.3455 1.5808 -2.5060 0.9724
6.2767 1.8348 -2.5060 0.9724
6.1977 2.0859 -2.5060 0.9724
6.1545 2.2101 -2.5060 0.9724
5.9011 2.8170 -2.5059 0.9724
5.7829 3.0521 -2.5058 0.9724
5.7202 3.1678 -2.5058 0.9724
5.6552 3.2822 -2.5057 0.9724
5.5880 3.3953 -2.5057 0.9724
5.4467 3.6173 -2.5056 0.9724
5.2966 3.8333 -2.5056 0.9724
5.2183 3.9391 -2.5055 0.9724
4.9709 4.2465 -2.5054 0.9724
4.8843 4.3456 -2.5053 0.9724
4.7053 4.5384 -2.5052 0.9724
4.5187 4.7238 -2.5051 0.9724
4.3248 4.9016 -2.5050 0.9724
4.2252 4.9875 -2.5049 0.9724
3.9163 5.2329 -2.5048 0.9724
3.8101 5.3105 -2.5047 0.9724
3.7024 5.3859 -2.5046 0.9724
3.5932 5.4592 -2.5046 0.9724
3.2570 5.6656 -2.5043 0.9724
2.9090 5.8512 -2.5041 0.9724
2.7906 5.9084 -2.5040 0.9724
2.6711 5.9632 -2.5040 0.9724
2.5505 6.0155 -2.5039 0.9724
2.4288 6.0654 -2.5038 0.9724
2.1827 6.1578 -2.5037 0.9724
2.0583 6.2003 -2.5036 0.9724
1.9330 6.2403 -2.5035 0.9724
1.6803 6.3126 -2.5033 0.9724
1.5529 6.3449 -2.5032 0.9724
1.4249 6.3746 -2.5032 0.9724
1.2963 6.4018 -2.5031 0.9724
1.0376 6.4483 -2.5029 0.9724
0.9076 6.4677 -2.5028 0.9724
0.6466 6.4985 -2.5026 0.9724
0.2533 6.5249 -2.5024 0.9724
0.1220 6.5285 -2.5023 0.9724
-0.0094 6.5294 -2.5022 0.9724
-0.1408 6.5276 -2.5021 0.9724
-0.2721 6.5232 -2.5020 0.9724
-0.4033 6.5162 -2.5019 0.9724
-0.7956 6.4793 -2.5016 0.9724
-1.0555 6.4416 -2.5014 0.9724
-1.3138 6.3934 -2.5013 0.9724
-1.5698 6.3349 -2.5011 0.9724
-1.6969 6.3018 -2.5010 0.9724
-1.9489 6.2280 -2.5008 0.9724
-2.1978 6.1441 -2.5006 0.9724
-2.6843 5.9466 -2.5003 0.9724
-3.1533 5.7107 -2.4999 0.9724
-3.2674 5.6460 -2.4998 0.9724
-3.3802 5.5789 -2.4997 0.9724
-3.4917 5.5096 -2.4997 0.9724
-3.6017 5.4380 -2.4996 0.9724
-3.7103 5.3642 -2.4995 0.9724
-4.1290 5.0479 -2.4992 0.9725
-4.3285 4.8774 -2.4990 0.9725
-4.7061 4.5130 -2.4987 0.9725
-4.9694 4.2205 -2.4985 0.9725
-5.3674 3.6995 -2.4982 0.9725
-5.4407 3.5907 -2.4981 0.9725
-5.5117 3.4804 -2.4980 0.9725
-5.5805 3.3687 -2.4980 0.9725
-5.8327 2.9089 -2.4978 0.9725
-5.8900 2.7909 -2.4977 0.9725
-6.1399 2.1849 -2.4975 0.9725
-6.2226 1.9361 -2.4974 0.9725
-6.2953 1.6841 -2.4973 0.9725
-6.3278 1.5571 -2.4973 0.9725
-6.3578 1.4294 -2.4972 0.9725
-6.4322 1.0432 -2.4971 0.9725
-6.4518 0.9135 -2.4971 0.9725
-6.5041 0.3918 -2.4970 0.9725
-6.5106 0.2609 -2.4970 0.9725
-6.5145 0.1298 -2.4970 0.9725
-6.5158 -0.0013 -2.4970 0.9725
-6.5104 -0.2634 -2.4969 0.9725
-6.5038 -0.3944 -2.4969 0.9725
-6.4826 -0.6557 -2.4969 0.9725
-6.4509 -0.9160 -2.4969 0.9725
-6.4312 -1.0456 -2.4969 0.9725
-6.4089 -1.1748 -2.4969 0.9725
-6.3564 -1.4317 -2.4969 0.9725
-6.2585 -1.8126 -2.4969 0.9725
-6.2208 -1.9382 -2.4970 0.9725
-6.1806 -2.0630 -2.4970 0.9725
-6.0927 -2.3100 -2.4970 0.9725
-5.9424 -2.6735 -2.4971 0.9725
-5.8301 -2.9104 -2.4971 0.9725
-5.5087 -3.4815 -2.4973 0.9725
-5.3643 -3.7005 -2.4974 0.9725
-5.2112 -3.9134 -2.4974 0.9725
-4.9659 -4.2209 -2.4976 0.9725
-4.8801 -4.3201 -2.4976 0.9725
-4.5173 -4.6989 -2.4978 0.9725
-4.2259 -4.9632 -2.4980 0.9725
-3.9190 -5.2095 -2.4982 0.9725
-3.8135 -5.2874 -2.4983 0.9725
-3.4879 -5.5083 -2.4985 0.9725
-3.2636 -5.6445 -2.4986 0.9725
-3.0341 -5.7716 -2.4988 0.9725
-2.9174 -5.8316 -2.4988 0.9725
-2.6806 -5.9446 -2.4990 0.9725
-2.5605 -5.9975 -2.4991 0.9725
-2.4394 -6.0480 -2.4991 0.9725
-2.1942 -6.1417 -2.4993 0.9724
-2.0702 -6.1848 -2.4994 0.9724
-1.9454 -6.2254 -2.4995 0.9724
-1.4388 -6.3625 -2.4998 0.9724
-1.3105 -6.3904 -2.4999 0.9724
-0.7926 -6.4760 -2.5002 0.9724
-0.5314 -6.5031 -2.5004 0.9724
0.2557 -6.5212 -2.5009 0.9724
0.6488 -6.4946 -2.5012 0.9724
1.2981 -6.3977 -2.5017 0.9724
2.0596 -6.1962 -2.5022 0.9724
2.5515 -6.0114 -2.5026 0.9724
2.7915 -5.9043 -2.5028 0.9724
3.0270 -5.7876 -2.5029 0.9724
3.2576 -5.6615 -2.5031 0.9724
3.3710 -5.5950 -2.5032 0.9724
6.1102 0.3858 -2.5057 0.9739
6.0759 0.7537 -2.5058 0.9739
6.0595 0.8758 -2.5058 0.9739
6.0406 0.9976 -2.5058 0.9739
5.9956 1.2398 -2.5058 0.9739
5.9694 1.3602 -2.5058 0.9739
5.9408 1.4800 -2.5058 0.9739
5.8406 1.8357 -2.5057 0.9739
5.8025 1.9529 -2.5057 0.9739
5.7620 2.0692 -2.5057 0.9739
5.7192 2.1847 -2.5057 0.9739
5.6740 2.2993 -2.5057 0.9739
5.5248 2.6374 -2.5056 0.9739
5.4141 2.8575 -2.5055 0.9739
5.2946 3.0729 -2.5055 0.9739
5.2317 3.1788 -2.5054 0.9739
5.1666 3.2834 -2.5054 0.9739
5.0994 3.3866 -2.5054 0.9739
4.9588 3.5889 -2.5053 0.9739
4.7331 3.8813 -2.5052 0.9739
4.6539 3.9757 -2.5051 0.9739
4.5729 4.0685 -2.5051 0.9739
4.2306 4.4226 -2.5049 0.9739
4.1407 4.5068 -2.5048 0.9739
3.6667 4.8993 -2.5045 0.9739
3.5673 4.9720 -2.5045 0.9739
3.4664 5.0427 -2.5044 0.9739
3.2606 5.1778 -2.5043 0.9739
2.8334 5.4226 -2.5040 0.9739
2.7236 5.4783 -2.5040 0.9739
2.3879 5.6322 -2.5037 0.9739
2.2741 5.6789 -2.5037 0.9739
2.0436 5.7655 -2.5035 0.9739
1.4540 5.9407 -2.5031 0.9739
1.3341 5.9685 -2.5030 0.9739
1.0928 6.0170 -2.5029 0.9739
0.9715 6.0376 -2.5028 0.9739
0.8498 6.0557 -2.5027 0.9739
0.7277 6.0713 -2.5026 0.9739
0.6054 6.0846 -2.5026 0.9739
0.1142 6.1127 -2.5022 0.9739
-0.3776 6.1013 -2.5019 0.9739
-0.5003 6.0922 -2.5018 0.9739
-0.8668 6.0503 -2.5015 0.9739
-1.3503 5.9602 -2.5012 0.9739
-1.4699 5.9316 -2.5011 0.9739
-1.7072 5.8673 -2.5009 0.9739
-2.0579 5.7530 -2.5007 0.9739
-2.1732 5.7103 -2.5006 0.9739
-2.2875 5.6652 -2.5005 0.9739
-2.6249 5.5163 -2.5003 0.9739
-2.7353 5.4622 -2.5002 0.9739
-2.9526 5.3474 -2.5000 0.9739
-3.0595 5.2867 -2.4999 0.9739
-3.3726 5.0920 -2.4997 0.9739
-3.4743 5.0230 -2.4996 0.9739
-3.6733 4.8788 -2.4995 0.9740
-3.7706 4.8038 -2.4994 0.9740
-3.9606 4.6479 -2.4992 0.9740
-4.0532 4.5671 -2.4992 0.9740
-4.1442 4.4845 -2.4991 0.9740
-4.2334 4.4001 -2.4990 0.9740
-4.4068 4.2260 -2.4989 0.9740
-4.4908 4.1363 -2.4988 0.9740
-4.5730 4.0450 -2.4987 0.9740
-4.6534 3.9521 -2.4987 0.9740
-4.7318 3.8576 -2.4986 0.9740
-4.8083 3.7615 -2.4986 0.9740
-4.8829 3.6639 -2.4985 0.9740
-4.9555 3.5648 -2.4984 0.9740
-5.0262 3.4643 -2.4984 0.9740
-5.1612 3.2591 -2.4983 0.9740
-5.2879 3.0487 -2.4981 0.9740
-5.4061 2.8333 -2.4980 0.9740
-5.5155 2.6134 -2.4979 0.9740
-5.5669 2.5019 -2.4979 0.9740
-5.6628 2.2758 -2.4978 0.9740
-5.7496 2.0460 -2.4977 0.9740
-5.8951 1.5770 -2.4976 0.9740
-5.9256 1.4581 -2.4975 0.9740
-5.9793 1.2185 -2.4975 0.9740
-6.0025 1.0979 -2.4974 0.9740
-6.0233 0.9769 -2.4974 0.9740
-6.0417 0.8555 -2.4974 0.9740
-6.0711 0.6117 -2.4973 0.9740
-6.0821 0.4894 -2.4973 0.9740
-6.0907 0.3669 -2.4973 0.9740
-6.0968 0.2443 -2.4973 0.9740
-6.1005 0.1216 -2.4973 0.9740
-6.1016 -0.0012 -2.4973 0.9740
-6.0904 -0.3693 -2.4972 0.9740
-6.0817 -0.4918 -2.4972 0.9740
-6.0706 -0.6140 -2.4972 0.9740
-6.0409 -0.8578 -2.4972 0.9740
-6.0224 -0.9792 -2.4972 0.9740
-5.9782 -1.2207 -2.4972 0.9740
-5.9524 -1.3407 -2.4972 0.9740
-5.9243 -1.4602 -2.4972 0.9740
-5.8937 -1.5792 -2.4972 0.9740
-5.8608 -1.6974 -2.4972 0.9740
-5.7878 -1.9319 -2.4973 0.9740
-5.7054 -2.1632 -2.4973 0.9740
-5.5647 -2.5035 -2.4974 0.9740
-5.4036 -2.8348 -2.4974 0.9740
-5.3456 -2.9430 -2.4975 0.9740
-5.2854 -3.0500 -2.4975 0.9740
-5.2230 -3.1557 -2.4975 0.9740
-5.1585 -3.2602 -2.4976 0.9740
-5.0919 -3.3634 -2.4976 0.9740
-5.0233 -3.4652 -2.4976 0.9740
-4.8053 -3.7621 -2.4977 0.9740
-4.7287 -3.8582 -2.4978 0.9740
-4.5698 -4.0454 -2.4979 0.9740
-4.4876 -4.1366 -2.4979 0.9740
-4.4035 -4.2262 -2.4980 0.9740
-4.3177 -4.3140 -2.4980 0.9740
-4.2301 -4.4001 -2.4981 0.9740
-4.1408 -4.4844 -2.4981 0.9740
-3.8630 -4.7264 -2.4983 0.9740
-3.5710 -4.9512 -2.4985 0.9740
-3.3691 -5.0911 -2.4986 0.9740
-3.1617 -5.2228 -2.4987 0.9740
-2.8411 -5.4045 -2.4989 0.9740
-2.6215 -5.5147 -2.4991 0.9740
-2.3976 -5.6161 -2.4992 0.9740
-2.0546 -5.7510 -2.4994 0.9740
-1.8217 -5.8294 -2.4996 0.9739
-1.7041 -5.8650 -2.4997 0.9739
-1.4668 -5.9292 -2.4998 0.9739
-1.3473 -5.9577 -2.4999 0.9739
-1.2271 -5.9838 -2.5000 0.9739
-1.1065 -6.0075 -2.5001 0.9739
-0.9855 -6.0287 -2.5001 0.9739
-0.7422 -6.0639 -2.5003 0.9739
-0.3750 -6.0982 -2.5006 0.9739
0.1165 -6.1095 -2.5009 0.9739
0.4850 -6.0919 -2.5012 0.9739
0.8517 -6.0522 -2.5014 0.9739
1.0946 -6.0134 -2.5016 0.9739
1.3358 -5.9649 -2.5018 0.9739
1.5748 -5.9068 -2.5019 0.9739
1.9284 -5.8016 -2.5022 0.9739
2.0449 -5.7618 -2.5023 0.9739
2.3890 -5.6285 -2.5025 0.9739
2.5018 -5.5795 -2.5026 0.9739
2.6137 -5.5282 -2.5027 0.9739
2.8342 -5.4189 -2.5029 0.9739
3.1563 -5.2386 -2.5031 0.9739
3.2611 -5.1742 -2.5032 0.9739
5.7375 0.3622 -2.5055 0.9752
5.7053 0.7078 -2.5055 0.9752
5.6899 0.8224 -2.5055 0.9752
5.6299 1.1642 -2.5055 0.9752
5.6053 1.2772 -2.5055 0.9752
5.5493 1.5017 -2.5055 0.9752
5.4844 1.7237 -2.5055 0.9752
5.4486 1.8337 -2.5054 0.9752
5.4105 1.9430 -2.5054 0.9752
5.3703 2.0514 -2.5054 0.9752
5.1878 2.4765 -2.5053 0.9752
5.0839 2.6832 -2.5053 0.9752
4.7884 3.1800 -2.5051 0.9752
4.7234 3.2757 -2.5051 0.9752
4.6564 3.3700 -2.5051 0.9752
4.5876 3.4630 -2.5050 0.9752
4.5169 3.5546 -2.5050 0.9752
4.4444 3.6447 -2.5049 0.9752
4.3701 3.7333 -2.5049 0.9752
4.1367 3.9899 -2.5048 0.9752
4.0555 4.0723 -2.5047 0.9752
3.9727 4.1530 -2.5047 0.9752
3.6256 4.4586 -2.5045 0.9752
3.5351 4.5305 -2.5044 0.9752
3.4431 4.6006 -2.5044 0.9752
3.1591 4.7996 -2.5042 0.9752
3.0618 4.8621 -2.5041 0.9752
2.8635 4.9811 -2.5040 0.9752
2.7627 5.0376 -2.5039 0.9752
2.6607 5.0920 -2.5039 0.9752
2.5576 5.1444 -2.5038 0.9752
2.4535 5.1946 -2.5037 0.9752
2.3484 5.2428 -2.5037 0.9752
2.2424 5.2889 -2.5036 0.9752
2.0277 5.3745 -2.5035 0.9752
1.9191 5.4141 -2.5034 0.9752
1.8097 5.4514 -2.5033 0.9752
1.6996 5.4866 -2.5032 0.9752
1.4774 5.5502 -2.5031 0.9753
1.2528 5.6048 -2.5030 0.9753
1.1397 5.6287 -2.5029 0.9753
0.9123 5.6697 -2.5027 0.9753
0.7980 5.6867 -2.5026 0.9753
0.5685 5.7139 -2.5025 0.9753
0.3381 5.7318 -2.5023 0.9753
0.1073 5.7403 -2.5022 0.9753
-0.0083 5.7412 -2.5021 0.9753
-0.8140 5.6818 -2.5015 0.9753
-1.2681 5.5973 -2.5012 0.9753
-1.3804 5.5704 -2.5011 0.9753
-2.1483 5.3203 -2.5006 0.9753
-2.4651 5.1805 -2.5003 0.9753
-2.5688 5.1297 -2.5003 0.9753
-2.6714 5.0768 -2.5002 0.9753
-3.0705 4.8450 -2.4999 0.9753
-3.1673 4.7821 -2.4998 0.9753
-3.4498 4.5819 -2.4996 0.9753
-3.6311 4.4392 -2.4994 0.9753
-3.7196 4.3651 -2.4994 0.9753
-3.8066 4.2892 -2.4993 0.9753
-3.8920 4.2117 -2.4992 0.9753
-3.9758 4.1324 -2.4992 0.9753
-4.1387 3.9689 -2.4990 0.9753
-4.2948 3.7989 -2.4989 0.9753
-4.3702 3.7117 -2.4989 0.9753
-4.5158 3.5327 -2.4987 0.9753
-4.5859 3.4410 -2.4987 0.9753
-4.7204 3.2536 -2.4986 0.9753
-4.9078 2.9627 -2.4984 0.9753
-4.9663 2.8632 -2.4983 0.9753
-5.2744 2.2440 -2.4981 0.9753
-5.3184 2.1374 -2.4980 0.9753
-5.5366 1.4811 -2.4978 0.9753
-5.5652 1.3694 -2.4978 0.9753
-5.6571 0.9175 -2.4977 0.9753
-5.6743 0.8034 -2.4976 0.9753
-5.7123 0.4596 -2.4976 0.9753
-5.7204 0.3446 -2.4976 0.9753
-5.7261 0.2295 -2.4975 0.9753
-5.7295 0.1142 -2.4975 0.9753
-5.7259 -0.2317 -2.4975 0.9753
-5.7119 -0.4619 -2.4975 0.9753
-5.7015 -0.5767 -2.4975 0.9753
-5.6887 -0.6913 -2.4975 0.9753
-5.6736 -0.8056 -2.4975 0.9753
-5.5905 -1.2592 -2.4975 0.9753
-5.5640 -1.3715 -2.4975 0.9753
-5.5353 -1.4832 -2.4975 0.9753
-5.4359 -1.8144 -2.4975 0.9753
-5.3983 -1.9234 -2.4975 0.9753
-5.3166 -2.1391 -2.4976 0.9753
-5.2725 -2.2456 -2.4976 0.9753
-5.1780 -2.4560 -2.4976 0.9753
-5.1276 -2.5597 -2.4977 0.9753
-5.0751 -2.6624 -2.4977 0.9753
-5.0205 -2.7640 -2.4977 0.9753
-4.8448 -3.0620 -2.4978 0.9753
-4.7823 -3.1589 -2.4978 0.9753
-4.6514 -3.3488 -2.4979 0.9753
-4.5832 -3.4418 -2.4979 0.9753
-4.2147 -3.8851 -2.4981 0.9753
-4.1357 -3.9691 -2.4982 0.9753
-4.0551 -4.0516 -2.4982 0.9753
-3.9728 -4.1325 -2.4983 0.9753
-3.7165 -4.3649 -2.4984 0.9753
-3.3538 -4.6500 -2.4987 0.9753
-3.2596 -4.7166 -2.4987 0.9753
-2.9693 -4.9051 -2.4989 0.9753
-2.8701 -4.9639 -2.4990 0.9753
-2.7697 -5.0208 -2.4990 0.9753
-2.6682 -5.0757 -2.4991 0.9753
-2.5656 -5.1285 -2.4991 0.9753
-2.4620 -5.1792 -2.4992 0.9753
-2.3573 -5.2278 -2.4993 0.9753
-2.2517 -5.2743 -2.4993 0.9753
-2.1452 -5.3187 -2.4994 0.9753
-2.0378 -5.3609 -2.4995 0.9753
-1.9296 -5.4010 -2.4996 0.9753
-1.8206 -5.4389 -2.4996 0.9753
-1.7108 -5.4746 -2.4997 0.9753
-1.6004 -5.5080 -2.4998 0.9753
-1.1525 -5.6196 -2.5001 0.9753
-1.0392 -5.6418 -2.5001 0.9753
-0.8114 -5.6794 -2.5003 0.9753
-0.6970 -5.6947 -2.5004 0.9753
-0.3522 -5.7270 -2.5006 0.9753
-0.1215 -5.7369 -2.5008 0.9753
-0.0060 -5.7383 -2.5009 0.9753
0.1094 -5.7375 -2.5009 0.9753
0.2249 -5.7343 -2.5010 0.9753
0.4554 -5.7210 -2.5012 0.9753
1.1414 -5.6255 -2.5017 0.9753
1.2544 -5.6016 -2.5017 0.9753
1.5902 -5.5163 -2.5020 0.9753
1.7009 -5.4833 -2.5021 0.9753
1.8110 -5.4482 -2.5021 0.9753
1.9203 -5.4108 -2.5022 0.9753
2.1366 -5.3295 -2.5024 0.9753
2.2434 -5.2856 -2.5025 0.9753
