ply
format ascii 1.0
element vertex 1550
property float32 x
property float32 y
property float32 z
property float32 I
end_header
46.9697 1.2952 -2.3829 0.8285
46.9296 2.2408 -2.3827 0.8285
46.8713 3.1852 -2.3825 0.8285
46.7950 4.1284 -2.3824 0.8285
43.4890 7.4008 -2.2372 0.8380
43.3328 8.2755 -2.2373 0.8380
31.4935 7.3403 -1.6400 0.8785
40.8063 11.2614 -2.1468 0.8440
38.1160 11.3499 -2.0169 0.8528
36.0098 11.5171 -1.9173 0.8595
30.2520 11.7329 -1.6456 0.8781
28.3294 12.3216 -1.5667 0.8836
26.1299 11.9965 -1.4581 0.8912
25.2791 12.2282 -1.4241 0.8936
22.6706 12.1163 -1.3036 0.9022
21.9954 12.3313 -1.2788 0.9039
17.0958 12.5125 -1.0744 0.9186
16.2290 12.9132 -1.0518 0.9203
27.2375 22.5830 -1.7944 0.8679
14.0834 12.6677 -0.9606 0.9269
22.5891 22.9330 -1.6325 0.8790
20.9307 23.0356 -1.5784 0.8828
20.1929 23.1433 -1.5577 0.8843
18.6284 23.1715 -1.5078 0.8877
17.9609 23.2866 -1.4914 0.8889
17.2284 23.2922 -1.4693 0.8904
14.0734 23.6848 -1.3972 0.8955
12.8275 23.7134 -1.3673 0.8976
11.6773 23.8337 -1.3460 0.8992
10.2569 24.5916 -1.3513 0.8988
7.8355 24.0802 -1.2842 0.9036
7.5025 24.7394 -1.3111 0.9016
5.1972 18.4693 -0.9730 0.9260
5.7730 24.2170 -1.2626 0.9051
5.3765 24.7535 -1.2846 0.9035
4.3417 24.7590 -1.2748 0.9042
-27.3720 20.2782 -2.4977 0.8723
-12.8477 8.3658 -1.1241 0.9404
-28.6915 17.8702 -2.4784 0.8732
-28.8421 17.1676 -2.4610 0.8740
-29.3264 15.8925 -2.4457 0.8748
-29.9003 14.6779 -2.4423 0.8749
-30.4117 13.4373 -2.4378 0.8752
-30.8805 12.1828 -2.4341 0.8753
-31.1045 11.5528 -2.4329 0.8754
-31.2368 10.1904 -2.4091 0.8765
-31.6809 9.6338 -2.4279 0.8756
-32.0486 8.3515 -2.4284 0.8756
-22.6606 3.9914 -1.6871 0.9118
-35.3046 0.4668 -2.5888 0.8680
-35.2803 -2.3796 -2.5927 0.8678
-35.2268 -3.0899 -2.5928 0.8678
-35.0752 -4.5062 -2.5929 0.8678
-34.9774 -5.2117 -2.5929 0.8678
-34.5957 -7.3138 -2.5927 0.8678
-33.6704 -10.7501 -2.5916 0.8678
-33.2008 -12.0941 -2.5908 0.8679
-32.6759 -13.4168 -2.5900 0.8679
-32.3930 -14.0696 -2.5895 0.8679
-32.0966 -14.7161 -2.5890 0.8680
-31.4638 -15.9896 -2.5878 0.8680
-31.1278 -16.6160 -2.5872 0.8680
-30.7789 -17.2352 -2.5865 0.8681
-30.4172 -17.8467 -2.5858 0.8681
-27.8504 -17.8862 -2.4269 0.8757
-27.0902 -18.9811 -2.4254 0.8758
-26.2858 -20.0430 -2.4237 0.8758
-25.8674 -20.5609 -2.4228 0.8759
-25.4386 -21.0698 -2.4219 0.8759
-24.9993 -21.5695 -2.4210 0.8760
-22.6561 -23.9230 -2.4159 0.8762
-14.4487 -15.8855 -1.5745 0.9175
-13.9704 -15.9953 -1.5572 0.9183
-12.9218 -16.0566 -1.5112 0.9207
-11.9318 -16.1143 -1.4702 0.9227
-11.4563 -16.1421 -1.4514 0.9237
-10.9926 -16.1691 -1.4336 0.9246
-9.6649 -16.2466 -1.3861 0.9270
-9.1960 -16.1921 -1.3654 0.9280
-8.4179 -16.3194 -1.3464 0.9290
-7.6237 -16.3658 -1.3238 0.9301
-7.2362 -16.3884 -1.3136 0.9307
-6.8545 -16.4107 -1.3040 0.9312
-6.4781 -16.4326 -1.2951 0.9316
-5.7398 -16.4757 -1.2792 0.9324
-5.0183 -16.5178 -1.2658 0.9331
-3.6142 -16.5998 -1.2456 0.9341
-3.2536 -16.5389 -1.2359 0.9346
-2.9124 -16.5588 -1.2328 0.9348
-2.5854 -16.6598 -1.2362 0.9346
-1.9065 -16.6994 -1.2324 0.9348
-1.5684 -16.7191 -1.2313 0.9349
-1.2307 -16.7388 -1.2306 0.9349
-0.5557 -16.7782 -1.2309 0.9349
0.1207 -16.8177 -1.2331 0.9348
0.8006 -16.8574 -1.2374 0.9346
1.1427 -16.8773 -1.2403 0.9344
1.4864 -16.8974 -1.2437 0.9342
1.8322 -16.9175 -1.2477 0.9340
2.1804 -16.9379 -1.2522 0.9338
2.9885 -17.5880 -1.3081 0.9309
6.6208 -31.2786 -2.3442 0.8797
5.7283 -20.7774 -1.5803 0.9172
9.0912 -30.5592 -2.3377 0.8800
9.6982 -30.3490 -2.3361 0.8800
10.5652 -28.9810 -2.2618 0.8836
9.8374 -25.3838 -1.9961 0.8966
10.2706 -24.9955 -1.9814 0.8973
10.0866 -21.9847 -1.7735 0.9075
9.9841 -19.6340 -1.6150 0.9154
11.0909 -20.7645 -1.7261 0.9099
11.5344 -19.6474 -1.6705 0.9127
18.7380 -27.9082 -2.4647 0.8739
19.2843 -27.5081 -2.4632 0.8739
20.8723 -26.2456 -2.4587 0.8742
21.3841 -25.8047 -2.4573 0.8742
21.8867 -25.3540 -2.4559 0.8743
22.8639 -24.4241 -2.4531 0.8744
23.3381 -23.9453 -2.4517 0.8745
24.2419 -22.9466 -2.4475 0.8747
24.7408 -20.7346 -2.3669 0.8786
24.9752 -19.2734 -2.3131 0.8812
25.8408 -17.5583 -2.2907 0.8822
26.1772 -17.0266 -2.2897 0.8823
26.5031 -16.4886 -2.2886 0.8823
26.8182 -15.9446 -2.2877 0.8824
27.5982 -14.9380 -2.3010 0.8817
28.1292 -14.5006 -2.3204 0.8808
28.7254 -14.0831 -2.3457 0.8796
31.0453 -11.5129 -2.4278 0.8756
31.2610 -10.8819 -2.4270 0.8757
31.4641 -10.2470 -2.4263 0.8757
31.8331 -8.9664 -2.4249 0.8758
31.9988 -8.3213 -2.4243 0.8758
32.2920 -7.0224 -2.4231 0.8759
32.4195 -6.3691 -2.4225 0.8759
32.5341 -5.7136 -2.4220 0.8759
32.7251 -4.3971 -2.4210 0.8760
32.8012 -3.7364 -2.4206 0.8760
32.8645 -3.0745 -2.4202 0.8760
32.9149 -2.4117 -2.4199 0.8760
32.9768 -1.0839 -2.4192 0.8760
32.9883 -0.4194 -2.4190 0.8761
32.9870 0.2450 -2.4187 0.8761
32.9454 1.5731 -2.4184 0.8761
32.9053 2.2362 -2.4183 0.8761
29.8628 8.2413 -2.2715 0.8832
29.5127 9.4392 -2.2719 0.8831
28.6738 11.7905 -2.2732 0.8831
26.1316 11.9973 -2.1083 0.8911
22.6711 12.1166 -1.8848 0.9020
21.9959 12.3316 -1.8489 0.9038
21.1142 12.4027 -1.7955 0.9065
20.2720 12.4639 -1.7449 0.9090
19.4923 12.5324 -1.6991 0.9112
17.8885 12.5473 -1.6021 0.9161
17.2940 12.6576 -1.5714 0.9176
16.3667 13.0227 -1.5336 0.9195
15.6773 12.9983 -1.4932 0.9216
13.7054 12.8364 -1.3768 0.9275
13.1958 12.8677 -1.3514 0.9287
12.8346 13.0300 -1.3410 0.9293
12.3932 13.0993 -1.3222 0.9302
11.6702 12.8438 -1.2724 0.9328
10.8032 12.8971 -1.2336 0.9348
10.3443 12.8671 -1.2105 0.9359
9.9434 12.8918 -1.1938 0.9368
9.5929 12.9692 -1.1828 0.9373
9.2112 12.9927 -1.1678 0.9381
8.1203 13.0597 -1.1276 0.9402
6.7708 13.1426 -1.0840 0.9424
6.4595 13.1839 -1.0765 0.9428
6.1061 13.1253 -1.0614 0.9436
5.7959 13.1444 -1.0533 0.9440
5.5152 13.2230 -1.0505 0.9442
9.3450 23.7400 -1.8707 0.9027
7.2315 23.8459 -1.8271 0.9049
4.7765 18.3869 -1.3929 0.9266
5.7154 23.9756 -1.8072 0.9059
4.7053 23.9826 -1.7920 0.9066
-19.8771 15.3553 -2.4114 0.9040
-20.1596 14.9350 -2.4087 0.9041
-20.4384 14.5132 -2.4066 0.9042
-20.7119 14.0887 -2.4049 0.9042
-12.8455 8.3644 -1.4716 0.9403
-21.2403 13.2294 -2.4024 0.9043
-21.4899 12.7914 -2.4010 0.9044
-22.2363 11.4771 -2.4024 0.9043
-22.6944 10.5787 -2.4039 0.9043
-22.9096 10.1225 -2.4046 0.9043
-23.3117 9.1968 -2.4059 0.9042
-23.4984 8.7278 -2.4065 0.9042
-23.8428 7.7782 -2.4078 0.9041
-24.0003 7.2982 -2.4083 0.9041
-22.6562 5.4191 -2.2365 0.9106
-22.2665 4.8540 -2.1879 0.9125
-22.1470 4.3626 -2.1671 0.9133
-25.5737 2.9262 -2.4712 0.9017
-26.6425 2.5060 -2.5691 0.8980
-26.6907 1.9692 -2.5694 0.8980
-26.7279 1.4314 -2.5697 0.8980
-26.7689 0.3539 -2.5702 0.8980
-26.7727 -0.1853 -2.5704 0.8980
-26.7467 -1.2635 -2.5707 0.8980
-26.7171 -1.8021 -2.5708 0.8980
-26.6762 -2.3399 -2.5709 0.8980
-26.4871 -3.9466 -2.5710 0.8980
-26.4019 -4.4792 -2.5709 0.8980
-26.3058 -5.0100 -2.5709 0.8980
-26.1987 -5.5386 -2.5708 0.8980
-25.9518 -6.5885 -2.5705 0.8980
-25.8121 -7.1094 -2.5704 0.8980
-25.5006 -8.1417 -2.5699 0.8980
-25.3289 -8.6528 -2.5697 0.8980
-25.1467 -9.1602 -2.5694 0.8980
-24.9541 -9.6636 -2.5691 0.8980
-24.7512 -10.1629 -2.5687 0.8981
-24.0812 -11.6337 -2.5676 0.8981
-23.8378 -12.1142 -2.5671 0.8981
-23.3217 -13.0594 -2.5661 0.8982
-22.7137 -13.9492 -2.5590 0.8984
-21.1072 -13.5555 -2.4083 0.9041
-20.8250 -13.9746 -2.4077 0.9041
-20.5343 -14.3876 -2.4071 0.9042
-19.6123 -15.5890 -2.4052 0.9042
-19.2889 -15.9763 -2.4045 0.9043
-18.9576 -16.3567 -2.4038 0.9043
-18.6187 -16.7301 -2.4031 0.9043
-17.9185 -17.4553 -2.4016 0.9044
-12.9216 -16.0563 -1.9787 0.9205
-11.9316 -16.1141 -1.9250 0.9226
-11.4561 -16.1419 -1.9003 0.9235
-10.9925 -16.1689 -1.8771 0.9244
-10.0975 -16.2212 -1.8344 0.9261
-9.6647 -16.2464 -1.8149 0.9269
-8.7825 -16.2160 -1.7705 0.9286
-7.2361 -16.3882 -1.7199 0.9305
-6.8544 -16.4105 -1.7074 0.9310
-5.3771 -16.4967 -1.6658 0.9327
-5.0183 -16.5176 -1.6573 0.9330
-4.6629 -16.5384 -1.6497 0.9333
-3.9612 -16.5793 -1.6365 0.9338
-2.9123 -16.5586 -1.6141 0.9347
-2.5853 -16.6596 -1.6185 0.9345
-1.5684 -16.7190 -1.6121 0.9347
-0.5557 -16.7780 -1.6117 0.9348
-0.2178 -16.7977 -1.6128 0.9347
0.4601 -16.8373 -1.6171 0.9346
0.8006 -16.8572 -1.6202 0.9344
1.1426 -16.8771 -1.6240 0.9343
1.4864 -16.8972 -1.6285 0.9341
2.5189 -16.8755 -1.6381 0.9337
3.3583 -17.6093 -1.7211 0.9305
4.6927 -22.1696 -2.1755 0.9130
8.7915 -22.6851 -2.3357 0.9069
10.4505 -21.6181 -2.3052 0.9080
10.9996 -21.6309 -2.3297 0.9071
11.1549 -19.9087 -2.1909 0.9124
13.5018 -21.9728 -2.4759 0.9016
13.9349 -21.6859 -2.4747 0.9016
15.6055 -20.4554 -2.4701 0.9018
16.0070 -20.1277 -2.4689 0.9018
16.4017 -19.7923 -2.4678 0.9019
17.9099 -18.3759 -2.4635 0.9020
18.2687 -18.0038 -2.4625 0.9021
18.6198 -17.6249 -2.4614 0.9021
18.9633 -17.2393 -2.4604 0.9021
19.9461 -16.0437 -2.4575 0.9023
20.5606 -15.2159 -2.4557 0.9023
21.6879 -13.4928 -2.4522 0.9025
22.1990 -12.6002 -2.4506 0.9025
22.4412 -12.1467 -2.4498 0.9025
22.6744 -11.6887 -2.4491 0.9026
23.1131 -10.7597 -2.4476 0.9026
23.3186 -10.2892 -2.4469 0.9027
23.5147 -9.8148 -2.4463 0.9027
23.7014 -9.3367 -2.4456 0.9027
24.0462 -8.3705 -2.4444 0.9027
24.2043 -7.8827 -2.4439 0.9028
24.4914 -6.8985 -2.4428 0.9028
24.6203 -6.4025 -2.4423 0.9028
24.8487 -5.4037 -2.4414 0.9029
25.2465 -2.8758 -2.4395 0.9029
25.2961 -2.3665 -2.4392 0.9029
25.3358 -1.8564 -2.4389 0.9030
25.3849 -0.8344 -2.4384 0.9030
25.3940 0.1886 -2.4380 0.9030
25.3629 1.2110 -2.4377 0.9030
25.3322 1.7215 -2.4376 0.9030
25.2917 2.2313 -2.4376 0.9030
25.2411 2.7401 -2.4375 0.9030
25.0296 4.2594 -2.4375 0.9030
24.9392 4.7628 -2.4376 0.9030
24.7290 5.7637 -2.4377 0.9030
24.5738 6.2519 -2.4344 0.9031
23.7192 6.5458 -2.3623 0.9059
22.8581 6.8065 -2.2897 0.9086
22.7183 7.2661 -2.2899 0.9086
22.5695 7.7229 -2.2901 0.9086
21.8853 9.5188 -2.2912 0.9086
21.6923 9.9591 -2.2916 0.9085
21.4907 10.3956 -2.2919 0.9085
21.0618 11.2565 -2.2927 0.9085
20.2656 12.4600 -2.2839 0.9088
19.4570 12.5096 -2.2207 0.9112
18.4221 12.3756 -2.1306 0.9147
17.2953 12.6585 -2.0577 0.9175
16.6595 12.7162 -2.0121 0.9192
16.1031 12.8130 -1.9757 0.9206
14.0544 12.6417 -1.8148 0.9269
13.1960 12.8679 -1.7695 0.9286
10.8970 13.0091 -1.6292 0.9341
10.3445 12.8673 -1.5850 0.9358
9.9435 12.8920 -1.5631 0.9367
9.6428 13.0368 -1.5568 0.9369
9.1089 13.4129 -1.5566 0.9369
8.8348 13.5905 -1.5562 0.9369
7.9047 13.3031 -1.4856 0.9397
7.5377 13.2878 -1.4667 0.9405
7.3522 13.5915 -1.4835 0.9398
6.8296 13.2567 -1.4317 0.9418
6.1062 13.1255 -1.3898 0.9435
5.7959 13.1445 -1.3792 0.9439
5.2556 13.3512 -1.3775 0.9440
4.9543 13.3698 -1.3689 0.9443
4.3681 13.4240 -1.3553 0.9449
4.2039 13.8623 -1.3907 0.9435
3.7875 13.4597 -1.3424 0.9454
3.6334 13.9866 -1.3874 0.9436
3.3532 14.0662 -1.3883 0.9435
2.6509 13.5112 -1.3219 0.9462
-16.3878 11.6369 -2.3875 0.9222
-12.7624 8.3103 -1.8091 0.9405
-17.0756 10.6353 -2.3896 0.9222
-17.2911 10.2921 -2.3903 0.9221
-17.4997 9.9445 -2.3909 0.9221
-17.7011 9.5926 -2.3915 0.9221
-18.0823 8.8765 -2.3928 0.9221
-18.2618 8.5126 -2.3933 0.9220
-18.5985 7.7738 -2.3945 0.9220
-18.9047 7.0215 -2.3955 0.9220
-19.4028 6.7651 -2.4409 0.9206
-20.6831 5.8371 -2.5528 0.9171
-20.8000 5.4202 -2.5533 0.9171
-20.9084 5.0011 -2.5537 0.9170
-21.0082 4.5797 -2.5541 0.9170
-21.1817 3.7310 -2.5548 0.9170
-21.2554 3.3041 -2.5552 0.9170
-21.3202 2.8756 -2.5555 0.9170
-21.3763 2.4459 -2.5558 0.9170
-21.4235 2.0151 -2.5560 0.9170
-21.4618 1.5834 -2.5563 0.9170
-21.4912 1.1509 -2.5565 0.9170
-21.5118 0.7179 -2.5567 0.9170
-21.5234 0.2845 -2.5569 0.9169
-21.5048 -1.0159 -2.5573 0.9169
-21.4477 -1.8812 -2.5575 0.9169
-21.4058 -2.3129 -2.5575 0.9169
-21.3551 -2.7436 -2.5575 0.9169
-21.1499 -4.0280 -2.5575 0.9169
-21.0639 -4.4530 -2.5574 0.9169
-20.9692 -4.8762 -2.5573 0.9169
-20.7537 -5.7162 -2.5571 0.9169
-20.6331 -6.1326 -2.5569 0.9169
-20.3663 -6.9575 -2.5565 0.9170
-20.0659 -7.7706 -2.5560 0.9170
-19.9032 -8.1723 -2.5558 0.9170
-19.1711 -9.7427 -2.5545 0.9170
-18.9682 -10.1253 -2.5541 0.9170
-18.5390 -10.8774 -2.5533 0.9171
-18.0795 -11.6111 -2.5523 0.9171
-17.8264 -11.9624 -2.5501 0.9172
-17.4389 -12.2188 -2.5294 0.9178
-15.7800 -12.5428 -2.3944 0.9220
-15.5206 -12.8552 -2.3939 0.9220
-15.2549 -13.1620 -2.3933 0.9220
-14.9831 -13.4633 -2.3927 0.9221
-13.8365 -14.6101 -2.3902 0.9221
-13.5356 -14.8817 -2.3896 0.9222
-13.2294 -15.1470 -2.3889 0.9222
-12.9179 -15.4058 -2.3882 0.9222
-12.6012 -15.6582 -2.3875 0.9222
-11.9314 -16.1139 -2.3817 0.9224
-10.9923 -16.1687 -2.3224 0.9243
-10.5397 -16.1952 -2.2953 0.9251
-10.0974 -16.2210 -2.2696 0.9259
-9.6646 -16.2462 -2.2455 0.9267
-8.0172 -16.3424 -2.1623 0.9293
-6.4780 -16.4322 -2.0981 0.9313
-6.1066 -16.4539 -2.0848 0.9317
-5.3770 -16.4965 -2.0610 0.9325
-4.6628 -16.5382 -2.0411 0.9331
-3.6142 -16.5994 -2.0180 0.9339
-3.2535 -16.5385 -2.0022 0.9344
-2.2454 -16.6792 -1.9991 0.9345
-1.2307 -16.7385 -1.9937 0.9346
-0.2178 -16.7976 -1.9955 0.9346
0.8006 -16.8570 -2.0046 0.9343
1.1426 -16.8769 -2.0093 0.9341
1.4864 -16.8970 -2.0149 0.9340
2.1804 -16.9375 -2.0285 0.9335
4.1049 -17.6322 -2.1505 0.9297
4.4856 -17.6498 -2.1632 0.9293
4.8723 -17.6724 -2.1776 0.9288
6.3742 -18.6433 -2.3404 0.9237
6.7455 -18.5033 -2.3394 0.9237
7.4789 -18.2014 -2.3375 0.9238
7.8407 -18.0395 -2.3365 0.9238
9.9340 -16.9214 -2.3308 0.9240
10.2687 -16.7112 -2.3299 0.9240
11.9754 -17.0822 -2.4781 0.9194
12.3123 -16.8312 -2.4771 0.9194
12.6440 -16.5736 -2.4762 0.9195
12.9705 -16.3095 -2.4753 0.9195
13.2914 -16.0391 -2.4744 0.9195
13.6068 -15.7624 -2.4735 0.9195
14.2204 -15.1908 -2.4717 0.9196
15.3760 -13.9781 -2.4684 0.9197
16.1765 -13.0116 -2.4660 0.9198
16.4302 -12.6792 -2.4652 0.9198
16.9174 -12.0001 -2.4638 0.9198
17.8083 -10.5878 -2.4610 0.9199
18.0132 -10.2243 -2.4604 0.9200
18.4011 -9.4858 -2.4591 0.9200
18.7593 -8.7329 -2.4580 0.9200
18.9270 -8.3514 -2.4574 0.9200
19.0872 -7.9668 -2.4569 0.9201
19.3844 -7.1886 -2.4558 0.9201
19.6506 -6.3997 -2.4549 0.9201
19.7719 -6.0015 -2.4544 0.9201
19.8853 -5.6011 -2.4540 0.9202
19.9907 -5.1986 -2.4536 0.9202
20.0882 -4.7941 -2.4532 0.9202
20.1776 -4.3879 -2.4528 0.9202
20.2590 -3.9801 -2.4525 0.9202
20.3324 -3.5708 -2.4522 0.9202
20.3976 -3.1602 -2.4518 0.9202
20.4547 -2.7484 -2.4516 0.9202
20.5444 -1.9220 -2.4510 0.9202
20.5771 -1.5077 -2.4508 0.9203
20.6177 -0.6777 -2.4504 0.9203
20.6258 -0.2623 -2.4503 0.9203
20.6009 0.9836 -2.4499 0.9203
20.5023 2.2257 -2.4497 0.9203
20.3959 3.0495 -2.4497 0.9203
20.2570 3.8686 -2.4497 0.9203
20.0861 4.6815 -2.4499 0.9203
19.8831 5.4871 -2.4501 0.9203
18.6631 6.8091 -2.3598 0.9231
18.0665 7.0068 -2.3018 0.9249
17.9235 7.3700 -2.3020 0.9249
17.6162 8.0877 -2.3026 0.9249
17.2807 8.7929 -2.3032 0.9249
17.1026 9.1405 -2.3035 0.9249
16.7258 9.8249 -2.3042 0.9248
16.3221 10.4941 -2.3050 0.9248
15.8922 11.1470 -2.3059 0.9248
15.4366 11.7828 -2.3068 0.9248
15.1994 12.0939 -2.3073 0.9247
14.7066 12.7019 -2.3083 0.9247
14.0547 12.6419 -2.2455 0.9267
13.7058 12.8368 -2.2306 0.9271
13.1962 12.8681 -2.1894 0.9284
12.8422 13.0377 -2.1738 0.9289
12.4007 13.1073 -2.1433 0.9299
12.0770 13.2915 -2.1332 0.9302
11.6174 13.3148 -2.0990 0.9313
10.8971 13.0092 -2.0158 0.9339
9.2913 13.1057 -1.9083 0.9373
8.2669 13.2955 -1.8597 0.9389
7.1712 13.2569 -1.7904 0.9411
6.8297 13.2568 -1.7714 0.9417
6.5050 13.2768 -1.7562 0.9422
5.7960 13.1447 -1.7065 0.9438
5.5171 13.2276 -1.7024 0.9439
5.2557 13.3514 -1.7044 0.9438
4.9543 13.3699 -1.6937 0.9442
4.6792 13.4531 -1.6919 0.9442
4.1681 13.7444 -1.7061 0.9438
3.8039 13.5177 -1.6681 0.9450
3.5642 13.7202 -1.6839 0.9445
-13.2936 10.2695 -2.3801 0.9344
-13.5013 10.0022 -2.3808 0.9344
-13.9002 9.4552 -2.3820 0.9343
-12.7454 8.2992 -2.1550 0.9404
-14.2766 8.8920 -2.3831 0.9343
-14.7976 8.0191 -2.3847 0.9343
-14.9593 7.7211 -2.3853 0.9343
-15.2802 7.5009 -2.4118 0.9335
-16.3660 7.2312 -2.5352 0.9303
-16.5434 6.9148 -2.5405 0.9301
-16.8240 6.2488 -2.5429 0.9301
-17.0678 5.5680 -2.5438 0.9300
-17.1792 5.2240 -2.5442 0.9300
-17.2835 4.8777 -2.5445 0.9300
-17.3808 4.5292 -2.5449 0.9300
-17.5538 3.8266 -2.5456 0.9300
-17.6295 3.4727 -2.5459 0.9300
-17.7591 2.7605 -2.5465 0.9300
-17.8129 2.4026 -2.5468 0.9300
-17.8594 2.0435 -2.5470 0.9300
-17.8985 1.6836 -2.5472 0.9299
-17.9302 1.3228 -2.5474 0.9299
-17.9546 0.9615 -2.5476 0.9299
-17.9715 0.5998 -2.5478 0.9299
-17.9831 -0.1245 -2.5481 0.9299
-17.8821 -1.9321 -2.5484 0.9299
-17.7899 -2.6508 -2.5485 0.9299
-17.6683 -3.3650 -2.5484 0.9299
-17.2373 -5.1233 -2.5479 0.9299
-17.0148 -5.8126 -2.5476 0.9299
-16.6287 -6.8278 -2.5470 0.9300
-16.4862 -7.1606 -2.5467 0.9300
-16.0184 -8.1404 -2.5459 0.9300
-15.4915 -9.0893 -2.5449 0.9300
-14.9075 -10.0037 -2.5437 0.9300
-14.7006 -10.3002 -2.5433 0.9301
-14.4877 -10.5923 -2.5429 0.9301
-14.2689 -10.8801 -2.5424 0.9301
-13.7720 -11.4069 -2.5338 0.9303
-13.1199 -11.3199 -2.4552 0.9324
-12.0559 -11.7442 -2.3847 0.9343
-11.8142 -11.9820 -2.3842 0.9343
-11.5679 -12.2147 -2.3836 0.9343
-11.3169 -12.4423 -2.3831 0.9343
-11.0614 -12.6647 -2.3825 0.9343
-10.5371 -13.0934 -2.3813 0.9344
-9.9961 -13.5002 -2.3801 0.9344
-9.7196 -13.6951 -2.3795 0.9344
-9.4393 -13.8843 -2.3788 0.9344
-8.5764 -14.4169 -2.3768 0.9345
-7.6833 -14.8953 -2.3747 0.9345
-7.3795 -15.0425 -2.3740 0.9346
-6.4517 -15.4463 -2.3718 0.9346
-5.8207 -15.6836 -2.3703 0.9346
-5.5018 -15.7925 -2.3695 0.9347
-4.8581 -15.9907 -2.3680 0.9347
-3.5507 -16.3077 -2.3648 0.9348
-2.5567 -16.4752 -2.3623 0.9349
-2.2236 -16.5176 -2.3615 0.9349
-1.8898 -16.5532 -2.3606 0.9349
-1.5555 -16.5820 -2.3598 0.9349
-1.2208 -16.6040 -2.3590 0.9350
-0.2156 -16.6295 -2.3564 0.9350
0.1193 -16.6245 -2.3556 0.9350
0.4539 -16.6127 -2.3547 0.9351
0.7881 -16.5942 -2.3539 0.9351
1.1218 -16.5689 -2.3530 0.9351
2.4480 -16.4010 -2.3496 0.9352
3.1043 -16.2773 -2.3479 0.9352
3.4303 -16.2056 -2.3470 0.9353
3.7546 -16.1274 -2.3462 0.9353
4.3978 -15.9516 -2.3445 0.9353
5.0331 -15.7502 -2.3428 0.9354
5.3474 -15.6401 -2.3420 0.9354
6.2754 -15.2724 -2.3395 0.9355
6.5794 -15.1376 -2.3387 0.9355
7.1787 -14.8501 -2.3371 0.9355
7.4738 -14.6975 -2.3363 0.9356
7.7657 -14.5390 -2.3355 0.9356
8.0542 -14.3748 -2.3347 0.9356
8.6208 -14.0294 -2.3331 0.9356
8.8987 -13.8484 -2.3323 0.9357
10.3389 -14.1335 -2.4812 0.9317
11.1631 -13.4709 -2.4789 0.9318
11.4287 -13.2393 -2.4781 0.9318
11.6895 -13.0025 -2.4774 0.9318
12.1965 -12.5138 -2.4759 0.9318
12.6833 -12.0056 -2.4745 0.9319
12.9190 -11.7445 -2.4738 0.9319
13.3742 -11.2086 -2.4725 0.9319
13.5936 -10.9341 -2.4718 0.9319
13.8075 -10.6553 -2.4712 0.9320
14.2183 -10.0856 -2.4699 0.9320
14.4151 -9.7948 -2.4693 0.9320
14.6059 -9.5002 -2.4688 0.9320
14.7908 -9.2020 -2.4682 0.9320
14.9698 -8.9002 -2.4676 0.9321
15.6242 -7.6600 -2.4655 0.9321
15.7722 -7.3424 -2.4650 0.9321
16.0491 -6.6987 -2.4641 0.9322
16.3001 -6.0448 -2.4632 0.9322
16.4158 -5.7144 -2.4628 0.9322
16.5249 -5.3817 -2.4624 0.9322
16.6274 -5.0470 -2.4621 0.9322
16.8124 -4.3720 -2.4614 0.9322
16.8948 -4.0320 -2.4610 0.9322
17.1013 -3.0033 -2.4601 0.9323
17.1565 -2.6580 -2.4599 0.9323
17.2809 -1.6167 -2.4592 0.9323
17.3086 -1.2682 -2.4590 0.9323
17.3503 0.1289 -2.4584 0.9323
17.3435 0.4783 -2.4583 0.9323
17.2815 1.5246 -2.4581 0.9323
17.1575 2.5653 -2.4581 0.9323
17.0406 3.2543 -2.4581 0.9323
16.8145 4.2778 -2.4583 0.9323
16.7256 4.6158 -2.4584 0.9323
16.6301 4.9520 -2.4586 0.9323
16.5280 5.2862 -2.4587 0.9323
16.3039 5.9483 -2.4590 0.9323
15.8741 6.9043 -2.4527 0.9325
15.2162 6.9859 -2.3723 0.9346
14.6786 7.1004 -2.3103 0.9362
13.3639 9.3737 -2.3129 0.9362
12.9800 9.9076 -2.3137 0.9362
12.3649 10.6793 -2.3150 0.9361
12.1497 10.9284 -2.3154 0.9361
11.7046 11.4135 -2.3164 0.9361
11.4748 11.6494 -2.3169 0.9361
11.2403 11.8808 -2.3174 0.9361
10.7577 12.3295 -2.3185 0.9360
10.2573 12.7589 -2.3196 0.9360
9.9438 12.8923 -2.3069 0.9363
8.9303 13.1499 -2.2522 0.9378
5.0766 8.1645 -1.3622 0.9619
7.8530 13.2161 -2.1782 0.9398
7.1725 13.2593 -2.1360 0.9409
6.1063 13.1258 -2.0512 0.9432
5.7961 13.1448 -2.0355 0.9436
5.5181 13.2299 -2.0310 0.9437
4.9544 13.3701 -2.0203 0.9440
3.7907 13.4711 -1.9828 0.9450
3.5966 13.8446 -2.0268 0.9438
2.9346 13.5111 -1.9590 0.9457
2.6509 13.5115 -1.9509 0.9459
2.3724 13.5287 -1.9461 0.9460
-11.4132 8.8168 -2.3759 0.9432
-11.5910 8.5871 -2.3764 0.9432
-11.9326 8.1168 -2.3774 0.9432
-12.0962 7.8765 -2.3779 0.9432
-13.0291 7.7553 -2.4979 0.9404
-13.3430 7.5824 -2.5282 0.9397
-13.8138 6.7811 -2.5351 0.9395
-14.3243 5.6511 -2.5368 0.9395
-14.4374 5.3623 -2.5372 0.9395
-14.7411 4.4826 -2.5382 0.9394
-14.8303 4.1853 -2.5386 0.9394
-14.9135 3.8863 -2.5389 0.9394
-15.0614 3.2833 -2.5395 0.9394
-15.1260 2.9796 -2.5397 0.9394
-15.3557 1.4444 -2.5409 0.9394
-15.3828 1.1349 -2.5410 0.9394
-15.4035 0.8249 -2.5412 0.9394
-15.4259 0.2039 -2.5415 0.9394
-15.4229 -0.4175 -2.5417 0.9394
-15.4118 -0.7281 -2.5418 0.9394
-15.3707 -1.3482 -2.5419 0.9394
-15.3406 -1.6575 -2.5419 0.9394
-15.3042 -1.9662 -2.5419 0.9394
-15.2615 -2.2740 -2.5419 0.9394
-15.2125 -2.5809 -2.5419 0.9394
-15.1572 -2.8867 -2.5419 0.9394
-14.9541 -3.7965 -2.5417 0.9394
-14.7879 -4.3953 -2.5415 0.9394
-14.4929 -5.2794 -2.5410 0.9394
-14.2665 -5.8579 -2.5407 0.9394
-14.1445 -6.1435 -2.5405 0.9394
-14.0166 -6.4266 -2.5402 0.9394
-13.5988 -7.2591 -2.5395 0.9394
-12.9642 -8.3259 -2.5382 0.9394
-12.6149 -8.8388 -2.5375 0.9395
-12.4325 -9.0897 -2.5371 0.9395
-12.2450 -9.3369 -2.5368 0.9395
-12.0526 -9.5801 -2.5364 0.9395
-11.8552 -9.8193 -2.5359 0.9395
-11.6531 -10.0543 -2.5355 0.9395
-11.4462 -10.2852 -2.5351 0.9395
-11.2347 -10.5117 -2.5346 0.9395
-11.0085 -10.7240 -2.5318 0.9396
-8.8158 -11.4179 -2.3764 0.9432
-8.5821 -11.5905 -2.3759 0.9432
-8.1047 -11.9212 -2.3748 0.9432
-7.8611 -12.0792 -2.3742 0.9432
-7.6143 -12.2321 -2.3736 0.9433
-7.3646 -12.3800 -2.3731 0.9433
-7.1120 -12.5227 -2.3725 0.9433
-6.5986 -12.7924 -2.3713 0.9433
-6.0749 -13.0410 -2.3700 0.9433
-5.8095 -13.1571 -2.3694 0.9434
-5.5418 -13.2679 -2.3687 0.9434
-5.2720 -13.3732 -2.3681 0.9434
-5.0002 -13.4729 -2.3674 0.9434
-2.9713 -11.4142 -1.9430 0.9533
-3.0512 -14.0137 -2.3627 0.9435
-1.6244 -14.2281 -2.3592 0.9436
-1.3371 -14.2536 -2.3584 0.9436
-1.0494 -14.2733 -2.3577 0.9436
-0.7615 -14.2871 -2.3570 0.9436
0.3903 -14.2843 -2.3541 0.9437
0.6777 -14.2691 -2.3533 0.9437
1.8216 -14.1506 -2.3504 0.9438
2.1056 -14.1066 -2.3497 0.9438
2.3885 -14.0569 -2.3489 0.9438
2.6703 -14.0016 -2.3482 0.9439
3.2300 -13.8741 -2.3467 0.9439
3.7838 -13.7242 -2.3453 0.9439
4.0582 -13.6410 -2.3445 0.9439
4.3307 -13.5523 -2.3438 0.9440
5.1365 -13.2539 -2.3417 0.9440
5.4008 -13.1438 -2.3410 0.9440
5.6627 -13.0284 -2.3403 0.9440
6.1791 -12.7822 -2.3389 0.9441
6.6849 -12.5156 -2.3375 0.9441
6.9336 -12.3748 -2.3368 0.9441
8.1372 -12.6633 -2.4797 0.9408
9.1438 -11.9855 -2.4835 0.9407
9.8430 -11.4024 -2.4815 0.9408
10.2890 -10.9911 -2.4802 0.9408
11.3280 -9.8889 -2.4772 0.9409
11.7117 -9.4204 -2.4761 0.9409
12.0763 -8.9371 -2.4750 0.9409
12.2512 -8.6902 -2.4744 0.9409
12.5860 -8.1864 -2.4734 0.9409
12.9004 -7.6698 -2.4724 0.9410
13.3326 -6.8730 -2.4711 0.9410
13.7163 -6.0522 -2.4698 0.9410
13.8332 -5.7738 -2.4694 0.9410
13.9445 -5.4932 -2.4690 0.9411
14.0502 -5.2105 -2.4687 0.9411
14.1503 -4.9257 -2.4683 0.9411
14.3333 -4.3507 -2.4676 0.9411
14.4162 -4.0606 -2.4673 0.9411
14.6897 -2.8859 -2.4662 0.9411
14.7912 -2.2916 -2.4658 0.9411
14.9532 -0.4915 -2.4647 0.9412
14.9595 0.1111 -2.4645 0.9412
14.6336 3.1013 -2.4643 0.9412
14.5685 3.3955 -2.4643 0.9412
14.4976 3.6883 -2.4644 0.9412
14.0568 5.1285 -2.4650 0.9411
13.9516 5.4109 -2.4652 0.9411
13.6027 6.2451 -2.4658 0.9411
13.4754 6.5184 -2.4660 0.9411
11.9817 7.3667 -2.3171 0.9446
11.8324 7.6075 -2.3174 0.9446
11.5196 8.0800 -2.3180 0.9446
11.3561 8.3116 -2.3183 0.9445
11.0155 8.7648 -2.3190 0.9445
10.8385 8.9863 -2.3194 0.9445
10.6571 9.2043 -2.3198 0.9445
10.0871 9.8363 -2.3210 0.9445
9.8888 10.0393 -2.3215 0.9445
9.6865 10.2384 -2.3219 0.9445
7.1309 7.8480 -1.7469 0.9579
6.9793 7.9990 -1.7488 0.9579
9.0559 10.8112 -2.3233 0.9444
8.6169 11.1718 -2.3243 0.9444
8.3919 11.3456 -2.3248 0.9444
7.9318 11.6796 -2.3258 0.9444
5.2112 8.0163 -1.5751 0.9620
7.2171 12.1459 -2.3275 0.9443
6.4753 12.5689 -2.3292 0.9443
5.9669 12.8261 -2.3304 0.9443
5.7089 12.9471 -2.3310 0.9443
4.9206 13.2789 -2.3329 0.9442
4.6534 13.3790 -2.3336 0.9442
4.3694 13.4280 -2.3263 0.9444
3.7887 13.4637 -2.3041 0.9449
3.2903 13.8021 -2.3375 0.9441
2.6510 13.5117 -2.2683 0.9457
-10.7156 7.9385 -2.5066 0.9472
-11.2728 7.3403 -2.5284 0.9467
-12.3205 5.4438 -2.5318 0.9467
-12.7256 4.4370 -2.5331 0.9466
-12.8140 4.1803 -2.5335 0.9466
-12.9750 3.6617 -2.5340 0.9466
-13.1147 3.1369 -2.5346 0.9466
-13.2839 2.3398 -2.5353 0.9466
-13.3695 1.8033 -2.5357 0.9466
-13.4041 1.5337 -2.5359 0.9466
-13.4747 0.7216 -2.5363 0.9466
-13.4872 0.4501 -2.5365 0.9466
-13.4941 0.1784 -2.5366 0.9466
-13.4913 -0.3652 -2.5368 0.9466
-13.4455 -1.1794 -2.5369 0.9465
-13.4192 -1.4499 -2.5370 0.9465
-13.3072 -2.2576 -2.5370 0.9465
-13.2588 -2.5252 -2.5369 0.9465
-13.2051 -2.7916 -2.5369 0.9465
-13.1459 -3.0570 -2.5368 0.9465
-13.0113 -3.5837 -2.5367 0.9466
-12.9360 -3.8449 -2.5366 0.9466
-12.7694 -4.3623 -2.5363 0.9466
-12.5819 -4.8724 -2.5360 0.9466
-12.4804 -5.1245 -2.5359 0.9466
-12.2620 -5.6221 -2.5355 0.9466
-12.0236 -6.1103 -2.5351 0.9466
-11.8970 -6.3507 -2.5348 0.9466
-11.6293 -6.8233 -2.5343 0.9466
-11.4882 -7.0553 -2.5340 0.9466
-11.3425 -7.2844 -2.5337 0.9466
-11.1922 -7.5105 -2.5334 0.9466
-11.0373 -7.7334 -2.5331 0.9466
-10.8779 -7.9531 -2.5328 0.9466
-10.5459 -8.3825 -2.5321 0.9466
-10.3734 -8.5919 -2.5318 0.9467
-10.1968 -8.7978 -2.5314 0.9467
-10.0160 -9.0000 -2.5310 0.9467
-9.6423 -9.3931 -2.5302 0.9467
-8.8490 -10.1316 -2.5284 0.9467
-8.4278 -10.4724 -2.5267 0.9468
-8.2047 -10.6264 -2.5234 0.9468
-7.9790 -10.7759 -2.5203 0.9469
-6.0027 -11.0834 -2.3691 0.9500
-5.7769 -11.1995 -2.3686 0.9500
-4.3785 -11.7976 -2.3653 0.9501
-4.1389 -11.8805 -2.3647 0.9501
-3.4114 -12.0997 -2.3629 0.9501
-2.9683 -11.4027 -2.2147 0.9532
-2.6725 -12.2742 -2.3611 0.9502
-2.4241 -12.3224 -2.3605 0.9502
-2.1748 -12.3654 -2.3599 0.9502
-1.6742 -12.4364 -2.3586 0.9502
-1.4230 -12.4643 -2.3580 0.9502
-0.6672 -12.5174 -2.3561 0.9503
0.5939 -12.5041 -2.3529 0.9503
1.0964 -12.4632 -2.3516 0.9504
1.3468 -12.4352 -2.3510 0.9504
1.8455 -12.3641 -2.3497 0.9504
2.0935 -12.3210 -2.3491 0.9504
2.3406 -12.2730 -2.3484 0.9504
2.5866 -12.2200 -2.3478 0.9504
2.8314 -12.1621 -2.3471 0.9504
3.0750 -12.0993 -2.3465 0.9505
3.5578 -11.9592 -2.3452 0.9505
3.7969 -11.8819 -2.3446 0.9505
4.0344 -11.7998 -2.3440 0.9505
4.2701 -11.7131 -2.3433 0.9505
4.5039 -11.6216 -2.3427 0.9505
4.7358 -11.5255 -2.3421 0.9505
5.3092 -11.5718 -2.3930 0.9495
5.6214 -11.6286 -2.4277 0.9488
6.2297 -11.6633 -2.4853 0.9476
6.9323 -11.2815 -2.4888 0.9475
7.1563 -11.1369 -2.4882 0.9475
7.3774 -10.9878 -2.4876 0.9476
7.5953 -10.8343 -2.4870 0.9476
8.0216 -10.5146 -2.4858 0.9476
8.4346 -10.1783 -2.4846 0.9476
8.6359 -10.0040 -2.4841 0.9476
9.4047 -9.2683 -2.4819 0.9477
9.5874 -9.0751 -2.4813 0.9477
9.7661 -8.8783 -2.4808 0.9477
10.2782 -8.2673 -2.4793 0.9477
10.4406 -8.0570 -2.4788 0.9477
10.5987 -7.8436 -2.4783 0.9477
11.0469 -7.1853 -2.4770 0.9478
11.4548 -6.5017 -2.4757 0.9478
11.7035 -6.0332 -2.4749 0.9478
11.8208 -5.7954 -2.4745 0.9478
12.1440 -5.0687 -2.4734 0.9478
12.2419 -4.8225 -2.4731 0.9479
12.3350 -4.5744 -2.4728 0.9479
12.4230 -4.3245 -2.4725 0.9479
12.5061 -4.0729 -2.4722 0.9479
12.5841 -3.8197 -2.4719 0.9479
12.8454 -2.7934 -2.4709 0.9479
12.9452 -2.2734 -2.4704 0.9479
13.0242 -1.7500 -2.4700 0.9479
13.0559 -1.4872 -2.4699 0.9479
13.1358 -0.1670 -2.4692 0.9479
13.1360 0.0976 -2.4691 0.9479
13.0842 1.1543 -2.4689 0.9479
13.0582 1.4176 -2.4688 0.9479
13.0269 1.6803 -2.4688 0.9479
12.9488 2.2036 -2.4688 0.9479
12.7304 3.2388 -2.4690 0.9479
12.6630 3.4946 -2.4691 0.9479
12.5905 3.7491 -2.4692 0.9479
12.4305 4.2535 -2.4694 0.9479
12.2505 4.7512 -2.4697 0.9479
12.0508 5.2414 -2.4701 0.9479
11.9437 5.4834 -2.4702 0.9479
11.5938 6.1963 -2.4709 0.9479
11.4678 6.4292 -2.4711 0.9479
11.3371 6.6595 -2.4714 0.9479
11.1903 6.8801 -2.4691 0.9479
11.0353 7.0950 -2.4659 0.9480
9.9697 7.2969 -2.3222 0.9510
9.8220 7.4972 -2.3225 0.9510
9.6704 7.6945 -2.3228 0.9509
9.5148 7.8888 -2.3232 0.9509
9.1921 8.2681 -2.3238 0.9509
9.0251 8.4528 -2.3242 0.9509
8.8544 8.6342 -2.3246 0.9509
8.5023 8.9868 -2.3253 0.9509
6.9688 7.9871 -1.9924 0.9578
7.7570 9.6488 -2.3270 0.9509
7.5625 9.8049 -2.3274 0.9509
7.3649 9.9571 -2.3279 0.9508
7.1643 10.1054 -2.3283 0.9508
6.9607 10.2497 -2.3288 0.9508
5.2351 11.2531 -2.3328 0.9507
5.0086 11.3589 -2.3334 0.9507
4.7799 11.4601 -2.3339 0.9507
4.5492 11.5568 -2.3345 0.9507
4.3166 11.6488 -2.3350 0.9507
2.6414 12.1610 -2.3391 0.9506
2.3965 12.2148 -2.3397 0.9506
-9.4488 7.2993 -2.5238 0.9524
-9.8774 6.7188 -2.5251 0.9523
-10.2700 6.1130 -2.5263 0.9523
-10.5110 5.6961 -2.5271 0.9523
-10.7349 5.2697 -2.5278 0.9523
-10.8403 5.0531 -2.5282 0.9523
-10.9413 4.8344 -2.5285 0.9523
-11.0379 4.6136 -2.5288 0.9523
-11.3004 3.9401 -2.5297 0.9522
-11.3787 3.7121 -2.5300 0.9522
-11.5213 3.2515 -2.5305 0.9522
-11.5856 3.0191 -2.5308 0.9522
-11.6999 2.5505 -2.5312 0.9522
-11.7499 2.3145 -2.5314 0.9522
-11.8353 1.8398 -2.5318 0.9522
-11.8708 1.6011 -2.5320 0.9522
-11.9271 1.1219 -2.5323 0.9522
-11.9479 0.8815 -2.5324 0.9522
-11.9639 0.6407 -2.5325 0.9522
-11.9749 0.3996 -2.5327 0.9522
-11.9697 -0.5655 -2.5330 0.9522
-11.9377 -1.0471 -2.5331 0.9522
-11.9143 -1.2873 -2.5331 0.9522
-11.8528 -1.7661 -2.5331 0.9522
-11.8148 -2.0046 -2.5331 0.9522
-11.7719 -2.2419 -2.5331 0.9522
-11.6143 -2.9486 -2.5329 0.9522
-11.5522 -3.1818 -2.5328 0.9522
-11.4854 -3.4137 -2.5328 0.9522
-11.2568 -4.1005 -2.5324 0.9522
-11.1713 -4.3261 -2.5323 0.9522
-11.0813 -4.5500 -2.5321 0.9522
-10.9867 -4.7720 -2.5320 0.9522
-10.8876 -4.9919 -2.5318 0.9522
-10.7841 -5.2098 -2.5316 0.9522
-10.3263 -6.0587 -2.5307 0.9522
-10.2012 -6.2649 -2.5305 0.9522
-10.0719 -6.4684 -2.5302 0.9522
-9.8011 -6.8673 -2.5297 0.9522
-9.2122 -7.6301 -2.5285 0.9523
-8.8950 -7.9928 -2.5278 0.9523
-8.3925 -8.5117 -2.5267 0.9523
-8.0404 -8.8401 -2.5259 0.9523
-7.8595 -8.9987 -2.5255 0.9523
-7.6754 -9.1537 -2.5251 0.9523
-7.2981 -9.4522 -2.5243 0.9523
-5.8898 -10.3706 -2.5210 0.9524
-5.4599 -10.5850 -2.5176 0.9525
-5.2414 -10.6841 -2.5155 0.9525
-3.5844 -10.9966 -2.4448 0.9538
-3.3453 -11.0111 -2.4326 0.9540
-3.1085 -11.0253 -2.4214 0.9542
-2.8737 -11.0392 -2.4112 0.9544
-2.6407 -11.0528 -2.4021 0.9546
-2.4094 -11.0661 -2.3940 0.9548
-2.1795 -11.0792 -2.3868 0.9549
-1.4966 -11.1169 -2.3711 0.9552
-0.5951 -11.1644 -2.3633 0.9553
-0.1451 -11.1871 -2.3649 0.9553
0.5329 -11.2199 -2.3743 0.9551
1.2186 -11.2516 -2.3923 0.9548
1.6825 -11.2721 -2.4091 0.9545
1.9170 -11.2823 -2.4190 0.9543
2.8774 -11.3219 -2.4693 0.9534
3.1241 -11.3317 -2.4847 0.9531
3.3604 -11.2955 -2.4911 0.9530
3.5882 -11.2288 -2.4918 0.9529
3.8149 -11.1579 -2.4926 0.9529
4.2644 -11.0036 -2.4945 0.9529
4.4859 -10.9173 -2.4949 0.9529
4.7037 -10.8222 -2.4943 0.9529
4.9196 -10.7227 -2.4937 0.9529
5.1334 -10.6190 -2.4932 0.9529
5.5543 -10.3989 -2.4920 0.9529
6.1680 -10.0377 -2.4903 0.9530
6.3675 -9.9092 -2.4898 0.9530
6.5643 -9.7769 -2.4892 0.9530
7.1382 -9.3566 -2.4876 0.9530
7.3236 -9.2090 -2.4871 0.9530
7.5060 -9.0577 -2.4866 0.9530
8.0345 -8.5827 -2.4851 0.9531
8.3703 -8.2490 -2.4841 0.9531
8.6925 -7.9022 -2.4832 0.9531
8.8482 -7.7241 -2.4827 0.9531
9.0004 -7.5430 -2.4823 0.9531
9.1488 -7.3589 -2.4818 0.9531
9.5716 -6.7895 -2.4806 0.9532
9.8341 -6.3964 -2.4798 0.9532
10.0806 -5.9933 -2.4790 0.9532
10.1977 -5.7883 -2.4786 0.9532
10.4196 -5.3713 -2.4779 0.9532
10.5242 -5.1597 -2.4776 0.9532
10.8124 -4.5130 -2.4766 0.9532
10.8998 -4.2938 -2.4763 0.9532
11.1354 -3.6265 -2.4755 0.9532
11.2051 -3.4012 -2.4752 0.9533
11.2702 -3.1745 -2.4750 0.9533
11.3308 -2.9466 -2.4748 0.9533
11.3868 -2.7175 -2.4745 0.9533
11.4383 -2.4874 -2.4743 0.9533
11.5273 -2.0244 -2.4739 0.9533
11.5649 -1.7917 -2.4738 0.9533
11.6262 -1.3244 -2.4734 0.9533
11.6499 -1.0899 -2.4733 0.9533
11.6831 -0.6198 -2.4730 0.9533
11.6927 -0.3843 -2.4729 0.9533
11.6934 0.3225 -2.4727 0.9533
11.6519 1.0279 -2.4725 0.9533
11.6009 1.4963 -2.4725 0.9533
11.4896 2.1942 -2.4726 0.9533
11.2767 3.1120 -2.4728 0.9533
11.1430 3.5639 -2.4729 0.9533
11.0695 3.7878 -2.4731 0.9533
10.9915 4.0101 -2.4732 0.9533
10.6356 4.8829 -2.4738 0.9533
10.4319 5.3081 -2.4741 0.9533
10.3237 5.5175 -2.4743 0.9533
9.9744 6.1325 -2.4750 0.9533
9.8498 6.3328 -2.4753 0.9533
9.5888 6.7258 -2.4758 0.9532
9.4464 6.9138 -2.4745 0.9533
9.2953 7.0951 -2.4718 0.9533
7.8829 7.6869 -2.3274 0.9560
7.7276 7.8452 -2.3277 0.9560
7.1132 7.8285 -2.2359 0.9577
6.5558 8.8632 -2.3303 0.9559
6.1957 9.1233 -2.3311 0.9559
5.8254 9.3688 -2.3320 0.9559
5.2520 9.7090 -2.3333 0.9559
5.0564 9.8148 -2.3338 0.9559
4.6589 10.0145 -2.3347 0.9558
4.4572 10.1084 -2.3352 0.9558
4.0482 10.2839 -2.3362 0.9558
3.8410 10.3656 -2.3367 0.9558
3.6323 10.4431 -2.3372 0.9558
3.4220 10.5164 -2.3377 0.9558
2.7825 10.7110 -2.3392 0.9558
2.5668 10.7673 -2.3398 0.9558
2.3499 10.8192 -2.3403 0.9557
2.1320 10.8668 -2.3408 0.9557
1.9132 10.9101 -2.3414 0.9557
-8.7509 6.2140 -2.5224 0.9569
-8.8756 6.0374 -2.5228 0.9569
-9.2280 5.4927 -2.5239 0.9568
-9.4442 5.1180 -2.5246 0.9568
-9.5466 4.9274 -2.5249 0.9568
-9.9170 4.1451 -2.5261 0.9568
-9.9996 3.9450 -2.5264 0.9568
-10.0781 3.7432 -2.5267 0.9568
-10.1525 3.5398 -2.5269 0.9568
-10.2888 3.1287 -2.5274 0.9568
-10.4083 2.7123 -2.5279 0.9568
-10.5107 2.2913 -2.5283 0.9568
-10.6322 1.6527 -2.5288 0.9568
-10.6914 1.2234 -2.5291 0.9567
-10.7144 1.0078 -2.5292 0.9567
-10.7473 0.5756 -2.5295 0.9567
-10.7626 0.1423 -2.5297 0.9567
-10.7636 -0.0745 -2.5298 0.9567
-10.7602 -0.2913 -2.5298 0.9567
-10.5746 -2.0140 -2.5300 0.9567
-10.5318 -2.2265 -2.5299 0.9567
-10.4846 -2.4381 -2.5299 0.9567
-10.3774 -2.8582 -2.5298 0.9567
-10.2532 -3.2736 -2.5296 0.9567
-10.1122 -3.6836 -2.5294 0.9567
-10.0355 -3.8863 -2.5292 0.9567
-9.8697 -4.2868 -2.5290 0.9567
-9.7808 -4.4845 -2.5288 0.9568
-9.5909 -4.8741 -2.5285 0.9568
-9.2769 -5.4430 -2.5279 0.9568
-9.1646 -5.6283 -2.5276 0.9568
-8.9288 -5.9917 -2.5272 0.9568
-8.8055 -6.1697 -2.5269 0.9568
-8.6785 -6.3451 -2.5267 0.9568
-8.5481 -6.5179 -2.5264 0.9568
-8.4141 -6.6880 -2.5261 0.9568
-8.2768 -6.8554 -2.5258 0.9568
-8.1361 -7.0198 -2.5255 0.9568
-7.8448 -7.3400 -2.5249 0.9568
-7.5409 -7.6479 -2.5242 0.9568
-7.3843 -7.7972 -2.5239 0.9568
-7.2248 -7.9433 -2.5235 0.9568
-6.7289 -8.3613 -2.5224 0.9569
-6.2088 -8.7483 -2.5213 0.9569
-5.8496 -8.9883 -2.5204 0.9569
-5.6664 -9.1028 -2.5200 0.9569
-5.1037 -9.4235 -2.5187 0.9569
-4.1266 -9.8797 -2.5164 0.9570
-3.9260 -9.9589 -2.5159 0.9570
-3.7239 -10.0341 -2.5154 0.9570
-3.5204 -10.1051 -2.5149 0.9570
-2.2738 -10.4431 -2.5119 0.9570
-2.0625 -10.4846 -2.5113 0.9570
-1.2110 -10.6076 -2.5092 0.9571
-0.9969 -10.6276 -2.5087 0.9571
-0.7825 -10.6433 -2.5082 0.9571
-0.5679 -10.6546 -2.5076 0.9571
-0.3531 -10.6615 -2.5071 0.9571
0.2912 -10.6564 -2.5054 0.9571
0.7198 -10.6314 -2.5043 0.9572
0.9336 -10.6125 -2.5038 0.9572
1.1469 -10.5892 -2.5033 0.9572
1.3596 -10.5616 -2.5027 0.9572
1.7830 -10.4937 -2.5016 0.9572
1.9936 -10.4533 -2.5011 0.9572
2.2033 -10.4088 -2.5005 0.9572
2.4119 -10.3601 -2.5000 0.9572
2.6195 -10.3071 -2.4994 0.9572
2.8260 -10.2500 -2.4989 0.9573
3.0311 -10.1889 -2.4983 0.9573
3.4375 -10.0542 -2.4973 0.9573
3.6386 -9.9808 -2.4967 0.9573
4.0358 -9.8219 -2.4957 0.9573
4.2319 -9.7366 -2.4951 0.9573
4.4262 -9.6474 -2.4946 0.9573
4.6187 -9.5543 -2.4941 0.9573
4.8092 -9.4574 -2.4936 0.9573
5.1840 -9.2522 -2.4925 0.9574
5.3682 -9.1441 -2.4920 0.9574
5.5502 -9.0323 -2.4915 0.9574
6.0819 -8.6755 -2.4901 0.9574
6.7553 -8.1517 -2.4882 0.9574
7.2312 -7.7247 -2.4868 0.9575
7.3840 -7.5762 -2.4864 0.9575
7.5338 -7.4246 -2.4860 0.9575
8.4927 -6.2851 -2.4831 0.9575
8.6163 -6.1118 -2.4827 0.9575
8.8529 -5.7582 -2.4820 0.9575
8.9658 -5.5779 -2.4817 0.9575
9.0751 -5.3955 -2.4813 0.9575
9.1807 -5.2109 -2.4810 0.9576
9.2825 -5.0243 -2.4807 0.9576
9.3806 -4.8358 -2.4804 0.9576
9.7348 -4.0632 -2.4792 0.9576
9.8136 -3.8659 -2.4789 0.9576
10.0261 -3.2652 -2.4782 0.9576
10.0889 -3.0624 -2.4779 0.9576
10.2992 -2.2397 -2.4771 0.9576
10.3415 -2.0317 -2.4769 0.9576
10.3796 -1.8229 -2.4768 0.9576
10.4902 -0.9814 -2.4762 0.9576
10.5289 -0.3461 -2.4759 0.9576
10.5334 -0.1339 -2.4758 0.9576
10.5090 0.7142 -2.4756 0.9576
10.4715 1.1368 -2.4755 0.9576
10.4465 1.3474 -2.4755 0.9576
10.4172 1.5575 -2.4755 0.9576
10.3838 1.7671 -2.4755 0.9576
10.3461 1.9758 -2.4755 0.9576
10.3044 2.1839 -2.4756 0.9576
10.2585 2.3910 -2.4756 0.9576
10.2085 2.5971 -2.4757 0.9576
10.1544 2.8023 -2.4757 0.9576
10.0962 3.0064 -2.4758 0.9576
9.9677 3.4107 -2.4760 0.9576
9.6628 4.2027 -2.4765 0.9576
9.5767 4.3967 -2.4766 0.9576
9.4869 4.5890 -2.4768 0.9576
9.3932 4.7795 -2.4770 0.9576
8.8686 5.7020 -2.4780 0.9576
8.3843 6.3997 -2.4789 0.9576
8.1216 6.7337 -2.4795 0.9576
7.8378 7.0499 -2.4776 0.9576
7.0086 7.4080 -2.3968 0.9590
6.7497 7.4284 -2.3589 0.9596
6.5203 7.4731 -2.3309 0.9601
6.0598 7.8567 -2.3319 0.9601
5.9013 7.9783 -2.3323 0.9600
5.7403 8.0968 -2.3327 0.9600
5.5770 8.2121 -2.3330 0.9600
5.4113 8.3241 -2.3334 0.9600
5.2434 8.4328 -2.3338 0.9600
5.0734 8.5381 -2.3342 0.9600
4.7271 8.7386 -2.3350 0.9600
4.5509 8.8336 -2.3354 0.9600
4.0113 9.0972 -2.3367 0.9600
3.8280 9.1779 -2.3371 0.9600
3.2687 9.3977 -2.3385 0.9599
2.6968 9.5836 -2.3398 0.9599
2.3096 9.6883 -2.3408 0.9599
2.1144 9.7349 -2.3413 0.9599
1.9183 9.7775 -2.3418 0.9599
-7.7019 5.9498 -2.5199 0.9606
-8.1602 5.3136 -2.5213 0.9606
-8.2666 5.1488 -2.5216 0.9606
-8.5657 4.6419 -2.5225 0.9605
-8.7477 4.2942 -2.5231 0.9605
-8.9154 3.9392 -2.5237 0.9605
-8.9939 3.7593 -2.5239 0.9605
-9.1398 3.3947 -2.5244 0.9605
-9.2072 3.2102 -2.5247 0.9605
-9.2708 3.0244 -2.5249 0.9605
-9.3306 2.8373 -2.5251 0.9605
-9.3867 2.6490 -2.5253 0.9605
-9.4872 2.2692 -2.5257 0.9605
-9.6089 1.6925 -2.5262 0.9605
-9.6416 1.4987 -2.5264 0.9605
-9.6951 1.1093 -2.5266 0.9605
-9.7160 0.9139 -2.5268 0.9605
-9.7329 0.7181 -2.5269 0.9605
-9.7573 -0.2641 -2.5273 0.9605
-9.7240 -0.8529 -2.5274 0.9605
-9.7049 -1.0486 -2.5274 0.9605
-9.6819 -1.2438 -2.5274 0.9605
-9.6549 -1.4386 -2.5274 0.9605
-9.5074 -2.2109 -2.5273 0.9605
-9.2976 -2.9685 -2.5271 0.9605
-9.1699 -3.3403 -2.5269 0.9605
-9.0271 -3.7065 -2.5266 0.9605
-8.9501 -3.8874 -2.5265 0.9605
-8.6975 -4.4200 -2.5260 0.9605
-8.4129 -4.9361 -2.5255 0.9605
-8.3111 -5.1041 -2.5253 0.9605
-8.2059 -5.2700 -2.5251 0.9605
-8.0974 -5.4338 -2.5249 0.9605
-7.9856 -5.5952 -2.5246 0.9605
-7.8706 -5.7544 -2.5244 0.9605
-7.3789 -6.3666 -2.5234 0.9605
-7.2484 -6.5132 -2.5231 0.9605
-7.1149 -6.6571 -2.5228 0.9605
-6.9786 -6.7982 -2.5225 0.9605
-6.5529 -7.2046 -2.5216 0.9606
-6.2558 -7.4607 -2.5209 0.9606
-6.1034 -7.5841 -2.5206 0.9606
-5.4702 -8.0461 -2.5191 0.9606
-5.3062 -8.1534 -2.5188 0.9606
-5.1401 -8.2574 -2.5184 0.9606
-4.9720 -8.3579 -2.5180 0.9606
-4.8019 -8.4550 -2.5176 0.9606
-4.2805 -8.7253 -2.5164 0.9606
-3.9243 -8.8876 -2.5155 0.9607
-3.7438 -8.9633 -2.5151 0.9607
-3.0082 -9.2291 -2.5133 0.9607
-2.6331 -9.3393 -2.5124 0.9607
-2.4441 -9.3888 -2.5119 0.9607
-2.2541 -9.4343 -2.5115 0.9607
-1.4863 -9.5779 -2.5096 0.9607
-1.2929 -9.6041 -2.5091 0.9608
-1.0990 -9.6263 -2.5086 0.9608
-0.7101 -9.6590 -2.5076 0.9608
0.0695 -9.6772 -2.5057 0.9608
0.4589 -9.6627 -2.5047 0.9608
0.6533 -9.6496 -2.5042 0.9608
1.4267 -9.5581 -2.5022 0.9609
2.0001 -9.4489 -2.5007 0.9609
2.5655 -9.3053 -2.4992 0.9609
3.1209 -9.1281 -2.4977 0.9609
3.3035 -9.0616 -2.4972 0.9609
3.8424 -8.8405 -2.4958 0.9610
4.0189 -8.7596 -2.4953 0.9610
4.3668 -8.5874 -2.4944 0.9610
4.5380 -8.4961 -2.4939 0.9610
5.0400 -8.2020 -2.4925 0.9610
5.2032 -8.0974 -2.4921 0.9610
5.8339 -7.6470 -2.4903 0.9610
5.9857 -7.5267 -2.4899 0.9610
6.1351 -7.4033 -2.4895 0.9611
6.2819 -7.2771 -2.4891 0.9611
6.4261 -7.1479 -2.4887 0.9611
6.5677 -7.0158 -2.4883 0.9611
6.9761 -6.6033 -2.4871 0.9611
7.2341 -6.3151 -2.4863 0.9611
7.3588 -6.1672 -2.4860 0.9611
7.4804 -6.0169 -2.4856 0.9611
7.7145 -5.7091 -2.4849 0.9611
7.9360 -5.3924 -2.4842 0.9611
8.3400 -4.7338 -2.4830 0.9612
8.6077 -4.2200 -2.4821 0.9612
8.7687 -3.8691 -2.4816 0.9612
8.8440 -3.6914 -2.4813 0.9612
8.9837 -3.3316 -2.4808 0.9612
9.0482 -3.1497 -2.4806 0.9612
9.1661 -2.7822 -2.4802 0.9612
9.2195 -2.5969 -2.4800 0.9612
9.3152 -2.2231 -2.4796 0.9612
9.3959 -1.8459 -2.4793 0.9612
9.4886 -1.2749 -2.4788 0.9612
9.5119 -1.0835 -2.4787 0.9612
9.5313 -0.8917 -2.4786 0.9612
9.5587 -0.5071 -2.4784 0.9612
9.5666 -0.3145 -2.4783 0.9612
9.5707 -0.1217 -2.4782 0.9612
9.5674 0.2638 -2.4781 0.9612
9.5486 0.6489 -2.4780 0.9612
9.4006 1.7953 -2.4780 0.9612
9.3627 1.9843 -2.4780 0.9612
9.3210 2.1725 -2.4781 0.9612
9.2264 2.5462 -2.4782 0.9612
9.1735 2.7316 -2.4782 0.9612
9.1169 2.9159 -2.4783 0.9612
9.0566 3.0990 -2.4784 0.9612
8.9927 3.2809 -2.4785 0.9612
8.7794 3.8185 -2.4789 0.9612
8.6195 4.1695 -2.4791 0.9612
8.3536 4.6833 -2.4796 0.9612
8.1595 5.0167 -2.4800 0.9612
8.0575 5.1804 -2.4802 0.9612
7.9522 5.3421 -2.4804 0.9612
7.7320 5.6590 -2.4809 0.9612
7.4992 5.9670 -2.4813 0.9612
7.1275 6.4110 -2.4821 0.9612
6.8651 6.6944 -2.4827 0.9612
6.5914 6.9670 -2.4833 0.9611
6.4454 7.0935 -2.4816 0.9612
5.7576 7.4648 -2.4409 0.9618
5.5343 7.4822 -2.4096 0.9623
5.3165 7.4990 -2.3801 0.9627
5.1037 7.5152 -2.3521 0.9632
4.2933 7.9368 -2.3364 0.9634
3.9715 8.1059 -2.3371 0.9634
3.8081 8.1856 -2.3375 0.9634
3.6431 8.2620 -2.3379 0.9634
3.3085 8.4049 -2.3387 0.9634
3.1391 8.4713 -2.3391 0.9634
2.9684 8.5343 -2.3395 0.9634
2.2736 8.7518 -2.3412 0.9633
2.0972 8.7974 -2.3416 0.9633
1.5630 8.9130 -2.3430 0.9633
-7.0400 5.4384 -2.5184 0.9637
-7.1490 5.2963 -2.5187 0.9637
-7.3583 5.0053 -2.5193 0.9637
-7.6499 4.5534 -2.5202 0.9637
-7.7409 4.3989 -2.5205 0.9637
-7.8288 4.2426 -2.5208 0.9637
-7.9135 4.0845 -2.5211 0.9637
-8.0732 3.7632 -2.5216 0.9636
-8.2198 3.4357 -2.5221 0.9636
-8.3530 3.1025 -2.5225 0.9636
-8.5272 2.5930 -2.5231 0.9636
-8.5784 2.4209 -2.5233 0.9636
-8.6260 2.2478 -2.5235 0.9636
-8.7107 1.8989 -2.5239 0.9636
-8.7477 1.7232 -2.5240 0.9636
-8.8110 1.3696 -2.5243 0.9636
-8.8599 1.0138 -2.5245 0.9636
-8.8789 0.8352 -2.5247 0.9636
-8.9060 0.4770 -2.5249 0.9636
-8.9142 0.2975 -2.5249 0.9636
-8.9100 -0.4209 -2.5252 0.9636
-8.8861 -0.7794 -2.5252 0.9636
-8.8686 -0.9582 -2.5253 0.9636
-8.8476 -1.1367 -2.5253 0.9636
-8.7946 -1.4921 -2.5253 0.9636
-8.7627 -1.6689 -2.5252 0.9636
-8.7272 -1.8450 -2.5252 0.9636
-8.6881 -2.0204 -2.5252 0.9636
-8.6455 -2.1949 -2.5251 0.9636
-8.5994 -2.3685 -2.5251 0.9636
-8.5497 -2.5412 -2.5250 0.9636
-8.4399 -2.8832 -2.5248 0.9636
-8.3798 -3.0525 -2.5248 0.9636
-8.3163 -3.2205 -2.5247 0.9636
-8.2494 -3.3872 -2.5245 0.9636
-8.1791 -3.5525 -2.5244 0.9636
-8.1055 -3.7163 -2.5243 0.9636
-7.7782 -4.3556 -2.5237 0.9636
-7.6884 -4.5110 -2.5235 0.9636
-7.5954 -4.6646 -2.5233 0.9636
-7.4994 -4.8163 -2.5231 0.9636
-7.4003 -4.9660 -2.5229 0.9636
-7.2982 -5.1136 -2.5227 0.9636
-7.0851 -5.4024 -2.5223 0.9636
-6.9742 -5.5435 -2.5221 0.9636
-6.8605 -5.6823 -2.5218 0.9636
-6.7440 -5.8187 -2.5216 0.9636
-6.5028 -6.0844 -2.5211 0.9637
-6.3783 -6.2134 -2.5208 0.9637
-5.8549 -6.7035 -2.5196 0.9637
-5.5788 -6.9322 -2.5190 0.9637
-5.2937 -7.1494 -2.5184 0.9637
-5.1480 -7.2536 -2.5180 0.9637
-5.0002 -7.3548 -2.5177 0.9637
-4.3896 -7.7290 -2.5163 0.9637
-4.2324 -7.8147 -2.5159 0.9637
-4.0735 -7.8972 -2.5155 0.9637
-3.4226 -8.1944 -2.5140 0.9638
-2.9202 -8.3821 -2.5128 0.9638
-2.2346 -8.5842 -2.5111 0.9638
-2.0610 -8.6260 -2.5107 0.9638
-1.8865 -8.6643 -2.5103 0.9638
-1.7113 -8.6990 -2.5098 0.9638
-1.5355 -8.7302 -2.5094 0.9638
-0.8273 -8.8193 -2.5076 0.9638
-0.4713 -8.8423 -2.5067 0.9639
-0.2931 -8.8484 -2.5063 0.9639
0.0635 -8.8498 -2.5054 0.9639
0.2417 -8.8452 -2.5049 0.9639
0.4197 -8.8369 -2.5045 0.9639
0.5975 -8.8250 -2.5040 0.9639
0.9521 -8.7906 -2.5031 0.9639
1.1286 -8.7681 -2.5027 0.9639
1.6552 -8.6792 -2.5013 0.9639
2.5172 -8.4611 -2.4990 0.9640
2.6866 -8.4072 -2.4986 0.9640
2.8548 -8.3499 -2.4981 0.9640
3.0219 -8.2892 -2.4977 0.9640
3.1877 -8.2252 -2.4972 0.9640
3.5151 -8.0874 -2.4964 0.9640
3.8366 -7.9364 -2.4955 0.9640
4.1517 -7.7728 -2.4946 0.9640
4.3067 -7.6864 -2.4942 0.9640
4.6112 -7.5042 -2.4934 0.9640
4.7606 -7.4085 -2.4930 0.9641
4.9080 -7.3100 -2.4926 0.9641
5.4769 -6.8869 -2.4910 0.9641
5.7480 -6.6587 -2.4902 0.9641
5.8801 -6.5405 -2.4898 0.9641
6.1369 -6.2966 -2.4891 0.9641
6.8455 -5.5062 -2.4870 0.9641
6.9541 -5.3665 -2.4867 0.9641
7.3598 -4.7871 -2.4855 0.9642
7.5449 -4.4858 -2.4849 0.9642
7.9535 -3.7025 -2.4836 0.9642
8.2226 -3.0493 -2.4827 0.9642
8.3374 -2.7153 -2.4823 0.9642
8.4387 -2.3769 -2.4819 0.9642
8.4842 -2.2063 -2.4817 0.9642
8.5651 -1.8626 -2.4814 0.9642
8.6321 -1.5160 -2.4811 0.9642
8.6853 -1.1670 -2.4808 0.9642
8.7066 -0.9918 -2.4807 0.9642
8.7388 -0.6403 -2.4805 0.9642
8.7496 -0.4642 -2.4804 0.9642
8.7606 -0.1114 -2.4803 0.9642
8.7576 0.2415 -2.4802 0.9642
8.7405 0.5940 -2.4801 0.9642
8.7094 0.9455 -2.4800 0.9642
8.6885 1.1207 -2.4800 0.9642
8.6642 1.2954 -2.4800 0.9642
8.5321 1.9886 -2.4801 0.9642
8.4905 2.1601 -2.4802 0.9642
8.4455 2.3307 -2.4802 0.9642
8.1046 3.3325 -2.4807 0.9642
7.8897 3.8164 -2.4811 0.9642
7.7305 4.1316 -2.4814 0.9642
7.5589 4.4401 -2.4817 0.9642
7.3750 4.7416 -2.4821 0.9642
7.2785 4.8896 -2.4823 0.9642
7.1792 5.0356 -2.4825 0.9642
6.9718 5.3216 -2.4829 0.9642
6.6395 5.7345 -2.4836 0.9642
6.2831 6.1268 -2.4844 0.9642
6.1591 6.2528 -2.4846 0.9642
6.0326 6.3763 -2.4849 0.9642
5.6385 6.7313 -2.4858 0.9642
5.5024 6.8444 -2.4861 0.9642
5.2228 7.0609 -2.4863 0.9641
4.7800 7.3530 -2.4828 0.9642
4.4713 7.5248 -2.4779 0.9643
4.0860 7.5535 -2.4312 0.9649
3.5326 7.5934 -2.3709 0.9658
3.3538 7.6060 -2.3532 0.9660
3.0272 7.6903 -2.3397 0.9662
2.5585 7.8629 -2.3408 0.9662
1.7565 8.0870 -2.3428 0.9662
1.5935 8.1221 -2.3432 0.9662
1.4299 8.1540 -2.3436 0.9662
-6.4762 5.0030 -2.5171 0.9663
-6.6741 4.7392 -2.5177 0.9663
-6.8610 4.4676 -2.5183 0.9663
-6.9504 4.3290 -2.5185 0.9663
-7.0369 4.1886 -2.5188 0.9663
-7.1206 4.0464 -2.5191 0.9663
-7.2792 3.7571 -2.5196 0.9663
-7.3541 3.6101 -2.5198 0.9663
-7.4260 3.4616 -2.5201 0.9663
-7.4949 3.3116 -2.5203 0.9663
-7.5608 3.1603 -2.5205 0.9663
-7.6235 3.0076 -2.5207 0.9663
-7.7397 2.6986 -2.5211 0.9663
-7.8433 2.3850 -2.5215 0.9663
-7.8902 2.2267 -2.5217 0.9663
-7.9746 1.9074 -2.5220 0.9663
-8.0458 1.5849 -2.5223 0.9663
-8.1040 1.2597 -2.5225 0.9663
-8.1281 1.0963 -2.5227 0.9663
-8.1489 0.9324 -2.5228 0.9663
-8.1912 0.4387 -2.5231 0.9663
-8.1986 0.2736 -2.5231 0.9663
-8.2027 0.1084 -2.5232 0.9663
-8.2034 -0.0568 -2.5233 0.9663
-8.2008 -0.2220 -2.5233 0.9663
-8.1948 -0.3871 -2.5234 0.9662
-8.1727 -0.7169 -2.5234 0.9662
-8.1567 -0.8813 -2.5234 0.9662
-8.1146 -1.2091 -2.5234 0.9662
-8.0592 -1.5349 -2.5234 0.9662
-8.0266 -1.6969 -2.5234 0.9662
-7.9907 -1.8582 -2.5234 0.9662
-7.8146 -2.4950 -2.5231 0.9663
-7.7625 -2.6518 -2.5231 0.9663
-7.7072 -2.8075 -2.5230 0.9663
-7.6488 -2.9621 -2.5229 0.9663
-7.4550 -3.4181 -2.5225 0.9663
-7.3843 -3.5674 -2.5224 0.9663
-7.3106 -3.7152 -2.5223 0.9663
-7.0716 -4.1492 -2.5218 0.9663
-6.8067 -4.5677 -2.5213 0.9663
-6.7128 -4.7035 -2.5211 0.9663
-6.6162 -4.8373 -2.5209 0.9663
-6.4150 -5.0990 -2.5205 0.9663
-6.2033 -5.3523 -2.5200 0.9663
-5.9816 -5.5967 -2.5196 0.9663
-5.5095 -6.0575 -2.5185 0.9663
-5.2600 -6.2730 -2.5180 0.9663
-5.1320 -6.3770 -2.5177 0.9663
-4.8698 -6.5769 -2.5171 0.9663
-4.5999 -6.7660 -2.5165 0.9663
-4.3226 -6.9441 -2.5158 0.9663
-3.8938 -7.1895 -2.5148 0.9664
-3.7477 -7.2655 -2.5145 0.9664
-3.6001 -7.3385 -2.5141 0.9664
-3.4511 -7.4085 -2.5138 0.9664
-3.3007 -7.4754 -2.5134 0.9664
-2.9961 -7.6001 -2.5127 0.9664
-2.8420 -7.6577 -2.5123 0.9664
-2.6868 -7.7123 -2.5120 0.9664
-2.2152 -7.8569 -2.5108 0.9664
-2.0562 -7.8987 -2.5104 0.9664
-1.8964 -7.9372 -2.5100 0.9664
-1.7358 -7.9726 -2.5096 0.9664
-1.5747 -8.0046 -2.5092 0.9664
-1.4129 -8.0335 -2.5088 0.9664
-1.2506 -8.0590 -2.5084 0.9664
-1.0879 -8.0812 -2.5080 0.9665
-0.9248 -8.1002 -2.5076 0.9665
-0.5976 -8.1282 -2.5068 0.9665
-0.4337 -8.1373 -2.5064 0.9665
-0.2697 -8.1430 -2.5060 0.9665
-0.1056 -8.1454 -2.5056 0.9665
0.0584 -8.1348 -2.5021 0.9665
0.2224 -8.1404 -2.5047 0.9665
0.5481 -8.0964 -2.4960 0.9666
0.7124 -8.0983 -2.5005 0.9666
0.8763 -8.0907 -2.5031 0.9665
1.0389 -8.0700 -2.5026 0.9665
1.2010 -8.0461 -2.5022 0.9665
1.5235 -7.9885 -2.5014 0.9665
1.8434 -7.9181 -2.5005 0.9665
2.0022 -7.8780 -2.5001 0.9666
2.1601 -7.8348 -2.4997 0.9666
2.3170 -7.7884 -2.4993 0.9666
2.6279 -7.6862 -2.4985 0.9666
2.7817 -7.6305 -2.4981 0.9666
3.0858 -7.5098 -2.4973 0.9666
3.3846 -7.3771 -2.4965 0.9666
3.5320 -7.3063 -2.4961 0.9666
3.9649 -7.0763 -2.4949 0.9666
4.1059 -6.9939 -2.4945 0.9666
