ply
format ascii 1.0
element vertex 1563
property float32 x
property float32 y
property float32 z
property float32 I
end_header
23.0299 19.9125 -0.1714 0.8853
32.7846 29.5187 -0.2484 0.8382
34.6257 32.4597 -0.2672 0.8271
25.1256 24.5208 -0.1977 0.8690
24.1387 24.5239 -0.1937 0.8714
23.1899 24.5268 -0.1900 0.8737
22.2762 24.5296 -0.1866 0.8759
21.6860 24.8660 -0.1858 0.8764
21.6892 25.9025 -0.1902 0.8736
21.6961 28.1344 -0.2000 0.8675
15.9622 24.5492 -0.1649 0.8895
15.2706 24.5513 -0.1628 0.8908
13.5158 26.2142 -0.1661 0.8887
13.5200 27.5687 -0.1729 0.8844
6.0912 13.0791 -0.0812 0.9439
5.8379 13.2230 -0.0814 0.9438
13.0549 37.4561 -0.2233 0.8533
10.6645 32.6975 -0.1936 0.8715
9.2889 32.9110 -0.1925 0.8722
7.8788 32.9225 -0.1906 0.8734
7.1382 32.7195 -0.1885 0.8746
6.4732 32.8254 -0.1884 0.8747
6.4090 36.3316 -0.2077 0.8628
5.8373 37.4784 -0.2136 0.8592
4.1504 36.1475 -0.2048 0.8646
2.4450 32.9229 -0.1859 0.8763
-0.2294 36.6752 -0.2065 0.8635
-1.5314 32.9481 -0.1857 0.8764
-2.1986 32.9916 -0.1862 0.8761
-4.8535 32.7955 -0.1867 0.8758
-6.2503 33.0120 -0.1892 0.8742
-1.8619 8.0496 -0.0465 0.9675
-8.3334 32.9930 -0.1916 0.8727
-8.9955 32.8219 -0.1916 0.8727
-3.1878 9.3743 -0.0557 0.9612
-3.3997 9.3750 -0.0561 0.9609
-3.6147 9.3756 -0.0566 0.9606
-4.2812 9.3777 -0.0580 0.9596
-4.7461 9.3791 -0.0592 0.9588
-5.1992 8.5022 -0.0561 0.9609
-21.0376 32.8982 -0.2199 0.8554
-22.1272 33.1166 -0.2242 0.8527
-24.1723 33.2068 -0.2312 0.8485
-24.8960 32.7951 -0.2318 0.8481
-51.3957 64.9502 -0.4666 0.7180
-51.7916 62.8141 -0.4584 0.7221
-51.8026 60.3159 -0.4476 0.7276
-51.9538 55.7905 -0.4292 0.7372
-51.8205 53.4523 -0.4192 0.7425
-51.8333 49.3346 -0.4029 0.7511
-51.8451 45.5188 -0.3884 0.7588
-51.8170 43.6818 -0.3816 0.7625
-51.5970 41.7519 -0.3737 0.7668
-33.3584 24.8435 -0.2342 0.8467
-52.0334 29.7616 -0.3375 0.7868
-21.8394 -86.1221 -2.5018 0.7008
-8.9582 -38.5624 -1.1147 0.8535
-18.3613 -86.9300 -2.5018 0.7008
-3.5397 -18.5993 -0.5331 0.9270
-3.5413 -20.8845 -0.5965 0.9187
-3.1159 -20.9178 -0.5955 0.9189
-1.6333 -18.6010 -0.5258 0.9280
-0.8890 -18.7442 -0.5284 0.9277
0.2414 -18.7158 -0.5270 0.9278
2.1383 -18.7796 -0.5322 0.9272
2.5217 -18.7808 -0.5336 0.9270
2.9072 -18.7820 -0.5352 0.9268
3.6859 -18.7844 -0.5390 0.9263
4.0798 -18.7856 -0.5413 0.9260
4.4771 -18.7868 -0.5438 0.9256
4.8784 -18.7880 -0.5466 0.9253
5.2840 -18.7893 -0.5496 0.9249
5.6942 -18.7906 -0.5529 0.9244
6.0991 -18.7599 -0.5555 0.9241
6.5303 -18.7932 -0.5602 0.9235
6.9571 -18.7945 -0.5643 0.9229
7.8305 -18.7972 -0.5734 0.9217
8.2782 -18.7986 -0.5784 0.9211
8.7340 -18.8000 -0.5837 0.9204
10.7174 -20.8349 -0.6597 0.9105
11.1631 -20.6693 -0.6615 0.9103
29.1717 -51.5104 -1.6669 0.7891
11.0642 -18.6525 -0.6107 0.9169
43.9986 -70.8883 -2.3493 0.7162
29.1851 -43.0582 -1.4647 0.8121
48.1895 -68.1083 -2.3493 0.7162
50.8873 -66.1170 -2.3493 0.7162
30.3015 -36.2573 -1.3305 0.8277
52.9865 -60.8722 -2.2724 0.7240
58.2547 -59.2963 -2.3406 0.7170
30.4384 -29.7620 -1.1987 0.8434
60.6739 -56.9862 -2.3438 0.7167
53.0328 -45.9418 -1.9757 0.7552
53.0385 -44.1126 -1.9425 0.7588
55.1360 -42.2276 -1.9555 0.7574
57.5035 -42.2349 -2.0090 0.7516
62.6546 -42.2509 -2.1279 0.7390
71.3493 -34.6972 -2.2340 0.7280
72.2757 -24.9222 -2.1527 0.7364
73.1126 -23.5779 -2.1631 0.7354
74.1977 -22.2921 -2.1815 0.7334
75.5692 -21.0582 -2.2089 0.7306
77.3733 -19.8944 -2.2495 0.7264
81.9077 -15.8700 -2.3492 0.7162
66.4398 -11.4929 -1.8986 0.7635
82.4792 -12.5661 -2.3492 0.7162
88.0808 -11.6136 -2.5016 0.7008
88.2964 -9.8413 -2.5016 0.7008
88.4763 -8.0650 -2.5016 0.7008
83.0936 7.4952 -2.3492 0.7162
82.4910 12.4881 -2.3492 0.7162
40.4212 8.6381 -1.1639 0.8476
55.0168 12.9184 -1.5913 0.7976
50.6268 12.9663 -1.4715 0.8113
76.3458 22.8589 -2.2440 0.7269
50.8204 17.4702 -1.5132 0.8065
62.4334 22.8753 -1.8723 0.7664
42.4510 16.5287 -1.2827 0.8334
40.7857 18.7837 -1.2644 0.8355
32.4568 16.5597 -1.0260 0.8643
32.2890 18.1448 -1.0429 0.8622
32.2972 20.8046 -1.0818 0.8575
22.6325 16.5901 -0.7902 0.8938
22.6091 17.2820 -0.8013 0.8924
10.4189 8.3010 -0.3751 0.9481
22.6137 18.7719 -0.8276 0.8890
22.6162 19.5548 -0.8419 0.8872
22.6213 21.2062 -0.8731 0.8833
24.9322 24.3321 -0.9810 0.8699
23.9529 24.3352 -0.9615 0.8723
22.1048 24.3409 -0.9258 0.8767
14.3318 17.1158 -0.6286 0.9145
14.7176 19.0850 -0.6786 0.9081
13.9639 20.5598 -0.6998 0.9053
15.1531 24.3624 -0.8079 0.8915
14.5383 25.6147 -0.8293 0.8888
14.5508 29.6706 -0.9305 0.8761
5.8412 13.2307 -0.4072 0.9438
14.5669 34.8752 -1.0642 0.8596
30.9206 83.2904 -2.5017 0.7008
29.2407 83.8949 -2.5017 0.7008
27.5490 84.4655 -2.5017 0.7008
24.1328 85.5042 -2.5017 0.7008
18.9372 86.8029 -2.5017 0.7008
11.9061 88.0432 -2.5017 0.7008
8.3588 88.4509 -2.5017 0.7008
-0.5559 88.8436 -2.5017 0.7008
-0.4737 17.9725 -0.5062 0.9306
-5.9077 88.6487 -2.5017 0.7008
-7.6880 88.5121 -2.5017 0.7008
-9.4651 88.3405 -2.5017 0.7008
-13.0071 87.8889 -2.5017 0.7008
-16.5280 87.2952 -2.5017 0.7008
-23.4843 85.6866 -2.5017 0.7008
-3.8331 9.3763 -0.2852 0.9603
-4.0455 9.3546 -0.2870 0.9600
-4.7461 9.3791 -0.2960 0.9588
-4.9857 9.3799 -0.2991 0.9584
-5.1511 9.2381 -0.2978 0.9586
-5.1595 8.8312 -0.2880 0.9599
-5.1693 8.4533 -0.2790 0.9611
-33.3091 52.0882 -1.7409 0.7808
-33.1007 49.5400 -1.6777 0.7879
-33.8946 48.5855 -1.6681 0.7889
-33.7575 44.4683 -1.5720 0.7998
-33.1750 37.0923 -1.4012 0.8194
-33.3815 34.4326 -1.3504 0.8254
-25.4061 25.1736 -1.0071 0.8667
-25.9970 24.7438 -1.0106 0.8662
-33.2221 29.1682 -1.2449 0.8379
-30.6832 24.8286 -1.1114 0.8539
-31.9875 24.8373 -1.1403 0.8504
-33.2832 24.7875 -1.1685 0.8470
-38.9625 27.8176 -1.3480 0.8257
-38.8388 25.4372 -1.3073 0.8305
-38.8451 24.3402 -1.2908 0.8324
-32.2606 18.4521 -1.0465 0.8618
-8.9953 -35.4724 -1.8559 0.8637
-3.5413 -20.8845 -1.0743 0.9187
-2.6835 -20.8872 -1.0680 0.9191
-0.8890 -18.7442 -0.9517 0.9276
-0.5118 -18.7454 -0.9510 0.9276
-0.1350 -18.7466 -0.9507 0.9277
0.2414 -18.7158 -0.9492 0.9278
0.9963 -18.7501 -0.9522 0.9276
2.1383 -18.7796 -0.9585 0.9271
3.2951 -18.7831 -0.9671 0.9265
4.4772 -18.7868 -0.9794 0.9256
4.8784 -18.7880 -0.9844 0.9252
5.2840 -18.7893 -0.9898 0.9248
5.6942 -18.7906 -0.9957 0.9244
6.0991 -18.7599 -1.0004 0.9240
6.5303 -18.7932 -1.0090 0.9234
8.7340 -18.8000 -1.0513 0.9203
10.1925 -20.8332 -1.1762 0.9113
24.3090 -42.9240 -2.5017 0.8207
28.4920 -40.2689 -2.5017 0.8207
28.5842 -38.7247 -2.4410 0.8247
29.0801 -36.2522 -2.3569 0.8302
29.8027 -35.6605 -2.3569 0.8302
30.5133 -35.0544 -2.3569 0.8302
31.9039 -33.8072 -2.3574 0.8301
34.5706 -35.1887 -2.5017 0.8207
30.4344 -29.7580 -2.1587 0.8433
35.9565 -33.7712 -2.5017 0.8207
29.1145 -26.2641 -1.9885 0.8547
31.6854 -27.4487 -2.1260 0.8454
37.9260 -31.5434 -2.5017 0.8207
29.2418 -21.4774 -1.8400 0.8648
29.1113 -20.4940 -1.8055 0.8671
40.8988 -27.5799 -2.5017 0.8207
41.8387 -25.8308 -2.4936 0.8212
42.5307 -23.9531 -2.4755 0.8224
42.5361 -22.8426 -2.4486 0.8242
42.5942 -19.6653 -2.3792 0.8287
42.7361 -18.6984 -2.3657 0.8296
42.9638 -17.7782 -2.3580 0.8301
43.2735 -16.8961 -2.3559 0.8302
43.6627 -16.0445 -2.3591 0.8300
46.2519 -12.8886 -2.4350 0.8251
47.3278 -12.1691 -2.4783 0.8222
48.2298 -10.3544 -2.5017 0.8207
48.4281 -9.3832 -2.5017 0.8207
48.6069 -8.4081 -2.5017 0.8207
48.7660 -7.4297 -2.5017 0.8207
48.9055 -6.4483 -2.5017 0.8207
49.0252 -5.4642 -2.5017 0.8207
49.2652 -2.5005 -2.5017 0.8207
49.3264 0.4723 -2.5017 0.8207
49.2083 3.4435 -2.5017 0.8207
49.0302 5.4179 -2.5017 0.8207
48.9114 6.4021 -2.5017 0.8207
48.7729 7.3836 -2.5017 0.8207
45.4862 8.7686 -2.3493 0.8307
40.2790 8.6077 -2.0888 0.8479
44.8752 11.4933 -2.3493 0.8307
44.6352 12.3927 -2.3493 0.8307
44.3771 13.2871 -2.3493 0.8307
43.7450 16.0280 -2.3627 0.8298
42.4510 16.5287 -2.3103 0.8332
40.7797 16.8293 -2.2373 0.8380
40.7857 18.7837 -2.2772 0.8354
40.7888 19.7880 -2.2992 0.8340
32.2890 18.1448 -1.8784 0.8621
32.2917 19.0101 -1.9004 0.8606
32.2972 20.8046 -1.9483 0.8574
32.3001 21.7371 -1.9745 0.8556
23.6091 16.5871 -1.4633 0.8909
22.6325 16.5901 -1.4231 0.8937
22.6137 18.7719 -1.4905 0.8890
22.6162 19.5548 -1.5162 0.8871
33.3098 33.8405 -2.4081 0.8268
14.4905 16.6154 -1.1181 0.9155
13.9540 17.3618 -1.1296 0.9147
13.9587 18.8733 -1.1905 0.9103
13.9667 21.4803 -1.2994 0.9025
25.2904 40.6608 -2.4284 0.8255
24.4841 41.1875 -2.4300 0.8254
23.6665 41.6971 -2.4315 0.8253
21.1480 43.1229 -2.4358 0.8250
20.2882 43.5627 -2.4371 0.8249
19.4188 43.9845 -2.4384 0.8248
17.6529 44.7727 -2.4407 0.8247
16.7572 45.1387 -2.4418 0.8246
15.8536 45.4858 -2.4429 0.8245
14.9425 45.8138 -2.4439 0.8245
6.2649 20.6039 -1.0921 0.9174
5.9450 21.0633 -1.1099 0.9161
5.8752 24.5502 -1.2802 0.9038
5.3567 24.5536 -1.2745 0.9042
3.8346 24.6196 -1.2636 0.9050
2.8276 24.6263 -1.2571 0.9055
1.3293 24.5781 -1.2483 0.9061
0.8364 24.6373 -1.2502 0.9060
0.3410 24.6406 -1.2497 0.9060
-0.1542 24.6439 -1.2498 0.9060
-0.8469 18.2197 -0.9250 0.9296
-1.6430 24.6538 -1.2531 0.9058
-2.1366 24.5989 -1.2522 0.9058
-3.6502 24.6648 -1.2645 0.9050
-4.1589 24.6682 -1.2687 0.9047
-4.6712 24.6716 -1.2734 0.9043
-1.8523 8.8106 -0.4566 0.9646
-1.8619 8.0496 -0.4190 0.9675
-6.2195 24.6237 -1.2880 0.9033
-2.9717 9.3513 -0.4976 0.9615
-3.3997 9.3750 -0.5057 0.9608
-3.6147 9.3756 -0.5096 0.9606
-4.5114 9.3784 -0.5278 0.9592
-5.1511 9.2381 -0.5365 0.9585
-5.1992 8.5022 -0.5054 0.9609
-16.1266 24.1358 -1.4721 0.8902
-17.6338 24.2245 -1.5195 0.8869
-18.9581 23.9579 -1.5494 0.8848
-21.4293 23.9596 -1.6302 0.8792
-22.3385 23.9881 -1.6623 0.8770
-24.1223 23.9014 -1.7222 0.8728
-14.5544 13.3058 -1.0001 0.9241
-27.2961 23.9653 -1.8421 0.8646
-28.4607 23.9923 -1.8878 0.8615
-17.0815 13.2632 -1.0968 0.9170
-17.7946 13.2525 -1.1252 0.9150
-18.4867 13.1988 -1.1520 0.9130
-20.2544 13.2655 -1.2279 0.9076
-21.1798 13.2712 -1.2676 0.9047
-23.1222 13.2252 -1.3509 0.8988
-7.6361 -30.1124 -2.2778 0.8829
-6.6217 -31.3496 -2.3493 0.8794
-1.6333 -18.6010 -1.3691 0.9278
-1.2669 -18.7431 -1.3774 0.9274
-0.5118 -18.7454 -1.3750 0.9275
-0.1350 -18.7466 -1.3746 0.9276
0.9963 -18.7501 -1.3767 0.9275
1.7537 -18.7465 -1.3805 0.9273
2.5174 -18.7488 -1.3870 0.9269
2.9022 -18.7500 -1.3912 0.9267
4.8701 -18.7561 -1.4208 0.9252
5.6845 -18.7586 -1.4372 0.9244
6.0991 -18.7599 -1.4464 0.9239
6.9273 -18.7140 -1.4631 0.9231
7.3246 -18.6287 -1.4677 0.9229
7.7609 -18.6300 -1.4798 0.9222
8.2046 -18.6314 -1.4927 0.9216
8.6563 -18.6328 -1.5064 0.9209
10.7174 -20.8348 -1.7179 0.9103
11.1631 -20.6693 -1.7224 0.9101
11.0642 -18.6525 -1.5902 0.9167
16.8969 -27.2234 -2.3493 0.8794
17.4405 -26.8783 -2.3493 0.8794
20.2626 -27.4510 -2.5017 0.8721
20.8101 -27.0383 -2.5017 0.8721
21.8798 -26.1802 -2.5017 0.8721
22.4014 -25.7353 -2.5017 0.8721
23.9113 -24.3388 -2.5017 0.8721
24.3955 -23.8534 -2.5017 0.8721
24.8699 -23.3584 -2.5017 0.8721
25.3343 -22.8539 -2.5017 0.8721
25.7884 -22.3402 -2.5017 0.8721
26.6652 -21.2860 -2.5017 0.8721
27.4989 -20.1973 -2.5017 0.8721
27.8992 -19.6406 -2.5017 0.8721
28.2882 -19.0760 -2.5017 0.8721
28.5868 -17.6492 -2.4633 0.8739
28.6336 -16.8930 -2.4376 0.8752
28.8370 -16.2409 -2.4267 0.8757
31.2581 -13.6764 -2.5017 0.8721
31.5266 -13.0455 -2.5017 0.8721
31.7824 -12.4094 -2.5017 0.8721
32.0253 -11.7682 -2.5017 0.8721
32.2553 -11.1223 -2.5017 0.8721
32.4723 -10.4719 -2.5017 0.8721
33.0443 -8.4964 -2.5017 0.8721
33.2083 -7.8307 -2.5017 0.8721
33.3590 -7.1618 -2.5017 0.8721
34.0336 -2.4139 -2.5017 0.8721
34.1031 -1.0444 -2.5017 0.8721
34.1172 -0.3589 -2.5017 0.8721
34.1175 0.3267 -2.5017 0.8721
34.0358 2.3817 -2.5017 0.8721
33.6252 5.7839 -2.5017 0.8721
33.3657 7.1303 -2.5017 0.8721
31.0388 7.9495 -2.3493 0.8794
30.8727 8.5716 -2.3493 0.8794
30.6943 9.1903 -2.3493 0.8794
30.3002 10.4161 -2.3493 0.8794
30.0848 11.0229 -2.3493 0.8794
29.8572 11.6252 -2.3493 0.8794
29.6176 12.2228 -2.3493 0.8794
29.1025 13.4030 -2.3493 0.8794
28.8273 13.9851 -2.3493 0.8794
27.9109 16.4307 -2.3747 0.8782
26.8796 18.0892 -2.3756 0.8781
10.4164 8.2990 -0.9765 0.9480
22.6137 18.7720 -2.1549 0.8888
22.6162 19.5548 -2.1922 0.8870
22.6187 20.3655 -2.2316 0.8851
22.6213 21.2062 -2.2735 0.8831
22.7632 23.1265 -2.3793 0.8780
22.2977 23.5832 -2.3797 0.8779
15.0873 16.6135 -1.6455 0.9139
13.9518 16.6620 -1.5934 0.9165
13.9563 18.0977 -1.6757 0.9124
13.9587 18.8733 -1.7212 0.9101
13.9612 19.6925 -1.7700 0.9077
13.9639 20.5597 -1.8223 0.9051
16.6658 28.0354 -2.3914 0.8774
16.1059 28.3768 -2.3924 0.8773
6.4038 13.0579 -1.0664 0.9433
6.0823 13.0599 -1.0563 0.9439
5.8898 16.8987 -1.3121 0.9307
6.1032 20.0721 -1.5383 0.9193
5.9450 21.0633 -1.6047 0.9160
5.2202 23.9279 -1.7957 0.9064
1.7773 23.9324 -1.7596 0.9082
1.2931 23.9106 -1.7557 0.9084
0.3313 23.9369 -1.7553 0.9085
-0.4768 18.0901 -1.3269 0.9300
-0.8423 18.1219 -1.3302 0.9298
-1.5970 23.9634 -1.7609 0.9082
-2.5758 24.0410 -1.7728 0.9076
-3.0571 23.9744 -1.7721 0.9076
-1.9856 13.4165 -0.9944 0.9471
-2.5373 13.4013 -1.0001 0.9468
-1.8523 8.8106 -0.6601 0.9645
-1.8619 8.0496 -0.6058 0.9674
-6.5816 24.0142 -1.8257 0.9050
-7.0731 23.9115 -1.8283 0.9048
-3.1878 9.3743 -0.7260 0.9611
-3.3997 9.3750 -0.7312 0.9608
-3.6147 9.3756 -0.7368 0.9605
-3.8331 9.3763 -0.7427 0.9602
-4.0455 9.3546 -0.7473 0.9599
-5.1511 9.2381 -0.7755 0.9585
-5.1595 8.8312 -0.7499 0.9598
-8.4404 13.1990 -1.1487 0.9391
-8.8206 13.2013 -1.1641 0.9383
-10.8936 13.2120 -1.2556 0.9336
-11.8218 13.2177 -1.3002 0.9313
-12.9524 13.3603 -1.3644 0.9281
-14.4122 13.1758 -1.4318 0.9247
-16.2789 13.7231 -1.5611 0.9182
-16.6085 13.4395 -1.5665 0.9179
-17.6652 13.7164 -1.6399 0.9142
-17.9535 13.3708 -1.6413 0.9141
-18.4867 13.1988 -1.6655 0.9129
-21.5367 13.4948 -1.8635 0.9031
-22.3654 13.3959 -1.9115 0.9007
-23.1222 13.2253 -1.9531 0.8987
-5.5373 -23.8362 -2.3493 0.9063
-3.5397 -18.5993 -1.8177 0.9267
-3.5184 -20.7496 -2.0205 0.9189
-2.6662 -20.7522 -2.0087 0.9194
-2.2434 -20.7535 -2.0040 0.9195
-1.6333 -18.6010 -1.7927 0.9277
-1.2669 -18.7431 -1.8035 0.9273
-0.8890 -18.7442 -1.8016 0.9274
-0.5118 -18.7454 -1.8003 0.9274
0.2414 -18.7158 -1.7970 0.9275
0.6188 -18.7489 -1.8010 0.9274
0.9963 -18.7501 -1.8026 0.9273
1.7411 -18.6114 -1.7946 0.9276
2.1193 -18.6126 -1.7984 0.9275
2.8813 -18.6149 -1.8084 0.9271
3.6531 -18.6173 -1.8214 0.9266
4.4373 -18.6198 -1.8376 0.9260
5.6435 -18.6235 -1.8682 0.9248
6.4722 -18.6260 -1.8931 0.9238
7.7609 -18.6300 -1.9376 0.9221
8.6563 -18.6328 -1.9725 0.9208
10.1768 -20.8012 -2.2232 0.9111
10.7009 -20.8029 -2.2459 0.9103
12.0589 -21.2932 -2.3493 0.9063
11.0642 -18.6525 -2.0821 0.9165
12.9048 -20.7915 -2.3493 0.9063
13.3199 -20.5279 -2.3493 0.9063
15.6924 -18.7767 -2.3493 0.9063
16.0665 -18.4576 -2.3493 0.9063
16.4341 -18.1310 -2.3493 0.9063
18.9940 -17.8396 -2.5017 0.9006
20.0343 -16.6627 -2.5017 0.9006
20.3651 -16.2568 -2.5017 0.9006
21.3076 -15.0003 -2.5017 0.9006
21.6047 -14.5691 -2.5017 0.9006
21.8931 -14.1320 -2.5017 0.9006
22.1727 -13.6892 -2.5017 0.9006
22.7048 -12.7872 -2.5017 0.9006
23.2003 -11.8646 -2.5017 0.9006
23.4340 -11.3960 -2.5017 0.9006
23.8730 -10.4452 -2.5017 0.9006
24.0780 -9.9633 -2.5017 0.9006
24.8003 -7.9978 -2.5017 0.9006
24.9560 -7.4978 -2.5017 0.9006
25.2371 -6.4890 -2.5017 0.9006
25.7607 -3.9248 -2.5017 0.9006
25.8344 -3.4063 -2.5017 0.9006
25.9504 -2.3655 -2.5017 0.9006
25.9926 -1.8436 -2.5017 0.9006
26.0244 -1.3209 -2.5017 0.9006
26.0257 1.2963 -2.5017 0.9006
25.9943 1.8190 -2.5017 0.9006
25.9525 2.3410 -2.5017 0.9006
25.9003 2.8620 -2.5017 0.9006
25.7644 3.9004 -2.5017 0.9006
25.2431 6.4652 -2.5017 0.9006
25.1081 6.9711 -2.5017 0.9006
24.2781 7.8041 -2.4483 0.9026
23.1414 7.9552 -2.3493 0.9063
22.9768 8.4186 -2.3493 0.9063
22.8030 8.8786 -2.3493 0.9063
22.6200 9.3350 -2.3493 0.9063
22.4278 9.7877 -2.3493 0.9063
22.2267 10.2364 -2.3493 0.9063
21.7974 11.1212 -2.3493 0.9063
21.5695 11.5569 -2.3493 0.9063
20.5719 13.2516 -2.3493 0.9063
20.3014 13.6623 -2.3493 0.9063
20.0397 14.0794 -2.3513 0.9063
19.8183 14.5272 -2.3591 0.9060
19.0849 15.8436 -2.3814 0.9051
17.7599 17.3324 -2.3824 0.9051
13.9518 16.6621 -2.0864 0.9164
13.9540 17.3618 -2.1384 0.9144
13.5472 20.8350 -2.3859 0.9050
13.1277 21.1061 -2.3863 0.9049
12.2726 21.6229 -2.3870 0.9049
6.4038 13.0579 -1.3963 0.9432
5.5287 13.2365 -1.3772 0.9440
5.2196 13.2384 -1.3662 0.9444
3.7060 13.1304 -1.3098 0.9467
3.4231 13.1321 -1.3029 0.9469
3.1431 13.1339 -1.2965 0.9472
2.5907 13.1373 -1.2855 0.9476
2.3075 13.0811 -1.2752 0.9480
2.0377 13.0827 -1.2711 0.9482
1.2421 13.1435 -1.2675 0.9483
0.9762 13.1451 -1.2655 0.9484
0.7110 13.1467 -1.2640 0.9485
-0.3467 13.1533 -1.2632 0.9485
-1.1429 13.1582 -1.2680 0.9483
-1.4100 13.1598 -1.2706 0.9482
-1.9395 13.1051 -1.2719 0.9482
-2.2097 13.1068 -1.2761 0.9480
-1.8523 8.8106 -0.8644 0.9645
-3.6099 13.1713 -1.3111 0.9466
-3.8966 13.1731 -1.3188 0.9463
-2.9717 9.3513 -0.9420 0.9613
-3.1878 9.3743 -0.9506 0.9610
-3.3997 9.3750 -0.9574 0.9607
-4.2812 9.3777 -0.9897 0.9594
-4.5114 9.3784 -0.9991 0.9590
-4.7461 9.3791 -1.0092 0.9586
-5.1992 8.5022 -0.9568 0.9607
-9.1190 13.6478 -1.5758 0.9362
-9.5785 13.7300 -1.6072 0.9349
-10.4082 13.1532 -1.6103 0.9348
-11.5678 13.4689 -1.7045 0.9311
-11.9989 13.4157 -1.7280 0.9302
-12.4640 13.3844 -1.7558 0.9291
-13.4857 13.3623 -1.8226 0.9265
-14.0247 13.3487 -1.8588 0.9251
-14.4122 13.1758 -1.8747 0.9245
-15.2098 13.3539 -1.9432 0.9219
-16.1373 13.6038 -2.0263 0.9187
-16.5844 13.4200 -2.0482 0.9178
-19.5579 13.3786 -2.2749 0.9092
-20.7365 12.9934 -2.3493 0.9063
-20.9934 12.5741 -2.3493 0.9063
-21.2418 12.1497 -2.3493 0.9063
-4.8615 -19.1710 -2.3493 0.9234
-4.0873 -19.3509 -2.3493 0.9234
-3.5397 -18.5993 -2.2490 0.9266
-3.1848 -18.7819 -2.2629 0.9261
-2.8067 -18.8421 -2.2629 0.9261
-2.0473 -18.9396 -2.2629 0.9261
-1.6333 -18.6010 -2.2180 0.9275
-0.5109 -18.7135 -2.2237 0.9274
-0.1348 -18.7146 -2.2231 0.9274
0.6177 -18.7170 -2.2245 0.9273
0.9946 -18.7181 -2.2266 0.9273
1.7411 -18.6114 -2.2204 0.9275
2.4992 -18.6137 -2.2309 0.9271
3.2658 -18.6161 -2.2451 0.9267
4.0435 -18.6185 -2.2632 0.9261
4.4373 -18.6197 -2.2737 0.9258
4.8351 -18.6210 -2.2853 0.9254
5.2370 -18.6222 -2.2979 0.9250
6.0551 -18.6247 -2.3263 0.9241
7.2371 -18.4060 -2.3493 0.9234
7.6054 -18.2569 -2.3493 0.9234
7.9708 -18.1004 -2.3493 0.9234
8.3329 -17.9366 -2.3493 0.9234
9.0469 -17.5873 -2.3493 0.9234
9.7462 -17.2096 -2.3493 0.9234
10.7654 -16.5911 -2.3493 0.9234
11.7455 -15.9123 -2.3493 0.9234
12.0628 -15.6731 -2.3493 0.9234
13.2824 -14.6538 -2.3493 0.9234
13.5742 -14.3840 -2.3493 0.9234
14.1412 -13.8269 -2.3493 0.9234
14.6853 -13.2476 -2.3493 0.9234
14.9664 -12.9653 -2.3521 0.9233
16.7202 -12.8056 -2.5017 0.9187
16.9741 -12.4671 -2.5017 0.9187
17.9204 -11.0639 -2.5017 0.9187
18.1391 -10.7015 -2.5017 0.9187
18.3504 -10.3349 -2.5017 0.9187
18.9398 -9.2105 -2.5017 0.9187
20.6760 -4.0061 -2.5017 0.9187
20.7524 -3.5898 -2.5017 0.9187
20.8203 -3.1721 -2.5017 0.9187
20.8798 -2.7531 -2.5017 0.9187
20.9309 -2.3329 -2.5017 0.9187
20.9736 -1.9119 -2.5017 0.9187
21.0335 -1.0676 -2.5017 0.9187
21.0507 -0.6447 -2.5017 0.9187
21.0345 1.0477 -2.5017 0.9187
20.9754 1.8920 -2.5017 0.9187
20.8824 2.7333 -2.5017 0.9187
20.6798 3.9865 -2.5017 0.9187
20.5955 4.4013 -2.5017 0.9187
20.5029 4.8142 -2.5017 0.9187
20.1756 6.0408 -2.5017 0.9187
20.0501 6.4450 -2.5017 0.9187
19.7750 7.2454 -2.5017 0.9187
19.5858 7.6259 -2.4967 0.9188
18.8720 7.7882 -2.4251 0.9211
17.7941 8.6325 -2.3493 0.9234
17.6171 8.9884 -2.3493 0.9234
17.4329 9.3405 -2.3493 0.9234
17.2417 9.6890 -2.3493 0.9234
16.6266 10.7102 -2.3493 0.9234
15.9511 11.6925 -2.3493 0.9234
15.7129 12.0107 -2.3493 0.9234
14.9607 12.9356 -2.3493 0.9234
14.4289 13.5263 -2.3493 0.9234
14.1542 13.8135 -2.3493 0.9234
13.8912 14.1129 -2.3523 0.9233
13.6359 14.4222 -2.3577 0.9232
13.3736 14.7263 -2.3630 0.9230
12.8266 15.3185 -2.3733 0.9227
12.5445 15.6060 -2.3783 0.9225
12.2520 15.8877 -2.3832 0.9224
11.6225 16.3937 -2.3871 0.9222
10.9568 16.8511 -2.3876 0.9222
10.6171 17.0698 -2.3879 0.9222
9.9249 17.4865 -2.3884 0.9222
9.2163 17.8752 -2.3889 0.9222
6.4038 13.0579 -1.7276 0.9431
5.5287 13.2365 -1.7040 0.9439
5.2196 13.2384 -1.6904 0.9443
5.0584 13.6259 -1.7265 0.9431
4.4727 13.7135 -1.7134 0.9436
4.1681 13.7080 -1.7019 0.9439
2.3075 13.0811 -1.5778 0.9479
1.7694 13.0844 -1.5684 0.9482
1.5224 13.2591 -1.5853 0.9477
0.9849 13.2624 -1.5797 0.9478
0.7224 13.3557 -1.5888 0.9475
0.1884 13.6121 -1.6171 0.9466
-0.0835 13.3460 -1.5854 0.9477
-0.6440 13.8554 -1.6476 0.9457
-1.1818 13.6058 -1.6223 0.9465
-1.4225 13.2772 -1.5862 0.9476
-1.6933 13.2789 -1.5901 0.9475
-1.9395 13.1051 -1.5737 0.9480
-2.4819 13.1085 -1.5848 0.9477
-1.8523 8.8106 -1.0695 0.9644
-3.7776 13.7833 -1.6976 0.9441
-4.0438 13.6707 -1.6934 0.9442
-2.9717 9.3513 -1.1655 0.9612
-3.6147 9.3756 -1.1936 0.9603
-3.8331 9.3763 -1.2032 0.9600
-4.0455 9.3546 -1.2107 0.9598
-4.2812 9.3777 -1.2245 0.9593
-5.1992 8.5022 -1.1838 0.9607
-8.9107 13.3362 -1.9052 0.9374
-9.6990 13.3241 -1.9576 0.9358
-10.0721 13.2678 -1.9787 0.9351
-12.9559 13.3639 -2.2110 0.9278
-14.0247 13.3487 -2.2999 0.9250
-15.6216 12.1297 -2.3493 0.9234
-15.8622 11.8133 -2.3493 0.9234
-16.5452 10.8361 -2.3493 0.9234
-17.1680 9.8196 -2.3493 0.9234
-3.7519 -16.1508 -2.3493 0.9352
-3.4266 -16.2229 -2.3493 0.9352
-3.0999 -16.2885 -2.3493 0.9352
-2.7720 -16.3475 -2.3493 0.9352
-2.1129 -16.4457 -2.3493 0.9352
-1.4504 -16.5173 -2.3493 0.9352
-1.1182 -16.5431 -2.3493 0.9352
-0.1194 -16.5804 -2.3493 0.9352
0.2138 -16.5794 -2.3493 0.9352
1.8758 -16.4743 -2.3493 0.9352
2.2065 -16.4333 -2.3493 0.9352
2.5363 -16.3857 -2.3493 0.9352
3.1926 -16.2705 -2.3493 0.9352
3.5189 -16.2031 -2.3493 0.9352
3.8438 -16.1291 -2.3493 0.9352
4.1671 -16.0486 -2.3493 0.9352
4.4888 -15.9616 -2.3493 0.9352
3.9948 -11.4965 -1.7245 0.9520
6.0672 -15.4308 -2.3493 0.9352
6.3761 -15.3058 -2.3493 0.9352
6.6824 -15.1746 -2.3493 0.9352
6.9859 -15.0372 -2.3493 0.9352
7.8792 -14.5890 -2.3493 0.9352
8.7439 -14.0878 -2.3493 0.9352
9.3029 -13.7250 -2.3493 0.9352
10.1130 -13.1396 -2.3493 0.9352
10.3750 -12.9337 -2.3493 0.9352
10.6328 -12.7226 -2.3493 0.9352
10.8862 -12.5064 -2.3493 0.9352
11.1354 -12.2851 -2.3493 0.9352
11.8553 -11.5919 -2.3493 0.9352
12.2849 -11.5382 -2.3880 0.9342
13.0714 -11.7917 -2.4943 0.9314
13.5748 -11.2903 -2.5017 0.9312
14.6388 -9.8716 -2.5017 0.9312
15.0237 -9.2755 -2.5017 0.9312
15.3842 -8.6643 -2.5017 0.9312
16.0302 -7.4010 -2.5017 0.9312
16.1757 -7.0774 -2.5017 0.9312
16.6918 -5.7557 -2.5017 0.9312
16.8041 -5.4191 -2.5017 0.9312
16.9096 -5.0804 -2.5017 0.9312
17.0083 -4.7395 -2.5017 0.9312
17.1000 -4.3968 -2.5017 0.9312
17.2629 -3.7062 -2.5017 0.9312
17.4548 -2.6593 -2.5017 0.9312
17.5476 -1.9558 -2.5017 0.9312
17.6120 -1.2492 -2.5017 0.9312
17.6335 -0.8950 -2.5017 0.9312
17.6480 -0.5405 -2.5017 0.9312
17.6553 -0.1858 -2.5017 0.9312
17.6554 0.1691 -2.5017 0.9312
17.6344 0.8783 -2.5017 0.9312
17.6132 1.2325 -2.5017 0.9312
17.5849 1.5862 -2.5017 0.9312
17.5069 2.2915 -2.5017 0.9312
17.4007 2.9931 -2.5017 0.9312
17.2664 3.6898 -2.5017 0.9312
17.1888 4.0361 -2.5017 0.9312
16.8092 5.4032 -2.5017 0.9312
16.4531 6.4062 -2.5017 0.9312
16.3210 6.7355 -2.5017 0.9312
15.8455 7.6872 -2.4954 0.9313
14.6150 7.8307 -2.3493 0.9352
14.4547 8.1228 -2.3493 0.9352
14.2886 8.4117 -2.3493 0.9352
14.1166 8.6971 -2.3493 0.9352
13.5670 9.5318 -2.3493 0.9352
13.3727 9.8025 -2.3493 0.9352
12.7578 10.5904 -2.3493 0.9352
12.5424 10.8447 -2.3493 0.9352
12.3220 11.0945 -2.3493 0.9352
12.0966 11.3398 -2.3493 0.9352
11.8663 11.5806 -2.3493 0.9352
11.6311 11.8168 -2.3493 0.9352
11.1469 12.2745 -2.3493 0.9352
10.6447 12.7125 -2.3493 0.9352
10.3871 12.9239 -2.3493 0.9352
10.1253 13.1300 -2.3493 0.9352
9.8594 13.3308 -2.3493 0.9352
9.5896 13.5262 -2.3493 0.9352
9.3158 13.7162 -2.3493 0.9352
9.0384 13.9006 -2.3493 0.9352
8.7684 14.0976 -2.3523 0.9351
7.9364 14.6614 -2.3622 0.9349
6.0823 13.0599 -2.0413 0.9435
5.7667 13.0618 -2.0231 0.9439
5.5287 13.2365 -2.0325 0.9437
4.3257 13.2626 -1.9766 0.9452
4.0327 13.2627 -1.9641 0.9455
2.8913 13.2527 -1.9219 0.9467
2.6138 13.2545 -1.9142 0.9469
1.7694 13.0844 -1.8708 0.9481
1.5224 13.2591 -1.8910 0.9475
1.2532 13.2607 -1.8873 0.9476
0.9849 13.2624 -1.8843 0.9477
0.7183 13.2810 -1.8845 0.9477
-0.3605 13.6750 -1.9383 0.9462
-0.6177 13.2893 -1.8850 0.9477
-0.8873 13.3150 -1.8908 0.9475
-1.1789 13.5719 -1.9302 0.9465
-1.4225 13.2772 -1.8920 0.9475
-1.6933 13.2789 -1.8967 0.9474
-1.9395 13.1051 -1.8771 0.9479
-2.2097 13.1068 -1.8833 0.9477
-1.8523 8.8106 -1.2757 0.9643
-3.3603 13.3041 -1.9442 0.9461
-3.9364 13.3076 -1.9663 0.9455
-3.1878 9.3743 -1.4029 0.9608
-3.3997 9.3750 -1.4130 0.9605
-3.8331 9.3763 -1.4353 0.9599
-4.5114 9.3784 -1.4746 0.9588
-4.7461 9.3791 -1.4894 0.9584
-5.1511 9.2381 -1.4987 0.9582
-5.1595 8.8312 -1.4492 0.9595
-10.0256 13.2065 -2.3493 0.9352
-10.2889 13.0024 -2.3493 0.9352
-10.8031 12.5784 -2.3493 0.9352
-11.2998 12.1342 -2.3493 0.9352
-11.7782 11.6704 -2.3493 0.9352
-12.2376 11.1877 -2.3493 0.9352
-9.5767 8.0731 -1.7747 0.9507
-13.0964 10.1689 -2.3493 0.9352
-13.4945 9.6345 -2.3493 0.9352
-13.6854 9.3614 -2.3493 0.9352
-13.8707 9.0845 -2.3493 0.9352
-14.2245 8.5198 -2.3493 0.9352
-3.5054 -13.8233 -2.3493 0.9438
-3.2269 -13.8910 -2.3493 0.9438
-2.9472 -13.9530 -2.3493 0.9438
-2.1011 -14.1053 -2.3493 0.9438
-0.9617 -14.2284 -2.3493 0.9438
-0.6756 -14.2449 -2.3493 0.9438
-0.3892 -14.2556 -2.3493 0.9438
0.1839 -14.2597 -2.3493 0.9438
0.4704 -14.2531 -2.3493 0.9438
1.0427 -14.2227 -2.3493 0.9438
1.3283 -14.1989 -2.3493 0.9438
1.6134 -14.1693 -2.3493 0.9438
2.1814 -14.0930 -2.3493 0.9438
3.0266 -13.9360 -2.3493 0.9438
3.3060 -13.8723 -2.3493 0.9438
3.5841 -13.8031 -2.3493 0.9438
4.1358 -13.6480 -2.3493 0.9438
5.2183 -13.2718 -2.3493 0.9438
5.7474 -13.0514 -2.3493 0.9438
6.0085 -12.9333 -2.3493 0.9438
6.7768 -12.5478 -2.3493 0.9438
7.2755 -12.2653 -2.3493 0.9438
7.7625 -11.9631 -2.3493 0.9438
8.0013 -11.8047 -2.3493 0.9438
8.4691 -11.4736 -2.3493 0.9438
8.6980 -11.3011 -2.3493 0.9438
10.1215 -11.1666 -2.4828 0.9407
10.4017 -11.0222 -2.4967 0.9404
10.6366 -10.8268 -2.5003 0.9403
10.8580 -10.6167 -2.5017 0.9403
11.0691 -10.3964 -2.5017 0.9403
11.2758 -10.1719 -2.5017 0.9403
11.4779 -9.9432 -2.5017 0.9403
11.6754 -9.7106 -2.5017 0.9403
11.8682 -9.4740 -2.5017 0.9403
12.0562 -9.2336 -2.5017 0.9403
12.2393 -8.9895 -2.5017 0.9403
12.5906 -8.4904 -2.5017 0.9403
13.0793 -7.7164 -2.5017 0.9403
13.2317 -7.4520 -2.5017 0.9403
13.5204 -6.9143 -2.5017 0.9403
13.6567 -6.6413 -2.5017 0.9403
13.7873 -6.3655 -2.5017 0.9403
13.9125 -6.0871 -2.5017 0.9403
14.1458 -5.5232 -2.5017 0.9403
14.2540 -5.2379 -2.5017 0.9403
14.3563 -4.9504 -2.5017 0.9403
14.4529 -4.6609 -2.5017 0.9403
14.7075 -3.7816 -2.5017 0.9403
14.9636 -2.5884 -2.5017 0.9403
15.1232 -1.3785 -2.5017 0.9403
15.1478 -1.0744 -2.5017 0.9403
15.1850 -0.1598 -2.5017 0.9403
15.1851 0.1454 -2.5017 0.9403
15.0574 1.9709 -2.5017 0.9403
15.0148 2.2730 -2.5017 0.9403
14.8505 3.1736 -2.5017 0.9403
14.7838 3.4713 -2.5017 0.9403
14.7110 3.7677 -2.5017 0.9403
14.6323 4.0626 -2.5017 0.9403
14.5478 4.3558 -2.5017 0.9403
14.3610 4.9368 -2.5017 0.9403
14.2589 5.2244 -2.5017 0.9403
13.9182 6.0740 -2.5017 0.9403
13.7933 6.3524 -2.5017 0.9403
13.6629 6.6283 -2.5017 0.9403
13.5270 6.9016 -2.5017 0.9403
13.3855 7.1720 -2.5017 0.9403
13.2272 7.4330 -2.4995 0.9403
12.0685 7.7741 -2.3649 0.9435
11.8311 7.9620 -2.3493 0.9438
11.5016 8.4310 -2.3493 0.9438
11.3299 8.6604 -2.3493 0.9438
10.3089 8.2133 -2.1714 0.9480
10.9728 9.1086 -2.3493 0.9438
10.7875 9.3273 -2.3493 0.9438
10.4040 9.7532 -2.3493 0.9438
9.3732 10.7477 -2.3493 0.9438
9.1553 10.9338 -2.3493 0.9438
8.4799 11.4656 -2.3493 0.9438
8.2478 11.6337 -2.3493 0.9438
8.0124 11.7971 -2.3493 0.9438
7.7737 11.9557 -2.3493 0.9438
7.5319 12.1095 -2.3493 0.9438
6.5352 12.6752 -2.3493 0.9438
5.4964 13.1590 -2.3493 0.9438
4.3301 13.2761 -2.3005 0.9450
4.0342 13.2675 -2.2845 0.9453
3.8737 13.7246 -2.3493 0.9438
3.1764 13.2728 -2.2483 0.9462
2.8913 13.2527 -2.2346 0.9465
2.6138 13.2545 -2.2256 0.9467
2.3075 13.0811 -2.1882 0.9476
2.0377 13.0827 -2.1812 0.9477
1.7694 13.0844 -2.1751 0.9479
1.2532 13.2607 -2.1943 0.9474
0.7186 13.2858 -2.1919 0.9475
-0.0831 13.2908 -2.1896 0.9475
-0.3623 13.7440 -2.2650 0.9458
-0.6179 13.2941 -2.1924 0.9475
-1.4225 13.2772 -2.1998 0.9473
-2.2097 13.1068 -2.1897 0.9475
-2.4819 13.1085 -2.1978 0.9474
-2.9717 9.3513 -1.6165 0.9610
-3.3997 9.3750 -1.6428 0.9604
-3.6147 9.3756 -1.6554 0.9601
-3.8331 9.3763 -1.6687 0.9598
-4.5114 9.3784 -1.7145 0.9587
-5.1992 8.5022 -1.6418 0.9604
-7.6829 12.0144 -2.3493 0.9438
-8.8493 11.1831 -2.3493 0.9438
-9.0722 11.0030 -2.3493 0.9438
-10.1302 10.0375 -2.3493 0.9438
-10.5254 9.6224 -2.3493 0.9438
-9.4361 8.2847 -2.0686 0.9504
-9.5622 8.0610 -2.0603 0.9506
-11.2640 8.7461 -2.3493 0.9438
-11.4375 8.5180 -2.3493 0.9438
-12.7963 7.6644 -2.4573 0.9413
-13.1538 7.5236 -2.4964 0.9404
-3.0723 -12.1155 -2.3493 0.9504
-2.8283 -12.1748 -2.3493 0.9504
-2.0896 -12.3231 -2.3493 0.9504
-1.8415 -12.3626 -2.3493 0.9504
-1.5927 -12.3971 -2.3493 0.9504
-0.5921 -12.4850 -2.3493 0.9504
-0.0900 -12.4987 -2.3493 0.9504
0.1612 -12.4980 -2.3493 0.9504
0.4123 -12.4922 -2.3493 0.9504
0.6632 -12.4814 -2.3493 0.9504
0.9139 -12.4655 -2.3493 0.9504
1.1642 -12.4446 -2.3493 0.9504
1.9119 -12.3519 -2.3493 0.9504
3.1413 -12.0978 -2.3493 0.9504
3.3837 -12.0323 -2.3493 0.9504
3.6248 -11.9618 -2.3493 0.9504
3.8645 -11.8866 -2.3493 0.9504
3.9721 -11.4313 -2.2747 0.9519
4.8064 -11.5379 -2.3493 0.9504
5.0373 -11.4390 -2.3493 0.9504
5.4929 -11.2273 -2.3493 0.9504
5.7593 -11.1962 -2.3666 0.9500
6.0439 -11.1907 -2.3906 0.9496
6.3343 -11.1849 -2.4161 0.9490
6.9344 -11.1724 -2.4716 0.9479
7.2244 -11.1338 -2.4947 0.9474
7.4535 -10.9965 -2.4970 0.9474
8.9386 -9.8615 -2.5017 0.9473
9.1350 -9.6800 -2.5017 0.9473
9.5166 -9.3051 -2.5017 0.9473
10.8833 -7.6617 -2.5017 0.9473
11.0351 -7.4415 -2.5017 0.9473
12.1937 -5.3351 -2.5017 0.9473
12.7469 -3.8297 -2.5017 0.9473
12.8212 -3.5728 -2.5017 0.9473
12.8904 -3.3144 -2.5017 0.9473
12.9544 -3.0547 -2.5017 0.9473
13.0667 -2.5317 -2.5017 0.9473
13.1955 -1.7399 -2.5017 0.9473
13.2764 -0.9417 -2.5017 0.9473
13.2926 -0.6747 -2.5017 0.9473
13.3035 -0.4074 -2.5017 0.9473
13.1598 1.9922 -2.5017 0.9473
13.1171 2.2563 -2.5017 0.9473
13.0158 2.7815 -2.5017 0.9473
12.8935 3.3022 -2.5017 0.9473
12.7504 3.8177 -2.5017 0.9473
12.4973 4.5789 -2.5017 0.9473
12.4027 4.8291 -2.5017 0.9473
12.3032 5.0774 -2.5017 0.9473
12.0892 5.5676 -2.5017 0.9473
11.9749 5.8094 -2.5017 0.9473
11.8558 6.0489 -2.5017 0.9473
11.4698 6.7522 -2.5017 0.9473
11.1892 7.2077 -2.5017 0.9473
11.0325 7.4246 -2.4995 0.9473
10.8656 7.6339 -2.4960 0.9474
9.7756 7.7884 -2.3493 0.9504
8.9451 8.7298 -2.3493 0.9504
8.7678 8.9078 -2.3493 0.9504
8.5871 9.0821 -2.3493 0.9504
8.4028 9.2529 -2.3493 0.9504
7.8301 9.7423 -2.3493 0.9504
7.2289 10.1964 -2.3493 0.9504
7.0225 10.3396 -2.3493 0.9504
6.3868 10.7439 -2.3493 0.9504
6.1696 10.8701 -2.3493 0.9504
5.7279 11.1092 -2.3493 0.9504
5.5035 11.2221 -2.3493 0.9504
5.2768 11.3304 -2.3493 0.9504
5.0481 11.4342 -2.3493 0.9504
4.8173 11.5333 -2.3493 0.9504
4.3500 11.7175 -2.3493 0.9504
4.1137 11.8026 -2.3493 0.9504
3.8757 11.8829 -2.3493 0.9504
3.6361 11.9584 -2.3493 0.9504
3.3951 12.0290 -2.3493 0.9504
3.1527 12.0948 -2.3493 0.9504
2.9090 12.1557 -2.3493 0.9504
2.4182 12.2628 -2.3493 0.9504
2.1713 12.3089 -2.3493 0.9504
1.6750 12.3862 -2.3493 0.9504
1.4258 12.4174 -2.3493 0.9504
1.1759 12.4435 -2.3493 0.9504
0.9257 12.4646 -2.3493 0.9504
-0.0782 12.4987 -2.3493 0.9504
-0.5803 12.4855 -2.3493 0.9504
-0.8311 12.4713 -2.3493 0.9504
-1.3316 12.4278 -2.3493 0.9504
-1.5810 12.3986 -2.3493 0.9504
-2.3252 12.2808 -2.3493 0.9504
-1.8619 8.0496 -1.5530 0.9669
-3.0609 12.1184 -2.3493 0.9504
-3.3038 12.0545 -2.3493 0.9504
-3.5453 11.9856 -2.3493 0.9504
-2.9717 9.3513 -1.8443 0.9609
-3.0699 9.0276 -1.7923 0.9619
-3.4506 8.9501 -1.8030 0.9617
-3.8419 8.8838 -1.8193 0.9614
-4.2537 8.8426 -1.8444 0.9608
-4.4680 8.8296 -1.8600 0.9605
-4.6951 8.8331 -1.8802 0.9601
-4.9362 8.8527 -1.9051 0.9596
-6.7337 10.5301 -2.3493 0.9504
-6.9440 10.3926 -2.3493 0.9504
-7.5575 9.9554 -2.3493 0.9504
-8.3325 9.3164 -2.3493 0.9504
-8.7001 8.9740 -2.3493 0.9504
-8.8787 8.7974 -2.3493 0.9504
-9.0537 8.6172 -2.3493 0.9504
-9.2250 8.4336 -2.3493 0.9504
-10.3137 7.6811 -2.4171 0.9490
-11.1287 7.2887 -2.5005 0.9473
-11.2786 7.0671 -2.5017 0.9473
-11.4183 6.8391 -2.5017 0.9473
-11.5535 6.6082 -2.5017 0.9473
-2.8498 -11.2379 -2.4507 0.9537
-2.6084 -11.2285 -2.4367 0.9540
-1.9021 -11.2176 -2.4050 0.9545
-1.6710 -11.2182 -2.3975 0.9547
-1.4413 -11.2186 -2.3909 0.9548
-0.7583 -11.2186 -2.3768 0.9551
-0.5321 -11.2183 -2.3740 0.9551
0.1447 -11.2163 -2.3711 0.9552
0.3701 -11.2153 -2.3720 0.9552
0.8220 -11.2128 -2.3765 0.9551
1.0488 -11.2112 -2.3802 0.9550
1.9654 -11.2034 -2.4043 0.9546
2.6680 -11.1955 -2.4328 0.9540
2.9062 -11.1925 -2.4443 0.9538
3.1467 -11.1892 -2.4569 0.9536
3.6354 -11.1821 -2.4855 0.9531
3.8737 -11.1478 -2.4946 0.9529
4.0989 -11.0733 -2.4959 0.9529
4.5455 -10.9115 -2.4986 0.9528
5.2011 -10.6310 -2.5017 0.9528
5.4137 -10.5244 -2.5017 0.9528
5.8322 -10.2984 -2.5017 0.9528
6.0380 -10.1791 -2.5017 0.9528
6.4421 -9.9282 -2.5017 0.9528
6.8358 -9.6614 -2.5017 0.9528
7.0286 -9.5221 -2.5017 0.9528
7.2185 -9.3789 -2.5017 0.9528
7.4055 -9.2320 -2.5017 0.9528
7.5895 -9.0813 -2.5017 0.9528
7.7705 -8.9269 -2.5017 0.9528
7.9483 -8.7690 -2.5017 0.9528
8.1229 -8.6075 -2.5017 0.9528
8.2942 -8.4425 -2.5017 0.9528
9.2495 -7.3836 -2.5017 0.9528
9.3960 -7.1962 -2.5017 0.9528
9.8125 -6.6171 -2.5017 0.9528
9.9435 -6.4185 -2.5017 0.9528
10.0705 -6.2174 -2.5017 0.9528
10.1934 -6.0138 -2.5017 0.9528
10.4268 -5.5994 -2.5017 0.9528
10.5372 -5.3887 -2.5017 0.9528
10.7452 -4.9610 -2.5017 0.9528
10.9358 -4.5252 -2.5017 0.9528
11.0246 -4.3045 -2.5017 0.9528
11.1088 -4.0821 -2.5017 0.9528
11.2639 -3.6325 -2.5017 0.9528
11.3346 -3.4054 -2.5017 0.9528
11.4623 -2.9472 -2.5017 0.9528
11.5192 -2.7163 -2.5017 0.9528
11.6190 -2.2512 -2.5017 0.9528
11.6619 -2.0173 -2.5017 0.9528
11.7863 -1.0744 -2.5017 0.9528
11.8199 -0.5999 -2.5017 0.9528
11.8296 -0.3623 -2.5017 0.9528
11.8345 -0.1245 -2.5017 0.9528
11.8346 0.1133 -2.5017 0.9528
11.8205 0.5888 -2.5017 0.9528
11.8062 0.8262 -2.5017 0.9528
11.7635 1.2999 -2.5017 0.9528
11.6638 2.0063 -2.5017 0.9528
11.6212 2.2403 -2.5017 0.9528
11.5217 2.7054 -2.5017 0.9528
11.4651 2.9364 -2.5017 0.9528
11.3378 3.3947 -2.5017 0.9528
11.2673 3.6218 -2.5017 0.9528
11.1127 4.0716 -2.5017 0.9528
10.5423 5.3787 -2.5017 0.9528
10.4320 5.5895 -2.5017 0.9528
10.3176 5.7980 -2.5017 0.9528
10.1990 6.0041 -2.5017 0.9528
10.0763 6.2079 -2.5017 0.9528
9.6840 6.8037 -2.5017 0.9528
9.5453 6.9969 -2.5017 0.9528
9.4028 7.1873 -2.5017 0.9528
9.2514 7.3708 -2.5003 0.9528
9.0906 7.5462 -2.4974 0.9528
8.9266 7.7183 -2.4944 0.9529
8.6030 7.7460 -2.4470 0.9538
7.7964 7.9209 -2.3493 0.9556
7.6357 8.0759 -2.3493 0.9556
7.1352 8.5213 -2.3493 0.9556
6.9626 8.6630 -2.3493 0.9556
6.6089 8.9357 -2.3493 0.9556
6.2445 9.1941 -2.3493 0.9556
5.4861 9.6658 -2.3493 0.9556
5.0933 9.8784 -2.3493 0.9556
4.8937 9.9788 -2.3493 0.9556
4.6922 10.0751 -2.3493 0.9556
4.4888 10.1674 -2.3493 0.9556
3.8681 10.4193 -2.3493 0.9556
3.2333 10.6335 -2.3493 0.9556
1.7104 10.9817 -2.3493 0.9556
1.2678 11.0416 -2.3493 0.9556
0.8231 11.0837 -2.3493 0.9556
0.1538 11.1131 -2.3493 0.9556
-0.0695 11.1140 -2.3493 0.9556
-0.7390 11.0896 -2.3493 0.9556
-1.1840 11.0509 -2.3493 0.9556
-1.4059 11.0249 -2.3493 0.9556
-1.6271 10.9944 -2.3493 0.9556
-1.8477 10.9595 -2.3493 0.9556
-2.2866 10.8764 -2.3493 0.9556
-1.8619 8.0496 -1.7465 0.9668
-2.9378 10.7189 -2.3493 0.9556
-3.1525 10.6577 -2.3493 0.9556
-2.9717 9.3513 -2.0741 0.9607
-3.5782 10.5224 -2.3493 0.9556
-3.7890 10.4484 -2.3493 0.9556
-4.6157 10.1105 -2.3493 0.9556
-5.0182 9.9168 -2.3493 0.9556
-5.2165 9.8140 -2.3493 0.9556
-5.9877 9.3634 -2.3493 0.9556
-6.1746 9.2412 -2.3493 0.9556
-6.3591 9.1152 -2.3493 0.9556
-6.5409 8.9856 -2.3493 0.9556
-7.4093 8.2842 -2.3493 0.9556
-7.8950 7.8227 -2.3493 0.9556
-9.1871 7.4341 -2.4981 0.9528
-9.7684 6.6821 -2.5017 0.9528
-9.9007 6.4844 -2.5017 0.9528
-2.6165 -10.3180 -2.5017 0.9572
-2.4086 -10.3685 -2.5017 0.9572
-1.9901 -10.4569 -2.5017 0.9572
-0.7178 -10.6204 -2.5017 0.9572
-0.0767 -10.6443 -2.5017 0.9572
0.1373 -10.6437 -2.5017 0.9572
0.3511 -10.6388 -2.5017 0.9572
0.5648 -10.6296 -2.5017 0.9572
0.7783 -10.6161 -2.5017 0.9572
0.9915 -10.5983 -2.5017 0.9572
1.2042 -10.5762 -2.5017 0.9572
1.6282 -10.5193 -2.5017 0.9572
1.8393 -10.4845 -2.5017 0.9572
2.0496 -10.4454 -2.5017 0.9572
2.4676 -10.3546 -2.5017 0.9572
2.6752 -10.3029 -2.5017 0.9572
3.0870 -10.1871 -2.5017 0.9572
3.4939 -10.0548 -2.5017 0.9572
3.6952 -9.9826 -2.5017 0.9572
4.0933 -9.8261 -2.5017 0.9572
4.6779 -9.5616 -2.5017 0.9572
4.8691 -9.4656 -2.5017 0.9572
5.6135 -9.0441 -2.5017 0.9572
5.9723 -8.8112 -2.5017 0.9572
6.1482 -8.6895 -2.5017 0.9572
6.4923 -8.4354 -2.5017 0.9572
7.1487 -7.8868 -2.5017 0.9572
7.6109 -7.4418 -2.5017 0.9572
7.7589 -7.2873 -2.5017 0.9572
8.3190 -6.6408 -2.5017 0.9572
8.4508 -6.4723 -2.5017 0.9572
8.5791 -6.3012 -2.5017 0.9572
8.7040 -6.1275 -2.5017 0.9572
9.1679 -5.4088 -2.5017 0.9572
9.2748 -5.2235 -2.5017 0.9572
9.5726 -4.6552 -2.5017 0.9572
9.6642 -4.4619 -2.5017 0.9572
9.9155 -3.8715 -2.5017 0.9572
9.9913 -3.6715 -2.5017 0.9572
10.1308 -3.2671 -2.5017 0.9572
10.3092 -2.6508 -2.5017 0.9572
10.3604 -2.4430 -2.5017 0.9572
10.4502 -2.0248 -2.5017 0.9572
10.5231 -1.6032 -2.5017 0.9572
10.5532 -1.3915 -2.5017 0.9572
10.6006 -0.9663 -2.5017 0.9572
10.6308 -0.5396 -2.5017 0.9572
10.6398 0.3158 -2.5017 0.9572
10.6186 0.7431 -2.5017 0.9572
10.4521 2.0149 -2.5017 0.9572
10.4095 2.2245 -2.5017 0.9572
10.3627 2.4332 -2.5017 0.9572
10.3117 2.6410 -2.5017 0.9572
10.2565 2.8477 -2.5017 0.9572
10.1972 3.0532 -2.5017 0.9572
9.9948 3.6620 -2.5017 0.9572
9.9192 3.8621 -2.5017 0.9572
9.7560 4.2575 -2.5017 0.9572
9.6684 4.4527 -2.5017 0.9572
9.5770 4.6461 -2.5017 0.9572
9.3826 5.0272 -2.5017 0.9572
8.9486 5.7643 -2.5017 0.9572
8.5851 6.2930 -2.5017 0.9572
8.3253 6.6329 -2.5017 0.9572
8.1903 6.7989 -2.5017 0.9572
8.0520 6.9621 -2.5017 0.9572
7.9105 7.1225 -2.5017 0.9572
7.7658 7.2800 -2.5017 0.9572
7.6105 7.4273 -2.4993 0.9572
7.4524 7.5713 -2.4968 0.9573
7.0274 7.7383 -2.4567 0.9580
6.7545 7.7450 -2.4152 0.9587
6.2621 7.7915 -2.3493 0.9598
6.1043 7.9157 -2.3493 0.9598
5.9440 8.0368 -2.3493 0.9598
5.7813 8.1546 -2.3493 0.9598
5.4490 8.3803 -2.3493 0.9598
5.1079 8.5925 -2.3493 0.9598
4.9342 8.6934 -2.3493 0.9598
4.5809 8.8847 -2.3493 0.9598
4.2202 9.0615 -2.3493 0.9598
3.8527 9.2238 -2.3493 0.9598
3.6666 9.2994 -2.3493 0.9598
3.2899 9.4392 -2.3493 0.9598
2.9080 9.5637 -2.3493 0.9598
2.1307 9.7664 -2.3493 0.9598
1.9340 9.8072 -2.3493 0.9598
1.1403 9.9308 -2.3493 0.9598
0.9405 9.9517 -2.3493 0.9598
-0.2634 9.9926 -2.3493 0.9598
-0.4641 9.9853 -2.3493 0.9598
-1.2644 9.9158 -2.3493 0.9598
-1.4634 9.8884 -2.3493 0.9598
-1.6618 9.8570 -2.3493 0.9598
-1.8596 9.8216 -2.3493 0.9598
-1.8619 8.0496 -1.9418 0.9666
-2.4479 9.6917 -2.3493 0.9598
-2.8354 9.5855 -2.3493 0.9598
-2.9717 9.3513 -2.3061 0.9605
-3.2183 9.4639 -2.3493 0.9598
-3.4078 9.3973 -2.3493 0.9598
-3.5959 9.3269 -2.3493 0.9598
-4.1514 9.0933 -2.3493 0.9598
-4.3333 9.0081 -2.3493 0.9598
-4.8681 8.7306 -2.3493 0.9598
-5.0426 8.6310 -2.3493 0.9598
-5.8829 8.0817 -2.3493 0.9598
-6.2029 7.8388 -2.3493 0.9598
-6.8800 7.6923 -2.4255 0.9585
-7.1551 7.6835 -2.4675 0.9578
-7.3895 7.6222 -2.4950 0.9573
-7.7048 7.3334 -2.4999 0.9572
-7.8563 7.1823 -2.5017 0.9572
-7.9991 7.0230 -2.5017 0.9572
-8.1386 6.8608 -2.5017 0.9572
-8.2748 6.6959 -2.5017 0.9572
-8.5372 6.3580 -2.5017 0.9572
-8.6632 6.1852 -2.5017 0.9572
-8.7857 6.0099 -2.5017 0.9572
-9.1319 5.4696 -2.5017 0.9572
-2.1864 -9.4116 -2.5017 0.9609
-1.9968 -9.4537 -2.5017 0.9609
-0.8452 -9.6252 -2.5017 0.9609
-0.6516 -9.6402 -2.5017 0.9609
-0.2637 -9.6586 -2.5017 0.9609
-0.0696 -9.6620 -2.5017 0.9609
0.3187 -9.6570 -2.5017 0.9609
0.5127 -9.6486 -2.5017 0.9609
0.7065 -9.6364 -2.5017 0.9609
0.9000 -9.6202 -2.5017 0.9609
1.0931 -9.6002 -2.5017 0.9609
1.2858 -9.5763 -2.5017 0.9609
1.8605 -9.4814 -2.5017 0.9609
2.0506 -9.4421 -2.5017 0.9609
2.2399 -9.3990 -2.5017 0.9609
2.6158 -9.3014 -2.5017 0.9609
3.1714 -9.1269 -2.5017 0.9609
3.3542 -9.0613 -2.5017 0.9609
3.5356 -8.9921 -2.5017 0.9609
3.7156 -8.9192 -2.5017 0.9609
4.4198 -8.5921 -2.5017 0.9609
4.5915 -8.5015 -2.5017 0.9609
4.7614 -8.4076 -2.5017 0.9609
4.9294 -8.3102 -2.5017 0.9609
5.0954 -8.2094 -2.5017 0.9609
5.2593 -8.1054 -2.5017 0.9609
5.7381 -7.7738 -2.5017 0.9609
6.3438 -7.2879 -2.5017 0.9609
6.6315 -7.0272 -2.5017 0.9609
6.7714 -6.8925 -2.5017 0.9609
6.9085 -6.7550 -2.5017 0.9609
7.0429 -6.6148 -2.5017 0.9609
7.1744 -6.4720 -2.5017 0.9609
7.3030 -6.3265 -2.5017 0.9609
7.4286 -6.1785 -2.5017 0.9609
7.5513 -6.0279 -2.5017 0.9609
7.7874 -5.7197 -2.5017 0.9609
8.3219 -4.9096 -2.5017 0.9609
8.5124 -4.5713 -2.5017 0.9609
8.6892 -4.2256 -2.5017 0.9609
8.7723 -4.0501 -2.5017 0.9609
8.8520 -3.8730 -2.5017 0.9609
8.9280 -3.6944 -2.5017 0.9609
9.1344 -3.1498 -2.5017 0.9609
9.1958 -2.9655 -2.5017 0.9609
9.4042 -2.2176 -2.5017 0.9609
9.4469 -2.0282 -2.5017 0.9609
9.4858 -1.8379 -2.5017 0.9609
9.5520 -1.4552 -2.5017 0.9609
9.6027 -1.0703 -2.5017 0.9609
9.6223 -0.8771 -2.5017 0.9609
9.6498 -0.4898 -2.5017 0.9609
9.6576 -0.2958 -2.5017 0.9609
9.6616 -0.1016 -2.5017 0.9609
9.6617 0.0925 -2.5017 0.9609
9.6579 0.2866 -2.5017 0.9609
9.6502 0.4806 -2.5017 0.9609
9.6037 1.0612 -2.5017 0.9609
9.5805 1.2540 -2.5017 0.9609
9.5533 1.4463 -2.5017 0.9609
9.4063 2.2087 -2.5017 0.9609
9.3601 2.3972 -2.5017 0.9609
8.9315 3.6859 -2.5017 0.9609
8.7762 4.0418 -2.5017 0.9609
8.6067 4.3912 -2.5017 0.9609
8.5167 4.5632 -2.5017 0.9609
8.4233 4.7335 -2.5017 0.9609
8.3265 4.9018 -2.5017 0.9609
8.1227 5.2324 -2.5017 0.9609
8.0160 5.3945 -2.5017 0.9609
7.9060 5.5546 -2.5017 0.9609
7.7928 5.7123 -2.5017 0.9609
7.4345 6.1714 -2.5017 0.9609
6.7779 6.8861 -2.5017 0.9609
6.6382 7.0209 -2.5017 0.9609
6.4957 7.1528 -2.5017 0.9609
5.7153 7.7275 -2.4886 0.9611
5.4824 7.7330 -2.4543 0.9616
4.6365 7.7995 -2.3493 0.9632
4.3193 7.9796 -2.3493 0.9632
3.9952 8.1467 -2.3493 0.9632
3.8307 8.2253 -2.3493 0.9632
3.6647 8.3006 -2.3493 0.9632
3.4971 8.3726 -2.3493 0.9632
3.3282 8.4412 -2.3493 0.9632
2.8135 8.6263 -2.3493 0.9632
2.2887 8.7802 -2.3493 0.9632
1.9340 8.8651 -2.3493 0.9632
1.7555 8.9021 -2.3493 0.9632
1.5763 8.9356 -2.3493 0.9632
1.3964 8.9655 -2.3493 0.9632
0.8537 9.0334 -2.3493 0.9632
0.4900 9.0604 -2.3493 0.9632
0.3079 9.0684 -2.3493 0.9632
0.1256 9.0727 -2.3493 0.9632
-0.0568 9.0734 -2.3493 0.9632
-0.2391 9.0704 -2.3493 0.9632
-0.4213 9.0638 -2.3493 0.9632
-0.7852 9.0396 -2.3493 0.9632
-1.1477 9.0007 -2.3493 0.9632
-1.5085 8.9473 -2.3493 0.9632
-1.8619 8.0496 -2.1392 0.9664
-2.5737 8.7009 -2.3493 0.9632
-2.7480 8.6475 -2.3493 0.9632
-3.6016 8.3282 -2.3493 0.9632
-3.7682 8.2541 -2.3493 0.9632
-3.9333 8.1767 -2.3493 0.9632
-4.4189 7.9249 -2.3493 0.9632
-4.5772 7.8345 -2.3493 0.9632
-4.9303 7.7099 -2.3695 0.9629
-5.3697 7.6971 -2.4300 0.9620
-5.5979 7.6902 -2.4628 0.9615
-6.1379 7.4442 -2.4981 0.9609
-6.5848 7.0710 -2.5017 0.9609
-6.7255 6.9373 -2.5017 0.9609
-6.8636 6.8007 -2.5017 0.9609
-7.1313 6.5195 -2.5017 0.9609
-7.2608 6.3748 -2.5017 0.9609
-7.3875 6.2277 -2.5017 0.9609
-7.5111 6.0779 -2.5017 0.9609
-7.8637 5.6144 -2.5017 0.9609
-7.9749 5.4552 -2.5017 0.9609
-8.3872 4.7972 -2.5017 0.9609
-2.1722 -8.5660 -2.5017 0.9639
-1.9997 -8.6079 -2.5017 0.9639
-1.8263 -8.6463 -2.5017 0.9639
-1.4774 -8.7128 -2.5017 0.9639
-1.1261 -8.7651 -2.5017 0.9639
-0.5960 -8.8170 -2.5017 0.9639
-0.4187 -8.8272 -2.5017 0.9639
-0.0636 -8.8369 -2.5017 0.9639
0.4689 -8.8246 -2.5017 0.9639
0.6462 -8.8134 -2.5017 0.9639
0.8231 -8.7987 -2.5017 0.9639
1.1760 -8.7585 -2.5017 0.9639
1.3517 -8.7331 -2.5017 0.9639
2.0486 -8.5964 -2.5017 0.9639
2.2210 -8.5535 -2.5017 0.9639
2.3924 -8.5071 -2.5017 0.9639
3.0677 -8.2875 -2.5017 0.9639
3.2337 -8.2242 -2.5017 0.9639
3.8836 -7.9380 -2.5017 0.9639
4.1994 -7.7755 -2.5017 0.9639
4.3548 -7.6896 -2.5017 0.9639
4.6603 -7.5084 -2.5017 0.9639
4.9582 -7.3151 -2.5017 0.9639
5.3899 -7.0030 -2.5017 0.9639
5.5296 -6.8933 -2.5017 0.9639
5.9348 -6.5476 -2.5017 0.9639
6.1931 -6.3039 -2.5017 0.9639
6.3186 -6.1781 -2.5017 0.9639
6.5617 -5.9193 -2.5017 0.9639
6.6793 -5.7862 -2.5017 0.9639
6.7943 -5.6508 -2.5017 0.9639
7.0158 -5.3733 -2.5017 0.9639
7.4246 -4.7926 -2.5017 0.9639
7.5194 -4.6424 -2.5017 0.9639
7.6999 -4.3366 -2.5017 0.9639
7.7855 -4.1809 -2.5017 0.9639
7.8679 -4.0236 -2.5017 0.9639
8.0232 -3.7043 -2.5017 0.9639
8.0960 -3.5423 -2.5017 0.9639
8.1656 -3.3789 -2.5017 0.9639
8.2948 -3.0481 -2.5017 0.9639
8.4105 -2.7123 -2.5017 0.9639
8.4633 -2.5427 -2.5017 0.9639
8.5587 -2.2006 -2.5017 0.9639
8.6757 -1.6810 -2.5017 0.9639
8.7077 -1.5063 -2.5017 0.9639
8.7362 -1.3310 -2.5017 0.9639
8.7612 -1.1552 -2.5017 0.9639
8.7827 -0.9789 -2.5017 0.9639
8.8006 -0.8022 -2.5017 0.9639
8.8257 -0.4480 -2.5017 0.9639
8.8329 -0.2705 -2.5017 0.9639
8.8366 -0.0930 -2.5017 0.9639
8.8367 0.0846 -2.5017 0.9639
8.8332 0.2622 -2.5017 0.9639
8.8261 0.4396 -2.5017 0.9639
8.8155 0.6169 -2.5017 0.9639
8.7092 1.4980 -2.5017 0.9639
8.6031 2.0201 -2.5017 0.9639
8.5607 2.1925 -2.5017 0.9639
8.3571 2.8729 -2.5017 0.9639
8.2349 3.2063 -2.5017 0.9639
8.0994 3.5346 -2.5017 0.9639
8.0267 3.6967 -2.5017 0.9639
7.7894 4.1736 -2.5017 0.9639
7.6154 4.4832 -2.5017 0.9639
7.5238 4.6353 -2.5017 0.9639
7.2308 5.0802 -2.5017 0.9639
6.9116 5.5066 -2.5017 0.9639
6.7996 5.6444 -2.5017 0.9639
6.5673 5.9131 -2.5017 0.9639
6.4472 6.0438 -2.5017 0.9639
6.1991 6.2980 -2.5017 0.9639
6.0713 6.4213 -2.5017 0.9639
5.9410 6.5420 -2.5017 0.9639
5.8084 6.6601 -2.5017 0.9639
5.6734 6.7754 -2.5017 0.9639
5.2548 7.1050 -2.5017 0.9639
4.9640 7.3087 -2.5011 0.9639
4.8130 7.4022 -2.4995 0.9640
4.6604 7.4928 -2.4980 0.9640
4.5062 7.5804 -2.4965 0.9640
4.1801 7.7223 -2.4859 0.9642
3.9836 7.7262 -2.4608 0.9645
3.7908 7.7299 -2.4373 0.9648
3.6016 7.7333 -2.4150 0.9652
3.4156 7.7365 -2.3941 0.9655
3.2327 7.7394 -2.3744 0.9657
3.0528 7.7428 -2.3561 0.9660
2.8882 7.7799 -2.3493 0.9661
2.7313 7.8364 -2.3493 0.9661
2.5733 7.8897 -2.3493 0.9661
2.4142 7.9398 -2.3493 0.9661
2.0932 8.0304 -2.3493 0.9661
1.9315 8.0708 -2.3493 0.9661
1.7689 8.1080 -2.3493 0.9661
1.1121 8.2239 -2.3493 0.9661
0.9466 8.2446 -2.3493 0.9661
-0.2187 8.2959 -2.3493 0.9661
-0.3853 8.2898 -2.3493 0.9661
-1.2149 8.2093 -2.3493 0.9661
-1.3796 8.1833 -2.3493 0.9661
-1.7074 8.1212 -2.3493 0.9661
-1.8619 8.0496 -2.3390 0.9662
-2.1936 8.0034 -2.3493 0.9661
-2.6718 7.8569 -2.3493 0.9661
-3.3360 7.7141 -2.3793 0.9657
-3.5197 7.7097 -2.3992 0.9654
-3.7064 7.7051 -2.4205 0.9651
-3.8965 7.7002 -2.4431 0.9648
-4.0902 7.6950 -2.4670 0.9644
-4.4467 7.6111 -2.4954 0.9640
-4.9060 7.3426 -2.4999 0.9640
-5.6218 6.8183 -2.5017 0.9639
-5.7577 6.7040 -2.5017 0.9639
-6.2774 6.2200 -2.5017 0.9639
-6.4011 6.0926 -2.5017 0.9639
-6.5223 5.9627 -2.5017 0.9639
-6.6408 5.8304 -2.5017 0.9639
-6.9800 5.4197 -2.5017 0.9639
-7.2939 4.9894 -2.5017 0.9639
-1.9993 -7.8841 -2.5017 0.9665
-1.8405 -7.9227 -2.5017 0.9665
-1.6809 -7.9580 -2.5017 0.9665
-1.3598 -8.0192 -2.5017 0.9665
-1.1984 -8.0448 -2.5017 0.9665
-1.0365 -8.0673 -2.5017 0.9665
-0.8741 -8.0865 -2.5017 0.9665
-0.7115 -8.1024 -2.5017 0.9665
-0.3853 -8.1245 -2.5017 0.9665
0.4316 -8.1222 -2.5017 0.9665
0.5947 -8.1118 -2.5017 0.9665
0.7576 -8.0983 -2.5017 0.9665
0.9202 -8.0814 -2.5017 0.9665
1.2441 -8.0379 -2.5017 0.9665
1.5661 -7.9814 -2.5017 0.9665
1.7262 -7.9483 -2.5017 0.9665
2.2019 -7.8299 -2.5017 0.9665
2.3588 -7.7840 -2.5017 0.9665
2.5148 -7.7351 -2.5017 0.9665
2.6697 -7.6830 -2.5017 0.9665
2.8235 -7.6278 -2.5017 0.9665
3.1277 -7.5082 -2.5017 0.9665
3.4269 -7.3764 -2.5017 0.9665
3.5744 -7.3061 -2.5017 0.9665
3.8651 -7.1566 -2.5017 0.9665
4.0081 -7.0774 -2.5017 0.9665
4.1496 -6.9955 -2.5017 0.9665
4.4273 -6.8231 -2.5017 0.9665
4.5635 -6.7327 -2.5017 0.9665
4.6979 -6.6397 -2.5017 0.9665
4.9609 -6.4456 -2.5017 0.9665
5.3402 -6.1350 -2.5017 0.9665
5.5824 -5.9154 -2.5017 0.9665
5.7001 -5.8021 -2.5017 0.9665
5.9287 -5.5683 -2.5017 0.9665
6.1476 -5.3256 -2.5017 0.9665
6.4573 -4.9455 -2.5017 0.9665
6.7436 -4.5475 -2.5017 0.9665
6.8336 -4.4111 -2.5017 0.9665
6.9208 -4.2729 -2.5017 0.9665
7.0869 -3.9913 -2.5017 0.9665
7.3845 -3.4094 -2.5017 0.9665
7.5765 -2.9583 -2.5017 0.9665
7.6344 -2.8054 -2.5017 0.9665
7.7410 -2.4964 -2.5017 0.9665
7.8351 -2.1833 -2.5017 0.9665
7.9165 -1.8667 -2.5017 0.9665
7.9851 -1.5471 -2.5017 0.9665
8.0146 -1.3864 -2.5017 0.9665
8.0408 -1.2250 -2.5017 0.9665
8.0638 -1.0632 -2.5017 0.9665
8.0835 -0.9010 -2.5017 0.9665
