ply
format ascii 1.0
element vertex 1596
property float32 x
property float32 y
property float32 z
property float32 I
end_header
8.0272 1.2351 -2.4980 0.9666
8.0008 1.3964 -2.4981 0.9666
7.9022 1.8768 -2.4982 0.9666
7.8205 2.1934 -2.4982 0.9666
7.7749 2.3504 -2.4983 0.9666
7.7261 2.5064 -2.4983 0.9666
7.6742 2.6615 -2.4983 0.9666
7.6192 2.8155 -2.4984 0.9666
7.5611 2.9683 -2.4984 0.9666
7.4999 3.1200 -2.4985 0.9666
7.2984 3.5671 -2.4986 0.9666
7.1492 3.8581 -2.4987 0.9666
7.0702 4.0014 -2.4988 0.9666
6.9884 4.1429 -2.4988 0.9666
6.6331 4.6920 -2.4990 0.9666
6.4392 4.9554 -2.4992 0.9666
6.0204 5.4579 -2.4994 0.9666
5.7961 5.6961 -2.4995 0.9666
5.6804 5.8117 -2.4996 0.9666
5.5625 5.9250 -2.4997 0.9666
5.1952 6.2505 -2.4999 0.9666
4.8089 6.5532 -2.5001 0.9666
4.6761 6.6489 -2.5002 0.9666
4.5415 6.7418 -2.5002 0.9666
4.1267 7.0043 -2.5005 0.9666
3.3964 7.3713 -2.4964 0.9666
3.2463 7.4357 -2.4955 0.9666
3.0949 7.4971 -2.4947 0.9666
2.7835 7.5961 -2.4883 0.9667
2.4499 7.6222 -2.4626 0.9670
2.2855 7.6348 -2.4513 0.9672
1.6402 7.6827 -2.4163 0.9677
1.3233 7.7051 -2.4046 0.9678
1.0087 7.7267 -2.3967 0.9679
0.8521 7.7372 -2.3942 0.9679
0.6957 7.7476 -2.3926 0.9680
0.5395 7.7577 -2.3919 0.9680
0.3832 7.7677 -2.3921 0.9680
0.2269 7.7775 -2.3932 0.9680
0.0704 7.7871 -2.3952 0.9679
-0.0865 7.7966 -2.3982 0.9679
-0.4017 7.8152 -2.4070 0.9678
-0.5602 7.8242 -2.4127 0.9677
-0.7196 7.8332 -2.4195 0.9676
-0.8799 7.8421 -2.4272 0.9675
-1.0413 7.8508 -2.4359 0.9674
-1.3679 7.8679 -2.4563 0.9671
-1.5332 7.8763 -2.4681 0.9670
-1.8691 7.8928 -2.4948 0.9666
-2.0290 7.8595 -2.4967 0.9666
-2.3455 7.7772 -2.4985 0.9666
-2.6587 7.6826 -2.5005 0.9666
-2.9684 7.5760 -2.5027 0.9665
-3.1217 7.5182 -2.5039 0.9665
-3.2728 7.4546 -2.5041 0.9665
-3.4222 7.3874 -2.5042 0.9665
-4.0058 7.0889 -2.5044 0.9665
-4.1477 7.0070 -2.5045 0.9665
-4.2880 6.9223 -2.5046 0.9665
-4.6983 6.6513 -2.5047 0.9665
-4.8314 6.5556 -2.5048 0.9665
-4.9625 6.4571 -2.5048 0.9665
-5.4662 6.0376 -2.5050 0.9665
-5.7050 5.8129 -2.5051 0.9665
-5.8209 5.6970 -2.5052 0.9665
-5.9345 5.5787 -2.5052 0.9665
-6.0457 5.4582 -2.5053 0.9665
-6.1545 5.3355 -2.5053 0.9665
-6.3644 5.0837 -2.5054 0.9665
-6.5641 4.8235 -2.5055 0.9665
-6.7531 4.5555 -2.5055 0.9665
-6.8435 4.4187 -2.5056 0.9665
-7.0979 3.9978 -2.5056 0.9665
-7.1771 3.8542 -2.5057 0.9665
-7.2532 3.7090 -2.5057 0.9665
-7.3265 3.5622 -2.5057 0.9665
-7.5895 2.9615 -2.5058 0.9665
-7.8488 2.1839 -2.5058 0.9665
-7.8912 2.0255 -2.5058 0.9665
-7.9304 1.8663 -2.5059 0.9665
-7.9991 1.5456 -2.5059 0.9665
-8.0286 1.3842 -2.5059 0.9665
-8.0778 1.0600 -2.5058 0.9665
-8.1269 0.5705 -2.5058 0.9665
-8.1433 0.2430 -2.5058 0.9665
-8.1463 -0.0850 -2.5058 0.9665
-7.5291 0.3565 -2.5055 0.9687
-7.5347 0.2049 -2.5055 0.9687
-7.5368 -0.0986 -2.5055 0.9687
-7.5169 -0.5532 -2.5054 0.9687
-7.5042 -0.7044 -2.5054 0.9687
-7.4884 -0.8553 -2.5054 0.9687
-7.4696 -1.0059 -2.5054 0.9687
-7.2935 -1.8984 -2.5052 0.9687
-7.2537 -2.0448 -2.5052 0.9687
-7.2110 -2.1904 -2.5051 0.9687
-7.1654 -2.3350 -2.5051 0.9687
-7.0654 -2.6215 -2.5050 0.9687
-6.7656 -3.3178 -2.5048 0.9687
-6.6973 -3.4533 -2.5048 0.9687
-6.6264 -3.5873 -2.5047 0.9687
-6.5527 -3.7199 -2.5047 0.9687
-6.4763 -3.8510 -2.5046 0.9687
-6.3158 -4.1084 -2.5045 0.9687
-6.1451 -4.3590 -2.5044 0.9687
-6.0560 -4.4818 -2.5043 0.9687
-5.8704 -4.7217 -2.5042 0.9687
-5.7741 -4.8387 -2.5042 0.9687
-5.5744 -5.0670 -2.5041 0.9687
-5.3657 -5.2870 -2.5039 0.9687
-5.2580 -5.3938 -2.5039 0.9687
-4.6888 -5.8940 -2.5035 0.9688
-4.4476 -6.0777 -2.5034 0.9688
-4.1991 -6.2514 -2.5033 0.9688
-4.0723 -6.3345 -2.5032 0.9688
-3.9439 -6.4150 -2.5031 0.9688
-3.6823 -6.5682 -2.5030 0.9688
-3.5492 -6.6408 -2.5029 0.9688
-3.4147 -6.7107 -2.5028 0.9688
-3.1417 -6.8423 -2.5027 0.9688
-3.0032 -6.9039 -2.5026 0.9688
-2.5809 -7.0720 -2.5024 0.9688
-2.4379 -7.1223 -2.5023 0.9688
-2.2940 -7.1697 -2.5023 0.9688
-2.0034 -7.2558 -2.5021 0.9688
-1.7097 -7.3301 -2.5020 0.9688
-1.5617 -7.3628 -2.5019 0.9688
-1.4132 -7.3925 -2.5018 0.9688
-1.2641 -7.4192 -2.5017 0.9688
-0.9644 -7.4637 -2.5016 0.9688
-0.6631 -7.4960 -2.5014 0.9688
-0.3609 -7.5161 -2.5013 0.9688
-0.2095 -7.5217 -2.5012 0.9688
-0.0581 -7.5242 -2.5011 0.9688
0.2448 -7.5199 -2.5010 0.9688
0.3961 -7.5133 -2.5009 0.9688
1.2983 -7.4095 -2.5005 0.9688
1.5953 -7.3509 -2.5004 0.9688
1.8898 -7.2803 -2.5002 0.9688
2.0359 -7.2406 -2.5001 0.9688
2.4690 -7.1040 -2.4999 0.9688
2.8930 -6.9415 -2.4998 0.9688
3.0321 -6.8817 -2.4997 0.9688
3.1699 -6.8191 -2.4996 0.9688
3.5754 -6.6149 -2.4995 0.9688
3.7078 -6.5414 -2.4994 0.9688
3.9679 -6.3866 -2.4993 0.9688
4.2215 -6.2214 -2.4992 0.9688
4.3458 -6.1351 -2.4991 0.9688
4.4683 -6.0462 -2.4991 0.9688
4.8248 -5.7652 -2.4989 0.9688
4.9398 -5.6668 -2.4989 0.9688
5.0528 -5.5661 -2.4988 0.9688
5.1637 -5.4632 -2.4988 0.9688
5.2725 -5.3580 -2.4988 0.9688
5.3792 -5.2507 -2.4987 0.9688
5.8791 -4.6833 -2.4985 0.9688
6.0627 -4.4428 -2.4985 0.9688
6.2364 -4.1951 -2.4984 0.9688
6.3196 -4.0686 -2.4984 0.9688
6.5534 -3.6797 -2.4983 0.9688
6.6261 -3.5470 -2.4983 0.9688
6.6961 -3.4129 -2.4982 0.9688
6.7633 -3.2774 -2.4982 0.9688
6.8897 -3.0025 -2.4982 0.9688
6.9487 -2.8632 -2.4982 0.9688
7.1563 -2.2949 -2.4981 0.9688
7.2010 -2.1504 -2.4981 0.9688
7.2428 -2.0050 -2.4981 0.9688
7.2817 -1.8588 -2.4981 0.9688
7.4975 -0.5164 -2.4981 0.9688
7.5123 -0.2142 -2.4981 0.9688
7.5149 0.0883 -2.4982 0.9688
7.5054 0.3907 -2.4982 0.9688
7.4499 0.9932 -2.4983 0.9688
7.4040 1.2922 -2.4983 0.9688
7.3766 1.4410 -2.4984 0.9688
7.3462 1.5892 -2.4984 0.9688
7.3128 1.7368 -2.4984 0.9688
7.2764 1.8837 -2.4985 0.9688
7.2371 2.0298 -2.4985 0.9688
7.1949 2.1751 -2.4985 0.9688
7.1498 2.3195 -2.4986 0.9688
6.9971 2.7469 -2.4987 0.9688
6.9405 2.8872 -2.4987 0.9688
6.8811 3.0264 -2.4988 0.9688
6.8189 3.1643 -2.4988 0.9688
6.7539 3.3010 -2.4988 0.9688
6.6158 3.5703 -2.4989 0.9688
6.5427 3.7028 -2.4990 0.9688
6.4670 3.8338 -2.4990 0.9688
6.3887 3.9633 -2.4991 0.9688
6.3077 4.0912 -2.4991 0.9688
6.1382 4.3420 -2.4992 0.9688
5.8654 4.7048 -2.4994 0.9688
5.6715 4.9373 -2.4995 0.9688
5.2565 5.3780 -2.4998 0.9688
5.1473 5.4829 -2.4998 0.9688
4.8074 5.7840 -2.5000 0.9688
4.6902 5.8797 -2.5001 0.9688
4.2025 6.2386 -2.5004 0.9688
4.0762 6.3221 -2.5004 0.9688
3.9482 6.4030 -2.5005 0.9688
3.4208 6.7006 -2.5008 0.9688
3.2853 6.7683 -2.5009 0.9688
3.1485 6.8333 -2.5009 0.9688
2.7306 7.0114 -2.5012 0.9688
1.7179 7.3216 -2.4998 0.9688
1.5700 7.3538 -2.4995 0.9688
1.1230 7.4332 -2.4989 0.9688
0.8229 7.4719 -2.4987 0.9688
0.5215 7.4990 -2.4987 0.9688
0.0680 7.5180 -2.4991 0.9688
-0.2347 7.5161 -2.4996 0.9688
-0.3860 7.5109 -2.4999 0.9688
-0.5372 7.5027 -2.5003 0.9688
-0.8391 7.4777 -2.5012 0.9688
-0.9896 7.4608 -2.5017 0.9688
-1.1398 7.4411 -2.5023 0.9688
-1.5875 7.3616 -2.5033 0.9688
-1.7354 7.3283 -2.5034 0.9688
-1.8826 7.2921 -2.5034 0.9688
-2.0290 7.2529 -2.5035 0.9688
-2.1747 7.2108 -2.5036 0.9688
-2.3194 7.1658 -2.5036 0.9688
-2.4633 7.1178 -2.5037 0.9687
-2.7479 7.0133 -2.5038 0.9687
-2.8886 6.9567 -2.5039 0.9687
-3.0281 6.8973 -2.5039 0.9687
-3.1664 6.8352 -2.5040 0.9687
-3.3034 6.7702 -2.5041 0.9687
-3.8376 6.4832 -2.5043 0.9687
-4.2222 6.2401 -2.5045 0.9687
-4.3470 6.1540 -2.5045 0.9687
-4.4701 6.0654 -2.5046 0.9687
-4.5914 5.9743 -2.5046 0.9687
-4.7108 5.8808 -2.5047 0.9687
-4.8283 5.7849 -2.5047 0.9687
-4.9439 5.6866 -2.5048 0.9687
-5.0574 5.5861 -2.5048 0.9687
-5.6942 4.9365 -2.5051 0.9687
-6.0732 4.4628 -2.5052 0.9687
-6.1618 4.3397 -2.5052 0.9687
-6.2480 4.2148 -2.5053 0.9687
-6.3317 4.0883 -2.5053 0.9687
-6.4127 3.9600 -2.5053 0.9687
-6.4912 3.8302 -2.5053 0.9687
-6.7107 3.4315 -2.5054 0.9687
-6.9652 2.8807 -2.5055 0.9687
-7.0756 2.5981 -2.5055 0.9687
-7.2617 2.0206 -2.5055 0.9687
-7.3372 1.7267 -2.5056 0.9687
-7.4008 1.4300 -2.5056 0.9687
-7.4523 1.1309 -2.5056 0.9687
-7.5191 0.5279 -2.5055 0.9687
-7.5281 0.3764 -2.5055 0.9687
-7.5371 0.0731 -2.5055 0.9687
-7.5370 -0.0786 -2.5055 0.9687
-7.0030 0.1904 -2.5052 0.9707
-7.0054 0.0494 -2.5052 0.9707
-6.9600 -0.7950 -2.5051 0.9707
-6.9425 -0.9349 -2.5051 0.9707
-6.8992 -1.2135 -2.5051 0.9707
-6.8732 -1.3522 -2.5050 0.9707
-6.7789 -1.7644 -2.5050 0.9707
-6.6147 -2.3038 -2.5048 0.9707
-6.2883 -3.0838 -2.5046 0.9707
-6.2249 -3.2097 -2.5045 0.9707
-5.9461 -3.6997 -2.5044 0.9707
-5.8703 -3.8185 -2.5043 0.9707
-5.7116 -4.0516 -2.5042 0.9707
-5.6288 -4.1656 -2.5042 0.9707
-5.5437 -4.2780 -2.5041 0.9707
-5.4564 -4.3886 -2.5041 0.9707
-5.2751 -4.6045 -2.5040 0.9707
-5.0852 -4.8128 -2.5038 0.9707
-4.9872 -4.9141 -2.5038 0.9707
-4.8872 -5.0134 -2.5037 0.9707
-4.7852 -5.1106 -2.5037 0.9707
-4.5754 -5.2988 -2.5035 0.9707
-4.4677 -5.3897 -2.5035 0.9707
-4.2469 -5.5649 -2.5034 0.9707
-4.1339 -5.6491 -2.5033 0.9707
-4.0193 -5.7310 -2.5032 0.9707
-3.9030 -5.8106 -2.5032 0.9707
-3.7852 -5.8879 -2.5031 0.9707
-3.6658 -5.9627 -2.5030 0.9707
-3.5449 -6.0351 -2.5030 0.9707
-3.4227 -6.1051 -2.5029 0.9707
-3.1740 -6.2376 -2.5028 0.9707
-3.0477 -6.3000 -2.5027 0.9707
-2.9202 -6.3599 -2.5026 0.9707
-2.6617 -6.4720 -2.5025 0.9707
-1.8622 -6.7444 -2.5021 0.9707
-1.7261 -6.7803 -2.5020 0.9707
-1.5892 -6.8135 -2.5020 0.9707
-1.4517 -6.8439 -2.5019 0.9707
-1.0359 -6.9185 -2.5017 0.9707
-0.8964 -6.9377 -2.5016 0.9707
-0.7566 -6.9542 -2.5015 0.9707
-0.4760 -6.9786 -2.5014 0.9707
-0.3354 -6.9866 -2.5013 0.9707
-0.0540 -6.9940 -2.5012 0.9707
0.5087 -6.9750 -2.5009 0.9707
0.7890 -6.9484 -2.5008 0.9707
1.0680 -6.9107 -2.5006 0.9707
1.2068 -6.8876 -2.5006 0.9707
1.3452 -6.8617 -2.5005 0.9707
1.4830 -6.8331 -2.5005 0.9707
1.6202 -6.8017 -2.5004 0.9707
1.7567 -6.7675 -2.5003 0.9707
2.2951 -6.6037 -2.5001 0.9707
2.4275 -6.5560 -2.5000 0.9707
2.5589 -6.5056 -2.5000 0.9707
3.3237 -6.1491 -2.4996 0.9707
3.5683 -6.0101 -2.4995 0.9707
3.6885 -5.9369 -2.4995 0.9707
3.9243 -5.7834 -2.4994 0.9707
4.0399 -5.7031 -2.4993 0.9707
4.1538 -5.6206 -2.4993 0.9707
4.2660 -5.5357 -2.4992 0.9707
4.4852 -5.3593 -2.4991 0.9707
4.6971 -5.1743 -2.4990 0.9707
4.9014 -4.9809 -2.4990 0.9708
5.0977 -4.7794 -2.4989 0.9708
5.2858 -4.5702 -2.4988 0.9708
5.6360 -4.1301 -2.4987 0.9708
5.7179 -4.0157 -2.4987 0.9708
5.9497 -3.6632 -2.4986 0.9708
6.0922 -3.4207 -2.4985 0.9708
6.4048 -2.7912 -2.4984 0.9708
6.5119 -2.5311 -2.4984 0.9708
6.5615 -2.3995 -2.4984 0.9708
6.6084 -2.2669 -2.4984 0.9708
6.7331 -1.8639 -2.4984 0.9708
6.8333 -1.4542 -2.4984 0.9708
6.8612 -1.3163 -2.4984 0.9708
6.9086 -1.0391 -2.4984 0.9708
6.9449 -0.7602 -2.4984 0.9708
6.9699 -0.4801 -2.4984 0.9708
6.9836 -0.1992 -2.4984 0.9708
6.9862 -0.0585 -2.4984 0.9708
6.9860 0.0821 -2.4984 0.9708
6.9056 1.0625 -2.4986 0.9708
6.8291 1.4774 -2.4986 0.9708
6.7981 1.6146 -2.4987 0.9708
6.6885 2.0220 -2.4988 0.9708
6.6019 2.2896 -2.4988 0.9708
6.3389 2.9416 -2.4990 0.9708
6.2156 3.1945 -2.4991 0.9707
6.1501 3.3190 -2.4991 0.9707
6.0117 3.5639 -2.4992 0.9707
5.9389 3.6843 -2.4993 0.9707
5.7860 3.9205 -2.4994 0.9707
5.6238 4.1504 -2.4995 0.9707
5.5392 4.2628 -2.4995 0.9707
5.4524 4.3735 -2.4996 0.9707
5.2722 4.5896 -2.4997 0.9707
4.9859 4.8998 -2.4999 0.9707
4.7849 5.0968 -2.5000 0.9707
4.4689 5.3766 -2.5002 0.9707
4.3598 5.4656 -2.5002 0.9707
4.2490 5.5524 -2.5003 0.9707
4.1365 5.6370 -2.5003 0.9707
3.9065 5.7992 -2.5005 0.9707
3.7891 5.8768 -2.5005 0.9707
3.5496 6.0248 -2.5007 0.9707
3.4277 6.0952 -2.5007 0.9707
3.1798 6.2286 -2.5009 0.9707
3.0539 6.2915 -2.5009 0.9707
2.9267 6.3519 -2.5010 0.9707
2.5382 6.5174 -2.5012 0.9707
2.4066 6.5674 -2.5013 0.9707
2.1404 6.6593 -2.5014 0.9707
1.7348 6.7769 -2.5016 0.9707
1.4607 6.8416 -2.5018 0.9707
1.3227 6.8698 -2.5018 0.9707
1.1842 6.8953 -2.5019 0.9707
1.0452 6.9179 -2.5020 0.9707
0.7659 6.9547 -2.5021 0.9707
0.0632 6.9975 -2.5024 0.9707
-0.4998 6.9806 -2.5027 0.9707
-1.0598 6.9186 -2.5030 0.9707
-1.1989 6.8960 -2.5031 0.9707
-1.4756 6.8425 -2.5032 0.9707
-1.8860 6.7415 -2.5034 0.9707
-2.2896 6.6159 -2.5036 0.9707
-2.5541 6.5187 -2.5037 0.9707
-2.6849 6.4661 -2.5037 0.9707
-2.9431 6.3531 -2.5038 0.9707
-3.0704 6.2927 -2.5039 0.9707
-3.1966 6.2297 -2.5040 0.9707
-3.3214 6.1643 -2.5040 0.9707
-3.4449 6.0963 -2.5041 0.9707
-3.5669 6.0258 -2.5041 0.9707
-3.9244 5.8000 -2.5043 0.9707
-4.2675 5.5528 -2.5044 0.9707
-4.4877 5.3768 -2.5045 0.9707
-4.5951 5.2854 -2.5046 0.9707
-4.8043 5.0964 -2.5046 0.9707
-5.0057 4.8990 -2.5047 0.9707
-5.1989 4.6937 -2.5048 0.9707
-5.2924 4.5882 -2.5048 0.9707
-5.3838 4.4808 -2.5049 0.9707
-5.4730 4.3716 -2.5049 0.9707
-5.5599 4.2606 -2.5049 0.9707
-5.6446 4.1479 -2.5050 0.9707
-5.8071 3.9174 -2.5050 0.9707
-5.8849 3.7998 -2.5050 0.9707
-5.9602 3.6806 -2.5051 0.9707
-6.0332 3.5599 -2.5051 0.9707
-6.1717 3.3142 -2.5051 0.9707
-6.2372 3.1894 -2.5052 0.9707
-6.3002 3.0632 -2.5052 0.9707
-6.4184 2.8072 -2.5052 0.9707
-6.5263 2.5466 -2.5052 0.9707
-6.8194 1.6048 -2.5053 0.9707
-6.8785 1.3290 -2.5053 0.9707
-6.9038 1.1903 -2.5053 0.9707
-6.9264 1.0511 -2.5053 0.9707
-6.9631 0.7715 -2.5053 0.9707
-6.9969 0.3498 -2.5053 0.9707
-7.0052 0.0679 -2.5052 0.9707
-7.0051 -0.0731 -2.5052 0.9707
-6.5220 0.4405 -2.5050 0.9724
-6.5295 0.3092 -2.5050 0.9724
-6.5331 -0.2170 -2.5050 0.9724
-6.5273 -0.3485 -2.5050 0.9724
-6.5190 -0.4798 -2.5049 0.9724
-6.5079 -0.6109 -2.5049 0.9724
-6.4943 -0.7418 -2.5049 0.9724
-6.4780 -0.8723 -2.5049 0.9724
-6.0804 -2.3963 -2.5046 0.9724
-5.9789 -2.6391 -2.5045 0.9724
-5.8676 -2.8775 -2.5044 0.9724
-5.6830 -3.2262 -2.5043 0.9724
-5.6168 -3.3399 -2.5042 0.9724
-5.4047 -3.6726 -2.5041 0.9724
-5.3296 -3.7805 -2.5041 0.9724
-5.1729 -3.9918 -2.5040 0.9724
-5.0914 -4.0951 -2.5039 0.9724
-5.0078 -4.1966 -2.5039 0.9724
-4.6537 -4.5855 -2.5037 0.9724
-4.5603 -4.6781 -2.5036 0.9724
-4.3682 -4.8576 -2.5035 0.9724
-4.0667 -5.1121 -2.5033 0.9724
-3.9629 -5.1928 -2.5033 0.9724
-3.7505 -5.3478 -2.5031 0.9724
-3.6421 -5.4221 -2.5031 0.9724
-3.3079 -5.6316 -2.5029 0.9724
-3.0784 -5.7599 -2.5028 0.9724
-2.9618 -5.8206 -2.5027 0.9724
-2.7250 -5.9348 -2.5026 0.9724
-2.3617 -6.0879 -2.5024 0.9724
-2.2386 -6.1341 -2.5023 0.9724
-2.1146 -6.1777 -2.5023 0.9724
-1.6107 -6.3271 -2.5020 0.9724
-1.4830 -6.3581 -2.5019 0.9724
-1.3547 -6.3865 -2.5019 0.9724
-0.9667 -6.4561 -2.5017 0.9724
-0.7060 -6.4895 -2.5016 0.9724
-0.5752 -6.5022 -2.5015 0.9724
-0.3130 -6.5197 -2.5014 0.9724
0.0810 -6.5262 -2.5012 0.9724
0.2124 -6.5231 -2.5011 0.9724
0.4747 -6.5090 -2.5010 0.9724
0.9966 -6.4491 -2.5007 0.9724
1.1262 -6.4275 -2.5007 0.9724
1.2553 -6.4034 -2.5006 0.9724
1.5120 -6.3474 -2.5005 0.9724
1.6394 -6.3155 -2.5004 0.9724
1.7661 -6.2811 -2.5004 0.9724
1.8922 -6.2441 -2.5003 0.9724
2.0174 -6.2046 -2.5003 0.9724
2.1418 -6.1626 -2.5002 0.9724
2.6303 -5.9699 -2.5000 0.9724
2.7499 -5.9156 -2.4999 0.9724
2.9857 -5.7999 -2.4998 0.9724
3.2166 -5.6748 -2.4997 0.9724
3.4422 -5.5405 -2.4996 0.9724
3.5530 -5.4700 -2.4996 0.9724
3.6623 -5.3972 -2.4995 0.9724
3.7701 -5.3224 -2.4995 0.9724
3.8764 -5.2453 -2.4994 0.9724
3.9811 -5.1661 -2.4994 0.9724
4.0843 -5.0849 -2.4994 0.9724
4.1857 -5.0015 -2.4993 0.9724
4.3835 -4.8288 -2.4992 0.9724
4.5742 -4.6484 -2.4992 0.9725
4.6667 -4.5553 -2.4991 0.9725
4.7574 -4.4604 -2.4991 0.9725
5.1005 -4.0630 -2.4990 0.9725
5.3362 -3.7477 -2.4989 0.9725
5.4105 -3.6395 -2.4988 0.9725
5.6201 -3.3062 -2.4988 0.9725
5.7486 -3.0773 -2.4987 0.9725
5.9773 -2.6049 -2.4987 0.9725
6.0285 -2.4840 -2.4987 0.9725
6.1235 -2.2393 -2.4986 0.9725
6.2086 -1.9910 -2.4986 0.9725
6.2474 -1.8657 -2.4986 0.9725
6.2837 -1.7395 -2.4986 0.9725
6.3486 -1.4852 -2.4986 0.9725
6.4032 -1.2285 -2.4986 0.9725
6.4475 -0.9697 -2.4986 0.9725
6.4943 -0.5788 -2.4986 0.9725
6.5047 -0.4480 -2.4986 0.9725
6.5124 -0.3170 -2.4986 0.9725
6.5197 0.0766 -2.4987 0.9725
6.4926 0.6008 -2.4987 0.9725
6.4447 0.9916 -2.4988 0.9725
6.3443 1.5068 -2.4989 0.9725
6.2786 1.7610 -2.4989 0.9725
6.2420 1.8870 -2.4990 0.9725
6.2028 2.0123 -2.4990 0.9725
6.1170 2.2604 -2.4991 0.9725
6.0703 2.3831 -2.4991 0.9725
5.9696 2.6255 -2.4992 0.9725
5.8593 2.8638 -2.4992 0.9724
5.5424 3.4383 -2.4994 0.9724
5.4721 3.5492 -2.4995 0.9724
5.1693 3.9782 -2.4997 0.9724
4.9201 4.2832 -2.4998 0.9724
4.8330 4.3814 -2.4999 0.9724
4.6529 4.5726 -2.5000 0.9724
4.5600 4.6654 -2.5000 0.9724
4.4653 4.7564 -2.5001 0.9724
4.0686 5.1006 -2.5003 0.9724
3.9652 5.1816 -2.5004 0.9724
3.8602 5.2604 -2.5004 0.9724
3.7536 5.3372 -2.5005 0.9724
3.6455 5.4118 -2.5006 0.9724
3.4249 5.5544 -2.5007 0.9724
3.3125 5.6224 -2.5007 0.9724
3.0837 5.7514 -2.5009 0.9724
2.8498 5.8712 -2.5010 0.9724
2.7312 5.9275 -2.5011 0.9724
2.6114 5.9814 -2.5011 0.9724
2.4905 6.0329 -2.5012 0.9724
2.3686 6.0820 -2.5012 0.9724
1.7457 6.2900 -2.5016 0.9724
1.6188 6.3240 -2.5016 0.9724
1.4912 6.3555 -2.5017 0.9724
1.2343 6.4107 -2.5018 0.9724
1.1050 6.4344 -2.5019 0.9724
0.9753 6.4555 -2.5020 0.9724
0.5840 6.5031 -2.5021 0.9724
0.4530 6.5138 -2.5022 0.9724
0.3218 6.5217 -2.5023 0.9724
0.1904 6.5270 -2.5023 0.9724
-0.0724 6.5297 -2.5025 0.9724
-0.2039 6.5271 -2.5025 0.9724
-0.4664 6.5140 -2.5027 0.9724
-0.5975 6.5034 -2.5027 0.9724
-0.8588 6.4744 -2.5028 0.9724
-0.9890 6.4560 -2.5029 0.9724
-1.1187 6.4349 -2.5030 0.9724
-1.5052 6.3561 -2.5032 0.9724
-1.6328 6.3247 -2.5032 0.9724
-1.7599 6.2907 -2.5033 0.9724
-2.0117 6.2150 -2.5034 0.9724
-2.1365 6.1734 -2.5034 0.9724
-2.2603 6.1293 -2.5035 0.9724
-2.6263 5.9821 -2.5037 0.9724
-2.7462 5.9282 -2.5037 0.9724
-2.8651 5.8718 -2.5038 0.9724
-2.9828 5.8131 -2.5038 0.9724
-3.0992 5.7520 -2.5039 0.9724
-3.2144 5.6885 -2.5039 0.9724
-3.3283 5.6228 -2.5040 0.9724
-3.7701 5.3373 -2.5042 0.9724
-3.8768 5.2604 -2.5042 0.9724
-3.9820 5.1814 -2.5042 0.9724
-4.0856 5.1003 -2.5043 0.9724
-4.1875 5.0171 -2.5043 0.9724
-4.2877 4.9319 -2.5044 0.9724
-4.4829 4.7554 -2.5044 0.9724
-4.5777 4.6643 -2.5045 0.9724
-4.6708 4.5713 -2.5045 0.9724
-4.7619 4.4764 -2.5046 0.9724
-4.8511 4.3797 -2.5046 0.9724
-4.9383 4.2812 -2.5046 0.9724
-5.1068 4.0791 -2.5047 0.9724
-5.2669 3.8704 -2.5047 0.9724
-5.3438 3.7636 -2.5048 0.9724
-5.4911 3.5455 -2.5048 0.9724
-5.5614 3.4343 -2.5048 0.9724
-5.6295 3.3217 -2.5049 0.9724
-5.6952 3.2077 -2.5049 0.9724
-5.7587 3.0925 -2.5049 0.9724
-5.8786 2.8582 -2.5049 0.9724
-5.9350 2.7393 -2.5050 0.9724
-5.9889 2.6193 -2.5050 0.9724
-6.0405 2.4983 -2.5050 0.9724
-6.2220 2.0044 -2.5050 0.9724
-6.2611 1.8787 -2.5050 0.9724
-6.2976 1.7523 -2.5050 0.9724
-6.3316 1.6252 -2.5051 0.9724
-6.3631 1.4974 -2.5051 0.9724
-6.4182 1.2401 -2.5051 0.9724
-6.4813 0.8505 -2.5051 0.9724
-6.4971 0.7199 -2.5050 0.9724
-6.5208 0.4578 -2.5050 0.9724
-6.5287 0.3264 -2.5050 0.9724
-6.5364 0.0634 -2.5050 0.9724
-6.1062 0.4125 -2.5048 0.9739
-6.1179 0.1663 -2.5048 0.9739
-6.1199 0.0432 -2.5048 0.9739
-6.1195 -0.0800 -2.5048 0.9739
-6.1113 -0.3263 -2.5048 0.9739
-6.1035 -0.4492 -2.5047 0.9739
-5.9795 -1.3019 -2.5046 0.9739
-5.9222 -1.5415 -2.5046 0.9739
-5.8552 -1.7785 -2.5045 0.9739
-5.7787 -2.0127 -2.5044 0.9739
-5.6465 -2.3577 -2.5043 0.9739
-5.5978 -2.4709 -2.5043 0.9739
-5.5469 -2.5830 -2.5043 0.9739
-5.4937 -2.6941 -2.5042 0.9739
-5.3806 -2.9129 -2.5042 0.9739
-5.3208 -3.0206 -2.5041 0.9739
-5.2589 -3.1270 -2.5041 0.9739
-5.1948 -3.2322 -2.5040 0.9739
-4.9176 -3.6393 -2.5039 0.9739
-4.7670 -3.8342 -2.5038 0.9739
-4.5266 -4.1146 -2.5036 0.9739
-4.3572 -4.2933 -2.5035 0.9739
-4.1807 -4.4650 -2.5034 0.9739
-4.0899 -4.5482 -2.5034 0.9739
-3.9033 -4.7089 -2.5033 0.9739
-3.7105 -4.8620 -2.5032 0.9739
-3.6118 -4.9356 -2.5031 0.9739
-3.4101 -5.0767 -2.5030 0.9739
-3.3071 -5.1442 -2.5029 0.9739
-3.2028 -5.2096 -2.5029 0.9739
-2.9904 -5.3341 -2.5028 0.9739
-2.8824 -5.3931 -2.5027 0.9739
-2.5514 -5.5568 -2.5025 0.9739
-2.4390 -5.6069 -2.5025 0.9739
-2.2113 -5.7002 -2.5024 0.9739
-2.0960 -5.7435 -2.5023 0.9739
-1.9800 -5.7843 -2.5022 0.9739
-1.8631 -5.8229 -2.5022 0.9739
-1.6271 -5.8929 -2.5021 0.9739
-1.3885 -5.9533 -2.5019 0.9739
-1.1478 -6.0041 -2.5018 0.9739
-0.9051 -6.0451 -2.5017 0.9739
-0.4159 -6.0977 -2.5014 0.9739
-0.2931 -6.1047 -2.5014 0.9739
-0.1702 -6.1092 -2.5013 0.9739
-0.0471 -6.1113 -2.5013 0.9739
0.0759 -6.1108 -2.5012 0.9739
0.1989 -6.1079 -2.5011 0.9739
0.4445 -6.0947 -2.5010 0.9739
1.2958 -5.9709 -2.5006 0.9739
1.5351 -5.9136 -2.5005 0.9739
1.6537 -5.8814 -2.5005 0.9739
1.8890 -5.8098 -2.5004 0.9739
2.1213 -5.7288 -2.5002 0.9739
2.2361 -5.6849 -2.5002 0.9739
2.3500 -5.6386 -2.5001 0.9739
2.5750 -5.5392 -2.5000 0.9739
2.6859 -5.4862 -2.5000 0.9739
3.0119 -5.3138 -2.4999 0.9739
3.1182 -5.2520 -2.4998 0.9739
3.2232 -5.1880 -2.4998 0.9739
3.3270 -5.1220 -2.4997 0.9739
3.6298 -4.9116 -2.4996 0.9739
3.7279 -4.8375 -2.4996 0.9739
3.8245 -4.7614 -2.4995 0.9739
3.9195 -4.6834 -2.4995 0.9740
4.0129 -4.6035 -2.4994 0.9740
4.1047 -4.5217 -2.4994 0.9740
4.2832 -4.3527 -2.4993 0.9740
4.4548 -4.1767 -2.4993 0.9740
4.7761 -3.8046 -2.4991 0.9740
4.8517 -3.7077 -2.4991 0.9740
4.9969 -3.5093 -2.4991 0.9740
5.0664 -3.4080 -2.4990 0.9740
5.1994 -3.2013 -2.4990 0.9740
5.3240 -2.9894 -2.4989 0.9740
5.3830 -2.8816 -2.4989 0.9740
5.4399 -2.7726 -2.4989 0.9740
5.5972 -2.4392 -2.4989 0.9740
5.6451 -2.3260 -2.4989 0.9740
5.6908 -2.2119 -2.4988 0.9740
5.8138 -1.8644 -2.4988 0.9740
5.8841 -1.6289 -2.4988 0.9740
5.9449 -1.3908 -2.4988 0.9740
5.9961 -1.1504 -2.4988 0.9740
6.0180 -1.0294 -2.4988 0.9740
6.0375 -0.9081 -2.4988 0.9740
6.1053 -0.0511 -2.4988 0.9740
6.1051 0.0718 -2.4989 0.9740
6.0974 0.3174 -2.4989 0.9740
6.0797 0.5626 -2.4989 0.9740
6.0672 0.6848 -2.4989 0.9740
6.0523 0.8069 -2.4990 0.9740
6.0348 0.9285 -2.4990 0.9740
6.0150 1.0498 -2.4990 0.9740
5.9680 1.2911 -2.4990 0.9740
5.9408 1.4109 -2.4991 0.9740
5.9113 1.5303 -2.4991 0.9740
5.8793 1.6490 -2.4991 0.9740
5.8450 1.7670 -2.4991 0.9740
5.7693 2.0009 -2.4992 0.9740
5.6382 2.3455 -2.4993 0.9740
5.5900 2.4585 -2.4993 0.9740
5.3150 3.0080 -2.4995 0.9739
5.2535 3.1144 -2.4996 0.9739
5.1898 3.2196 -2.4996 0.9739
5.1241 3.3235 -2.4996 0.9739
5.0562 3.4260 -2.4997 0.9739
4.8405 3.7251 -2.4998 0.9739
4.6071 4.0107 -2.5000 0.9739
4.5255 4.1027 -2.5000 0.9739
4.2699 4.3686 -2.5002 0.9739
4.1812 4.4537 -2.5002 0.9739
3.9987 4.6186 -2.5003 0.9739
3.8098 4.7760 -2.5004 0.9739
3.7129 4.8519 -2.5005 0.9739
3.6146 4.9257 -2.5005 0.9739
3.5148 4.9976 -2.5006 0.9739
3.4136 5.0674 -2.5006 0.9739
3.2070 5.2009 -2.5008 0.9739
3.1017 5.2646 -2.5008 0.9739
2.6685 5.4975 -2.5010 0.9739
2.5573 5.5502 -2.5011 0.9739
2.3320 5.6489 -2.5012 0.9739
2.1028 5.7385 -2.5013 0.9739
1.9869 5.7798 -2.5014 0.9739
1.6346 5.8896 -2.5016 0.9739
1.5158 5.9214 -2.5016 0.9739
1.2763 5.9779 -2.5018 0.9739
0.6692 6.0767 -2.5021 0.9739
0.4241 6.0990 -2.5022 0.9739
-0.0678 6.1139 -2.5024 0.9739
-0.1909 6.1115 -2.5025 0.9739
-0.5594 6.0892 -2.5027 0.9739
-0.8041 6.0621 -2.5028 0.9739
-0.9260 6.0448 -2.5028 0.9739
-1.1686 6.0029 -2.5030 0.9739
-1.5288 5.9218 -2.5031 0.9739
-1.6477 5.8900 -2.5032 0.9739
-1.7660 5.8557 -2.5032 0.9739
-1.8835 5.8191 -2.5033 0.9739
-2.0004 5.7802 -2.5033 0.9739
-2.1163 5.7388 -2.5034 0.9739
-2.4590 5.6010 -2.5035 0.9739
-2.5713 5.5505 -2.5036 0.9739
-2.9018 5.3855 -2.5037 0.9739
-3.1163 5.2645 -2.5038 0.9739
-3.2217 5.2008 -2.5039 0.9739
-3.4285 5.0671 -2.5040 0.9739
-3.6298 4.9252 -2.5040 0.9739
-3.9206 4.6974 -2.5042 0.9739
-4.0145 4.6176 -2.5042 0.9739
-4.1972 4.4524 -2.5043 0.9739
-4.2860 4.3671 -2.5043 0.9739
-4.5419 4.1006 -2.5044 0.9739
-4.6236 4.0084 -2.5044 0.9739
-4.8573 3.7222 -2.5045 0.9739
-4.9313 3.6237 -2.5046 0.9739
-5.2069 3.2154 -2.5047 0.9739
-5.2706 3.1100 -2.5047 0.9739
-5.3322 3.0033 -2.5047 0.9739
-5.3916 2.8954 -2.5047 0.9739
-5.5039 2.6760 -2.5047 0.9739
-5.5567 2.5647 -2.5048 0.9739
-5.6072 2.4524 -2.5048 0.9739
-5.8254 1.8766 -2.5048 0.9739
-5.9280 1.5216 -2.5048 0.9739
-5.9575 1.4020 -2.5048 0.9739
-5.9845 1.2818 -2.5049 0.9739
-6.0091 1.1611 -2.5049 0.9739
-6.0312 1.0398 -2.5049 0.9739
-6.0682 0.7963 -2.5048 0.9739
-6.0830 0.6740 -2.5048 0.9739
-6.0953 0.5514 -2.5048 0.9739
-6.1051 0.4286 -2.5048 0.9739
-6.1125 0.3056 -2.5048 0.9739
-6.1174 0.1825 -2.5048 0.9739
-6.1198 0.0593 -2.5048 0.9739
-6.1197 -0.0638 -2.5048 0.9739
-5.7448 0.1562 -2.5046 0.9752
-5.7468 0.0405 -2.5046 0.9752
-5.7387 -0.3064 -2.5046 0.9752
-5.6953 -0.7670 -2.5045 0.9752
-5.6787 -0.8814 -2.5045 0.9752
-5.6597 -0.9955 -2.5045 0.9752
-5.5892 -1.3353 -2.5044 0.9752
-5.5308 -1.5591 -2.5044 0.9752
-5.4635 -1.7804 -2.5043 0.9752
-5.3873 -1.9988 -2.5043 0.9752
-5.3459 -2.1068 -2.5042 0.9752
-5.3023 -2.2140 -2.5042 0.9752
-5.2566 -2.3202 -2.5042 0.9752
-5.1588 -2.5299 -2.5041 0.9752
-4.9383 -2.9364 -2.5039 0.9752
-4.8781 -3.0352 -2.5039 0.9752
-4.8160 -3.1327 -2.5039 0.9752
-4.5481 -3.5097 -2.5037 0.9752
-4.4765 -3.6005 -2.5037 0.9752
-4.4030 -3.6898 -2.5036 0.9752
-3.9259 -4.1929 -2.5033 0.9752
-3.8407 -4.2710 -2.5033 0.9752
-3.6655 -4.4220 -2.5032 0.9752
-3.4844 -4.5657 -2.5031 0.9753
-3.3917 -4.6349 -2.5030 0.9753
-3.2023 -4.7674 -2.5029 0.9753
-2.3960 -5.2183 -2.5025 0.9753
-2.1840 -5.3103 -2.5024 0.9753
-2.0766 -5.3530 -2.5023 0.9753
-1.8593 -5.4320 -2.5022 0.9753
-1.7496 -5.4682 -2.5022 0.9753
-1.6391 -5.5022 -2.5021 0.9753
-1.3040 -5.5907 -2.5019 0.9753
-1.0779 -5.6384 -2.5018 0.9753
-0.9641 -5.6588 -2.5018 0.9753
-0.7355 -5.6928 -2.5016 0.9753
-0.6208 -5.7063 -2.5016 0.9753
-0.5058 -5.7175 -2.5015 0.9753
-0.3906 -5.7264 -2.5015 0.9753
-0.2753 -5.7330 -2.5014 0.9753
-0.1598 -5.7372 -2.5014 0.9753
0.0712 -5.7388 -2.5012 0.9753
0.4174 -5.7236 -2.5011 0.9753
0.5326 -5.7139 -2.5010 0.9753
0.7621 -5.6876 -2.5009 0.9753
0.8764 -5.6710 -2.5009 0.9753
0.9903 -5.6521 -2.5008 0.9753
1.4416 -5.5537 -2.5006 0.9753
1.5531 -5.5234 -2.5005 0.9753
1.6639 -5.4909 -2.5005 0.9753
1.9921 -5.3802 -2.5003 0.9753
2.1000 -5.3389 -2.5003 0.9753
2.4183 -5.2021 -2.5002 0.9753
2.5224 -5.1523 -2.5001 0.9753
2.6256 -5.1004 -2.5001 0.9753
2.7277 -5.0464 -2.5000 0.9753
2.8286 -4.9904 -2.5000 0.9753
2.9285 -4.9324 -2.4999 0.9753
3.1245 -4.8103 -2.4998 0.9753
3.5918 -4.4717 -2.4997 0.9753
3.6810 -4.3984 -2.4996 0.9753
3.7687 -4.3234 -2.4996 0.9753
4.0226 -4.0879 -2.4995 0.9753
4.1838 -3.9226 -2.4994 0.9753
4.2618 -3.8375 -2.4994 0.9753
4.3382 -3.7509 -2.4994 0.9753
4.4127 -3.6628 -2.4993 0.9753
4.5565 -3.4821 -2.4993 0.9753
4.7582 -3.2007 -2.4992 0.9753
4.8216 -3.1042 -2.4992 0.9753
4.9426 -2.9076 -2.4991 0.9753
5.0001 -2.8075 -2.4991 0.9753
5.0555 -2.7063 -2.4991 0.9753
5.2095 -2.3962 -2.4991 0.9753
5.3017 -2.1845 -2.4990 0.9753
5.3446 -2.0774 -2.4990 0.9753
5.3853 -1.9694 -2.4990 0.9753
5.4238 -1.8606 -2.4990 0.9753
5.4602 -1.7510 -2.4990 0.9753
5.4943 -1.6408 -2.4990 0.9753
5.5833 -1.3061 -2.4990 0.9753
5.6519 -0.9668 -2.4990 0.9753
5.6702 -0.8529 -2.4990 0.9753
5.7000 -0.6239 -2.4990 0.9753
5.7205 -0.3940 -2.4990 0.9753
5.7339 -0.0480 -2.4990 0.9753
5.7313 0.1828 -2.4991 0.9753
5.7193 0.4133 -2.4991 0.9753
5.7099 0.5284 -2.4991 0.9753
5.6981 0.6432 -2.4991 0.9753
5.6841 0.7578 -2.4991 0.9753
5.6677 0.8720 -2.4991 0.9753
5.6281 1.0995 -2.4992 0.9753
5.6049 1.2125 -2.4992 0.9753
5.5794 1.3251 -2.4992 0.9753
5.5216 1.5487 -2.4993 0.9753
5.4894 1.6595 -2.4993 0.9753
5.4550 1.7697 -2.4993 0.9753
5.4183 1.8791 -2.4994 0.9753
5.3794 1.9878 -2.4994 0.9753
5.3384 2.0957 -2.4994 0.9753
5.2499 2.3089 -2.4995 0.9753
5.2024 2.4142 -2.4995 0.9753
5.1011 2.6217 -2.4996 0.9753
4.8122 3.1212 -2.4998 0.9753
4.7485 3.2175 -2.4998 0.9753
4.3267 3.7666 -2.5001 0.9753
4.1718 3.9378 -2.5002 0.9753
4.0100 4.1027 -2.5003 0.9753
3.8418 4.2609 -2.5004 0.9753
3.7553 4.3375 -2.5004 0.9753
3.5779 4.4853 -2.5005 0.9753
3.4869 4.5565 -2.5006 0.9753
3.3946 4.6259 -2.5006 0.9753
3.3008 4.6934 -2.5007 0.9753
3.2058 4.7589 -2.5007 0.9753
3.1094 4.8226 -2.5008 0.9753
3.0117 4.8843 -2.5008 0.9753
2.8128 5.0018 -2.5009 0.9753
2.7116 5.0575 -2.5010 0.9753
2.6093 5.1112 -2.5010 0.9753
2.4016 5.2123 -2.5011 0.9753
2.2963 5.2597 -2.5012 0.9753
2.0828 5.3481 -2.5013 0.9753
1.9748 5.3891 -2.5014 0.9753
1.4235 5.5608 -2.5017 0.9753
1.3113 5.5885 -2.5017 0.9753
1.1985 5.6139 -2.5018 0.9753
1.0853 5.6370 -2.5018 0.9753
0.9717 5.6578 -2.5019 0.9753
0.8576 5.6764 -2.5019 0.9753
0.7432 5.6926 -2.5020 0.9753
0.5135 5.7182 -2.5021 0.9753
0.1674 5.7391 -2.5023 0.9753
0.0519 5.7415 -2.5023 0.9753
-0.0637 5.7415 -2.5024 0.9753
-0.2947 5.7345 -2.5025 0.9753
-0.4101 5.7275 -2.5026 0.9753
-0.6403 5.7067 -2.5027 0.9753
-0.8695 5.6765 -2.5028 0.9753
-0.9836 5.6580 -2.5028 0.9753
-1.3234 5.5886 -2.5030 0.9753
-1.5474 5.5311 -2.5031 0.9753
-1.6584 5.4989 -2.5031 0.9753
-1.7688 5.4646 -2.5032 0.9752
-1.9874 5.3891 -2.5033 0.9752
-2.2028 5.3050 -2.5034 0.9752
-2.6225 5.1110 -2.5036 0.9752
-2.9264 4.9437 -2.5037 0.9752
-3.1231 4.8221 -2.5038 0.9752
-3.2195 4.7583 -2.5038 0.9752
-3.3147 4.6926 -2.5039 0.9752
-3.4086 4.6250 -2.5039 0.9752
-3.5921 4.4842 -2.5040 0.9752
-3.6816 4.4110 -2.5040 0.9752
-3.7697 4.3361 -2.5041 0.9752
-3.8563 4.2594 -2.5041 0.9752
-3.9413 4.1810 -2.5041 0.9752
-4.1866 3.9356 -2.5042 0.9752
-4.2651 3.8506 -2.5043 0.9752
-4.3417 3.7640 -2.5043 0.9752
-4.5611 3.4952 -2.5044 0.9752
-4.6982 3.3089 -2.5044 0.9752
-4.8895 3.0194 -2.5045 0.9752
-4.9493 2.9204 -2.5045 0.9752
-5.0629 2.7188 -2.5045 0.9752
-5.1167 2.6164 -2.5046 0.9752
-5.1683 2.5129 -2.5046 0.9752
-5.2179 2.4084 -2.5046 0.9752
-5.2653 2.3029 -2.5046 0.9752
-5.3106 2.1964 -2.5046 0.9752
-5.3948 1.9809 -2.5046 0.9752
-5.4336 1.8719 -2.5046 0.9752
-5.6196 1.2036 -2.5047 0.9752
-5.6635 0.9765 -2.5047 0.9752
-5.6982 0.7477 -2.5047 0.9752
-5.7121 0.6329 -2.5047 0.9752
-5.7329 0.4025 -2.5046 0.9752
-5.7398 0.2870 -2.5046 0.9752
-5.7466 -0.0600 -2.5046 0.9752
-5.4045 0.2559 -2.5045 0.9764
-5.4086 0.1470 -2.5045 0.9764
-5.4100 -0.0708 -2.5044 0.9764
-5.4075 -0.1796 -2.5044 0.9764
-5.3958 -0.3971 -2.5044 0.9764
-5.3754 -0.6140 -2.5044 0.9764
-5.3463 -0.8298 -2.5043 0.9764
-5.3085 -1.0443 -2.5043 0.9764
-5.2620 -1.2571 -2.5043 0.9764
-5.1764 -1.5724 -2.5042 0.9764
-5.1088 -1.7794 -2.5041 0.9764
-5.0719 -1.8818 -2.5041 0.9764
-4.8079 -2.4790 -2.5039 0.9764
-4.7570 -2.5753 -2.5039 0.9764
-4.5927 -2.8576 -2.5038 0.9764
-4.5342 -2.9494 -2.5037 0.9764
-4.4116 -3.1294 -2.5037 0.9764
-4.3477 -3.2175 -2.5036 0.9764
-4.2145 -3.3898 -2.5035 0.9764
-4.1454 -3.4739 -2.5035 0.9764
-3.8523 -3.7958 -2.5033 0.9764
-3.7750 -3.8725 -2.5033 0.9764
-3.4510 -4.1633 -2.5031 0.9764
-3.2806 -4.2986 -2.5030 0.9764
-3.1933 -4.3637 -2.5030 0.9764
-2.8317 -4.6060 -2.5028 0.9764
-2.7384 -4.6620 -2.5027 0.9765
-2.4519 -4.8185 -2.5026 0.9765
-2.3544 -4.8668 -2.5025 0.9765
-2.1565 -4.9574 -2.5024 0.9765
-1.9551 -5.0399 -2.5023 0.9765
-1.8532 -5.0782 -2.5022 0.9765
-1.7506 -5.1143 -2.5022 0.9765
-1.6473 -5.1484 -2.5021 0.9765
-1.5433 -5.1804 -2.5021 0.9765
-1.4387 -5.2103 -2.5020 0.9765
-1.2277 -5.2638 -2.5019 0.9765
-1.1215 -5.2873 -2.5019 0.9765
-0.6925 -5.3599 -2.5017 0.9765
-0.3678 -5.3916 -2.5015 0.9765
-0.2592 -5.3978 -2.5014 0.9765
-0.0417 -5.4036 -2.5013 0.9765
0.0671 -5.4033 -2.5013 0.9765
0.2845 -5.3959 -2.5012 0.9765
0.3930 -5.3890 -2.5011 0.9765
0.5014 -5.3799 -2.5011 0.9765
0.6096 -5.3686 -2.5010 0.9765
0.9325 -5.3217 -2.5009 0.9765
1.1458 -5.2797 -2.5008 0.9765
1.2518 -5.2554 -2.5007 0.9765
1.7734 -5.1025 -2.5005 0.9765
2.0780 -4.9859 -2.5003 0.9765
2.1779 -4.9430 -2.5003 0.9765
2.2769 -4.8981 -2.5003 0.9765
2.4721 -4.8023 -2.5002 0.9765
3.0325 -4.4691 -2.4999 0.9765
3.2098 -4.3432 -2.4998 0.9765
3.2965 -4.2777 -2.4998 0.9765
3.4659 -4.1414 -2.4997 0.9765
3.7094 -3.9245 -2.4996 0.9765
3.9393 -3.6934 -2.4996 0.9765
4.0129 -3.6133 -2.4995 0.9765
4.1549 -3.4488 -2.4995 0.9765
4.2235 -3.3644 -2.4994 0.9765
4.2903 -3.2787 -2.4994 0.9765
4.4187 -3.1033 -2.4994 0.9765
4.5399 -2.9229 -2.4993 0.9765
4.5978 -2.8309 -2.4993 0.9765
4.6538 -2.7378 -2.4993 0.9765
4.9496 -2.1570 -2.4992 0.9765
5.1070 -1.7519 -2.4992 0.9765
5.1733 -1.5449 -2.4992 0.9765
5.2034 -1.4405 -2.4992 0.9765
5.2313 -1.3354 -2.4992 0.9765
5.3024 -1.0173 -2.4991 0.9765
5.3218 -0.9103 -2.4991 0.9765
5.3390 -0.8030 -2.4991 0.9765
5.3541 -0.6954 -2.4992 0.9765
5.3670 -0.5875 -2.4992 0.9765
5.3778 -0.4793 -2.4992 0.9765
5.3990 -0.0452 -2.4992 0.9765
5.3988 0.0635 -2.4992 0.9765
5.3965 0.1721 -2.4992 0.9765
5.3763 0.4975 -2.4993 0.9765
5.3190 0.9283 -2.4993 0.9765
5.2273 1.3532 -2.4994 0.9765
5.1687 1.5625 -2.4995 0.9765
5.1363 1.6663 -2.4995 0.9765
5.1017 1.7693 -2.4995 0.9765
5.0265 1.9733 -2.4996 0.9765
4.9858 2.0741 -2.4996 0.9765
4.8031 2.4685 -2.4997 0.9765
4.7000 2.6599 -2.4998 0.9765
4.6455 2.7540 -2.4998 0.9765
4.5892 2.8470 -2.4999 0.9765
4.3456 3.2071 -2.5000 0.9765
4.2803 3.2940 -2.5000 0.9765
4.1444 3.4637 -2.5001 0.9765
3.8526 3.7861 -2.5003 0.9765
3.7757 3.8629 -2.5003 0.9765
3.6173 4.0119 -2.5004 0.9765
3.5358 4.0840 -2.5005 0.9765
3.4530 4.1544 -2.5005 0.9765
3.2831 4.2902 -2.5006 0.9765
3.1961 4.3555 -2.5007 0.9765
3.1079 4.4190 -2.5007 0.9765
3.0184 4.4808 -2.5008 0.9765
2.8357 4.5988 -2.5009 0.9765
2.7426 4.6551 -2.5009 0.9765
2.6484 4.7094 -2.5010 0.9765
2.4568 4.8124 -2.5011 0.9765
2.1620 4.9522 -2.5012 0.9765
2.0619 4.9948 -2.5013 0.9765
1.9610 5.0354 -2.5013 0.9765
1.6537 5.1449 -2.5015 0.9765
1.4453 5.2075 -2.5016 0.9765
1.3402 5.2357 -2.5017 0.9765
1.1284 5.2856 -2.5018 0.9765
1.0219 5.3074 -2.5018 0.9765
0.9148 5.3270 -2.5019 0.9765
0.8074 5.3444 -2.5019 0.9765
0.6997 5.3597 -2.5020 0.9765
0.4834 5.3838 -2.5021 0.9765
0.3750 5.3925 -2.5021 0.9765
0.2664 5.3991 -2.5022 0.9765
0.1576 5.4035 -2.5023 0.9765
0.0489 5.4057 -2.5023 0.9765
-0.0600 5.4057 -2.5024 0.9765
-0.2775 5.3991 -2.5025 0.9765
-0.3861 5.3925 -2.5025 0.9765
-0.6029 5.3728 -2.5026 0.9765
-0.7109 5.3597 -2.5027 0.9765
-0.8187 5.3445 -2.5027 0.9764
-0.9261 5.3270 -2.5028 0.9764
-1.0332 5.3074 -2.5028 0.9764
-1.1398 5.2856 -2.5029 0.9764
-1.5614 5.1772 -2.5031 0.9764
-1.6653 5.1448 -2.5031 0.9764
-1.9729 5.0352 -2.5033 0.9764
-2.5655 4.7613 -2.5035 0.9764
-2.7551 4.6544 -2.5036 0.9764
-2.9403 4.5399 -2.5037 0.9764
-3.0311 4.4798 -2.5037 0.9764
-3.1207 4.4179 -2.5038 0.9764
-3.7106 3.9363 -2.5040 0.9764
-3.7892 3.8608 -2.5040 0.9764
-4.0154 3.6252 -2.5041 0.9764
-4.0876 3.5437 -2.5041 0.9764
-4.1582 3.4608 -2.5042 0.9764
-4.2942 3.2907 -2.5042 0.9764
-4.3596 3.2036 -2.5042 0.9764
-4.4851 3.0256 -2.5043 0.9764
-4.6596 2.7494 -2.5043 0.9764
-4.7140 2.6551 -2.5044 0.9764
-4.7666 2.5597 -2.5044 0.9764
-4.9124 2.2674 -2.5044 0.9764
-4.9998 2.0678 -2.5044 0.9764
-5.0404 1.9668 -2.5045 0.9764
-5.1823 1.5550 -2.5045 0.9764
-5.2126 1.4504 -2.5045 0.9764
-5.2407 1.3452 -2.5045 0.9764
-5.3124 1.0264 -2.5045 0.9764
-5.3320 0.9193 -2.5045 0.9764
-5.3494 0.8118 -2.5045 0.9764
-5.3886 0.4875 -2.5045 0.9764
-5.4038 0.2702 -2.5045 0.9764
-5.0997 0.2414 -2.5043 0.9775
-5.1035 0.1388 -2.5043 0.9775
-5.1052 0.0360 -2.5043 0.9775
-5.1049 -0.0668 -2.5043 0.9775
-5.1025 -0.1695 -2.5043 0.9775
-5.0981 -0.2722 -2.5043 0.9775
-5.0915 -0.3747 -2.5043 0.9775
-5.0595 -0.6813 -2.5042 0.9775
-5.0091 -0.9854 -2.5042 0.9775
-4.9653 -1.1862 -2.5041 0.9775
-4.9403 -1.2859 -2.5041 0.9775
-4.9134 -1.3851 -2.5041 0.9775
-4.8536 -1.5817 -2.5040 0.9775
-4.8207 -1.6790 -2.5040 0.9775
-4.7859 -1.7757 -2.5040 0.9775
-4.7491 -1.8717 -2.5040 0.9775
-4.6274 -2.1548 -2.5039 0.9775
-4.4887 -2.4301 -2.5038 0.9775
-4.3872 -2.6087 -2.5037 0.9775
-4.3337 -2.6964 -2.5037 0.9775
-4.1025 -3.0361 -2.5035 0.9775
-3.9769 -3.1987 -2.5035 0.9775
-3.9117 -3.2780 -2.5034 0.9775
-3.8448 -3.3560 -2.5034 0.9775
-3.7764 -3.4327 -2.5033 0.9775
-3.5622 -3.6542 -2.5032 0.9775
-3.3350 -3.8623 -2.5031 0.9775
-3.2565 -3.9286 -2.5030 0.9775
-3.1767 -3.9933 -2.5030 0.9775
-3.0956 -4.0563 -2.5029 0.9775
-2.4949 -4.4503 -2.5026 0.9775
-2.4048 -4.4995 -2.5026 0.9775
-2.3137 -4.5469 -2.5025 0.9775
-2.2217 -4.5925 -2.5025 0.9775
-1.9403 -4.7179 -2.5023 0.9775
-1.8449 -4.7559 -2.5023 0.9775
-1.7488 -4.7920 -2.5022 0.9775
-1.1586 -4.9672 -2.5019 0.9775
-0.8566 -5.0277 -2.5018 0.9775
-0.7552 -5.0439 -2.5017 0.9775
-0.6535 -5.0579 -2.5017 0.9775
-0.5516 -5.0700 -2.5016 0.9775
-0.4494 -5.0799 -2.5016 0.9775
-0.0394 -5.0992 -2.5014 0.9775
0.0633 -5.0989 -2.5013 0.9775
0.1659 -5.0965 -2.5013 0.9775
0.2685 -5.0920 -2.5012 0.9775
0.4732 -5.0769 -2.5011 0.9775
0.5753 -5.0662 -2.5011 0.9775
0.8799 -5.0220 -2.5009 0.9775
0.9808 -5.0031 -2.5009 0.9775
1.1813 -4.9594 -2.5008 0.9775
1.3799 -4.9077 -2.5007 0.9775
1.4784 -4.8788 -2.5006 0.9775
1.6735 -4.8152 -2.5006 0.9775
1.7701 -4.7804 -2.5005 0.9775
2.0553 -4.6647 -2.5004 0.9775
2.2413 -4.5780 -2.5003 0.9775
2.3329 -4.5319 -2.5003 0.9775
2.4237 -4.4840 -2.5002 0.9775
2.6897 -4.3293 -2.5001 0.9775
2.8617 -4.2174 -2.5000 0.9775
2.9460 -4.1589 -2.5000 0.9775
3.0291 -4.0987 -2.5000 0.9775
3.1109 -4.0368 -2.4999 0.9775
3.1915 -3.9733 -2.4999 0.9775
3.2708 -3.9083 -2.4999 0.9776
3.3487 -3.8416 -2.4998 0.9776
3.5006 -3.7036 -2.4998 0.9776
3.5743 -3.6323 -2.4997 0.9776
3.6467 -3.5596 -2.4997 0.9776
3.7176 -3.4855 -2.4997 0.9776
3.7869 -3.4099 -2.4997 0.9776
3.8548 -3.3329 -2.4996 0.9776
3.9210 -3.2546 -2.4996 0.9776
3.9857 -3.1750 -2.4996 0.9776
4.0488 -3.0941 -2.4996 0.9776
4.1102 -3.0120 -2.4995 0.9776
4.1700 -2.9286 -2.4995 0.9776
4.2280 -2.8441 -2.4995 0.9776
4.2844 -2.7584 -2.4995 0.9776
4.3919 -2.5836 -2.4994 0.9776
4.4430 -2.4947 -2.4994 0.9776
4.4922 -2.4047 -2.4994 0.9776
4.6291 -2.1292 -2.4994 0.9776
4.7491 -1.8459 -2.4993 0.9776
4.7853 -1.7500 -2.4993 0.9776
4.8518 -1.5559 -2.4993 0.9776
4.8821 -1.4579 -2.4993 0.9776
4.9105 -1.3594 -2.4993 0.9776
4.9369 -1.2603 -2.4993 0.9776
5.0385 -0.7578 -2.4993 0.9776
5.0832 -0.3501 -2.4993 0.9776
5.0892 -0.2477 -2.4993 0.9776
5.0932 -0.1452 -2.4993 0.9776
5.0951 -0.0427 -2.4993 0.9776
5.0927 0.1624 -2.4994 0.9776
5.0884 0.2649 -2.4994 0.9776
5.0821 0.3673 -2.4994 0.9776
5.0737 0.4695 -2.4994 0.9776
5.0507 0.6733 -2.4994 0.9776
5.0362 0.7749 -2.4994 0.9776
5.0196 0.8761 -2.4995 0.9776
4.9804 1.0774 -2.4995 0.9776
4.9577 1.1775 -2.4995 0.9776
4.9330 1.2770 -2.4995 0.9776
4.8471 1.5725 -2.4996 0.9776
4.8145 1.6697 -2.4996 0.9776
4.7800 1.7663 -2.4997 0.9776
4.7435 1.8622 -2.4997 0.9776
4.5786 2.2378 -2.4998 0.9776
4.4849 2.4203 -2.4999 0.9776
4.2193 2.8589 -2.5000 0.9775
4.1610 2.9433 -2.5001 0.9775
4.1009 3.0265 -2.5001 0.9775
3.9759 3.1892 -2.5002 0.9775
3.8445 3.3468 -2.5003 0.9775
3.7764 3.4235 -2.5003 0.9775
3.7068 3.4989 -2.5003 0.9775
3.4890 3.7164 -2.5005 0.9775
3.3367 3.8540 -2.5006 0.9775
3.2585 3.9204 -2.5006 0.9775
3.1790 3.9853 -2.5006 0.9775
3.0161 4.1102 -2.5007 0.9775
2.9329 4.1701 -2.5008 0.9775
2.7627 4.2850 -2.5009 0.9775
2.6760 4.3398 -2.5009 0.9775
2.4093 4.4936 -2.5011 0.9775
2.3184 4.5413 -2.5011 0.9775
2.2266 4.5871 -2.5012 0.9775
2.1338 4.6311 -2.5012 0.9775
2.0402 4.6732 -2.5013 0.9775
1.9458 4.7134 -2.5013 0.9775
1.7546 4.7881 -2.5014 0.9775
1.6579 4.8226 -2.5015 0.9775
1.5605 4.8551 -2.5015 0.9775
1.4625 4.8856 -2.5016 0.9775
1.3639 4.9141 -2.5016 0.9775
1.2647 4.9407 -2.5017 0.9775
1.1650 4.9653 -2.5017 0.9775
1.0649 4.9878 -2.5018 0.9775
0.6603 5.0577 -2.5020 0.9775
0.5584 5.0701 -2.5020 0.9775
0.2514 5.0948 -2.5022 0.9775
0.1488 5.0990 -2.5022 0.9775
0.0461 5.1010 -2.5023 0.9775
-0.0566 5.1010 -2.5023 0.9775
-0.3644 5.0886 -2.5025 0.9775
-0.4667 5.0803 -2.5025 0.9775
-0.5689 5.0700 -2.5026 0.9775
-0.7725 5.0432 -2.5027 0.9775
-0.8739 5.0267 -2.5027 0.9775
-0.9749 5.0082 -2.5028 0.9775
-1.1758 4.9651 -2.5029 0.9775
-1.3747 4.9139 -2.5030 0.9775
-1.4734 4.8854 -2.5030 0.9775
-1.9570 4.7130 -2.5032 0.9775
-2.2379 4.5865 -2.5033 0.9775
-2.5998 4.3919 -2.5035 0.9775
-2.6877 4.3388 -2.5035 0.9775
-2.8602 4.2272 -2.5036 0.9775
-2.9448 4.1689 -2.5036 0.9775
-3.1103 4.0471 -2.5037 0.9775
-3.2707 3.9187 -2.5038 0.9775
-3.5014 3.7143 -2.5039 0.9775
-3.6481 3.5704 -2.5039 0.9775
-3.7890 3.4208 -2.5040 0.9775
-3.8571 3.3439 -2.5040 0.9775
-3.9237 3.2656 -2.5040 0.9775
-3.9886 3.1860 -2.5041 0.9775
-4.1137 3.0229 -2.5041 0.9775
-4.1738 2.9395 -2.5041 0.9775
-4.2321 2.8549 -2.5041 0.9775
-4.3437 2.6823 -2.5042 0.9775
-4.4977 2.4153 -2.5042 0.9775
-4.6354 2.1395 -2.5043 0.9775
-4.7178 1.9512 -2.5043 0.9775
-4.7561 1.8559 -2.5043 0.9775
-4.8900 1.4673 -2.5043 0.9775
-4.9922 1.0692 -2.5043 0.9775
-5.0127 0.9686 -2.5043 0.9775
-5.0312 0.8675 -2.5043 0.9775
-5.0744 0.5622 -2.5043 0.9775
-5.0847 0.4600 -2.5043 0.9775
-5.1051 0.0495 -2.5043 0.9775
-5.1051 -0.0533 -2.5043 0.9775
-4.8217 0.2283 -2.5042 0.9785
-4.8269 0.0340 -2.5042 0.9785
-4.8266 -0.0631 -2.5042 0.9785
-4.8201 -0.2573 -2.5041 0.9785
-4.8058 -0.4511 -2.5041 0.9785
-4.7957 -0.5478 -2.5041 0.9785
-4.7538 -0.8362 -2.5041 0.9785
-4.7360 -0.9317 -2.5040 0.9785
-4.7163 -1.0268 -2.5040 0.9785
-4.6710 -1.2158 -2.5040 0.9785
-4.5579 -1.5875 -2.5039 0.9785
-4.4903 -1.7696 -2.5038 0.9785
-4.4537 -1.8596 -2.5038 0.9785
-4.4153 -1.9489 -2.5038 0.9785
-4.3751 -2.0374 -2.5038 0.9785
-4.2895 -2.2118 -2.5037 0.9785
-4.1480 -2.4665 -2.5036 0.9785
-4.0975 -2.5495 -2.5036 0.9785
-3.9915 -2.7123 -2.5035 0.9785
-3.9360 -2.7920 -2.5035 0.9785
-3.8790 -2.8706 -2.5034 0.9785
-3.5706 -3.2456 -2.5033 0.9785
-3.4370 -3.3866 -2.5032 0.9785
-3.3681 -3.4550 -2.5031 0.9785
-3.2978 -3.5221 -2.5031 0.9785
-2.9269 -3.8353 -2.5029 0.9785
-2.7701 -3.9499 -2.5028 0.9785
-2.6088 -4.0580 -2.5027 0.9785
-2.0128 -4.3836 -2.5024 0.9785
-1.8346 -4.4609 -2.5023 0.9785
-1.7444 -4.4968 -2.5022 0.9785
-1.6535 -4.5309 -2.5022 0.9785
-1.4698 -4.5936 -2.5021 0.9785
-1.2836 -4.6489 -2.5020 0.9785
-1.0954 -4.6966 -2.5019 0.9785
-0.9055 -4.7367 -2.5018 0.9785
-0.7141 -4.7692 -2.5017 0.9785
-0.6179 -4.7825 -2.5017 0.9785
-0.3281 -4.8108 -2.5015 0.9785
-0.2312 -4.8163 -2.5015 0.9785
-0.0372 -4.8215 -2.5014 0.9785
0.3507 -4.8085 -2.5012 0.9785
0.5439 -4.7903 -2.5011 0.9785
0.8320 -4.7485 -2.5010 0.9785
1.0224 -4.7110 -2.5009 0.9785
1.2112 -4.6659 -2.5008 0.9785
1.3979 -4.6132 -2.5007 0.9785
1.5824 -4.5531 -2.5006 0.9785
1.6737 -4.5202 -2.5006 0.9785
1.7643 -4.4855 -2.5005 0.9785
2.1193 -4.3288 -2.5004 0.9785
2.2059 -4.2852 -2.5003 0.9785
2.4604 -4.1441 -2.5002 0.9785
2.6252 -4.0416 -2.5002 0.9785
2.7060 -3.9879 -2.5001 0.9785
2.7856 -3.9325 -2.5001 0.9785
3.0178 -3.7571 -2.5000 0.9785
3.0927 -3.6955 -2.5000 0.9785
3.2389 -3.5680 -2.4999 0.9785
3.3798 -3.4347 -2.4999 0.9785
3.4482 -3.3659 -2.4998 0.9785
3.5153 -3.2958 -2.4998 0.9785
3.8865 -2.8481 -2.4997 0.9785
3.9979 -2.6893 -2.4996 0.9785
4.1029 -2.5262 -2.4996 0.9785
4.1529 -2.4430 -2.4996 0.9785
4.2478 -2.2739 -2.4995 0.9785
4.2927 -2.1879 -2.4995 0.9785
4.3358 -2.1011 -2.4995 0.9785
4.4168 -1.9248 -2.4995 0.9785
4.4547 -1.8355 -2.4995 0.9785
4.4907 -1.7455 -2.4995 0.9785
4.5249 -1.6547 -2.4995 0.9785
4.5573 -1.5633 -2.4995 0.9785
4.5878 -1.4713 -2.4995 0.9785
4.6165 -1.3786 -2.4994 0.9785
4.6682 -1.1917 -2.4994 0.9785
4.6913 -1.0975 -2.4994 0.9785
4.7316 -0.9078 -2.4994 0.9785
4.7893 -0.5242 -2.4994 0.9785
4.8066 -0.3311 -2.4995 0.9785
4.8123 -0.2342 -2.4995 0.9785
4.8160 -0.1373 -2.4995 0.9785
4.8177 0.0566 -2.4995 0.9785
4.8156 0.1536 -2.4995 0.9785
4.8055 0.3473 -2.4995 0.9785
4.7976 0.4439 -2.4995 0.9785
4.7877 0.5404 -2.4995 0.9785
4.7759 0.6367 -2.4996 0.9785
4.6879 1.1134 -2.4996 0.9785
4.6646 1.2075 -2.4997 0.9785
4.6394 1.3012 -2.4997 0.9785
4.5199 1.6702 -2.4998 0.9785
4.4491 1.8508 -2.4998 0.9785
4.4110 1.9400 -2.4999 0.9785
4.3294 2.1160 -2.4999 0.9785
4.1454 2.4575 -2.5000 0.9785
4.0951 2.5405 -2.5001 0.9785
3.9897 2.7033 -2.5001 0.9785
3.9345 2.7831 -2.5002 0.9785
3.6981 3.0907 -2.5003 0.9785
3.5708 3.2372 -2.5004 0.9785
3.4377 3.3784 -2.5005 0.9785
3.2991 3.5141 -2.5005 0.9785
3.1551 3.6442 -2.5006 0.9785
2.8519 3.8864 -2.5008 0.9785
2.7732 3.9431 -2.5008 0.9785
2.6123 4.0517 -2.5009 0.9785
2.5303 4.1035 -2.5010 0.9785
2.2781 4.2490 -2.5011 0.9785
2.1053 4.3374 -2.5012 0.9785
1.9291 4.4187 -2.5013 0.9785
1.6590 4.5274 -2.5014 0.9785
1.5676 4.5599 -2.5015 0.9785
1.4755 4.5907 -2.5015 0.9785
1.2896 4.6465 -2.5016 0.9785
1.1958 4.6716 -2.5017 0.9785
0.9118 4.7355 -2.5018 0.9785
0.8163 4.7530 -2.5019 0.9785
0.7204 4.7686 -2.5019 0.9785
0.1407 4.8212 -2.5022 0.9785
0.0436 4.8231 -2.5023 0.9785
-0.0535 4.8231 -2.5023 0.9785
-0.1506 4.8212 -2.5023 0.9785
-0.3445 4.8114 -2.5024 0.9785
-0.4413 4.8036 -2.5025 0.9785
-0.8263 4.7529 -2.5027 0.9785
-0.9218 4.7354 -2.5027 0.9785
-1.0170 4.7159 -2.5028 0.9785
-1.1117 4.6946 -2.5028 0.9785
-1.2060 4.6713 -2.5028 0.9785
-1.2998 4.6462 -2.5029 0.9785
-1.3931 4.6192 -2.5029 0.9785
-1.5779 4.5595 -2.5030 0.9785
-1.6694 4.5269 -2.5031 0.9785
-2.0282 4.3782 -2.5032 0.9785
-2.3740 4.2011 -2.5034 0.9785
-2.5412 4.1023 -2.5034 0.9785
-2.6233 4.0504 -2.5035 0.9785
-3.0924 3.7051 -2.5037 0.9785
-3.2391 3.5777 -2.5037 0.9785
-3.3105 3.5118 -2.5038 0.9785
-3.3806 3.4445 -2.5038 0.9785
-3.4493 3.3758 -2.5038 0.9785
-3.5824 3.2343 -2.5039 0.9785
-3.7098 3.0876 -2.5039 0.9785
-3.7712 3.0123 -2.5039 0.9785
-3.8311 2.9358 -2.5040 0.9785
-3.8895 2.8581 -2.5040 0.9785
-4.2057 2.3688 -2.5041 0.9785
-4.2525 2.2836 -2.5041 0.9785
-4.3410 2.1107 -2.5041 0.9785
-4.4225 1.9342 -2.5042 0.9785
-4.4968 1.7547 -2.5042 0.9785
-4.5638 1.5723 -2.5042 0.9785
-4.5946 1.4801 -2.5042 0.9785
-4.6234 1.3873 -2.5042 0.9785
-4.6504 1.2940 -2.5042 0.9785
-4.6755 1.2001 -2.5042 0.9785
-4.6988 1.1058 -2.5042 0.9785
-4.7201 1.0110 -2.5042 0.9785
-4.7569 0.8202 -2.5042 0.9785
-4.7725 0.7242 -2.5042 0.9785
-4.7861 0.6280 -2.5042 0.9785
-4.7977 0.5316 -2.5042 0.9785
-4.8249 0.1439 -2.5042 0.9785
-4.8268 -0.0504 -2.5042 0.9785
-4.5615 0.3081 -2.5041 0.9794
-4.5668 0.2162 -2.5041 0.9794
-4.5718 0.0322 -2.5040 0.9794
-4.5694 -0.1518 -2.5040 0.9794
-4.5653 -0.2437 -2.5040 0.9794
-4.5518 -0.4273 -2.5040 0.9794
-4.5422 -0.5188 -2.5040 0.9794
-4.5176 -0.7012 -2.5040 0.9794
-4.4857 -0.8825 -2.5039 0.9794
-4.4670 -0.9726 -2.5039 0.9794
-4.4465 -1.0623 -2.5039 0.9794
-4.4242 -1.1515 -2.5039 0.9794
-4.3742 -1.3287 -2.5038 0.9794
-4.3465 -1.4164 -2.5038 0.9794
-4.3171 -1.5036 -2.5038 0.9794
-4.2859 -1.5902 -2.5038 0.9794
-4.1042 -2.0127 -2.5036 0.9794
-4.0628 -2.0949 -2.5036 0.9794
-3.9751 -2.2566 -2.5035 0.9794
-3.9288 -2.3362 -2.5035 0.9794
-3.8315 -2.4923 -2.5034 0.9794
-3.7805 -2.5689 -2.5034 0.9794
-3.5615 -2.8645 -2.5033 0.9794
-3.5030 -2.9356 -2.5032 0.9794
-3.3193 -3.1415 -2.5031 0.9794
-3.1901 -3.2725 -2.5031 0.9794
-2.9164 -3.5182 -2.5029 0.9794
-2.8449 -3.5762 -2.5029 0.9794
-2.7723 -3.6327 -2.5028 0.9794
-2.6986 -3.6877 -2.5028 0.9794
-2.6238 -3.7412 -2.5027 0.9794
-2.5479 -3.7932 -2.5027 0.9794
-2.3142 -3.9398 -2.5026 0.9794
-2.2344 -3.9855 -2.5025 0.9794
-2.1537 -4.0296 -2.5025 0.9794
-2.0721 -4.0721 -2.5024 0.9794
-1.8225 -4.1895 -2.5023 0.9794
-1.5662 -4.2916 -2.5022 0.9794
-1.3043 -4.3781 -2.5020 0.9794
-1.1269 -4.4269 -2.5020 0.9794
-1.0376 -4.4486 -2.5019 0.9794
-0.8577 -4.4866 -2.5018 0.9794
-0.4025 -4.5496 -2.5016 0.9794
-0.3108 -4.5567 -2.5015 0.9794
-0.0352 -4.5669 -2.5014 0.9794
0.0567 -4.5667 -2.5014 0.9794
0.1486 -4.5645 -2.5013 0.9794
0.3322 -4.5547 -2.5012 0.9794
0.5152 -4.5375 -2.5011 0.9794
0.6064 -4.5261 -2.5011 0.9794
1.0581 -4.4419 -2.5009 0.9794
1.1472 -4.4196 -2.5008 0.9794
1.2359 -4.3955 -2.5008 0.9794
1.3241 -4.3697 -2.5008 0.9794
1.4118 -4.3421 -2.5007 0.9794
1.5854 -4.2816 -2.5006 0.9794
1.7564 -4.2142 -2.5006 0.9794
1.8408 -4.1779 -2.5005 0.9794
2.1708 -4.0161 -2.5004 0.9794
2.2511 -3.9715 -2.5004 0.9794
2.3306 -3.9254 -2.5003 0.9794
2.4091 -3.8776 -2.5003 0.9794
2.5631 -3.7774 -2.5002 0.9794
2.9295 -3.5005 -2.5001 0.9794
2.9994 -3.4408 -2.5000 0.9794
3.0680 -3.3797 -2.5000 0.9794
3.1354 -3.3172 -2.5000 0.9794
3.2015 -3.2534 -2.5000 0.9794
3.2663 -3.1883 -2.4999 0.9794
3.3919 -3.0542 -2.4999 0.9794
3.4526 -2.9853 -2.4999 0.9794
3.5120 -2.9151 -2.4998 0.9794
3.5699 -2.8438 -2.4998 0.9794
3.6814 -2.6978 -2.4998 0.9794
3.7350 -2.6231 -2.4998 0.9794
3.7870 -2.5474 -2.4997 0.9794
3.8375 -2.4706 -2.4997 0.9794
3.8864 -2.3929 -2.4997 0.9794
3.9337 -2.3141 -2.4997 0.9794
3.9795 -2.2345 -2.4997 0.9794
4.1071 -1.9902 -2.4996 0.9794
4.1838 -1.8233 -2.4996 0.9794
4.2196 -1.7387 -2.4996 0.9794
4.2537 -1.6534 -2.4996 0.9794
4.2862 -1.5674 -2.4996 0.9794
4.3168 -1.4808 -2.4996 0.9794
4.3729 -1.3059 -2.4996 0.9794
4.4219 -1.1288 -2.4996 0.9794
4.4638 -0.9499 -2.4996 0.9794
4.4820 -0.8599 -2.4996 0.9794
4.5129 -0.6788 -2.4996 0.9794
4.5366 -0.4966 -2.4996 0.9794
4.5457 -0.4052 -2.4996 0.9794
4.5529 -0.3136 -2.4996 0.9794
4.5619 -0.1301 -2.4996 0.9794
4.5636 -0.0382 -2.4996 0.9794
4.5615 0.1455 -2.4996 0.9794
4.4960 0.7847 -2.4997 0.9794
4.4793 0.8751 -2.4997 0.9794
4.4608 0.9650 -2.4997 0.9794
4.4406 1.0546 -2.4998 0.9794
4.3689 1.3207 -2.4998 0.9794
4.3123 1.4955 -2.4999 0.9794
4.2814 1.5821 -2.4999 0.9794
4.2487 1.6679 -2.4999 0.9794
4.2143 1.7531 -2.4999 0.9794
4.1404 1.9214 -2.5000 0.9794
4.1009 2.0044 -2.5000 0.9794
3.9266 2.3278 -2.5001 0.9794
3.8790 2.4064 -2.5002 0.9794
3.7791 2.5606 -2.5002 0.9794
3.7268 2.6362 -2.5003 0.9794
3.6731 2.7107 -2.5003 0.9794
