ply
format ascii 1.0
element vertex 1570
property float32 x
property float32 y
property float32 z
property float32 I
end_header
16.1267 -18.4050 -2.3493 0.9063
18.6258 7.7923 -2.3983 0.9219
17.9230 8.3617 -2.3493 0.9234
16.7842 10.4615 -2.3493 0.9234
16.5701 10.7975 -2.3493 0.9234
16.3492 11.1290 -2.3493 0.9234
16.1218 11.4561 -2.3493 0.9234
10.3605 8.3478 -1.5805 0.9478
15.1474 12.7164 -2.3493 0.9234
14.8882 13.0190 -2.3493 0.9234
14.6230 13.3162 -2.3493 0.9234
14.3518 13.6080 -2.3493 0.9234
13.8186 14.2023 -2.3538 0.9233
13.0262 15.1119 -2.3697 0.9228
12.7448 15.4043 -2.3748 0.9226
12.1630 15.9714 -2.3847 0.9223
11.1891 16.6959 -2.3874 0.9222
10.8518 16.9198 -2.3877 0.9222
10.1638 17.3469 -2.3882 0.9222
9.4590 17.7462 -2.3888 0.9222
9.1007 17.9352 -2.3890 0.9222
6.2987 13.0586 -1.7222 0.9433
5.9785 13.0605 -1.7062 0.9438
4.8502 13.3405 -1.6861 0.9444
3.9628 13.3632 -1.6557 0.9454
3.4789 13.7393 -1.6835 0.9445
2.7932 13.2534 -1.6089 0.9469
2.5159 13.2551 -1.6026 0.9471
2.2110 13.0816 -1.5760 0.9480
1.6727 13.0850 -1.5670 0.9483
1.4242 13.2597 -1.5841 0.9477
0.9108 13.6324 -1.6229 0.9465
0.6369 13.6653 -1.6250 0.9464
-0.1901 13.7207 -1.6300 0.9462
-1.5279 13.2779 -1.5876 0.9476
-2.0459 13.1058 -1.5756 0.9480
-2.3175 13.1075 -1.5811 0.9478
-1.8145 9.1798 -1.1115 0.9630
-1.8055 8.2565 -1.0039 0.9665
-1.9244 8.0225 -0.9800 0.9673
-3.5650 13.6440 -1.6751 0.9448
-3.7817 13.3667 -1.6501 0.9456
-3.4891 9.3753 -1.1883 0.9605
-4.1287 9.3276 -1.2117 0.9597
-4.6116 9.3787 -1.2415 0.9588
-5.1588 9.0641 -1.2389 0.9589
-8.3163 13.3325 -1.8666 0.9387
-9.4924 13.3489 -1.9457 0.9361
-9.8856 13.3252 -1.9709 0.9354
-10.1739 13.1517 -1.9751 0.9352
-12.0604 13.7827 -2.1755 0.9289
-12.3926 13.5995 -2.1855 0.9286
-13.2836 13.4472 -2.2453 0.9267
-14.6925 13.1775 -2.3444 0.9236
-15.2435 12.6016 -2.3493 0.9234
-16.6516 10.6719 -2.3493 0.9234
-17.0679 9.9926 -2.3493 0.9234
-17.2657 9.6468 -2.3493 0.9234
-17.9861 8.2259 -2.3493 0.9234
-18.1481 7.8620 -2.3493 0.9234
-18.6897 7.6533 -2.3990 0.9219
-19.5957 7.5671 -2.4952 0.9189
-19.9365 6.7894 -2.5017 0.9187
-20.0692 6.3865 -2.5017 0.9187
-20.1938 5.9810 -2.5017 0.9187
-20.3101 5.5731 -2.5017 0.9187
-20.4183 5.1629 -2.5017 0.9187
-20.6097 4.3363 -2.5017 0.9187
-20.7676 3.5028 -2.5017 0.9187
-20.8339 3.0838 -2.5017 0.9187
-20.8918 2.6635 -2.5017 0.9187
-21.0384 0.9734 -2.5017 0.9187
-21.0606 0.1253 -2.5017 0.9187
-21.0588 -0.2989 -2.5017 0.9187
-21.0023 -1.5701 -2.5017 0.9187
-20.9221 -2.4147 -2.5017 0.9187
-20.8692 -2.8356 -2.5017 0.9187
-20.6598 -4.0907 -2.5017 0.9187
-20.3751 -5.3310 -2.5017 0.9187
-20.1438 -6.1472 -2.5017 0.9187
-19.8799 -6.9535 -2.5017 0.9187
-19.2558 -8.5309 -2.5017 0.9187
-18.8966 -9.2995 -2.5017 0.9187
-18.5067 -10.0531 -2.5017 0.9187
-18.0868 -10.7902 -2.5017 0.9187
-17.6376 -11.5099 -2.5017 0.9187
-17.4022 -11.8629 -2.5017 0.9187
-16.9103 -12.5541 -2.5017 0.9187
-16.6540 -12.8921 -2.5017 0.9187
-15.5623 -14.1907 -2.5017 0.9187
-15.2734 -14.5012 -2.5017 0.9187
-14.3698 -15.3971 -2.5017 0.9187
-14.0567 -15.6835 -2.5017 0.9187
-13.0839 -16.5037 -2.5017 0.9187
-12.4086 -17.0173 -2.5017 0.9187
-12.0633 -17.2637 -2.5017 0.9187
-11.7132 -17.5032 -2.5017 0.9187
-9.9869 -17.0712 -2.3493 0.9234
-9.6001 -17.1956 -2.3394 0.9237
-8.9377 -17.6432 -2.3493 0.9234
-7.8559 -18.1507 -2.3493 0.9234
-7.1185 -18.4524 -2.3493 0.9234
-6.3696 -18.7241 -2.3493 0.9234
-5.9912 -18.8486 -2.3493 0.9234
-4.8419 -19.1760 -2.3493 0.9234
-4.4547 -19.2696 -2.3493 0.9234
-4.0657 -19.3554 -2.3493 0.9234
-3.1621 -18.7857 -2.2629 0.9261
-2.7830 -18.8456 -2.2629 0.9261
-1.6072 -18.6011 -2.2178 0.9276
-0.4822 -18.7135 -2.2236 0.9274
-0.1051 -18.7147 -2.2231 0.9274
1.0270 -18.7182 -2.2268 0.9273
1.7752 -18.6115 -2.2208 0.9275
2.1545 -18.6127 -2.2257 0.9273
2.9187 -18.6150 -2.2382 0.9269
3.6928 -18.6174 -2.2546 0.9264
4.0845 -18.6187 -2.2642 0.9261
4.4796 -18.6199 -2.2749 0.9258
5.6901 -18.6236 -2.3132 0.9246
6.1033 -18.6249 -2.3281 0.9241
6.5220 -18.6262 -2.3442 0.9236
6.9107 -18.5311 -2.3493 0.9234
7.2825 -18.3881 -2.3493 0.9234
7.6514 -18.2377 -2.3493 0.9234
9.0945 -17.5627 -2.3493 0.9234
9.7944 -17.1822 -2.3493 0.9234
10.1385 -16.9814 -2.3493 0.9234
11.1455 -16.3381 -2.3493 0.9234
12.4243 -15.3881 -2.3493 0.9234
12.7317 -15.1347 -2.3493 0.9234
13.0340 -14.8752 -2.3493 0.9234
16.2883 6.8144 -2.5017 0.9312
15.9852 7.4576 -2.4993 0.9312
15.7990 7.7620 -2.4941 0.9314
15.0583 7.7784 -2.4014 0.9338
14.0711 8.7705 -2.3493 0.9352
13.7065 9.3301 -2.3493 0.9352
13.5158 9.6043 -2.3493 0.9352
13.3196 9.8746 -2.3493 0.9352
13.1180 10.1408 -2.3493 0.9352
12.6990 10.6609 -2.3493 0.9352
12.0320 11.4084 -2.3493 0.9352
11.7997 11.6484 -2.3493 0.9352
11.5627 11.8837 -2.3493 0.9352
11.3210 12.1142 -2.3493 0.9352
8.9538 13.9605 -2.3499 0.9352
8.4086 14.3514 -2.3568 0.9350
8.1291 14.5380 -2.3600 0.9349
7.8449 14.7184 -2.3632 0.9348
7.5568 14.8926 -2.3662 0.9348
6.2987 13.0586 -2.0542 0.9431
5.9785 13.0605 -2.0352 0.9436
5.7127 13.1747 -2.0346 0.9436
5.4257 13.2371 -2.0270 0.9438
5.1175 13.2390 -2.0111 0.9443
4.5229 13.2664 -1.9860 0.9449
3.4594 13.6621 -1.9969 0.9447
2.7932 13.2534 -1.9191 0.9468
2.5159 13.2551 -1.9116 0.9470
2.2110 13.0816 -1.8798 0.9478
1.9410 13.0833 -1.8741 0.9480
1.6727 13.0850 -1.8691 0.9481
0.8873 13.2800 -1.8858 0.9476
0.6337 13.5965 -1.9286 0.9465
-0.1841 13.2866 -1.8827 0.9477
-1.5279 13.2779 -1.8938 0.9474
-2.3175 13.1075 -1.8860 0.9476
-1.8145 9.1798 -1.3258 0.9629
-1.9244 8.0225 -1.1689 0.9672
-3.4763 13.3048 -1.9484 0.9460
-4.1702 13.6816 -2.0266 0.9439
-3.0648 9.3739 -1.3974 0.9609
-3.2755 9.3746 -1.4070 0.9607
-3.4891 9.3753 -1.4174 0.9604
-4.3790 9.3780 -1.4665 0.9590
-4.6116 9.3787 -1.4808 0.9587
-4.8490 9.3795 -1.4961 0.9582
-8.7092 13.3556 -2.2591 0.9376
-9.1535 13.4375 -2.3037 0.9364
-9.8791 13.3164 -2.3493 0.9352
-10.4074 12.9077 -2.3493 0.9352
-10.9188 12.4781 -2.3493 0.9352
-11.8877 11.5588 -2.3493 0.9352
-12.1181 11.3171 -2.3493 0.9352
-9.4494 8.1376 -1.7669 0.9509
-12.7794 10.5646 -2.3493 0.9352
-13.1946 10.0413 -2.3493 0.9352
-13.5883 9.5018 -2.3493 0.9352
-13.7769 9.2262 -2.3493 0.9352
-13.9599 8.9468 -2.3493 0.9352
-14.1373 8.6638 -2.3493 0.9352
-14.3089 8.3774 -2.3493 0.9352
-14.6347 7.7943 -2.3493 0.9352
-15.1203 7.6660 -2.4020 0.9338
-15.8577 7.6423 -2.4942 0.9314
-16.2015 7.0187 -2.5017 0.9312
-16.4711 6.3605 -2.5017 0.9312
-16.7139 5.6920 -2.5017 0.9312
-16.9295 5.0142 -2.5017 0.9312
-17.0271 4.6722 -2.5017 0.9312
-17.1178 4.3283 -2.5017 0.9312
-17.3479 3.2867 -2.5017 0.9312
-17.4106 2.9366 -2.5017 0.9312
-17.4662 2.5853 -2.5017 0.9312
-17.5147 2.2330 -2.5017 0.9312
-17.5562 1.8797 -2.5017 0.9312
-17.5904 1.5258 -2.5017 0.9312
-17.6505 0.4607 -2.5017 0.9312
-17.6562 0.1051 -2.5017 0.9312
-17.6547 -0.2506 -2.5017 0.9312
-17.6461 -0.6061 -2.5017 0.9312
-17.6303 -0.9614 -2.5017 0.9312
-17.6074 -1.3163 -2.5017 0.9312
-17.5773 -1.6707 -2.5017 0.9312
-17.4443 -2.7292 -2.5017 0.9312
-17.3858 -3.0799 -2.5017 0.9312
-17.2477 -3.7777 -2.5017 0.9312
-17.1681 -4.1243 -2.5017 0.9312
-16.9880 -4.8124 -2.5017 0.9312
-16.7804 -5.4926 -2.5017 0.9312
-16.4181 -6.4960 -2.5017 0.9312
-15.8420 -7.7963 -2.5017 0.9312
-14.7865 -9.6494 -2.5017 0.9312
-14.3859 -10.2371 -2.5017 0.9312
-14.1768 -10.5248 -2.5017 0.9312
-13.0467 -11.8968 -2.5017 0.9312
-12.5570 -12.4126 -2.5017 0.9312
-12.3045 -12.6630 -2.5017 0.9312
-12.0469 -12.9083 -2.5017 0.9312
-11.7845 -13.1483 -2.5017 0.9312
-11.2454 -13.6122 -2.5017 0.9312
-10.4028 -14.2665 -2.5017 0.9312
-10.1134 -14.4731 -2.5017 0.9312
-9.8198 -14.6739 -2.5017 0.9312
-9.5223 -14.8687 -2.5017 0.9312
-7.7894 -14.6373 -2.3493 0.9352
-6.8912 -15.0810 -2.3493 0.9352
-6.5860 -15.2167 -2.3493 0.9352
-6.2782 -15.3463 -2.3493 0.9352
-5.9679 -15.4696 -2.3493 0.9352
-5.3400 -15.6974 -2.3493 0.9352
-4.7034 -15.8997 -2.3493 0.9352
-4.3822 -15.9913 -2.3493 0.9352
-4.0593 -16.0763 -2.3493 0.9352
-3.7346 -16.1548 -2.3493 0.9352
-2.7522 -16.3508 -2.3493 0.9352
-2.4223 -16.4029 -2.3493 0.9352
-0.0931 -16.5806 -2.3493 0.9352
0.5747 -16.5709 -2.3493 0.9352
1.2416 -16.5342 -2.3493 0.9352
1.9065 -16.4708 -2.3493 0.9352
2.2379 -16.4291 -2.3493 0.9352
2.5684 -16.3807 -2.3493 0.9352
2.8978 -16.3256 -2.3493 0.9352
3.5529 -16.1956 -2.3493 0.9352
4.2023 -16.0394 -2.3493 0.9352
4.5245 -15.9515 -2.3493 0.9352
5.1633 -15.7564 -2.3493 0.9352
4.0110 -11.4550 -1.7197 0.9522
6.1054 -15.4158 -2.3493 0.9352
6.7213 -15.1574 -2.3493 0.9352
7.6244 -14.7238 -2.3493 0.9352
7.9194 -14.5672 -2.3493 0.9352
8.4997 -14.2365 -2.3493 0.9352
8.7847 -14.0624 -2.3493 0.9352
9.0661 -13.8826 -2.3493 0.9352
9.3439 -13.6971 -2.3493 0.9352
9.6179 -13.5062 -2.3493 0.9352
9.8880 -13.3097 -2.3493 0.9352
10.4160 -12.9007 -2.3493 0.9352
10.9271 -12.4707 -2.3493 0.9352
11.4205 -12.0205 -2.3493 0.9352
13.8884 6.1419 -2.5017 0.9403
13.7619 6.4204 -2.5017 0.9403
13.6298 6.6963 -2.5017 0.9403
13.4921 6.9694 -2.5017 0.9403
13.3490 7.2398 -2.5017 0.9403
12.4589 7.7656 -2.4185 0.9422
11.4560 8.4929 -2.3493 0.9438
10.2743 8.2784 -2.1736 0.9479
10.9222 9.1693 -2.3493 0.9438
10.7353 9.3874 -2.3493 0.9438
10.3485 9.8121 -2.3493 0.9438
9.9449 10.2210 -2.3493 0.9438
9.5252 10.6132 -2.3493 0.9438
8.6401 11.3454 -2.3493 0.9438
8.1762 11.6842 -2.3493 0.9438
7.6989 12.0040 -2.3493 0.9438
6.9600 12.4470 -2.3493 0.9438
6.4530 12.7172 -2.3493 0.9438
5.9356 12.9668 -2.3493 0.9438
5.6732 13.0837 -2.3493 0.9438
5.4086 13.1954 -2.3493 0.9438
3.9346 13.2681 -2.2799 0.9454
3.4919 13.7905 -2.3435 0.9440
3.0779 13.2734 -2.2447 0.9463
2.7932 13.2534 -2.2313 0.9466
2.5159 13.2551 -2.2226 0.9468
2.2110 13.0816 -2.1856 0.9476
1.9410 13.0833 -2.1789 0.9478
1.6727 13.0850 -2.1731 0.9479
1.4242 13.2597 -2.1970 0.9474
1.1548 13.2613 -2.1929 0.9475
0.6353 13.6328 -2.2483 0.9462
0.0863 13.7353 -2.2628 0.9458
-0.1842 13.2914 -2.1898 0.9475
-0.7454 13.7527 -2.2689 0.9457
-0.9895 13.2964 -2.1965 0.9474
-1.2573 13.2762 -2.1969 0.9474
-1.5279 13.2779 -2.2018 0.9473
-2.3175 13.1075 -2.1928 0.9475
-1.8144 9.1798 -1.5415 0.9628
-3.4776 13.3096 -2.2662 0.9458
-3.7660 13.3114 -2.2790 0.9455
-4.1579 13.6413 -2.3493 0.9438
-3.4891 9.3753 -1.6480 0.9603
-3.7060 9.3759 -1.6609 0.9600
-4.3790 9.3780 -1.7050 0.9589
-5.1588 9.0641 -1.7181 0.9586
-5.1158 8.5817 -1.6459 0.9603
-8.0287 11.7861 -2.3493 0.9438
-8.4968 11.4532 -2.3493 0.9438
-8.7258 11.2797 -2.3493 0.9438
-9.3911 10.7322 -2.3493 0.9438
-9.6053 10.5408 -2.3493 0.9438
-10.2244 9.9415 -2.3493 0.9438
-10.6165 9.5217 -2.3493 0.9438
-9.4373 8.1272 -2.0517 0.9508
-10.9914 9.0864 -2.3493 0.9438
-11.3484 8.6363 -2.3493 0.9438
-11.6870 8.1723 -2.3493 0.9438
-11.8492 7.9353 -2.3493 0.9438
-12.5197 7.6725 -2.4190 0.9422
-13.0659 7.6496 -2.4942 0.9405
-13.2399 7.3975 -2.4985 0.9404
-13.6802 6.5929 -2.5017 0.9403
-13.8102 6.3161 -2.5017 0.9403
-13.9346 6.0366 -2.5017 0.9403
-14.3753 4.8956 -2.5017 0.9403
-14.4710 4.6050 -2.5017 0.9403
-14.5608 4.3126 -2.5017 0.9403
-14.6447 4.0185 -2.5017 0.9403
-14.8607 3.1267 -2.5017 0.9403
-14.9206 2.8268 -2.5017 0.9403
-15.0224 2.2235 -2.5017 0.9403
-15.0997 1.6167 -2.5017 0.9403
-15.1292 1.3123 -2.5017 0.9403
-15.1698 0.7019 -2.5017 0.9403
-15.1809 0.3962 -2.5017 0.9403
-15.1858 0.0904 -2.5017 0.9403
-15.1635 -0.8269 -2.5017 0.9403
-15.1179 -1.4369 -2.5017 0.9403
-14.9532 -2.6490 -2.5017 0.9403
-14.8968 -2.9496 -2.5017 0.9403
-14.8344 -3.2491 -2.5017 0.9403
-14.7659 -3.5472 -2.5017 0.9403
-14.5248 -4.4325 -2.5017 0.9403
-14.4325 -4.7241 -2.5017 0.9403
-14.3345 -5.0139 -2.5017 0.9403
-13.8844 -6.1512 -2.5017 0.9403
-13.4876 -6.9785 -2.5017 0.9403
-13.0415 -7.7804 -2.5017 0.9403
-12.8822 -8.0415 -2.5017 0.9403
-12.7176 -8.2993 -2.5017 0.9403
-12.3730 -8.8047 -2.5017 0.9403
-11.6243 -9.7720 -2.5017 0.9403
-11.4251 -10.0042 -2.5017 0.9403
-11.2213 -10.2322 -2.5017 0.9403
-10.8001 -10.6759 -2.5017 0.9403
-10.5829 -10.8912 -2.5017 0.9403
-10.1356 -11.3086 -2.5017 0.9403
-9.9058 -11.5104 -2.5017 0.9403
-9.4342 -11.9001 -2.5017 0.9403
-8.9473 -12.2704 -2.5017 0.9403
-8.6983 -12.4481 -2.5017 0.9403
-8.4458 -12.6207 -2.5017 0.9403
-8.1899 -12.7883 -2.5017 0.9403
-7.9307 -12.9506 -2.5017 0.9403
-7.2641 -13.0114 -2.4549 0.9414
-6.7173 -12.6227 -2.3556 0.9437
-6.1870 -12.8489 -2.3493 0.9438
-5.6645 -13.0876 -2.3493 0.9438
-5.1328 -13.3052 -2.3493 0.9438
-4.3199 -13.5908 -2.3493 0.9438
-4.0453 -13.6751 -2.3493 0.9438
-3.7691 -13.7538 -2.3493 0.9438
-2.9316 -13.9563 -2.3493 0.9438
-2.6499 -14.0125 -2.3493 0.9438
-2.3671 -14.0631 -2.3493 0.9438
-1.7988 -14.1470 -2.3493 0.9438
-1.5135 -14.1803 -2.3493 0.9438
-0.0801 -14.2607 -2.3493 0.9438
0.4943 -14.2523 -2.3493 0.9438
0.7813 -14.2395 -2.3493 0.9438
1.9248 -14.1304 -2.3493 0.9438
2.2090 -14.0887 -2.3493 0.9438
2.7746 -13.9883 -2.3493 0.9438
3.0558 -13.9296 -2.3493 0.9438
3.8914 -13.7196 -2.3493 0.9438
4.1670 -13.6385 -2.3493 0.9438
4.4408 -13.5518 -2.3493 0.9438
4.9830 -13.3619 -2.3493 0.9438
5.5171 -13.1504 -2.3493 0.9438
6.0423 -12.9175 -2.3493 0.9438
6.5576 -12.6637 -2.3493 0.9438
7.5555 -12.0948 -2.3493 0.9438
7.7976 -11.9402 -2.3493 0.9438
8.0365 -11.7807 -2.3493 0.9438
8.2722 -11.6165 -2.3493 0.9438
8.5045 -11.4475 -2.3493 0.9438
9.7844 -11.1666 -2.4458 0.9416
10.1896 -11.1670 -2.4904 0.9406
12.2785 5.1368 -2.5017 0.9473
11.9459 5.8690 -2.5017 0.9473
11.8252 6.1084 -2.5017 0.9473
10.9889 7.4802 -2.4986 0.9473
10.4577 7.7529 -2.4469 0.9484
9.5728 8.0364 -2.3493 0.9504
9.4090 8.2277 -2.3493 0.9504
9.2414 8.4155 -2.3493 0.9504
8.8949 8.7808 -2.3493 0.9504
8.3484 9.3020 -2.3493 0.9504
7.3708 10.0943 -2.3493 0.9504
7.1660 10.2406 -2.3493 0.9504
6.7478 10.5210 -2.3493 0.9504
6.1001 10.9093 -2.3493 0.9504
5.8791 11.0299 -2.3493 0.9504
5.4301 11.2578 -2.3493 0.9504
5.2023 11.3648 -2.3493 0.9504
4.7404 11.5652 -2.3493 0.9504
4.5065 11.6583 -2.3493 0.9504
4.0333 11.8303 -2.3493 0.9504
3.7942 11.9091 -2.3493 0.9504
3.0680 12.1166 -2.3493 0.9504
2.0829 12.3242 -2.3493 0.9504
1.5849 12.3981 -2.3493 0.9504
1.3348 12.4275 -2.3493 0.9504
0.5819 12.4854 -2.3493 0.9504
0.0786 12.4987 -2.3493 0.9504
-0.1732 12.4978 -2.3493 0.9504
-0.4249 12.4918 -2.3493 0.9504
-0.6764 12.4806 -2.3493 0.9504
-0.9276 12.4645 -2.3493 0.9504
-1.6787 12.3857 -2.3493 0.9504
-1.9278 12.3494 -2.3493 0.9504
-2.1762 12.3081 -2.3493 0.9504
-1.8060 9.1371 -1.7506 0.9628
-1.8055 8.2565 -1.5886 0.9662
-3.1597 12.0930 -2.3493 0.9504
-3.6442 11.9560 -2.3493 0.9504
-3.8842 11.8801 -2.3493 0.9504
-3.1474 9.0081 -1.7935 0.9619
-3.3391 8.9721 -1.7994 0.9618
-3.5313 8.9338 -1.8056 0.9617
-3.7267 8.8995 -1.8135 0.9615
-3.9270 8.8720 -1.8236 0.9613
-5.2882 11.3252 -2.3493 0.9504
-4.3453 8.8371 -1.8510 0.9607
-4.5617 8.8237 -1.8670 0.9604
-4.7989 8.8414 -1.8909 0.9599
-5.1158 8.5817 -1.8779 0.9602
-6.6150 10.6050 -2.3493 0.9504
-7.4471 10.0382 -2.3493 0.9504
-7.6478 9.8862 -2.3493 0.9504
-8.0397 9.5702 -2.3493 0.9504
-8.2309 9.4063 -2.3493 0.9504
-8.4187 9.2386 -2.3493 0.9504
-8.6030 9.0671 -2.3493 0.9504
-9.3049 8.3454 -2.3493 0.9504
-9.4252 8.1168 -2.3380 0.9506
-9.6334 7.9638 -2.3493 0.9504
-9.7919 7.7682 -2.3493 0.9504
-10.1017 7.6876 -2.3860 0.9496
-10.8786 7.6071 -2.4951 0.9474
-11.3483 6.9547 -2.5017 0.9473
-11.6192 6.4920 -2.5017 0.9473
-11.7476 6.2566 -2.5017 0.9473
-11.8713 6.0187 -2.5017 0.9473
-11.9901 5.7784 -2.5017 0.9473
-12.2131 5.2908 -2.5017 0.9473
-12.3172 5.0438 -2.5017 0.9473
-12.5103 4.5436 -2.5017 0.9473
-12.8354 3.5220 -2.5017 0.9473
-12.9038 3.2628 -2.5017 0.9473
-12.9668 3.0022 -2.5017 0.9473
-13.0772 2.4775 -2.5017 0.9473
-13.2030 1.6833 -2.5017 0.9473
-13.2342 1.4170 -2.5017 0.9473
-13.2601 1.1501 -2.5017 0.9473
-13.3096 0.0792 -2.5017 0.9473
-13.3020 -0.4569 -2.5017 0.9473
-13.1887 -1.7920 -2.5017 0.9473
-12.9417 -3.1090 -2.5017 0.9473
-12.8764 -3.3690 -2.5017 0.9473
-12.7303 -3.8849 -2.5017 0.9473
-12.2752 -5.1451 -2.5017 0.9473
-12.1691 -5.3913 -2.5017 0.9473
-12.0580 -5.6353 -2.5017 0.9473
-11.5654 -6.5875 -2.5017 0.9473
-11.1464 -7.2739 -2.5017 0.9473
-10.9976 -7.4970 -2.5017 0.9473
-10.3586 -8.3578 -2.5017 0.9473
-10.1881 -8.5647 -2.5017 0.9473
-10.0136 -8.7682 -2.5017 0.9473
-9.8349 -8.9681 -2.5017 0.9473
-9.2754 -9.5457 -2.5017 0.9473
-8.6820 -10.0884 -2.5017 0.9473
-7.8419 -10.7544 -2.5017 0.9473
-7.6237 -10.9102 -2.5017 0.9473
-6.7208 -11.4884 -2.5017 0.9473
-6.4881 -11.6214 -2.5017 0.9473
-6.2527 -11.7497 -2.5017 0.9473
-6.0070 -11.8580 -2.4985 0.9473
-5.0818 -11.7414 -2.4048 0.9493
-4.7625 -11.6413 -2.3641 0.9501
-4.0254 -11.8331 -2.3493 0.9504
-3.7862 -11.9118 -2.3493 0.9504
-3.5455 -11.9856 -2.3493 0.9504
-2.8152 -12.1778 -2.3493 0.9504
-1.5766 -12.3992 -2.3493 0.9504
-1.3265 -12.4284 -2.3493 0.9504
-1.0759 -12.4526 -2.3493 0.9504
-0.8249 -12.4718 -2.3493 0.9504
-0.0702 -12.4988 -2.3493 0.9504
0.6847 -12.4802 -2.3493 0.9504
0.9360 -12.4639 -2.3493 0.9504
1.1868 -12.4425 -2.3493 0.9504
1.4372 -12.4161 -2.3493 0.9504
3.1678 -12.0909 -2.3493 0.9504
3.4107 -12.0246 -2.3493 0.9504
3.6522 -11.9535 -2.3493 0.9504
3.8922 -11.8775 -2.3493 0.9504
4.2631 -11.4314 -2.2932 0.9516
4.6024 -11.6208 -2.3493 0.9504
5.2958 -11.3216 -2.3493 0.9504
6.0833 -11.1899 -2.3940 0.9495
6.3753 -11.1841 -2.4197 0.9490
7.2581 -11.1140 -2.4950 0.9474
7.7144 -10.8331 -2.4997 0.9473
7.9373 -10.6841 -2.5017 0.9473
10.8239 4.7867 -2.5017 0.9528
10.6224 5.2187 -2.5017 0.9528
10.1679 6.0567 -2.5017 0.9528
10.0438 6.2603 -2.5017 0.9528
9.9157 6.4613 -2.5017 0.9528
9.6474 6.8554 -2.5017 0.9528
9.5074 7.0483 -2.5017 0.9528
9.2078 7.4190 -2.4995 0.9528
9.0457 7.5939 -2.4965 0.9529
7.7506 7.9657 -2.3493 0.9556
7.5886 8.1202 -2.3493 0.9556
7.2554 8.4193 -2.3493 0.9556
7.0843 8.5637 -2.3493 0.9556
6.9104 8.7046 -2.3493 0.9556
6.3721 9.1061 -2.3493 0.9556
6.0002 9.3553 -2.3493 0.9556
5.8106 9.4743 -2.3493 0.9556
5.0292 9.9112 -2.3493 0.9556
4.8285 10.0105 -2.3493 0.9556
4.6259 10.1057 -2.3493 0.9556
4.2152 10.2838 -2.3493 0.9556
4.0072 10.3666 -2.3493 0.9556
3.7976 10.4452 -2.3493 0.9556
3.5864 10.5196 -2.3493 0.9556
3.3738 10.5897 -2.3493 0.9556
2.7281 10.7741 -2.3493 0.9556
2.5106 10.8269 -2.3493 0.9556
2.2920 10.8753 -2.3493 0.9556
2.0725 10.9192 -2.3493 0.9556
1.8521 10.9588 -2.3493 0.9556
1.4093 11.0245 -2.3493 0.9556
0.9641 11.0723 -2.3493 0.9556
0.7409 11.0895 -2.3493 0.9556
0.0699 11.1139 -2.3493 0.9556
-0.1540 11.1131 -2.3493 0.9556
-0.3778 11.1078 -2.3493 0.9556
-0.6015 11.0979 -2.3493 0.9556
-0.8249 11.0835 -2.3493 0.9556
-1.2706 11.0413 -2.3493 0.9556
-1.8477 9.3478 -2.0142 0.9618
-1.9244 8.0225 -1.7439 0.9668
-3.2404 10.6313 -2.3493 0.9556
-3.4539 10.5639 -2.3493 0.9556
-3.6660 10.4922 -2.3493 0.9556
-4.2929 10.2517 -2.3493 0.9556
-4.7023 10.0704 -2.3493 0.9556
-5.4976 9.6593 -2.3493 0.9556
-5.1158 8.5817 -2.1119 0.9600
-5.8821 9.4301 -2.3493 0.9556
-6.2571 9.1855 -2.3493 0.9556
-6.8005 8.7909 -2.3493 0.9556
-6.9761 8.6521 -2.3493 0.9556
-7.1490 8.5099 -2.3493 0.9556
-7.4859 8.2150 -2.3493 0.9556
-7.6499 8.0626 -2.3493 0.9556
-8.2398 7.6951 -2.3831 0.9550
-9.5606 6.9763 -2.5017 0.9528
-9.8338 6.5856 -2.5017 0.9528
-10.2135 5.9796 -2.5017 0.9528
-10.3319 5.7727 -2.5017 0.9528
-10.5560 5.3519 -2.5017 0.9528
-10.6617 5.1382 -2.5017 0.9528
-10.7630 4.9224 -2.5017 0.9528
-10.8599 4.7047 -2.5017 0.9528
-10.9525 4.4850 -2.5017 0.9528
-11.0406 4.2635 -2.5017 0.9528
-11.2779 3.5889 -2.5017 0.9528
-11.3479 3.3610 -2.5017 0.9528
-11.4741 2.9013 -2.5017 0.9528
-11.5302 2.6696 -2.5017 0.9528
-11.5817 2.4368 -2.5017 0.9528
-11.6284 2.2030 -2.5017 0.9528
-11.7077 1.7329 -2.5017 0.9528
-11.7680 1.2600 -2.5017 0.9528
-11.8092 0.7850 -2.5017 0.9528
-11.8350 0.0704 -2.5017 0.9528
-11.8340 -0.1679 -2.5017 0.9528
-11.8283 -0.4063 -2.5017 0.9528
-11.8023 -0.8823 -2.5017 0.9528
-11.7821 -1.1199 -2.5017 0.9528
-11.6538 -2.0645 -2.5017 0.9528
-11.6098 -2.2988 -2.5017 0.9528
-11.5078 -2.7645 -2.5017 0.9528
-11.4498 -2.9957 -2.5017 0.9528
-11.3872 -3.2257 -2.5017 0.9528
-11.2480 -3.6817 -2.5017 0.9528
-11.0051 -4.3543 -2.5017 0.9528
-10.7221 -5.0110 -2.5017 0.9528
-10.1639 -6.0636 -2.5017 0.9528
-9.6429 -6.8620 -2.5017 0.9528
-9.5028 -7.0548 -2.5017 0.9528
-9.3588 -7.2447 -2.5017 0.9528
-9.0594 -7.6158 -2.5017 0.9528
-8.9041 -7.7967 -2.5017 0.9528
-8.5829 -8.1490 -2.5017 0.9528
-8.0751 -8.6525 -2.5017 0.9528
-7.7201 -8.9707 -2.5017 0.9528
-7.5378 -9.1243 -2.5017 0.9528
-7.3525 -9.2743 -2.5017 0.9528
-6.9731 -9.5629 -2.5017 0.9528
-6.7790 -9.7014 -2.5017 0.9528
-5.9762 -10.2155 -2.5017 0.9528
-5.7693 -10.3338 -2.5017 0.9528
-5.3484 -10.5578 -2.5017 0.9528
-5.1347 -10.6634 -2.5017 0.9528
-4.9188 -10.7646 -2.5017 0.9528
-4.0321 -11.1135 -2.4990 0.9528
-3.8043 -11.1833 -2.4970 0.9529
-3.0835 -11.2521 -2.4662 0.9534
-2.8374 -11.2374 -2.4499 0.9537
-2.3565 -11.2184 -2.4231 0.9542
-2.1212 -11.2170 -2.4131 0.9544
-1.8882 -11.2177 -2.4045 0.9546
-1.6567 -11.2182 -2.3970 0.9547
-0.9693 -11.2188 -2.3803 0.9550
-0.7420 -11.2186 -2.3766 0.9551
-0.5153 -11.2182 -2.3738 0.9551
-0.2890 -11.2177 -2.3720 0.9552
-0.0630 -11.2171 -2.3711 0.9552
0.1629 -11.2162 -2.3711 0.9552
0.6153 -11.2140 -2.3740 0.9551
1.2975 -11.2094 -2.3853 0.9549
1.5266 -11.2075 -2.3909 0.9548
2.2217 -11.2007 -2.4137 0.9544
2.6934 -11.1952 -2.4340 0.9540
2.9323 -11.1921 -2.4456 0.9538
3.6642 -11.1817 -2.4873 0.9530
3.9004 -11.1392 -2.4948 0.9529
4.1261 -11.0640 -2.4960 0.9529
4.3504 -10.9845 -2.4974 0.9528
4.7948 -10.8129 -2.5003 0.9528
5.0145 -10.7204 -2.5017 0.9528
5.2294 -10.6172 -2.5017 0.9528
5.4422 -10.5097 -2.5017 0.9528
5.6528 -10.3979 -2.5017 0.9528
5.8611 -10.2820 -2.5017 0.9528
6.2704 -10.0376 -2.5017 0.9528
6.4713 -9.9093 -2.5017 0.9528
6.6696 -9.7769 -2.5017 0.9528
6.8651 -9.6406 -2.5017 0.9528
7.0579 -9.5004 -2.5017 0.9528
7.2478 -9.3563 -2.5017 0.9528
7.6188 -9.0568 -2.5017 0.9528
7.9774 -8.7426 -2.5017 0.9528
9.7351 4.3051 -2.5017 0.9572
9.6464 4.5004 -2.5017 0.9572
9.5538 4.6937 -2.5017 0.9572
9.4573 4.8852 -2.5017 0.9572
9.3570 5.0747 -2.5017 0.9572
9.2529 5.2621 -2.5017 0.9572
9.1450 5.4474 -2.5017 0.9572
9.0334 5.6305 -2.5017 0.9572
8.9182 5.8113 -2.5017 0.9572
8.7993 5.9898 -2.5017 0.9572
8.6769 6.1658 -2.5017 0.9572
8.2887 6.6785 -2.5017 0.9572
8.1525 6.8441 -2.5017 0.9572
8.0130 7.0070 -2.5017 0.9572
7.8703 7.1669 -2.5017 0.9572
7.7223 7.3221 -2.5011 0.9572
7.2270 7.7333 -2.4876 0.9574
6.6759 7.7469 -2.4035 0.9588
5.8949 8.0729 -2.3493 0.9598
5.7311 8.1900 -2.3493 0.9598
5.2260 8.5212 -2.3493 0.9598
4.7019 8.8212 -2.3493 0.9598
4.5232 8.9142 -2.3493 0.9598
4.1606 9.0891 -2.3493 0.9598
3.7911 9.2493 -2.3493 0.9598
3.6041 9.3238 -2.3493 0.9598
3.4155 9.3945 -2.3493 0.9598
3.2256 9.4613 -2.3493 0.9598
2.6484 9.6389 -2.3493 0.9598
2.4537 9.6903 -2.3493 0.9598
2.2580 9.7377 -2.3493 0.9598
1.8640 9.8208 -2.3493 0.9598
1.6658 9.8563 -2.3493 0.9598
1.0675 9.9389 -2.3493 0.9598
0.8671 9.9584 -2.3493 0.9598
0.6664 9.9739 -2.3493 0.9598
0.2642 9.9926 -2.3493 0.9598
0.0628 9.9959 -2.3493 0.9598
-0.1385 9.9951 -2.3493 0.9598
-1.3425 9.9055 -2.3493 0.9598
-1.5418 9.8765 -2.3493 0.9598
-1.7404 9.8434 -2.3493 0.9598
-1.8477 9.3478 -2.2394 0.9616
-1.9244 8.0225 -1.9390 0.9667
-2.5270 9.6714 -2.3493 0.9598
-2.7213 9.6186 -2.3493 0.9598
-3.2972 9.4367 -2.3493 0.9598
-3.4866 9.3684 -2.3493 0.9598
-3.6746 9.2962 -2.3493 0.9598
-3.8610 9.2204 -2.3493 0.9598
-4.0460 9.1407 -2.3493 0.9598
-4.4108 8.9704 -2.3493 0.9598
-4.5906 8.8797 -2.3493 0.9598
-5.1158 8.5817 -2.3481 0.9598
-5.2904 8.4814 -2.3493 0.9598
-5.4602 8.3731 -2.3493 0.9598
-5.7930 8.1465 -2.3493 0.9598
-6.2744 7.7817 -2.3493 0.9598
-6.4729 7.7050 -2.3651 0.9595
-7.0059 7.6883 -2.4446 0.9582
-7.4640 7.5560 -2.4962 0.9573
-7.6222 7.4113 -2.4986 0.9573
-7.7776 7.2635 -2.5011 0.9572
-8.3391 6.6156 -2.5017 0.9572
-8.5988 6.2744 -2.5017 0.9572
-8.7234 6.1000 -2.5017 0.9572
-8.8445 5.9230 -2.5017 0.9572
-8.9620 5.7437 -2.5017 0.9572
-9.0759 5.5620 -2.5017 0.9572
-9.4941 4.8135 -2.5017 0.9572
-9.6802 4.4272 -2.5017 0.9572
-9.7675 4.2314 -2.5017 0.9572
-10.0763 3.4315 -2.5017 0.9572
-10.1434 3.2279 -2.5017 0.9572
-10.3198 2.6094 -2.5017 0.9572
-10.4964 1.7703 -2.5017 0.9572
-10.5299 1.5586 -2.5017 0.9572
-10.6048 0.9198 -2.5017 0.9572
-10.6410 0.2777 -2.5017 0.9572
-10.6444 0.0633 -2.5017 0.9572
-10.6436 -0.1511 -2.5017 0.9572
-10.6383 -0.3654 -2.5017 0.9572
-10.6150 -0.7936 -2.5017 0.9572
-10.5744 -1.2204 -2.5017 0.9572
-10.3502 -2.4864 -2.5017 0.9572
-10.2980 -2.6944 -2.5017 0.9572
-10.2416 -2.9012 -2.5017 0.9572
-10.1811 -3.1069 -2.5017 0.9572
-10.0477 -3.5144 -2.5017 0.9572
-9.9749 -3.7161 -2.5017 0.9572
-9.8980 -3.9162 -2.5017 0.9572
-9.7323 -4.3117 -2.5017 0.9572
-9.6434 -4.5069 -2.5017 0.9572
-9.5507 -4.7002 -2.5017 0.9572
-9.3537 -5.0810 -2.5017 0.9572
-9.2494 -5.2684 -2.5017 0.9572
-8.1480 -6.8497 -2.5017 0.9572
-8.0084 -7.0124 -2.5017 0.9572
-7.7195 -7.3292 -2.5017 0.9572
-7.4180 -7.6342 -2.5017 0.9572
-7.2628 -7.7820 -2.5017 0.9572
-6.9435 -8.0682 -2.5017 0.9572
-6.7795 -8.2064 -2.5017 0.9572
-6.4435 -8.4728 -2.5017 0.9572
-6.0971 -8.7255 -2.5017 0.9572
-5.9201 -8.8465 -2.5017 0.9572
-5.7407 -8.9639 -2.5017 0.9572
-5.5590 -9.0777 -2.5017 0.9572
-5.3750 -9.1879 -2.5017 0.9572
-5.1889 -9.2943 -2.5017 0.9572
-4.2281 -9.7689 -2.5017 0.9572
-4.0305 -9.8521 -2.5017 0.9572
-3.6304 -10.0064 -2.5017 0.9572
-3.4281 -10.0775 -2.5017 0.9572
-3.2245 -10.1445 -2.5017 0.9572
-3.0195 -10.2074 -2.5017 0.9572
-2.3976 -10.3711 -2.5017 0.9572
-2.1882 -10.4173 -2.5017 0.9572
-1.9779 -10.4592 -2.5017 0.9572
-1.7669 -10.4969 -2.5017 0.9572
-0.7025 -10.6214 -2.5017 0.9572
-0.2742 -10.6411 -2.5017 0.9572
0.3690 -10.6382 -2.5017 0.9572
1.0107 -10.5965 -2.5017 0.9572
1.4367 -10.5472 -2.5017 0.9572
1.6488 -10.5161 -2.5017 0.9572
2.2809 -10.3973 -2.5017 0.9572
2.4899 -10.3493 -2.5017 0.9572
2.9046 -10.2406 -2.5017 0.9572
3.3147 -10.1153 -2.5017 0.9572
3.7194 -9.9736 -2.5017 0.9572
4.7033 -9.5491 -2.5017 0.9572
4.8947 -9.4524 -2.5017 0.9572
5.6396 -9.0278 -2.5017 0.9572
5.8203 -8.9124 -2.5017 0.9572
5.9986 -8.7934 -2.5017 0.9572
6.1745 -8.6708 -2.5017 0.9572
6.3479 -8.5446 -2.5017 0.9572
6.5187 -8.4150 -2.5017 0.9572
6.6869 -8.2821 -2.5017 0.9572
6.8523 -8.1457 -2.5017 0.9572
7.0150 -8.0060 -2.5017 0.9572
7.3318 -7.7170 -2.5017 0.9572
8.9136 3.7291 -2.5017 0.9609
8.8366 3.9079 -2.5017 0.9609
8.7561 4.0850 -2.5017 0.9609
8.4935 4.6064 -2.5017 0.9609
8.3011 4.9447 -2.5017 0.9609
8.0952 5.2750 -2.5017 0.9609
7.9873 5.4370 -2.5017 0.9609
7.7618 5.7543 -2.5017 0.9609
7.4002 6.2125 -2.5017 0.9609
7.1439 6.5055 -2.5017 0.9609
6.8761 6.7879 -2.5017 0.9609
6.5972 7.0594 -2.5017 0.9609
6.3059 7.3174 -2.5011 0.9609
5.9964 7.5533 -2.4970 0.9609
5.4124 7.7346 -2.4442 0.9617
4.9670 7.7444 -2.3822 0.9627
4.5870 7.8288 -2.3493 0.9632
4.4284 7.9196 -2.3493 0.9632
4.2679 8.0072 -2.3493 0.9632
4.1058 8.0915 -2.3493 0.9632
3.9420 8.1725 -2.3493 0.9632
3.6097 8.3247 -2.3493 0.9632
2.9280 8.5882 -2.3493 0.9632
2.7544 8.6454 -2.3493 0.9632
1.5121 8.9467 -2.3493 0.9632
1.3316 8.9754 -2.3493 0.9632
1.1505 9.0004 -2.3493 0.9632
0.9690 9.0217 -2.3493 0.9632
0.7871 9.0394 -2.3493 0.9632
0.6049 9.0534 -2.3493 0.9632
0.4224 9.0638 -2.3493 0.9632
-0.1257 9.0727 -2.3493 0.9632
-0.3084 9.0683 -2.3493 0.9632
-1.2186 8.9914 -2.3493 0.9632
-1.3995 8.9650 -2.3493 0.9632
-1.9383 8.8642 -2.3493 0.9632
-2.8197 8.6244 -2.3493 0.9632
-2.9929 8.5658 -2.3493 0.9632
-3.5047 8.3694 -2.3493 0.9632
-3.8390 8.2215 -2.3493 0.9632
-4.4882 7.8858 -2.3493 0.9632
-4.6461 7.7938 -2.3493 0.9632
-5.0259 7.7072 -2.3823 0.9627
-5.7027 7.6870 -2.4782 0.9612
-5.8965 7.6223 -2.4951 0.9610
-6.3612 7.2696 -2.5011 0.9609
-6.5079 7.1418 -2.5017 0.9609
-7.1930 6.4513 -2.5017 0.9609
-7.3215 6.3051 -2.5017 0.9609
-7.4470 6.1564 -2.5017 0.9609
-7.6889 5.8514 -2.5017 0.9609
-7.9183 5.5370 -2.5017 0.9609
-8.0283 5.3764 -2.5017 0.9609
-8.3383 4.8818 -2.5017 0.9609
-8.5281 4.5420 -2.5017 0.9609
-8.6179 4.3693 -2.5017 0.9609
-8.7042 4.1948 -2.5017 0.9609
-8.9416 3.6615 -2.5017 0.9609
-9.0135 3.4807 -2.5017 0.9609
-9.0818 3.2984 -2.5017 0.9609
-9.1464 3.1148 -2.5017 0.9609
-9.2073 2.9300 -2.5017 0.9609
-9.2644 2.7439 -2.5017 0.9609
-9.4132 2.1794 -2.5017 0.9609
-9.5277 1.6070 -2.5017 0.9609
-9.5581 1.4147 -2.5017 0.9609
-9.6410 0.6409 -2.5017 0.9609
-9.6621 0.0575 -2.5017 0.9609
-9.6565 -0.3317 -2.5017 0.9609
-9.6479 -0.5261 -2.5017 0.9609
-9.6354 -0.7203 -2.5017 0.9609
-9.6189 -0.9142 -2.5017 0.9609
-9.5985 -1.1078 -2.5017 0.9609
-9.5461 -1.4935 -2.5017 0.9609
-9.4782 -1.8767 -2.5017 0.9609
-9.3950 -2.2569 -2.5017 0.9609
-9.3476 -2.4457 -2.5017 0.9609
-9.2964 -2.6335 -2.5017 0.9609
-9.1828 -3.0058 -2.5017 0.9609
-9.1204 -3.1901 -2.5017 0.9609
-9.0543 -3.3731 -2.5017 0.9609
-8.9846 -3.5548 -2.5017 0.9609
-8.9111 -3.7351 -2.5017 0.9609
-8.8341 -3.9138 -2.5017 0.9609
-8.5816 -4.4401 -2.5017 0.9609
-8.4904 -4.6121 -2.5017 0.9609
-8.1964 -5.1164 -2.5017 0.9609
-7.8725 -5.6021 -2.5017 0.9609
-7.5198 -6.0673 -2.5017 0.9609
-7.1396 -6.5104 -2.5017 0.9609
-7.0071 -6.6528 -2.5017 0.9609
-6.8716 -6.7926 -2.5017 0.9609
-6.7334 -6.9296 -2.5017 0.9609
-5.6928 -7.8071 -2.5017 0.9609
-5.0460 -8.2400 -2.5017 0.9609
-4.8790 -8.3399 -2.5017 0.9609
-4.5391 -8.5297 -2.5017 0.9609
-4.1919 -8.7056 -2.5017 0.9609
-4.0157 -8.7882 -2.5017 0.9609
-3.8379 -8.8673 -2.5017 0.9609
-3.6585 -8.9428 -2.5017 0.9609
-2.9269 -9.2083 -2.5017 0.9609
-2.3655 -9.3682 -2.5017 0.9609
-1.9862 -9.4559 -2.5017 0.9609
-1.7954 -9.4940 -2.5017 0.9609
-1.6038 -9.5282 -2.5017 0.9609
-1.0255 -9.6077 -2.5017 0.9609
-0.6377 -9.6412 -2.5017 0.9609
0.1403 -9.6612 -2.5017 0.9609
0.5293 -9.6477 -2.5017 0.9609
0.9175 -9.6186 -2.5017 0.9609
1.3041 -9.5738 -2.5017 0.9609
1.4967 -9.5456 -2.5017 0.9609
1.8799 -9.4776 -2.5017 0.9609
2.0704 -9.4378 -2.5017 0.9609
2.2601 -9.3942 -2.5017 0.9609
2.4488 -9.3467 -2.5017 0.9609
2.8233 -9.2405 -2.5017 0.9609
3.1931 -9.1193 -2.5017 0.9609
3.5578 -8.9833 -2.5017 0.9609
3.9167 -8.8328 -2.5017 0.9609
4.0938 -8.7521 -2.5017 0.9609
4.4430 -8.5801 -2.5017 0.9609
4.7850 -8.3942 -2.5017 0.9609
5.2832 -8.0899 -2.5017 0.9609
5.9171 -7.6384 -2.5017 0.9609
6.2200 -7.3939 -2.5017 0.9609
6.3676 -7.2671 -2.5017 0.9609
6.6551 -7.0048 -2.5017 0.9609
8.1524 3.4106 -2.5017 0.9639
7.7682 4.2130 -2.5017 0.9639
7.5922 4.5225 -2.5017 0.9639
7.4995 4.6745 -2.5017 0.9639
7.4039 4.8246 -2.5017 0.9639
7.2036 5.1188 -2.5017 0.9639
7.0990 5.2629 -2.5017 0.9639
6.9916 5.4048 -2.5017 0.9639
6.8813 5.5445 -2.5017 0.9639
6.7682 5.6820 -2.5017 0.9639
6.6524 5.8171 -2.5017 0.9639
6.5339 5.9500 -2.5017 0.9639
6.2890 6.2083 -2.5017 0.9639
6.1626 6.3337 -2.5017 0.9639
6.0338 6.4565 -2.5017 0.9639
5.9025 6.5767 -2.5017 0.9639
5.7689 6.6943 -2.5017 0.9639
5.6329 6.8091 -2.5017 0.9639
4.7658 7.4306 -2.4990 0.9640
4.3007 7.6912 -2.4946 0.9640
4.1168 7.7236 -2.4777 0.9643
3.5404 7.7343 -2.4080 0.9653
3.3550 7.7375 -2.3875 0.9655
3.1726 7.7404 -2.3682 0.9658
2.9948 7.7473 -2.3514 0.9661
2.8356 7.7993 -2.3493 0.9661
2.5192 7.9071 -2.3493 0.9661
2.1987 8.0022 -2.3493 0.9661
1.8746 8.0842 -2.3493 0.9661
1.7114 8.1204 -2.3493 0.9661
1.3830 8.1827 -2.3493 0.9661
0.8863 8.2513 -2.3493 0.9661
0.7199 8.2675 -2.3493 0.9661
0.5532 8.2803 -2.3493 0.9661
0.3863 8.2897 -2.3493 0.9661
0.2193 8.2958 -2.3493 0.9661
-0.2821 8.2939 -2.3493 0.9661
-0.4491 8.2866 -2.3493 0.9661
-0.7825 8.2618 -2.3493 0.9661
-0.9487 8.2443 -2.3493 0.9661
-1.2800 8.1995 -2.3493 0.9661
-1.4449 8.1720 -2.3493 0.9661
-1.7728 8.1072 -2.3493 0.9661
-2.0979 8.0292 -2.3493 0.9661
-2.2592 7.9853 -2.3493 0.9661
-2.5790 7.8879 -2.3493 0.9661
-2.7373 7.8343 -2.3493 0.9661
-2.8945 7.7776 -2.3493 0.9661
-3.0532 7.7248 -2.3515 0.9661
-3.4137 7.7123 -2.3876 0.9655
-3.5991 7.7078 -2.4082 0.9653
-3.9797 7.6980 -2.4532 0.9646
-4.1754 7.6927 -2.4779 0.9643
-5.2653 7.0973 -2.5017 0.9639
-5.4072 6.9898 -2.5017 0.9639
-5.8194 6.6505 -2.5017 0.9639
-5.9522 6.5319 -2.5017 0.9639
-6.2104 6.2869 -2.5017 0.9639
-6.3358 6.1605 -2.5017 0.9639
-6.5788 5.9004 -2.5017 0.9639
-6.8111 5.6306 -2.5017 0.9639
-6.9231 5.4923 -2.5017 0.9639
-7.4402 4.7684 -2.5017 0.9639
-7.8820 3.9962 -2.5017 0.9639
-7.9608 3.8366 -2.5017 0.9639
-8.1089 3.5129 -2.5017 0.9639
-8.2438 3.1834 -2.5017 0.9639
-8.3062 3.0168 -2.5017 0.9639
-8.3653 2.8488 -2.5017 0.9639
-8.4210 2.6798 -2.5017 0.9639
-8.5221 2.3385 -2.5017 0.9639
-8.6094 1.9933 -2.5017 0.9639
-8.6827 1.6450 -2.5017 0.9639
-8.7140 1.4698 -2.5017 0.9639
-8.8041 0.7637 -2.5017 0.9639
-8.8177 0.5862 -2.5017 0.9639
-8.8341 0.2306 -2.5017 0.9639
-8.8362 -0.1254 -2.5017 0.9639
-8.8240 -0.4812 -2.5017 0.9639
-8.8125 -0.6588 -2.5017 0.9639
-8.7567 -1.1898 -2.5017 0.9639
-8.7309 -1.3659 -2.5017 0.9639
-8.7016 -1.5415 -2.5017 0.9639
-8.5927 -2.0642 -2.5017 0.9639
-8.4523 -2.5794 -2.5017 0.9639
-8.3416 -2.9177 -2.5017 0.9639
-8.2811 -3.0851 -2.5017 0.9639
-8.1501 -3.4161 -2.5017 0.9639
-8.0797 -3.5796 -2.5017 0.9639
-8.0060 -3.7416 -2.5017 0.9639
-7.9290 -3.9021 -2.5017 0.9639
-7.7654 -4.2182 -2.5017 0.9639
-7.4965 -4.6795 -2.5017 0.9639
-7.2002 -5.1237 -2.5017 0.9639
-7.0955 -5.2677 -2.5017 0.9639
-6.7645 -5.6866 -2.5017 0.9639
-6.5299 -5.9544 -2.5017 0.9639
-6.1584 -6.3379 -2.5017 0.9639
-6.0295 -6.4606 -2.5017 0.9639
-5.8982 -6.5808 -2.5017 0.9639
-5.6283 -6.8130 -2.5017 0.9639
-5.4900 -6.9249 -2.5017 0.9639
-5.3494 -7.0341 -2.5017 0.9639
-5.2066 -7.1404 -2.5017 0.9639
-5.0618 -7.2438 -2.5017 0.9639
-4.9148 -7.3443 -2.5017 0.9639
-4.7659 -7.4418 -2.5017 0.9639
-4.4623 -7.6277 -2.5017 0.9639
-4.1515 -7.8013 -2.5017 0.9639
-3.8339 -7.9621 -2.5017 0.9639
-3.6728 -8.0378 -2.5017 0.9639
-3.3461 -8.1791 -2.5017 0.9639
-3.1807 -8.2449 -2.5017 0.9639
-2.8460 -8.3663 -2.5017 0.9639
-2.3356 -8.5229 -2.5017 0.9639
-1.9905 -8.6100 -2.5017 0.9639
-1.8166 -8.6484 -2.5017 0.9639
-1.4668 -8.7145 -2.5017 0.9639
-1.1147 -8.7665 -2.5017 0.9639
-0.9379 -8.7872 -2.5017 0.9639
-0.7607 -8.8043 -2.5017 0.9639
-0.4055 -8.8278 -2.5017 0.9639
-0.0496 -8.8370 -2.5017 0.9639
0.4841 -8.8238 -2.5017 0.9639
0.6618 -8.8123 -2.5017 0.9639
0.8391 -8.7972 -2.5017 0.9639
1.1927 -8.7562 -2.5017 0.9639
1.8936 -8.6318 -2.5017 0.9639
2.0671 -8.5920 -2.5017 0.9639
2.4114 -8.5017 -2.5017 0.9639
2.5822 -8.4514 -2.5017 0.9639
2.7519 -8.3977 -2.5017 0.9639
2.9205 -8.3406 -2.5017 0.9639
3.2540 -8.2162 -2.5017 0.9639
3.4188 -8.1490 -2.5017 0.9639
4.0636 -7.8474 -2.5017 0.9639
4.2208 -7.7639 -2.5017 0.9639
4.5301 -7.5877 -2.5017 0.9639
4.9800 -7.3002 -2.5017 0.9639
5.1261 -7.1984 -2.5017 0.9639
5.2700 -7.0938 -2.5017 0.9639
5.5514 -6.8757 -2.5017 0.9639
5.6888 -6.7625 -2.5017 0.9639
5.8238 -6.6466 -2.5017 0.9639
6.0868 -6.4066 -2.5017 0.9639
7.5034 3.1391 -2.5017 0.9665
7.4387 3.2896 -2.5017 0.9665
7.3001 3.5865 -2.5017 0.9665
7.1498 3.8776 -2.5017 0.9665
6.9878 4.1624 -2.5017 0.9665
6.9025 4.3023 -2.5017 0.9665
6.8145 4.4405 -2.5017 0.9665
6.7236 4.5768 -2.5017 0.9665
6.6301 4.7113 -2.5017 0.9665
6.5339 4.8439 -2.5017 0.9665
6.3335 5.1031 -2.5017 0.9665
6.2294 5.2297 -2.5017 0.9665
6.1228 5.3541 -2.5017 0.9665
5.6720 5.8295 -2.5017 0.9665
5.5535 5.9426 -2.5017 0.9665
5.3096 6.1614 -2.5017 0.9665
5.0572 6.3702 -2.5017 0.9665
4.9279 6.4708 -2.5017 0.9665
4.7965 6.5687 -2.5017 0.9665
4.5281 6.7566 -2.5017 0.9665
4.3911 6.8464 -2.5017 0.9665
4.2523 6.9335 -2.5017 0.9665
4.1118 7.0177 -2.5017 0.9665
3.8258 7.1776 -2.5017 0.9665
3.6805 7.2532 -2.5017 0.9665
3.0796 7.5134 -2.4975 0.9666
2.9265 7.5709 -2.4966 0.9666
2.6173 7.6770 -2.4947 0.9666
2.4580 7.7150 -2.4905 0.9667
2.1209 7.7190 -2.4622 0.9671
1.9550 7.7207 -2.4497 0.9672
1.4662 7.7247 -2.4184 0.9676
1.3057 7.7257 -2.4100 0.9677
1.1463 7.7264 -2.4025 0.9678
0.9878 7.7271 -2.3960 0.9679
0.8300 7.7275 -2.3905 0.9680
0.3602 7.7278 -2.3795 0.9681
-0.2628 7.7258 -2.3777 0.9682
-0.4186 7.7249 -2.3795 0.9681
-0.8885 7.7211 -2.3905 0.9680
-1.0462 7.7195 -2.3961 0.9679
-1.5246 7.7136 -2.4184 0.9676
-1.8491 7.7087 -2.4383 0.9674
-2.0134 7.7059 -2.4498 0.9672
-2.1793 7.7030 -2.4623 0.9671
-2.3469 7.6999 -2.4759 0.9669
-2.8300 7.6043 -2.4956 0.9666
-3.2880 7.4283 -2.4986 0.9666
-3.4384 7.3637 -2.4997 0.9666
-3.5877 7.2963 -2.5008 0.9665
-3.7353 7.2252 -2.5017 0.9665
-3.8800 7.1485 -2.5017 0.9665
-4.1648 6.9864 -2.5017 0.9665
-4.4428 6.8130 -2.5017 0.9665
-4.7136 6.6285 -2.5017 0.9665
-4.9767 6.4334 -2.5017 0.9665
-5.3562 6.1211 -2.5017 0.9665
-5.5983 5.9004 -2.5017 0.9665
-5.7160 5.7864 -2.5017 0.9665
-5.8314 5.6701 -2.5017 0.9665
-5.9444 5.5515 -2.5017 0.9665
-6.0550 5.4307 -2.5017 0.9665
-6.2688 5.1824 -2.5017 0.9665
-6.3720 5.0551 -2.5017 0.9665
-6.4725 4.9257 -2.5017 0.9665
-6.5704 4.7943 -2.5017 0.9665
-6.6656 4.6610 -2.5017 0.9665
-6.7581 4.5258 -2.5017 0.9665
-6.8479 4.3888 -2.5017 0.9665
-7.0191 4.1094 -2.5017 0.9665
-7.1005 3.9672 -2.5017 0.9665
-7.1789 3.8234 -2.5017 0.9665
-7.2545 3.6780 -2.5017 0.9665
-7.3271 3.5312 -2.5017 0.9665
-7.3967 3.3829 -2.5017 0.9665
-7.4634 3.2332 -2.5017 0.9665
-7.5270 3.0822 -2.5017 0.9665
-7.6450 2.7766 -2.5017 0.9665
-7.7506 2.4664 -2.5017 0.9665
-7.8437 2.1523 -2.5017 0.9665
-7.9240 1.8346 -2.5017 0.9665
-8.0203 1.3528 -2.5017 0.9665
-8.0683 1.0286 -2.5017 0.9665
-8.1032 0.7029 -2.5017 0.9665
-8.1309 0.2122 -2.5017 0.9665
-8.1328 -0.1154 -2.5017 0.9665
-8.1110 -0.6064 -2.5017 0.9665
-8.0971 -0.7696 -2.5017 0.9665
-8.0800 -0.9325 -2.5017 0.9665
-7.9787 -1.5798 -2.5017 0.9665
-7.9086 -1.8999 -2.5017 0.9665
-7.8687 -2.0588 -2.5017 0.9665
-7.8257 -2.2169 -2.5017 0.9665
-7.6775 -2.6854 -2.5017 0.9665
-7.6219 -2.8395 -2.5017 0.9665
-7.5631 -2.9924 -2.5017 0.9665
-7.4365 -3.2946 -2.5017 0.9665
-7.2978 -3.5914 -2.5017 0.9665
-7.0675 -4.0256 -2.5017 0.9665
-6.8115 -4.4451 -2.5017 0.9665
-6.6270 -4.7158 -2.5017 0.9665
-6.5307 -4.8483 -2.5017 0.9665
-6.4317 -4.9789 -2.5017 0.9665
-5.7845 -5.7180 -2.5017 0.9665
-5.6682 -5.8333 -2.5017 0.9665
-5.3055 -6.1650 -2.5017 0.9665
-5.0529 -6.3737 -2.5017 0.9665
-4.6588 -6.6672 -2.5017 0.9665
-4.2477 -6.9364 -2.5017 0.9665
-4.1071 -7.0205 -2.5017 0.9665
-3.8210 -7.1802 -2.5017 0.9665
-3.3804 -7.3979 -2.5017 0.9665
-3.2307 -7.4645 -2.5017 0.9665
-3.0797 -7.5280 -2.5017 0.9665
-2.9275 -7.5885 -2.5017 0.9665
-2.7740 -7.6459 -2.5017 0.9665
-2.3072 -7.7995 -2.5017 0.9665
-2.1497 -7.8444 -2.5017 0.9665
-1.6720 -7.9599 -2.5017 0.9665
-1.5113 -7.9920 -2.5017 0.9665
-1.3501 -8.0208 -2.5017 0.9665
-1.0259 -8.0687 -2.5017 0.9665
-0.8632 -8.0877 -2.5017 0.9665
-0.7002 -8.1034 -2.5017 0.9665
0.4456 -8.1214 -2.5017 0.9665
0.7723 -8.0969 -2.5017 0.9665
0.9352 -8.0797 -2.5017 0.9665
1.4215 -8.0084 -2.5017 0.9665
1.5825 -7.9782 -2.5017 0.9665
1.7429 -7.9447 -2.5017 0.9665
1.9025 -7.9080 -2.5017 0.9665
2.0614 -7.8680 -2.5017 0.9665
2.5328 -7.7292 -2.5017 0.9665
2.6880 -7.6766 -2.5017 0.9665
2.9950 -7.5621 -2.5017 0.9665
3.1467 -7.5003 -2.5017 0.9665
3.8848 -7.1459 -2.5017 0.9665
4.0280 -7.0662 -2.5017 0.9665
4.3093 -6.8982 -2.5017 0.9665
4.4473 -6.8100 -2.5017 0.9665
4.5836 -6.7191 -2.5017 0.9665
4.7180 -6.6254 -2.5017 0.9665
4.8505 -6.5290 -2.5017 0.9665
4.9810 -6.4300 -2.5017 0.9665
5.3602 -6.1175 -2.5017 0.9665
5.4824 -6.0083 -2.5017 0.9665
5.6023 -5.8966 -2.5017 0.9665
6.9430 2.9047 -2.5017 0.9688
6.5421 3.7205 -2.5017 0.9688
6.4659 3.8515 -2.5017 0.9688
6.2215 4.2350 -2.5017 0.9688
6.1349 4.3595 -2.5017 0.9688
5.7642 4.8391 -2.5017 0.9688
5.1387 5.4987 -2.5017 0.9688
5.0269 5.6011 -2.5017 0.9688
4.6795 5.8944 -2.5017 0.9688
4.5598 5.9875 -2.5017 0.9688
4.1899 6.2520 -2.5017 0.9688
3.4056 6.7115 -2.5017 0.9688
3.2697 6.7787 -2.5017 0.9688
3.1325 6.8432 -2.5017 0.9688
2.9940 6.9049 -2.5017 0.9688
2.8543 6.9638 -2.5017 0.9688
2.5716 7.0731 -2.5017 0.9688
2.4286 7.1235 -2.5017 0.9688
2.2846 7.1709 -2.5017 0.9688
2.1397 7.2155 -2.5017 0.9688
1.9940 7.2571 -2.5017 0.9688
1.6993 7.3283 -2.5006 0.9688
1.5510 7.3594 -2.5001 0.9688
1.1032 7.4357 -2.4987 0.9688
0.8026 7.4722 -2.4981 0.9688
0.5009 7.4972 -2.4977 0.9688
0.0472 7.5129 -2.4974 0.9688
-0.1041 7.5123 -2.4974 0.9688
-0.2554 7.5088 -2.4974 0.9688
-0.5576 7.4931 -2.4977 0.9688
-0.7085 7.4810 -2.4979 0.9688
-0.8591 7.4659 -2.4981 0.9688
-1.1594 7.4272 -2.4987 0.9688
-1.3090 7.4035 -2.4991 0.9688
-1.4581 7.3769 -2.4996 0.9688
-2.0488 7.2419 -2.5017 0.9688
-2.3388 7.1535 -2.5017 0.9688
-2.4825 7.1049 -2.5017 0.9688
-2.9070 6.9420 -2.5017 0.9688
-3.0462 6.8821 -2.5017 0.9688
-3.3209 6.7538 -2.5017 0.9688
-4.1110 6.3042 -2.5017 0.9688
-4.2371 6.2201 -2.5017 0.9688
-4.3615 6.1335 -2.5017 0.9688
-4.8410 5.7625 -2.5017 0.9688
-4.9561 5.6639 -2.5017 0.9688
-5.2891 5.3542 -2.5017 0.9688
-5.3958 5.2466 -2.5017 0.9688
-5.5004 5.1369 -2.5017 0.9688
-5.6028 5.0250 -2.5017 0.9688
-5.8960 4.6775 -2.5017 0.9688
-5.9891 4.5578 -2.5017 0.9688
-6.0796 4.4363 -2.5017 0.9688
-6.1678 4.3129 -2.5017 0.9688
-6.4170 3.9325 -2.5017 0.9688
-6.4949 3.8025 -2.5017 0.9688
-6.6427 3.5378 -2.5017 0.9688
-6.7798 3.2674 -2.5017 0.9688
-6.9059 2.9917 -2.5017 0.9688
-7.1243 2.4262 -2.5017 0.9688
-7.2163 2.1373 -2.5017 0.9688
-7.3946 1.4009 -2.5017 0.9688
-7.4450 1.1020 -2.5017 0.9688
-7.4657 0.9518 -2.5017 0.9688
-7.4833 0.8012 -2.5017 0.9688
-7.4980 0.6504 -2.5017 0.9688
-7.5095 0.4992 -2.5017 0.9688
-7.5260 0.0448 -2.5017 0.9688
-7.5254 -0.1068 -2.5017 0.9688
-7.5217 -0.2583 -2.5017 0.9688
-7.5052 -0.5611 -2.5017 0.9688
-7.4924 -0.7121 -2.5017 0.9688
-7.4765 -0.8629 -2.5017 0.9688
-7.4357 -1.1633 -2.5017 0.9688
-7.4107 -1.3128 -2.5017 0.9688
-7.3519 -1.6102 -2.5017 0.9688
-7.2810 -1.9050 -2.5017 0.9688
-7.2412 -2.0513 -2.5017 0.9688
-7.1984 -2.1967 -2.5017 0.9688
-7.1527 -2.3412 -2.5017 0.9688
-7.0526 -2.6274 -2.5017 0.9688
-6.9983 -2.7689 -2.5017 0.9688
-6.8811 -3.0485 -2.5017 0.9688
-6.8183 -3.1865 -2.5017 0.9688
-6.6134 -3.5925 -2.5017 0.9688
-6.5397 -3.7249 -2.5017 0.9688
-6.3028 -4.1131 -2.5017 0.9688
-6.2187 -4.2392 -2.5017 0.9688
-6.1320 -4.3636 -2.5017 0.9688
-5.9513 -4.6070 -2.5017 0.9688
-5.7609 -4.8429 -2.5017 0.9688
-5.6622 -4.9580 -2.5017 0.9688
-5.5612 -5.0710 -2.5017 0.9688
-5.4580 -5.1820 -2.5017 0.9688
-5.2448 -5.3976 -2.5017 0.9688
-5.1350 -5.5022 -2.5017 0.9688
-4.9093 -5.7045 -2.5017 0.9688
-4.7934 -5.8022 -2.5017 0.9688
-4.5558 -5.9906 -2.5017 0.9688
-3.9304 -6.4183 -2.5017 0.9688
-3.8003 -6.4962 -2.5017 0.9688
-3.2652 -6.7809 -2.5017 0.9688
-3.1279 -6.8453 -2.5017 0.9688
-2.8497 -6.9657 -2.5017 0.9688
-2.7088 -7.0217 -2.5017 0.9688
-2.5668 -7.0749 -2.5017 0.9688
-2.2798 -7.1725 -2.5017 0.9688
-1.8425 -7.2971 -2.5017 0.9688
-1.6952 -7.3327 -2.5017 0.9688
-1.2492 -7.4217 -2.5017 0.9688
-0.6479 -7.4982 -2.5017 0.9688
-0.4967 -7.5097 -2.5017 0.9688
-0.3453 -7.5182 -2.5017 0.9688
0.1093 -7.5253 -2.5017 0.9688
0.4123 -7.5148 -2.5017 0.9688
0.5636 -7.5050 -2.5017 0.9688
0.7146 -7.4921 -2.5017 0.9688
0.8654 -7.4762 -2.5017 0.9688
1.0158 -7.4572 -2.5017 0.9688
1.1658 -7.4353 -2.5017 0.9688
1.3153 -7.4103 -2.5017 0.9688
1.6127 -7.3513 -2.5017 0.9688
1.7604 -7.3173 -2.5017 0.9688
1.9074 -7.2804 -2.5017 0.9688
2.3436 -7.1519 -2.5017 0.9688
2.4872 -7.1033 -2.5017 0.9688
2.9116 -6.9401 -2.5017 0.9688
3.0508 -6.8800 -2.5017 0.9688
3.1888 -6.8172 -2.5017 0.9688
3.3254 -6.7516 -2.5017 0.9688
3.8581 -6.4620 -2.5017 0.9688
4.3656 -6.1305 -2.5017 0.9688
4.7279 -5.8557 -2.5017 0.9688
4.8449 -5.7593 -2.5017 0.9688
5.1838 -5.4562 -2.5017 0.9688
6.4537 2.6999 -2.5017 0.9707
6.3980 2.8294 -2.5017 0.9707
6.3397 2.9577 -2.5017 0.9707
6.2788 3.0848 -2.5017 0.9707
6.1495 3.3352 -2.5017 0.9707
5.9369 3.7004 -2.5017 0.9707
5.5347 4.2786 -2.5017 0.9707
5.4474 4.3892 -2.5017 0.9707
5.2662 4.6051 -2.5017 0.9707
4.9785 4.9147 -2.5017 0.9707
4.7766 5.1112 -2.5017 0.9707
4.5668 5.2994 -2.5017 0.9707
4.4592 5.3903 -2.5017 0.9707
4.3497 5.4791 -2.5017 0.9707
4.1255 5.6498 -2.5017 0.9707
3.7768 5.8886 -2.5017 0.9707
3.6574 5.9635 -2.5017 0.9707
3.5365 6.0359 -2.5017 0.9707
2.6532 6.4731 -2.5017 0.9707
2.5223 6.5252 -2.5017 0.9707
2.3904 6.5747 -2.5017 0.9707
2.2575 6.6214 -2.5017 0.9707
1.8534 6.7457 -2.5017 0.9707
1.5803 6.8149 -2.5017 0.9707
1.4427 6.8453 -2.5017 0.9707
1.3045 6.8730 -2.5017 0.9707
1.1658 6.8979 -2.5017 0.9707
0.8871 6.9392 -2.5017 0.9707
0.7471 6.9557 -2.5017 0.9707
0.3257 6.9881 -2.5017 0.9707
0.0440 6.9956 -2.5017 0.9707
-0.3786 6.9855 -2.5017 0.9707
-0.5192 6.9764 -2.5017 0.9707
-0.6596 6.9646 -2.5017 0.9707
-1.0790 6.9120 -2.5017 0.9707
-1.3565 6.8629 -2.5017 0.9707
-1.4944 6.8342 -2.5017 0.9707
-1.7685 6.7685 -2.5017 0.9707
-1.9045 6.7315 -2.5017 0.9707
-2.0397 6.6918 -2.5017 0.9707
-2.1740 6.6493 -2.5017 0.9707
-2.3075 6.6042 -2.5017 0.9707
-2.4401 6.5564 -2.5017 0.9707
-2.5716 6.5059 -2.5017 0.9707
-2.8315 6.3971 -2.5017 0.9707
-2.9598 6.3387 -2.5017 0.9707
-3.0869 6.2778 -2.5017 0.9707
-3.2127 6.2144 -2.5017 0.9707
-3.5821 6.0090 -2.5017 0.9707
-3.7024 5.9356 -2.5017 0.9707
-3.9385 5.7817 -2.5017 0.9707
-4.0542 5.7012 -2.5017 0.9707
-4.1681 5.6184 -2.5017 0.9707
-4.2805 5.5333 -2.5017 0.9707
-4.3910 5.4460 -2.5017 0.9707
-4.6068 5.2647 -2.5017 0.9707
-4.7119 5.1709 -2.5017 0.9707
-4.8151 5.0749 -2.5017 0.9707
-5.0156 4.8769 -2.5017 0.9707
-5.1128 4.7749 -2.5017 0.9707
-5.2079 4.6709 -2.5017 0.9707
-5.3010 4.5651 -2.5017 0.9707
-5.3918 4.4574 -2.5017 0.9707
-5.4805 4.3479 -2.5017 0.9707
-5.6512 4.1236 -2.5017 0.9707
-5.8127 3.8927 -2.5017 0.9707
-6.0372 3.5345 -2.5017 0.9707
-6.1746 3.2885 -2.5017 0.9707
-6.3021 3.0372 -2.5017 0.9707
-6.4740 2.6510 -2.5017 0.9707
-6.5260 2.5201 -2.5017 0.9707
-6.6663 2.1214 -2.5017 0.9707
-6.7077 1.9867 -2.5017 0.9707
-6.7464 1.8512 -2.5017 0.9707
-6.7823 1.7149 -2.5017 0.9707
-6.8154 1.5780 -2.5017 0.9707
-6.8458 1.4404 -2.5017 0.9707
-6.8735 1.3022 -2.5017 0.9707
-6.8983 1.1635 -2.5017 0.9707
-6.9203 1.0243 -2.5017 0.9707
-6.9934 0.1825 -2.5017 0.9707
-6.9950 -0.0993 -2.5017 0.9707
-6.9854 -0.3809 -2.5017 0.9707
-6.9644 -0.6619 -2.5017 0.9707
-6.8885 -1.2203 -2.5017 0.9707
-6.8625 -1.3588 -2.5017 0.9707
-6.8022 -1.6341 -2.5017 0.9707
-6.7679 -1.7708 -2.5017 0.9707
-6.7309 -1.9067 -2.5017 0.9707
-6.5556 -2.4423 -2.5017 0.9707
-6.3961 -2.8337 -2.5017 0.9707
-6.3378 -2.9620 -2.5017 0.9707
-6.2133 -3.2148 -2.5017 0.9707
-6.1473 -3.3393 -2.5017 0.9707
-6.0788 -3.4624 -2.5017 0.9707
-6.0078 -3.5842 -2.5017 0.9707
-5.8586 -3.8232 -2.5017 0.9707
-5.6999 -4.0561 -2.5017 0.9707
-5.6170 -4.1700 -2.5017 0.9707
-5.5319 -4.2823 -2.5017 0.9707
-5.3549 -4.5017 -2.5017 0.9707
-5.0733 -4.8168 -2.5017 0.9707
-4.9753 -4.9180 -2.5017 0.9707
-4.8752 -5.0173 -2.5017 0.9707
-4.7731 -5.1144 -2.5017 0.9707
-4.4556 -5.3933 -2.5017 0.9707
-3.7728 -5.8912 -2.5017 0.9707
-3.2865 -6.1757 -2.5017 0.9707
-3.0351 -6.3031 -2.5017 0.9707
-2.9075 -6.3629 -2.5017 0.9707
-2.6489 -6.4749 -2.5017 0.9707
-2.1192 -6.6670 -2.5017 0.9707
-1.8489 -6.7470 -2.5017 0.9707
-1.4381 -6.8463 -2.5017 0.9707
-1.1612 -6.8987 -2.5017 0.9707
-1.0220 -6.9207 -2.5017 0.9707
-0.8824 -6.9399 -2.5017 0.9707
-0.4617 -6.9805 -2.5017 0.9707
-0.0393 -6.9956 -2.5017 0.9707
0.1016 -6.9950 -2.5017 0.9707
0.2425 -6.9915 -2.5017 0.9707
0.3833 -6.9852 -2.5017 0.9707
0.5239 -6.9761 -2.5017 0.9707
0.9442 -6.9317 -2.5017 0.9707
1.0836 -6.9113 -2.5017 0.9707
1.2226 -6.8881 -2.5017 0.9707
1.4990 -6.8332 -2.5017 0.9707
1.6364 -6.8017 -2.5017 0.9707
1.9090 -6.7302 -2.5017 0.9707
2.1785 -6.6479 -2.5017 0.9707
2.3119 -6.6027 -2.5017 0.9707
2.4444 -6.5548 -2.5017 0.9707
2.5760 -6.5042 -2.5017 0.9707
2.9641 -6.3367 -2.5017 0.9707
3.2169 -6.2122 -2.5017 0.9707
3.4645 -6.0776 -2.5017 0.9707
3.7064 -5.9332 -2.5017 0.9707
3.8252 -5.8573 -2.5017 0.9707
3.9424 -5.7791 -2.5017 0.9707
4.0580 -5.6985 -2.5017 0.9707
4.1719 -5.6156 -2.5017 0.9707
4.2842 -5.5305 -2.5017 0.9707
4.5034 -5.3534 -2.5017 0.9707
4.7154 -5.1677 -2.5017 0.9707
4.8185 -5.0717 -2.5017 0.9707
5.7385 3.1123 -2.5017 0.9724
5.6747 3.2272 -2.5017 0.9724
5.5401 3.4531 -2.5017 0.9724
5.3966 3.6735 -2.5017 0.9724
5.3215 3.7814 -2.5017 0.9724
5.1649 3.9927 -2.5017 0.9724
5.0834 4.0959 -2.5017 0.9724
4.9999 4.1974 -2.5017 0.9724
4.9143 4.2973 -2.5017 0.9724
4.6458 4.5862 -2.5017 0.9724
4.5525 4.6789 -2.5017 0.9724
4.3604 4.8584 -2.5017 0.9724
4.1612 5.0301 -2.5017 0.9724
4.0590 5.1129 -2.5017 0.9724
3.9552 5.1936 -2.5017 0.9724
3.7428 5.3487 -2.5017 0.9724
3.4130 5.5649 -2.5017 0.9724
2.9540 5.8216 -2.5017 0.9724
2.8362 5.8799 -2.5017 0.9724
2.7172 5.9358 -2.5017 0.9724
2.5970 5.9894 -2.5017 0.9724
2.2306 6.1353 -2.5017 0.9724
2.1066 6.1789 -2.5017 0.9724
1.8560 6.2588 -2.5017 0.9724
1.7296 6.2949 -2.5017 0.9724
1.4747 6.3594 -2.5017 0.9724
1.0879 6.4369 -2.5017 0.9724
0.9580 6.4575 -2.5017 0.9724
0.8278 6.4755 -2.5017 0.9724
0.6972 6.4908 -2.5017 0.9724
0.5663 6.5036 -2.5017 0.9724
0.4352 6.5137 -2.5017 0.9724
0.1725 6.5259 -2.5017 0.9724
0.0410 6.5280 -2.5017 0.9724
-0.0905 6.5276 -2.5017 0.9724
-0.3533 6.5186 -2.5017 0.9724
-0.6155 6.4991 -2.5017 0.9724
-1.1366 6.4285 -2.5017 0.9724
-1.2658 6.4043 -2.5017 0.9724
-1.5227 6.3481 -2.5017 0.9724
-1.7772 6.2816 -2.5017 0.9724
