ply
format ascii 1.0
element vertex 1530
property float32 x
property float32 y
property float32 z
property float32 I
end_header
56.9496 -50.7207 1.2882 0.7371
67.2516 -52.9908 1.4463 0.7100
-0.1161 15.4842 -0.0872 0.9399
-6.2769 48.7626 -0.2768 0.8215
-20.0064 78.8302 -0.4579 0.7223
-16.2606 29.0921 -0.1876 0.8752
-22.4642 33.5490 -0.2273 0.8509
-9.3839 9.2811 -0.0743 0.9486
-16.5947 13.9647 -0.1221 0.9169
-17.3744 13.4669 -0.1238 0.9158
-26.2415 16.4132 -0.1743 0.8835
-26.1524 15.6357 -0.1715 0.8853
-27.0483 15.4424 -0.1754 0.8829
-27.6584 14.3496 -0.1754 0.8828
-28.8817 14.2555 -0.1813 0.8791
-42.6866 6.7658 -0.2433 0.8412
-28.3695 3.3349 -0.1608 0.8920
-28.7591 2.7964 -0.1627 0.8908
-43.0503 3.3145 -0.2431 0.8414
-44.9306 2.5527 -0.2534 0.8353
-87.3977 -29.4391 -0.5192 0.6915
-91.9717 -35.1527 -0.5543 0.6745
-59.3753 -24.0716 -0.3607 0.7739
-68.3148 -39.6403 -0.4447 0.7291
-18.7077 -22.9717 -0.1668 0.8882
-18.2241 -23.3192 -0.1666 0.8884
-13.1909 -18.3531 -0.1273 0.9136
-12.0834 -19.1487 -0.1275 0.9134
-10.9679 -19.9501 -0.1282 0.9130
-10.5928 -20.2196 -0.1285 0.9127
-9.8360 -20.7634 -0.1294 0.9122
-9.4535 -21.0381 -0.1299 0.9119
-9.0679 -21.3152 -0.1304 0.9115
-8.6788 -21.5947 -0.1310 0.9111
-8.2858 -21.8770 -0.1317 0.9107
-7.5970 -21.3429 -0.1275 0.9134
-3.8354 -11.5013 -0.0683 0.9527
-6.4737 -20.7959 -0.1226 0.9166
-6.0967 -21.0668 -0.1235 0.9160
-4.8738 -26.5924 -0.1522 0.8975
-3.8786 -27.3073 -0.1553 0.8955
-2.6874 -26.5397 -0.1502 0.8988
-1.4989 -24.6458 -0.1390 0.9060
-0.0134 -27.8083 -0.1566 0.8947
1.1372 -28.6349 -0.1613 0.8917
2.3623 -29.5150 -0.1667 0.8883
3.1903 -26.4487 -0.1500 0.8989
3.9197 -24.2551 -0.1383 0.9064
6.7582 -21.7836 -0.1284 0.9128
7.4731 -22.4819 -0.1334 0.9096
22.6503 -56.5156 -0.3428 0.7838
27.7739 -55.8436 -0.3511 0.7792
36.2824 -60.2714 -0.3961 0.7547
34.2198 -54.3440 -0.3616 0.7735
35.0258 -53.2223 -0.3587 0.7750
35.8194 -52.1176 -0.3561 0.7765
36.6016 -51.0288 -0.3536 0.7779
37.3733 -49.9547 -0.3513 0.7791
39.6333 -46.8092 -0.3453 0.7824
40.3707 -45.7828 -0.3437 0.7834
13.9865 -15.2335 -0.1164 0.9206
65.8891 -63.6081 -0.5156 0.6933
56.2328 -52.1451 -0.4318 0.7358
58.1418 -51.7825 -0.4384 0.7324
-0.8989 32.5832 -0.9178 0.8777
-3.0733 45.2876 -1.2781 0.8339
-4.0448 37.3299 -1.0573 0.8605
-4.6913 36.4449 -1.0347 0.8633
-6.4857 34.0388 -0.9757 0.8705
-15.1833 59.8261 -1.7380 0.7811
-11.2186 35.1668 -1.0394 0.8627
-11.7583 32.3142 -0.9683 0.8714
-12.2401 31.6455 -0.9554 0.8730
-13.0432 31.8076 -0.9680 0.8715
-14.2985 31.2324 -0.9672 0.8716
-14.7568 30.5945 -0.9564 0.8729
-15.5365 29.1566 -0.9303 0.8762
-20.2344 34.5533 -1.1275 0.8519
-21.2480 33.1543 -1.1088 0.8542
-22.4394 33.5120 -1.1356 0.8510
-37.7766 54.0370 -1.8565 0.7681
-37.8613 42.2528 -1.5975 0.7969
-9.2327 9.5060 -0.3731 0.9484
-9.3876 9.2848 -0.3718 0.9485
-9.7332 9.2473 -0.3780 0.9477
-36.3626 31.8690 -1.3615 0.8241
-39.6220 27.0552 -1.3510 0.8253
-40.2444 26.3107 -1.3539 0.8250
-26.7341 14.5589 -0.8572 0.8853
-29.6963 13.9229 -0.9235 0.8770
-31.2652 13.1539 -0.9551 0.8731
-46.0408 18.2906 -1.3950 0.8202
-48.4236 14.8626 -1.4263 0.8165
-49.5284 13.0499 -1.4422 0.8147
-50.2731 12.1717 -1.4565 0.8130
-51.5156 10.3015 -1.4793 0.8104
-52.2864 9.3676 -1.4957 0.8085
-41.5494 5.7325 -1.1810 0.8455
-28.7449 2.7950 -0.8132 0.8909
-44.6371 2.5360 -1.2589 0.8362
-44.4159 1.6293 -1.2515 0.8371
-58.1662 0.9644 -1.6381 0.7923
-43.3563 -1.0231 -1.2212 0.8407
-44.3355 -1.9379 -1.2496 0.8373
-45.4927 -2.9050 -1.2836 0.8333
-48.4746 -6.0434 -1.3755 0.8224
-49.7919 -7.2260 -1.4167 0.8176
-82.1219 -17.0218 -2.3615 0.7149
-80.4400 -18.3656 -2.3233 0.7188
-82.4037 -20.5638 -2.3915 0.7119
-59.6152 -22.7856 -1.7971 0.7746
-59.1955 -25.3948 -1.8137 0.7728
-72.6373 -36.4884 -2.2889 0.7223
-71.8885 -37.9394 -2.2888 0.7223
-71.1116 -39.3755 -2.2888 0.7223
-68.2128 -39.5811 -2.2207 0.7294
-72.1217 -47.8769 -2.4375 0.7072
-71.1488 -49.3181 -2.4376 0.7072
-68.0632 -53.5243 -2.4381 0.7072
-24.6133 -21.8788 -0.9273 0.8765
-20.1448 -19.4100 -0.7877 0.8941
-18.2963 -18.3518 -0.7297 0.9015
-14.9989 -16.9767 -0.6379 0.9133
-13.9940 -16.4956 -0.6091 0.9171
-11.7228 -15.6379 -0.5503 0.9248
-10.9678 -15.2600 -0.5292 0.9276
-10.5580 -15.3304 -0.5241 0.9282
-9.9066 -15.0218 -0.5067 0.9305
-8.8996 -14.7518 -0.4851 0.9334
-7.6091 -14.5243 -0.4617 0.9365
-7.2349 -14.5118 -0.4566 0.9372
-6.7544 -14.2582 -0.4443 0.9388
-6.0592 -14.2428 -0.4358 0.9399
-5.7918 -14.4112 -0.4373 0.9397
-5.0487 -14.1838 -0.4239 0.9415
-4.0277 -13.9174 -0.4080 0.9437
-3.5116 -14.2552 -0.4134 0.9429
-5.8320 -25.9045 -0.7477 0.8992
-2.5714 -14.0303 -0.4016 0.9445
-3.8787 -27.3078 -0.7766 0.8955
-1.1473 -14.1625 -0.4001 0.9447
-0.3005 -14.6066 -0.4114 0.9432
-0.0069 -14.4429 -0.4067 0.9438
0.2807 -14.3151 -0.4032 0.9443
0.5725 -14.4151 -0.4062 0.9439
1.4438 -14.3966 -0.4074 0.9437
5.3609 -38.0061 -1.0808 0.8576
2.6745 -14.6723 -0.4199 0.9421
3.9990 -14.9932 -0.4369 0.9398
4.2961 -14.8984 -0.4366 0.9398
5.1075 -15.3653 -0.4559 0.9373
6.2537 -15.6038 -0.4733 0.9349
7.1805 -16.0208 -0.4943 0.9322
7.7065 -16.3088 -0.5079 0.9304
8.0877 -16.2615 -0.5114 0.9299
9.9681 -17.3376 -0.5631 0.9231
10.5901 -17.5921 -0.5782 0.9211
35.0255 -53.2218 -1.7940 0.7750
35.8191 -52.1172 -1.7807 0.7764
36.6014 -51.0284 -1.7683 0.7778
37.3731 -49.9544 -1.7567 0.7791
38.1350 -48.8938 -1.7460 0.7803
39.6330 -46.8088 -1.7270 0.7824
43.0918 -45.0816 -1.7560 0.7791
47.2966 -47.5313 -1.8881 0.7647
60.4876 -58.3936 -2.3674 0.7143
66.2035 -52.1650 -2.3733 0.7137
52.8759 -39.9685 -1.8664 0.7670
72.7434 -52.7242 -2.5297 0.6980
74.8742 -49.8077 -2.5322 0.6978
75.8956 -48.3167 -2.5334 0.6977
78.7768 -43.7187 -2.5369 0.6973
79.6750 -42.1466 -2.5380 0.6972
-0.1161 15.4845 -0.7853 0.9399
-0.8193 29.6957 -1.5066 0.8878
-1.4328 30.0336 -1.5249 0.8865
-2.0681 30.4749 -1.5491 0.8848
-3.3178 37.6718 -1.9179 0.8594
-3.9865 36.7917 -1.8768 0.8622
-4.6273 35.9476 -1.8381 0.8649
-4.7990 32.1653 -1.6493 0.8779
-5.3350 31.4193 -1.6162 0.8802
-5.9044 30.9879 -1.5998 0.8813
-7.0571 33.3769 -1.7301 0.8723
-10.1482 34.1670 -1.8076 0.8670
-10.6850 33.4940 -1.7830 0.8687
-9.6257 26.4537 -1.4276 0.8934
-10.1522 26.2474 -1.4272 0.8934
-12.4707 25.8549 -1.4558 0.8914
-13.4880 26.5858 -1.5119 0.8875
-15.7801 28.2323 -1.6403 0.8785
-17.5798 30.0201 -1.7643 0.8699
-21.0120 32.7860 -1.9749 0.8556
-22.4384 33.5105 -2.0453 0.8508
-27.5958 39.4740 -2.4426 0.8246
-28.3864 38.9162 -2.4429 0.8245
-24.2231 31.8449 -2.0291 0.8519
-29.9313 37.7508 -2.4433 0.8245
-16.2729 18.9113 -1.2653 0.9049
-19.5158 20.9184 -1.4509 0.8917
-9.2291 9.5022 -0.6718 0.9483
-9.3912 9.2884 -0.6699 0.9485
-9.7367 9.2506 -0.6811 0.9476
-36.0973 31.6365 -2.4342 0.8251
-16.7385 14.0858 -1.1095 0.9161
-17.3251 13.9947 -1.1295 0.9147
-17.7263 13.7397 -1.1374 0.9141
-38.4518 28.5864 -2.4299 0.8254
-39.4729 26.9534 -2.4240 0.8258
-28.0544 14.5551 -1.6028 0.8811
-29.3291 14.4763 -1.6587 0.8772
-21.6795 10.1643 -1.2143 0.9086
-23.0367 9.6920 -1.2675 0.9047
-24.1193 9.0253 -1.3060 0.9020
-25.1185 8.8282 -1.3502 0.8989
-25.6529 8.4410 -1.3696 0.8975
-28.2035 7.4311 -1.4791 0.8898
-29.8657 6.5987 -1.5511 0.8847
-30.7368 6.1464 -1.5897 0.8820
-31.9705 5.7278 -1.6472 0.8780
-32.7469 5.1904 -1.6815 0.8756
-33.8130 4.6652 -1.7310 0.8722
-28.3068 3.3276 -1.4454 0.8921
-36.9652 2.8461 -1.8802 0.8620
-37.7933 2.1472 -1.9197 0.8593
-42.9454 -1.0135 -2.1785 0.8419
-44.1062 -1.9279 -2.2390 0.8379
-45.4581 -4.7422 -2.3179 0.8327
-45.3486 -5.6537 -2.3176 0.8327
-44.5256 -6.4617 -2.2817 0.8351
-44.7313 -9.2716 -2.3167 0.8328
-45.6026 -11.3801 -2.3836 0.8284
-46.8310 -12.6911 -2.4607 0.8234
-46.3867 -14.5943 -2.4661 0.8230
-46.0816 -15.5222 -2.4660 0.8230
-45.4168 -17.3588 -2.4658 0.8231
-44.2848 -20.0607 -2.4655 0.8231
-43.8720 -20.9457 -2.4655 0.8231
-43.4418 -21.8224 -2.4655 0.8231
-42.9943 -22.6904 -2.4654 0.8231
-42.5298 -23.5493 -2.4654 0.8231
-42.0484 -24.3990 -2.4654 0.8231
-41.5502 -25.2388 -2.4655 0.8231
-40.5043 -26.8881 -2.4656 0.8231
-39.3941 -28.4950 -2.4657 0.8231
-38.8152 -29.2816 -2.4658 0.8231
-24.6007 -21.8676 -1.6693 0.8765
-20.1180 -19.3842 -1.4168 0.8941
-18.3767 -18.4324 -1.3200 0.9010
-15.7390 -17.1092 -1.1790 0.9111
-12.3044 -15.7445 -1.0134 0.9231
-11.5618 -15.4230 -0.9775 0.9257
-10.9495 -15.2346 -0.9515 0.9276
-9.7384 -14.7667 -0.8971 0.9316
-8.7508 -14.5051 -0.8591 0.9344
-8.1973 -14.2260 -0.8327 0.9364
-7.8098 -14.2057 -0.8221 0.9371
-7.4340 -14.1901 -0.8124 0.9379
-7.0148 -14.0703 -0.7973 0.9390
-6.5944 -13.9206 -0.7812 0.9402
-6.0197 -14.1501 -0.7799 0.9403
-3.8345 -11.4986 -0.6147 0.9526
-4.3385 -13.9369 -0.7403 0.9432
-3.7349 -13.9492 -0.7323 0.9438
-3.3774 -13.7107 -0.7161 0.9450
-3.0962 -13.7529 -0.7149 0.9451
-2.2372 -13.7604 -0.7070 0.9457
-1.9806 -13.9448 -0.7143 0.9452
-1.7111 -14.0718 -0.7189 0.9448
-1.1171 -13.7906 -0.7017 0.9461
-0.5722 -14.0657 -0.7139 0.9452
-0.2900 -14.0992 -0.7152 0.9451
0.2731 -13.9295 -0.7066 0.9457
0.5610 -14.1257 -0.7169 0.9450
1.1287 -14.1019 -0.7175 0.9449
1.4319 -14.2780 -0.7277 0.9441
1.7021 -14.1110 -0.7208 0.9447
2.3251 -14.3878 -0.7391 0.9433
2.8740 -14.1493 -0.7322 0.9438
3.5595 -14.5097 -0.7577 0.9419
3.8760 -14.5320 -0.7627 0.9415
4.1850 -14.5134 -0.7660 0.9413
4.6091 -14.8565 -0.7889 0.9396
4.9030 -14.7502 -0.7883 0.9396
5.3378 -15.0418 -0.8094 0.9381
5.6597 -14.9868 -0.8124 0.9379
7.5802 -16.0415 -0.8998 0.9314
9.2051 -16.7818 -0.9707 0.9262
9.8151 -17.0715 -0.9987 0.9242
10.4009 -17.2778 -1.0228 0.9224
26.3045 -41.7739 -2.5036 0.8206
29.6072 -39.5742 -2.5065 0.8204
30.4049 -38.9828 -2.5072 0.8204
31.9646 -37.7521 -2.5087 0.8203
13.9835 -15.2302 -1.0486 0.9205
34.2096 -35.7892 -2.5108 0.8201
34.9315 -35.1049 -2.5115 0.8201
35.6397 -34.4059 -2.5122 0.8200
37.0135 -32.9651 -2.5137 0.8199
40.1871 -29.1275 -2.5171 0.8197
40.7750 -28.3220 -2.5178 0.8197
41.9016 -26.6754 -2.5191 0.8196
42.9612 -24.9838 -2.5204 0.8195
43.4652 -24.1219 -2.5210 0.8195
43.9520 -23.2498 -2.5216 0.8194
44.4209 -22.3677 -2.5223 0.8194
-0.1161 15.4845 -1.1354 0.9398
-2.6534 30.1276 -2.2176 0.8858
-3.4472 31.8143 -2.3463 0.8795
-5.3350 31.4196 -2.3367 0.8800
-6.6678 31.5357 -2.3634 0.8787
-8.0181 31.5933 -2.3899 0.8775
-8.6494 31.4197 -2.3895 0.8775
-9.2769 31.2335 -2.3890 0.8775
-5.9368 18.6099 -1.4323 0.9246
-6.5008 19.0479 -1.4757 0.9224
-8.8924 24.4382 -1.9068 0.9010
-9.5816 24.7721 -1.9475 0.8990
-12.4703 25.8541 -2.1047 0.8913
-14.5869 27.3746 -2.2743 0.8830
-14.5723 24.8843 -2.1144 0.8908
-15.7880 25.7595 -2.2153 0.8859
-9.3529 13.9681 -1.2326 0.9348
-10.9490 15.0106 -1.3623 0.9282
-11.3588 13.2005 -1.2769 0.9325
-12.1327 13.0046 -1.3041 0.9312
-9.2254 9.4984 -0.9709 0.9483
-9.3949 9.2920 -0.9689 0.9484
-14.0121 12.2805 -1.3661 0.9280
-15.4623 11.9848 -1.4344 0.9245
-16.1353 11.4996 -1.4528 0.9236
-16.8075 11.4767 -1.4923 0.9216
-17.1817 11.2329 -1.5051 0.9210
-18.2692 10.9225 -1.5607 0.9182
-20.0802 10.4179 -1.6587 0.9133
-20.6689 10.2018 -1.6900 0.9117
-21.3008 9.9867 -1.7250 0.9100
-22.0527 9.8039 -1.7695 0.9077
-22.6985 9.5497 -1.8056 0.9060
-25.3482 8.3407 -1.9566 0.8985
-26.9739 7.6898 -2.0566 0.8936
-28.0000 7.3776 -2.1231 0.8904
-28.9370 7.0060 -2.1830 0.8874
-29.9363 6.6143 -2.2479 0.8843
-30.8820 6.1754 -2.3092 0.8813
-27.9781 4.4345 -2.0770 0.8926
-27.4122 3.2224 -2.0238 0.8952
-27.3447 2.6588 -2.0144 0.8957
-28.3624 2.1837 -2.0857 0.8922
-31.7147 1.8019 -2.3291 0.8804
-31.7411 1.1644 -2.3289 0.8804
-31.7549 0.5265 -2.3287 0.8804
-31.7443 -0.7491 -2.3282 0.8804
-33.3371 -2.1288 -2.4493 0.8746
-33.6773 -2.8307 -2.4780 0.8732
-33.6191 -3.5072 -2.4784 0.8732
-33.5393 -4.1814 -2.4782 0.8732
-33.0866 -6.8580 -2.4775 0.8733
-32.9403 -7.5208 -2.4774 0.8733
-32.6083 -8.8368 -2.4771 0.8733
-32.2242 -10.1385 -2.4769 0.8733
-32.0129 -10.7832 -2.4768 0.8733
-31.7887 -11.4237 -2.4768 0.8733
-31.3025 -12.6905 -2.4766 0.8733
-31.0406 -13.3164 -2.4766 0.8733
-30.1810 -15.1610 -2.4765 0.8733
-29.8702 -15.7641 -2.4764 0.8733
-29.5475 -16.3609 -2.4764 0.8733
-29.2130 -16.9511 -2.4764 0.8733
-28.5090 -18.1110 -2.4765 0.8733
-28.1399 -18.6802 -2.4765 0.8733
-27.7595 -19.2420 -2.4766 0.8733
-27.3681 -19.7962 -2.4766 0.8733
-24.9347 -19.6084 -2.3259 0.8805
-21.1988 -17.3708 -2.0095 0.8959
-24.1288 -20.5956 -2.3260 0.8805
-23.7112 -21.0769 -2.3261 0.8805
-22.1578 -20.5075 -2.2137 0.8860
-19.5266 -18.8144 -1.9882 0.8970
-18.1853 -18.2405 -1.8886 0.9019
-15.7756 -17.1490 -1.7085 0.9108
-14.8708 -16.8318 -1.6468 0.9139
-13.0780 -16.0589 -1.5185 0.9203
-12.3275 -15.7741 -1.4679 0.9228
-9.7453 -14.7773 -1.2979 0.9315
-8.7792 -14.5523 -1.2461 0.9341
-8.2554 -14.3269 -1.2124 0.9358
-6.6263 -13.9879 -1.1349 0.9398
-6.2876 -13.9926 -1.1248 0.9403
-5.9336 -13.9477 -1.1114 0.9410
-5.7009 -14.1852 -1.1209 0.9405
-4.3550 -13.9900 -1.0743 0.9429
-4.0061 -13.8427 -1.0566 0.9438
-3.3943 -13.7791 -1.0405 0.9447
-3.1160 -13.8407 -1.0402 0.9447
-2.7877 -13.6575 -1.0220 0.9456
-0.8470 -13.9261 -1.0230 0.9456
-0.5845 -14.3691 -1.0544 0.9440
-0.0068 -14.0973 -1.0336 0.9450
0.2765 -14.1020 -1.0342 0.9450
0.8516 -14.2276 -1.0451 0.9444
1.4016 -13.9750 -1.0298 0.9452
1.9840 -14.0655 -1.0415 0.9446
2.3046 -14.2606 -1.0592 0.9437
2.6142 -14.3414 -1.0689 0.9432
3.5561 -14.4960 -1.0944 0.9419
4.9102 -14.7717 -1.1414 0.9395
5.2539 -14.8053 -1.1519 0.9389
6.5907 -15.5336 -1.2372 0.9346
7.0476 -15.7244 -1.2635 0.9332
8.0715 -16.2289 -1.3290 0.9299
8.6397 -16.5301 -1.3676 0.9279
9.1295 -16.6441 -1.3919 0.9267
10.4267 -17.3206 -1.4823 0.9221
17.0810 -27.1261 -2.3504 0.8794
18.1641 -26.4290 -2.3514 0.8793
20.4655 -27.3551 -2.5049 0.8720
22.6132 -25.6447 -2.5069 0.8719
23.6343 -24.7256 -2.5079 0.8718
24.1309 -24.2506 -2.5084 0.8718
25.0951 -23.2709 -2.5094 0.8717
26.0195 -22.2528 -2.5104 0.8717
26.4663 -21.7298 -2.5108 0.8717
26.9025 -21.1978 -2.5113 0.8716
27.3280 -20.6570 -2.5118 0.8716
28.5382 -18.9841 -2.5132 0.8716
28.9189 -18.4104 -2.5136 0.8715
29.6456 -17.2402 -2.5145 0.8715
-0.1161 15.4846 -1.4866 0.9397
-1.1850 24.8389 -2.3874 0.9049
-1.0237 15.0858 -1.4516 0.9410
-2.1805 24.7576 -2.3861 0.9050
-2.6768 24.7048 -2.3857 0.9050
-2.0390 15.8400 -1.5333 0.9378
-3.6656 24.5687 -2.3848 0.9050
-3.1836 16.7084 -1.6329 0.9339
-5.1300 24.2628 -2.3808 0.9052
-5.4759 18.4363 -1.8464 0.9256
-7.9996 23.4395 -2.3778 0.9053
-12.9219 21.0831 -2.3740 0.9054
-8.8171 13.7579 -1.5688 0.9364
-9.0663 13.5400 -1.5644 0.9366
-9.7098 13.3117 -1.5818 0.9359
-10.0599 13.2253 -1.5953 0.9354
-11.1328 12.9379 -1.6386 0.9337
-9.2217 9.4946 -1.2707 0.9482
-9.3986 9.2956 -1.2691 0.9483
-13.5656 12.3797 -1.7632 0.9289
-13.9323 12.2106 -1.7786 0.9283
-14.3740 12.0960 -1.8036 0.9273
-15.7306 11.6947 -1.8818 0.9243
-16.7527 11.4393 -1.9475 0.9217
-17.2022 11.2463 -1.9731 0.9207
-17.6492 11.0390 -1.9985 0.9198
-19.3969 10.5632 -2.1204 0.9151
-21.3289 9.9999 -2.2616 0.9097
-22.1959 9.8675 -2.3320 0.9070
-22.9660 8.0717 -2.3371 0.9068
-23.1208 7.6079 -2.3368 0.9068
-23.4026 6.6716 -2.3363 0.9068
-23.7544 5.2484 -2.3355 0.9069
-23.8526 4.7698 -2.3353 0.9069
-23.9412 4.2893 -2.3351 0.9069
-24.0203 3.8072 -2.3348 0.9069
-24.1494 2.8388 -2.3344 0.9069
-24.8890 2.4200 -2.4007 0.9044
-25.7371 1.9816 -2.4782 0.9015
-25.8430 1.4683 -2.4851 0.9012
-25.8802 -0.0908 -2.4846 0.9012
-25.8713 -0.6105 -2.4845 0.9012
-25.7321 -2.6844 -2.4838 0.9013
-25.6715 -3.2005 -2.4837 0.9013
-25.2149 -5.7569 -2.4830 0.9013
-24.5063 -8.2547 -2.4826 0.9013
-24.3349 -8.7450 -2.4825 0.9013
-23.9630 -9.7150 -2.4824 0.9013
-23.5528 -10.6692 -2.4824 0.9013
-23.3334 -11.1400 -2.4823 0.9013
-23.1048 -11.6064 -2.4823 0.9013
-22.8669 -12.0681 -2.4823 0.9013
-22.6199 -12.5249 -2.4823 0.9013
-21.8248 -13.8647 -2.4823 0.9013
-21.5422 -14.3004 -2.4824 0.9013
-21.2509 -14.7304 -2.4824 0.9013
-20.6429 -15.5726 -2.4825 0.9013
-20.3194 -15.9790 -2.4817 0.9013
-16.8001 -17.5420 -2.3319 0.9070
-14.8572 -16.8164 -2.1543 0.9138
-13.9293 -16.4193 -2.0672 0.9171
-13.0732 -16.0530 -1.9876 0.9202
-12.2803 -15.7137 -1.9146 0.9230
-10.9551 -15.2424 -1.8021 0.9273
-10.4368 -15.1545 -1.7666 0.9287
-9.7359 -14.7630 -1.6978 0.9314
-8.3008 -14.4057 -1.5962 0.9354
-7.4361 -14.1940 -1.5384 0.9376
-7.0313 -14.1035 -1.5129 0.9386
-6.6128 -13.9595 -1.4829 0.9398
-5.2384 -13.8309 -1.4199 0.9423
-3.8336 -11.4959 -1.1634 0.9525
-4.2826 -13.7571 -1.3833 0.9437
-2.2237 -13.6771 -1.3303 0.9458
-1.4096 -13.9203 -1.3432 0.9453
-0.8552 -14.0619 -1.3525 0.9450
-0.5759 -14.1578 -1.3603 0.9447
0.2761 -14.0824 -1.3522 0.9450
1.6966 -14.0654 -1.3601 0.9447
2.3063 -14.2714 -1.3879 0.9436
2.8852 -14.2046 -1.3916 0.9434
3.5364 -14.4155 -1.4250 0.9421
3.8966 -14.6091 -1.4516 0.9411
4.5270 -14.5918 -1.4668 0.9405
5.2511 -14.7975 -1.5074 0.9389
6.1057 -15.2346 -1.5757 0.9362
6.5733 -15.4926 -1.6157 0.9346
7.0595 -15.7509 -1.6571 0.9330
7.5437 -15.9642 -1.6951 0.9315
8.0853 -16.2567 -1.7431 0.9296
9.1651 -16.7090 -1.8296 0.9263
9.8030 -17.0504 -1.8882 0.9240
11.2111 -17.8042 -2.0199 0.9189
13.4591 -20.4513 -2.3505 0.9063
13.8693 -20.1800 -2.3508 0.9063
14.6731 -19.6127 -2.3516 0.9063
15.4539 -19.0133 -2.3523 0.9062
15.8349 -18.7020 -2.3526 0.9062
16.2099 -18.3829 -2.3530 0.9062
13.9251 -15.1666 -1.9767 0.9206
16.9402 -17.7224 -2.3537 0.9062
19.5074 -17.3737 -2.5079 0.9004
19.8553 -16.9809 -2.5083 0.9003
20.5273 -16.1744 -2.5090 0.9003
21.4732 -14.9151 -2.5100 0.9003
22.0610 -14.0445 -2.5107 0.9002
22.6134 -13.1507 -2.5114 0.9002
22.8760 -12.6955 -2.5118 0.9002
23.1295 -12.2351 -2.5121 0.9002
23.3736 -11.7695 -2.5124 0.9002
-0.5514 19.9866 -2.3750 0.9226
-1.7523 19.8959 -2.3725 0.9227
-1.7606 16.2487 -1.9414 0.9363
-2.0459 15.8937 -1.9035 0.9375
-2.9439 19.7312 -2.3697 0.9228
-2.9074 17.1224 -2.0630 0.9324
-4.5148 19.4173 -2.3680 0.9228
-5.2887 19.2118 -2.3670 0.9229
-6.8034 18.6973 -2.3634 0.9230
-7.1769 18.5551 -2.3632 0.9230
-7.5474 18.4053 -2.3630 0.9230
-8.2785 18.0829 -2.3624 0.9230
-8.9968 17.7333 -2.3621 0.9230
-9.3497 17.5461 -2.3617 0.9230
-9.6969 17.3489 -2.3609 0.9231
-8.8289 13.7762 -1.9436 0.9362
-8.9948 13.4333 -1.9204 0.9370
-10.0813 13.2533 -1.9780 0.9351
-10.4507 13.1810 -1.9981 0.9345
-11.8934 12.7481 -2.0710 0.9322
-9.2180 9.4908 -1.5716 0.9481
-13.6238 12.4328 -2.1909 0.9284
-13.9572 12.2324 -2.2045 0.9280
-14.9356 12.0645 -2.2806 0.9256
-15.7438 11.7045 -2.3303 0.9240
-16.0608 11.4466 -2.3428 0.9236
-16.2857 11.1204 -2.3425 0.9236
-16.7155 10.4550 -2.3420 0.9237
-16.9203 10.1161 -2.3417 0.9237
-17.3092 9.4263 -2.3412 0.9237
-17.4933 9.0758 -2.3410 0.9237
-17.6702 8.7217 -2.3407 0.9237
-17.8400 8.3641 -2.3405 0.9237
-18.1579 7.6394 -2.3400 0.9237
-18.7054 6.1550 -2.3391 0.9237
-18.8236 5.7775 -2.3389 0.9237
-19.4426 4.7073 -2.3762 0.9226
-20.1012 4.4413 -2.4453 0.9204
-20.6286 3.6958 -2.4894 0.9190
-20.7572 2.8639 -2.4890 0.9191
-20.8091 2.4462 -2.4888 0.9191
-20.9143 1.1882 -2.4883 0.9191
-20.9325 0.7679 -2.4882 0.9191
-20.9424 0.3472 -2.4880 0.9191
-20.9439 -0.0734 -2.4879 0.9191
-20.9369 -0.4941 -2.4877 0.9191
-20.9216 -0.9145 -2.4876 0.9191
-20.8979 -1.3344 -2.4874 0.9191
-20.7765 -2.5902 -2.4871 0.9191
-20.7193 -3.0069 -2.4869 0.9191
-20.6538 -3.4223 -2.4868 0.9191
-20.5801 -3.8363 -2.4867 0.9191
-20.3096 -5.0682 -2.4865 0.9191
-19.9658 -6.2817 -2.4863 0.9191
-19.8351 -6.6813 -2.4862 0.9191
-19.5500 -7.4722 -2.4861 0.9192
-19.2335 -8.2511 -2.4860 0.9192
-19.0637 -8.6357 -2.4860 0.9192
-18.8862 -9.0168 -2.4860 0.9192
-18.7012 -9.3943 -2.4860 0.9192
-18.5086 -9.7680 -2.4860 0.9192
-18.3087 -10.1378 -2.4860 0.9192
-18.1014 -10.5035 -2.4860 0.9192
-17.8868 -10.8650 -2.4860 0.9192
-17.6651 -11.2221 -2.4860 0.9192
-17.4363 -11.5748 -2.4860 0.9192
-16.9577 -12.2661 -2.4861 0.9192
-16.4520 -12.9377 -2.4862 0.9191
-15.6222 -13.8866 -2.4829 0.9193
-15.0248 -13.9058 -2.4318 0.9208
-14.1555 -13.6392 -2.3350 0.9239
-13.8791 -13.9212 -2.3351 0.9239
-13.5972 -14.1976 -2.3352 0.9239
-10.2126 -14.8289 -2.1388 0.9300
-9.6090 -14.5707 -2.0733 0.9321
-7.1004 -14.2422 -1.8904 0.9379
-5.9921 -14.0852 -1.8182 0.9402
-4.9928 -14.0266 -1.7686 0.9418
-3.8332 -11.4948 -1.4393 0.9524
-4.3739 -14.0504 -1.7480 0.9424
-4.0577 -14.0213 -1.7339 0.9429
-3.0987 -13.7642 -1.6759 0.9448
-0.5769 -14.1812 -1.6859 0.9444
-0.2858 -13.8912 -1.6504 0.9456
-0.0067 -13.9826 -1.6609 0.9452
0.5615 -14.1383 -1.6808 0.9446
1.4165 -14.1237 -1.6861 0.9444
1.7017 -14.1072 -1.6879 0.9444
2.5935 -14.2276 -1.7179 0.9434
2.9346 -14.4480 -1.7513 0.9423
3.5734 -14.5663 -1.7816 0.9414
3.9223 -14.7055 -1.8079 0.9405
4.2269 -14.6584 -1.8122 0.9404
4.5210 -14.5723 -1.8124 0.9404
4.8496 -14.5893 -1.8262 0.9399
5.1950 -14.6392 -1.8452 0.9393
5.5869 -14.7940 -1.8785 0.9383
6.0226 -15.0272 -1.9230 0.9369
6.9600 -15.5290 -2.0214 0.9337
8.0003 -16.0858 -2.1340 0.9302
9.1654 -16.7095 -2.2638 0.9261
10.5412 -16.7403 -2.3499 0.9234
10.8766 -16.5272 -2.3502 0.9234
11.5345 -16.0811 -2.3508 0.9234
12.4867 -15.3629 -2.3517 0.9234
12.7944 -15.1108 -2.3519 0.9233
13.3942 -14.5884 -2.3525 0.9233
14.8493 -14.9230 -2.5007 0.9187
16.0391 -13.7171 -2.5070 0.9185
17.8174 -11.3430 -2.5090 0.9184
18.4742 -10.2526 -2.5098 0.9184
18.6784 -9.8805 -2.5100 0.9184
-0.1152 15.3723 -2.1782 0.9398
-0.7947 16.6575 -2.3629 0.9348
-1.4625 16.6058 -2.3620 0.9349
-2.1277 16.5293 -2.3613 0.9349
-2.4589 16.4807 -2.3610 0.9349
-2.7890 16.4252 -2.3606 0.9349
-3.4437 16.2870 -2.3587 0.9350
-4.0934 16.1290 -2.3578 0.9350
-5.0544 15.8441 -2.3564 0.9350
-5.6844 15.6219 -2.3554 0.9350
-5.9957 15.5012 -2.3549 0.9351
-6.3044 15.3742 -2.3544 0.9351
-6.9130 15.1002 -2.3531 0.9351
-7.8057 14.6486 -2.3518 0.9351
-8.6676 14.1419 -2.3502 0.9352
-8.9467 13.9600 -2.3493 0.9352
-9.1525 13.6689 -2.3308 0.9357
-9.7637 13.3855 -2.3475 0.9353
-10.0296 13.1854 -2.3473 0.9353
-8.6028 9.9976 -1.8688 0.9481
-11.0510 12.3327 -2.3463 0.9353
-9.2143 9.4870 -1.8739 0.9480
-9.4060 9.3030 -1.8745 0.9480
-9.7507 9.2639 -1.9057 0.9471
-12.2257 11.1569 -2.3451 0.9353
-10.0988 8.4983 -1.8701 0.9481
-13.0766 10.1357 -2.3442 0.9353
-13.4706 9.6004 -2.3438 0.9354
-13.6594 9.3271 -2.3435 0.9354
-13.8427 9.0500 -2.3433 0.9354
-14.0204 8.7693 -2.3431 0.9354
-14.1924 8.4852 -2.3429 0.9354
-14.5191 7.9069 -2.3425 0.9354
-14.9651 7.0163 -2.3419 0.9354
-15.1017 6.7137 -2.3417 0.9354
-15.2323 6.4085 -2.3415 0.9354
-16.6770 5.4875 -2.4876 0.9315
-16.8134 5.1605 -2.4920 0.9314
-16.9154 4.8223 -2.4922 0.9314
-17.1715 3.7940 -2.4917 0.9314
-17.3076 3.1008 -2.4913 0.9314
-17.3653 2.7524 -2.4912 0.9314
-17.4596 2.0525 -2.4909 0.9314
-17.4963 1.7012 -2.4907 0.9314
-17.5725 0.2914 -2.4902 0.9315
-17.5739 -0.0616 -2.4900 0.9315
-17.5682 -0.4146 -2.4899 0.9315
-17.5090 -1.4717 -2.4896 0.9315
-17.4751 -1.8230 -2.4895 0.9315
-17.3865 -2.5232 -2.4893 0.9315
-17.3317 -2.8718 -2.4892 0.9315
-17.1256 -3.9100 -2.4890 0.9315
-17.0431 -4.2531 -2.4889 0.9315
-16.9538 -4.5945 -2.4888 0.9315
-16.8577 -4.9340 -2.4888 0.9315
-16.5290 -5.9399 -2.4886 0.9315
-16.4061 -6.2706 -2.4886 0.9315
-16.2766 -6.5988 -2.4885 0.9315
-16.1406 -6.9243 -2.4885 0.9315
-15.9981 -7.2470 -2.4885 0.9315
-15.8492 -7.5668 -2.4885 0.9315
-15.6939 -7.8836 -2.4885 0.9315
-15.1906 -8.8145 -2.4885 0.9315
-15.0106 -9.1178 -2.4885 0.9315
-14.8245 -9.4176 -2.4885 0.9315
-14.4345 -10.0055 -2.4885 0.9315
-13.8063 -10.8571 -2.4886 0.9315
-13.3596 -11.4033 -2.4887 0.9315
-13.1281 -11.6696 -2.4888 0.9315
-12.8915 -11.9311 -2.4888 0.9315
-10.9486 -12.3923 -2.3430 0.9354
-10.4186 -12.7933 -2.3377 0.9355
-9.8972 -13.2025 -2.3379 0.9355
-9.6304 -13.3992 -2.3380 0.9355
-8.8072 -13.9568 -2.3383 0.9355
-8.5255 -14.1316 -2.3385 0.9355
-8.2404 -14.3008 -2.3386 0.9355
-7.8772 -14.3285 -2.3168 0.9361
-6.3630 -14.1606 -2.1996 0.9392
-6.0073 -14.1211 -2.1743 0.9399
-5.6597 -14.0826 -2.1505 0.9405
-4.3382 -13.9360 -2.0680 0.9427
-4.0229 -13.9011 -2.0504 0.9432
-3.4075 -13.8328 -2.0185 0.9441
-3.1067 -13.7995 -2.0042 0.9445
-2.2278 -13.7020 -1.9669 0.9455
-1.9416 -13.6703 -1.9564 0.9457
-1.6596 -13.6482 -1.9480 0.9460
-1.3860 -13.6878 -1.9493 0.9459
-1.1120 -13.7274 -1.9514 0.9459
0.5548 -13.9684 -1.9807 0.9451
0.8385 -14.0094 -1.9885 0.9449
1.4133 -14.0925 -2.0068 0.9444
2.6001 -14.2641 -2.0544 0.9431
3.5323 -14.3989 -2.1007 0.9419
3.8529 -14.4453 -2.1183 0.9414
4.1790 -14.4925 -2.1371 0.9409
6.0227 -15.0275 -2.2939 0.9367
6.4720 -15.2538 -2.3478 0.9352
6.7778 -15.1223 -2.3480 0.9352
7.0809 -14.9847 -2.3483 0.9352
7.9730 -14.5356 -2.3490 0.9352
8.2642 -14.3741 -2.3493 0.9352
8.8367 -14.0335 -2.3498 0.9352
9.9387 -13.2845 -2.3507 0.9352
11.2959 -13.3411 -2.4769 0.9318
12.2151 -12.7792 -2.5048 0.9311
12.7211 -12.2807 -2.5053 0.9311
13.8953 -10.9487 -2.5066 0.9310
14.1137 -10.6685 -2.5068 0.9310
14.3265 -10.3838 -2.5070 0.9310
14.9301 -9.5048 -2.5077 0.9310
15.8150 -7.9635 -2.5089 0.9310
-0.1071 14.2911 -2.3544 0.9437
-0.3941 14.2848 -2.3542 0.9437
-0.6809 14.2725 -2.3539 0.9437
-1.8234 14.1649 -2.3528 0.9437
-2.1072 14.1235 -2.3524 0.9438
-2.9536 13.9692 -2.3522 0.9438
-4.8792 13.4092 -2.3507 0.9438
-5.1471 13.3073 -2.3505 0.9438
-5.9376 12.9696 -2.3499 0.9438
-6.1963 12.8466 -2.3497 0.9438
-6.7061 12.5851 -2.3492 0.9438
-6.9569 12.4467 -2.3490 0.9438
-7.2048 12.3033 -2.3488 0.9438
-7.6918 12.0019 -2.3484 0.9438
-7.9306 11.8439 -2.3482 0.9439
-8.1662 11.6812 -2.3480 0.9439
-8.6031 9.9979 -2.1729 0.9479
-8.4740 9.0830 -2.0464 0.9509
-8.4761 8.7270 -2.0042 0.9519
-9.0938 8.6399 -2.0664 0.9504
-9.4176 8.5942 -2.1004 0.9496
-9.7523 8.5470 -2.1363 0.9488
-10.0988 8.4982 -2.1743 0.9479
-10.4059 8.4055 -2.2037 0.9472
-11.2502 8.7201 -2.3449 0.9439
-11.4221 8.4916 -2.3447 0.9439
-11.5894 8.2598 -2.3445 0.9439
-11.9099 7.7864 -2.3441 0.9439
-12.2111 7.3006 -2.3438 0.9440
-12.3543 7.0533 -2.3436 0.9440
-12.5008 6.8078 -2.3450 0.9439
-12.9108 6.6983 -2.3961 0.9427
-13.3453 6.5870 -2.4517 0.9415
-13.6778 6.4127 -2.4886 0.9406
-13.8237 6.1456 -2.4922 0.9405
-13.9573 5.8721 -2.4945 0.9405
-14.1799 5.3060 -2.4942 0.9405
-14.3796 4.7316 -2.4938 0.9405
-14.4708 4.4415 -2.4937 0.9405
-14.5562 4.1497 -2.4935 0.9405
-14.6357 3.8562 -2.4934 0.9405
-14.8387 2.9673 -2.4929 0.9405
-14.9879 2.0679 -2.4925 0.9405
-15.0256 1.7663 -2.4924 0.9405
-15.0573 1.4641 -2.4922 0.9405
-15.1025 0.8580 -2.4920 0.9405
-15.1159 0.5545 -2.4919 0.9405
-15.1233 0.2508 -2.4917 0.9405
-15.1246 -0.0530 -2.4916 0.9405
-15.1199 -0.3568 -2.4915 0.9405
-15.1091 -0.6604 -2.4914 0.9405
-15.0051 -1.8707 -2.4911 0.9405
-14.9640 -2.1716 -2.4910 0.9405
-14.9169 -2.4717 -2.4909 0.9405
-14.8048 -3.0687 -2.4908 0.9405
-14.7397 -3.3653 -2.4907 0.9405
-14.6688 -3.6606 -2.4906 0.9406
-14.2265 -5.1125 -2.4904 0.9406
-14.0093 -5.6796 -2.4903 0.9406
-13.8923 -5.9598 -2.4903 0.9406
-13.7697 -6.2376 -2.4903 0.9406
-13.6416 -6.5129 -2.4903 0.9406
-13.5079 -6.7855 -2.4903 0.9406
-13.3689 -7.0554 -2.4903 0.9406
-12.5942 -8.3605 -2.4903 0.9406
-12.4238 -8.6118 -2.4903 0.9406
-12.2485 -8.8597 -2.4903 0.9406
-12.0682 -9.1040 -2.4904 0.9406
-11.8831 -9.3447 -2.4904 0.9406
-11.4986 -9.8148 -2.4905 0.9406
-11.2993 -10.0439 -2.4905 0.9406
-10.8873 -10.4901 -2.4906 0.9406
-10.6746 -10.7070 -2.4907 0.9405
-10.2365 -11.1276 -2.4908 0.9405
-10.0112 -11.3313 -2.4909 0.9405
-9.2839 -11.8795 -2.4838 0.9407
-7.3373 -12.1621 -2.3399 0.9440
-6.5924 -12.5837 -2.3403 0.9440
-6.0823 -12.8396 -2.3405 0.9440
-5.5623 -13.0750 -2.3408 0.9440
-5.2989 -13.1848 -2.3409 0.9440
-5.0333 -13.2893 -2.3410 0.9440
-3.8000 -11.3952 -1.9789 0.9525
-4.2246 -13.5708 -2.3415 0.9440
-3.6766 -13.7312 -2.3418 0.9440
-3.4003 -13.8032 -2.3419 0.9440
-3.1067 -13.7996 -2.3302 0.9443
-2.8100 -13.7667 -2.3147 0.9446
-2.5172 -13.7342 -2.3002 0.9450
-2.2278 -13.7021 -2.2869 0.9453
-1.9416 -13.6704 -2.2746 0.9456
-1.3860 -13.6879 -2.2665 0.9458
-1.1120 -13.7275 -2.2689 0.9457
-0.5616 -13.8071 -2.2765 0.9455
-0.2848 -13.8471 -2.2816 0.9454
0.5547 -13.9685 -2.3030 0.9449
0.8385 -14.0096 -2.3121 0.9447
1.1246 -14.0509 -2.3221 0.9445
1.7048 -14.1328 -2.3451 0.9439
2.5534 -14.0080 -2.3457 0.9439
2.8345 -13.9551 -2.3459 0.9439
3.9469 -13.6874 -2.3467 0.9439
4.7653 -13.4284 -2.3473 0.9439
5.3017 -13.2285 -2.3478 0.9439
6.0904 -12.8887 -2.3484 0.9438
6.6044 -12.6359 -2.3488 0.9438
8.4687 -12.3221 -2.4631 0.9412
8.8345 -12.3167 -2.4970 0.9404
9.0954 -12.1573 -2.5013 0.9403
10.5041 -10.9891 -2.5043 0.9402
10.7236 -10.7768 -2.5046 0.9402
10.9388 -10.5602 -2.5048 0.9402
11.3561 -10.1140 -2.5052 0.9402
11.9477 -9.4142 -2.5058 0.9402
12.4960 -8.6796 -2.5065 0.9402
12.8366 -8.1721 -2.5069 0.9402
13.3086 -7.3859 -2.5074 0.9402
-0.0938 12.5208 -2.3535 0.9503
-0.3453 12.5156 -2.3533 0.9503
-1.0982 12.4694 -2.3528 0.9503
-1.5979 12.4134 -2.3525 0.9503
-1.8468 12.3779 -2.3523 0.9503
-2.0949 12.3374 -2.3521 0.9503
-3.0774 12.1257 -2.3514 0.9504
-3.3201 12.0605 -2.3512 0.9504
-3.5614 11.9905 -2.3511 0.9504
-3.8012 11.9156 -2.3509 0.9504
-4.5109 11.6623 -2.3503 0.9504
-4.9748 11.4700 -2.3499 0.9504
-5.2038 11.3668 -2.3498 0.9504
-5.6553 11.1469 -2.3494 0.9504
-6.0974 10.9090 -2.3490 0.9504
-6.3148 10.7835 -2.3488 0.9504
-6.5296 10.6536 -2.3486 0.9504
-6.7418 10.5195 -2.3485 0.9504
-7.3613 10.0920 -2.3479 0.9504
-7.5619 9.9413 -2.3477 0.9504
-6.7283 8.4861 -2.0356 0.9569
-8.3329 9.2994 -2.3470 0.9504
-8.3519 8.9521 -2.3012 0.9514
-8.6883 8.5931 -2.2969 0.9515
-8.9986 8.5494 -2.3330 0.9507
-9.3862 8.2263 -2.3459 0.9505
-9.7076 7.8415 -2.3456 0.9505
-9.8625 7.6444 -2.3454 0.9505
-10.0133 7.4442 -2.3452 0.9505
-10.1954 7.2662 -2.3532 0.9503
-10.5378 7.1956 -2.3984 0.9494
-10.8936 7.1220 -2.4463 0.9484
-11.2290 7.0234 -2.4895 0.9475
-11.6630 6.3515 -2.4962 0.9474
-11.7874 6.1155 -2.4960 0.9474
-11.9071 5.8771 -2.4958 0.9474
-12.4325 4.6522 -2.4951 0.9474
-12.7628 3.6385 -2.4945 0.9474
-12.8326 3.3812 -2.4944 0.9474
-12.8973 3.1226 -2.4942 0.9474
-13.0109 2.6018 -2.4940 0.9474
-13.1036 2.0769 -2.4937 0.9474
-13.1420 1.8132 -2.4936 0.9474
-13.1752 1.5488 -2.4935 0.9474
-13.2428 0.7524 -2.4931 0.9474
-13.2547 0.4862 -2.4930 0.9474
-13.2613 0.2199 -2.4929 0.9474
-13.2625 -0.0465 -2.4928 0.9475
-13.2490 -0.5791 -2.4927 0.9475
-13.2342 -0.8451 -2.4926 0.9475
-13.2141 -1.1107 -2.4925 0.9475
-13.1887 -1.3758 -2.4924 0.9475
-13.0808 -2.1675 -2.4922 0.9475
-13.0343 -2.4297 -2.4921 0.9475
-12.9825 -2.6909 -2.4921 0.9475
-12.9256 -2.9511 -2.4920 0.9475
-12.7961 -3.4677 -2.4919 0.9475
-12.7236 -3.7240 -2.4919 0.9475
-12.5634 -4.2319 -2.4918 0.9475
-12.3830 -4.7329 -2.4917 0.9475
-12.2853 -4.9806 -2.4917 0.9475
-12.1827 -5.2264 -2.4917 0.9475
-11.9628 -5.7114 -2.4917 0.9475
-11.7237 -6.1872 -2.4916 0.9475
-11.5970 -6.4214 -2.4916 0.9475
-11.4657 -6.6531 -2.4916 0.9475
-11.3298 -6.8820 -2.4916 0.9475
-11.1893 -7.1083 -2.4917 0.9475
-11.0444 -7.3316 -2.4917 0.9475
-10.8950 -7.5520 -2.4917 0.9475
-10.5830 -7.9837 -2.4917 0.9475
-10.4207 -8.1947 -2.4918 0.9475
-10.0834 -8.6069 -2.4918 0.9475
-9.7299 -9.0052 -2.4919 0.9475
-9.3608 -9.3891 -2.4920 0.9475
-9.1705 -9.5755 -2.4921 0.9475
-8.9766 -9.7580 -2.4921 0.9475
-8.7790 -9.9366 -2.4922 0.9475
-7.5220 -10.9220 -2.4927 0.9475
-7.0659 -11.1974 -2.4887 0.9475
-6.8320 -11.3245 -2.4859 0.9476
-5.3333 -11.2584 -2.3416 0.9506
-4.8773 -11.4646 -2.3418 0.9506
-4.6462 -11.5608 -2.3419 0.9506
-3.2236 -12.0395 -2.3427 0.9505
-2.7378 -12.1606 -2.3429 0.9505
-2.2474 -12.2622 -2.3432 0.9505
-2.0008 -12.3057 -2.3434 0.9505
-1.7533 -12.3441 -2.3435 0.9505
-1.2563 -12.4062 -2.3438 0.9505
-1.0069 -12.4297 -2.3440 0.9505
-0.7571 -12.4483 -2.3441 0.9505
-0.0060 -12.4738 -2.3446 0.9505
0.2446 -12.4723 -2.3448 0.9505
0.4951 -12.4657 -2.3449 0.9505
0.7454 -12.4542 -2.3451 0.9505
1.2452 -12.4159 -2.3454 0.9505
1.4944 -12.3893 -2.3456 0.9505
1.7431 -12.3577 -2.3458 0.9505
1.9911 -12.3211 -2.3459 0.9505
2.2384 -12.2796 -2.3461 0.9505
2.9745 -12.1252 -2.3466 0.9505
3.2177 -12.0640 -2.3468 0.9505
3.9394 -11.8510 -2.3474 0.9504
4.1769 -11.7704 -2.3476 0.9504
4.4128 -11.6851 -2.3477 0.9504
4.6470 -11.5950 -2.3479 0.9504
4.8794 -11.5002 -2.3481 0.9504
5.1573 -11.5068 -2.3701 0.9500
5.7787 -11.6189 -2.4391 0.9486
6.6261 -11.5248 -2.4987 0.9473
7.5409 -10.9720 -2.5024 0.9473
7.7603 -10.8192 -2.5026 0.9473
8.3998 -10.3346 -2.5032 0.9472
8.6064 -10.1646 -2.5034 0.9472
8.8095 -9.9905 -2.5036 0.9472
9.0091 -9.8123 -2.5038 0.9472
9.7705 -9.0603 -2.5046 0.9472
10.4693 -8.2493 -2.5053 0.9472
10.6337 -8.0379 -2.5055 0.9472
10.7938 -7.8233 -2.5057 0.9472
10.9495 -7.6054 -2.5058 0.9472
11.1008 -7.3845 -2.5060 0.9472
11.6609 -6.4715 -2.5067 0.9472
-0.0834 11.1313 -2.3530 0.9555
-0.3070 11.1267 -2.3529 0.9555
-0.7535 11.1040 -2.3526 0.9555
-1.4206 11.0363 -2.3521 0.9555
-2.0823 10.9286 -2.3516 0.9555
-2.7361 10.7811 -2.3512 0.9555
-3.3798 10.5946 -2.3507 0.9556
-3.5916 10.5238 -2.3505 0.9556
-3.8020 10.4488 -2.3503 0.9556
-4.2180 10.2863 -2.3500 0.9556
-4.6271 10.1071 -2.3497 0.9556
-5.0286 9.9117 -2.3494 0.9556
-5.2263 9.8080 -2.3492 0.9556
-5.4219 9.7004 -2.3490 0.9556
-5.6152 9.5889 -2.3489 0.9556
-5.9950 9.3543 -2.3485 0.9556
-6.1812 9.2313 -2.3484 0.9556
-6.3650 9.1047 -2.3482 0.9556
-6.7246 8.8404 -2.3479 0.9556
-6.7125 8.4662 -2.2838 0.9568
-7.5745 8.1188 -2.3471 0.9556
-7.8934 7.8070 -2.3467 0.9556
-8.0481 7.6464 -2.3466 0.9556
-8.2910 7.5662 -2.3726 0.9551
-8.8726 7.4665 -2.4512 0.9537
-9.4747 7.0438 -2.4956 0.9529
-10.1392 6.0619 -2.4971 0.9529
-10.2583 5.8567 -2.4969 0.9529
-10.4840 5.4393 -2.4966 0.9529
-10.5905 5.2273 -2.4965 0.9529
-10.6928 5.0132 -2.4963 0.9529
-10.9735 4.3594 -2.4959 0.9529
-11.1385 3.9148 -2.4956 0.9529
-11.3523 3.2363 -2.4953 0.9529
-11.4720 2.7775 -2.4950 0.9529
-11.5250 2.5464 -2.4949 0.9529
-11.5733 2.3143 -2.4948 0.9529
-11.6901 1.6129 -2.4945 0.9529
-11.7196 1.3777 -2.4944 0.9529
-11.7800 0.6693 -2.4941 0.9529
-11.7906 0.4325 -2.4940 0.9529
-11.7965 0.1956 -2.4939 0.9529
-11.7940 -0.2783 -2.4937 0.9529
-11.7857 -0.5151 -2.4936 0.9529
-11.7548 -0.9880 -2.4935 0.9529
-11.7322 -1.2239 -2.4934 0.9529
-11.6363 -1.9281 -2.4932 0.9529
-11.5950 -2.1614 -2.4932 0.9529
-11.5490 -2.3938 -2.4931 0.9529
-11.4431 -2.8556 -2.4930 0.9529
-11.3188 -3.3128 -2.4929 0.9529
-11.2498 -3.5394 -2.4929 0.9529
-11.0983 -3.9883 -2.4928 0.9529
-10.8376 -4.6493 -2.4928 0.9529
-10.7420 -4.8661 -2.4928 0.9529
-10.4293 -5.5041 -2.4927 0.9529
-10.3167 -5.7125 -2.4927 0.9529
-9.9540 -6.3235 -2.4927 0.9529
-9.4146 -7.1022 -2.4928 0.9529
-8.4931 -8.1833 -2.4930 0.9529
-7.4486 -9.1463 -2.4934 0.9529
-7.0756 -9.4386 -2.4935 0.9529
-6.8848 -9.5791 -2.4936 0.9529
-6.6912 -9.7158 -2.4936 0.9529
-6.4949 -9.8485 -2.4937 0.9529
-5.8906 -10.2228 -2.4940 0.9529
-5.6843 -10.3395 -2.4941 0.9529
-5.4757 -10.4520 -2.4942 0.9529
-5.2648 -10.5603 -2.4943 0.9529
-5.0511 -10.6626 -2.4940 0.9529
-4.6122 -10.8415 -2.4904 0.9530
-4.3906 -10.9247 -2.4888 0.9530
-4.1676 -11.0037 -2.4872 0.9530
-3.9096 -10.9836 -2.4644 0.9535
-3.6559 -10.9630 -2.4428 0.9539
-3.4085 -10.9492 -2.4240 0.9542
-2.6905 -10.9221 -2.3777 0.9551
-2.4569 -10.9129 -2.3645 0.9553
-2.2257 -10.9037 -2.3524 0.9555
-1.7796 -10.9452 -2.3440 0.9557
-1.5595 -10.9794 -2.3441 0.9557
-0.4509 -11.0836 -2.3448 0.9557
0.4403 -11.0868 -2.3454 0.9557
0.8854 -11.0616 -2.3457 0.9556
1.1074 -11.0423 -2.3458 0.9556
1.3291 -11.0185 -2.3460 0.9556
1.5526 -11.0077 -2.3498 0.9556
1.7815 -11.0236 -2.3604 0.9554
2.2468 -11.0618 -2.3860 0.9549
2.4835 -11.0809 -2.4004 0.9546
2.9706 -11.1375 -2.4365 0.9540
3.2206 -11.1686 -2.4570 0.9536
3.4748 -11.2001 -2.4788 0.9532
3.9471 -11.1228 -2.4948 0.9529
4.1730 -11.0499 -2.4967 0.9529
4.6205 -10.8900 -2.5006 0.9528
5.0548 -10.6972 -2.5009 0.9528
5.4812 -10.4870 -2.5013 0.9528
5.8988 -10.2598 -2.5016 0.9528
6.7051 -9.7560 -2.5023 0.9528
7.2820 -9.3364 -2.5028 0.9527
7.4686 -9.1889 -2.5030 0.9527
7.6522 -9.0377 -2.5032 0.9527
7.8327 -8.8828 -2.5034 0.9527
8.3552 -8.3966 -2.5039 0.9527
8.6869 -8.0554 -2.5042 0.9527
9.0046 -7.7010 -2.5045 0.9527
9.1581 -7.5191 -2.5047 0.9527
9.5961 -6.9552 -2.5052 0.9527
9.7345 -6.7615 -2.5054 0.9527
9.8690 -6.5650 -2.5055 0.9527
10.1259 -6.1641 -2.5058 0.9527
10.2483 -5.9599 -2.5060 0.9527
10.3666 -5.7531 -2.5061 0.9527
10.4807 -5.5441 -2.5063 0.9527
-0.2761 10.0057 -2.3525 0.9597
-0.4769 9.9976 -2.3523 0.9597
-0.6776 9.9854 -2.3522 0.9597
-0.8780 9.9692 -2.3521 0.9597
-1.4766 9.8965 -2.3517 0.9597
-1.6749 9.8643 -2.3515 0.9597
-1.8726 9.8281 -2.3514 0.9597
-2.0695 9.7879 -2.3512 0.9597
-2.4607 9.6957 -2.3509 0.9597
-3.4194 9.3972 -2.3502 0.9597
-3.7936 9.2511 -2.3499 0.9597
-4.1615 9.0901 -2.3496 0.9598
-4.7005 8.8213 -2.3492 0.9598
-4.8765 8.7246 -2.3490 0.9598
-5.0504 8.6243 -2.3489 0.9598
-5.5596 8.3029 -2.3484 0.9598
-5.7249 8.1890 -2.3483 0.9598
-6.0484 7.9515 -2.3480 0.9598
-6.4361 7.7908 -2.3750 0.9593
-6.6764 7.7589 -2.4057 0.9588
-7.1761 7.6918 -2.4723 0.9577
-7.3896 7.6084 -2.4927 0.9574
-7.5467 7.4641 -2.4946 0.9573
-8.4019 6.5123 -2.4983 0.9573
-8.5305 6.3419 -2.4982 0.9573
-8.6557 6.1689 -2.4981 0.9573
-8.7773 5.9934 -2.4979 0.9573
-8.8954 5.8156 -2.4978 0.9573
-9.0100 5.6354 -2.4976 0.9573
-9.3315 5.0818 -2.4972 0.9573
-9.5271 4.7024 -2.4970 0.9573
-9.6191 4.5099 -2.4968 0.9573
-9.8718 3.9217 -2.4965 0.9573
-9.9481 3.7225 -2.4963 0.9573
-10.4118 2.0821 -2.4955 0.9573
-10.4511 1.8724 -2.4954 0.9573
-10.5170 1.4510 -2.4952 0.9573
-10.5437 1.2395 -2.4951 0.9573
-10.5981 0.6021 -2.4948 0.9573
-10.6130 0.1760 -2.4946 0.9573
-10.5917 -0.6763 -2.4944 0.9573
-10.5757 -0.8889 -2.4943 0.9573
-10.5554 -1.1011 -2.4942 0.9573
-10.4320 -1.9446 -2.4940 0.9573
-10.3907 -2.1537 -2.4940 0.9573
-10.1836 -2.9806 -2.4938 0.9573
-10.1216 -3.1845 -2.4938 0.9573
-9.9853 -3.5883 -2.4937 0.9573
-9.9111 -3.7881 -2.4937 0.9573
-9.6647 -4.3780 -2.4936 0.9573
-9.3835 -4.9521 -2.4936 0.9573
-9.1770 -5.3250 -2.4936 0.9573
-8.9558 -5.6893 -2.4936 0.9573
-8.7201 -6.0445 -2.4936 0.9573
-8.5970 -6.2185 -2.4937 0.9573
-8.4704 -6.3899 -2.4937 0.9573
-7.6413 -7.3626 -2.4939 0.9573
-7.4920 -7.5147 -2.4939 0.9573
-7.3397 -7.6638 -2.4940 0.9573
-7.1844 -7.8098 -2.4940 0.9573
-7.0262 -7.9527 -2.4941 0.9573
-6.8652 -8.0924 -2.4941 0.9573
-6.5350 -8.3620 -2.4942 0.9573
-6.3658 -8.4918 -2.4943 0.9573
-6.1942 -8.6182 -2.4944 0.9573
-6.0200 -8.7411 -2.4944 0.9573
-5.6644 -8.9764 -2.4946 0.9573
-5.2996 -9.1972 -2.4947 0.9573
-5.1140 -9.3021 -2.4948 0.9573
-4.7366 -9.5006 -2.4950 0.9573
-4.5450 -9.5942 -2.4951 0.9573
-4.1563 -9.7698 -2.4953 0.9573
-3.5608 -10.0035 -2.4956 0.9573
-3.3593 -10.0735 -2.4957 0.9573
-2.7468 -10.2589 -2.4960 0.9573
-2.3328 -10.3619 -2.4962 0.9573
-2.1243 -10.4071 -2.4964 0.9573
-1.7041 -10.4806 -2.4955 0.9573
-1.2814 -10.5375 -2.4948 0.9573
-0.6443 -10.5931 -2.4942 0.9573
-0.4313 -10.6038 -2.4942 0.9573
-0.2183 -10.6111 -2.4944 0.9573
-0.0051 -10.6144 -2.4946 0.9573
0.4213 -10.6090 -2.4953 0.9573
1.4849 -10.5269 -2.4986 0.9573
1.6962 -10.4960 -2.4988 0.9573
1.9068 -10.4604 -2.4990 0.9573
2.5338 -10.3285 -2.4994 0.9572
2.7409 -10.2761 -2.4996 0.9572
2.9469 -10.2196 -2.4997 0.9572
3.1518 -10.1590 -2.4999 0.9572
3.5577 -10.0255 -2.5002 0.9572
3.9580 -9.8757 -2.5005 0.9572
4.5464 -9.6212 -2.5010 0.9572
5.1186 -9.3317 -2.5014 0.9572
5.3053 -9.2276 -2.5016 0.9572
5.8525 -8.8931 -2.5021 0.9572
6.0304 -8.7743 -2.5022 0.9572
6.2058 -8.6519 -2.5024 0.9572
6.3787 -8.5261 -2.5025 0.9572
6.8819 -8.1279 -2.5030 0.9572
7.2037 -7.8460 -2.5033 0.9572
8.0977 -6.9254 -2.5042 0.9572
8.2357 -6.7618 -2.5044 0.9572
8.3703 -6.5954 -2.5045 0.9572
8.5016 -6.4263 -2.5047 0.9572
8.6295 -6.2546 -2.5048 0.9572
8.8747 -5.9036 -2.5051 0.9571
8.9920 -5.7245 -2.5052 0.9571
9.2157 -5.3593 -2.5055 0.9571
9.4245 -4.9854 -2.5058 0.9571
-0.0681 9.0848 -2.3523 0.9632
-0.6150 9.0628 -2.3519 0.9632
-1.3401 8.9823 -2.3514 0.9632
-1.5202 8.9531 -2.3513 0.9632
-1.6996 8.9203 -2.3512 0.9632
-2.0563 8.8438 -2.3509 0.9632
-2.2334 8.8002 -2.3508 0.9632
-2.9319 8.5906 -2.3502 0.9632
-3.1037 8.5296 -2.3501 0.9632
-3.6111 8.3257 -2.3497 0.9632
-3.7774 8.2510 -2.3496 0.9632
-4.4484 7.9586 -2.3607 0.9630
-5.2775 7.8816 -2.4559 0.9616
-5.4936 7.8582 -2.4825 0.9612
-6.1461 7.4398 -2.4986 0.9609
-6.4432 7.1906 -2.4999 0.9609
-6.5860 7.0593 -2.4997 0.9609
-6.8635 6.7884 -2.4994 0.9609
-7.1298 6.5065 -2.4992 0.9609
-7.2586 6.3617 -2.4990 0.9609
-7.6274 5.9120 -2.4986 0.9609
-7.7442 5.7573 -2.4985 0.9609
-8.0756 5.2796 -2.4981 0.9609
-8.1796 5.1161 -2.4980 0.9609
-8.4716 4.6135 -2.4976 0.9609
-8.6493 4.2691 -2.4974 0.9609
-8.7329 4.0943 -2.4973 0.9609
-8.8894 3.7400 -2.4970 0.9609
-8.9624 3.5605 -2.4969 0.9609
-9.0317 3.3796 -2.4968 0.9609
-9.1593 3.0139 -2.4966 0.9609
-9.3231 2.4565 -2.4963 0.9609
-9.3702 2.2686 -2.4962 0.9609
-9.4530 1.8903 -2.4960 0.9610
-9.4887 1.7000 -2.4959 0.9610
-9.5487 1.3174 -2.4957 0.9610
-9.6360 0.1598 -2.4953 0.9610
-9.6341 -0.2274 -2.4951 0.9610
-9.6167 -0.6141 -2.4950 0.9610
-9.5838 -0.9998 -2.4949 0.9610
-9.5616 -1.1921 -2.4948 0.9610
-9.5355 -1.3838 -2.4948 0.9610
-9.4719 -1.7656 -2.4947 0.9610
-9.4344 -1.9555 -2.4946 0.9610
-9.2990 -2.5200 -2.4945 0.9610
-9.1901 -2.8914 -2.4945 0.9610
-9.1301 -3.0754 -2.4944 0.9610
-9.0664 -3.2581 -2.4944 0.9610
-8.9280 -3.6196 -2.4944 0.9610
-8.8535 -3.7981 -2.4944 0.9610
-8.7754 -3.9752 -2.4943 0.9610
-8.6937 -4.1506 -2.4943 0.9610
-8.5200 -4.4964 -2.4943 0.9610
-8.4279 -4.6666 -2.4943 0.9610
-8.3325 -4.8350 -2.4943 0.9610
-8.1316 -5.1658 -2.4943 0.9610
-8.0262 -5.3281 -2.4943 0.9610
-7.9176 -5.4883 -2.4944 0.9610
-7.8059 -5.6462 -2.4944 0.9610
-7.6909 -5.8019 -2.4944 0.9610
-7.5729 -5.9553 -2.4944 0.9610
-7.4518 -6.1062 -2.4944 0.9610
-7.0708 -6.5442 -2.4945 0.9610
-6.6642 -6.9585 -2.4946 0.9610
-6.3795 -7.2207 -2.4947 0.9610
-6.2333 -7.3476 -2.4948 0.9610
-6.0846 -7.4715 -2.4948 0.9610
-5.7799 -7.7102 -2.4950 0.9610
-5.6240 -7.8249 -2.4950 0.9610
-5.3054 -8.0449 -2.4951 0.9610
-5.1429 -8.1500 -2.4952 0.9610
-4.8117 -8.3505 -2.4954 0.9610
-4.3005 -8.6259 -2.4956 0.9610
-3.7736 -8.8702 -2.4958 0.9610
-3.5947 -8.9445 -2.4959 0.9610
-3.4145 -9.0152 -2.4960 0.9610
-2.8657 -9.2056 -2.4963 0.9609
-2.6803 -9.2616 -2.4964 0.9609
-1.9286 -9.4485 -2.4968 0.9609
-1.7385 -9.4857 -2.4969 0.9609
-1.3563 -9.5488 -2.4972 0.9609
-0.5856 -9.6286 -2.4976 0.9609
-0.3921 -9.6389 -2.4978 0.9609
-0.1984 -9.6453 -2.4979 0.9609
-0.0046 -9.6478 -2.4980 0.9609
0.1892 -9.6465 -2.4981 0.9609
0.3829 -9.6412 -2.4983 0.9609
0.5765 -9.6321 -2.4984 0.9609
1.1557 -9.5814 -2.4988 0.9609
1.3480 -9.5568 -2.4989 0.9609
1.7310 -9.4959 -2.4992 0.9609
2.1112 -9.4198 -2.4995 0.9609
2.3001 -9.3760 -2.4996 0.9609
2.4881 -9.3284 -2.4997 0.9609
2.6751 -9.2771 -2.4999 0.9609
2.8611 -9.2220 -2.5000 0.9609
3.0459 -9.1632 -2.5002 0.9609
3.4119 -9.0345 -2.5004 0.9609
3.7724 -8.8912 -2.5007 0.9609
3.9504 -8.8141 -2.5009 0.9609
4.1269 -8.7335 -2.5010 0.9609
4.3018 -8.6493 -2.5012 0.9609
4.6462 -8.4705 -2.5014 0.9609
4.8157 -8.3760 -2.5016 0.9609
4.9832 -8.2780 -2.5017 0.9609
5.1488 -8.1768 -2.5019 0.9609
5.3123 -8.0722 -2.5020 0.9609
5.4737 -7.9643 -2.5022 0.9609
6.0967 -7.5009 -2.5027 0.9608
6.2464 -7.3774 -2.5029 0.9608
6.3937 -7.2509 -2.5030 0.9608
7.0905 -6.5750 -2.5037 0.9608
7.2215 -6.4316 -2.5038 0.9608
7.3497 -6.2857 -2.5040 0.9608
7.4748 -6.1371 -2.5041 0.9608
7.8321 -5.6767 -2.5045 0.9608
7.9450 -5.5185 -2.5046 0.9608
8.0546 -5.3581 -2.5048 0.9608
8.1610 -5.1955 -2.5049 0.9608
8.2641 -5.0308 -2.5050 0.9608
-0.5624 8.2880 -2.3517 0.9661
-1.0604 8.2379 -2.3513 0.9661
-1.2270 8.2241 -2.3540 0.9660
-1.3903 8.1879 -2.3511 0.9661
-1.5544 8.1579 -2.3510 0.9661
-1.7178 8.1246 -2.3509 0.9661
-1.8806 8.0880 -2.3507 0.9661
-2.0457 8.0607 -2.3543 0.9660
-2.3905 8.0483 -2.3768 0.9657
-2.9195 8.0235 -2.4171 0.9651
-3.0996 8.0138 -2.4324 0.9649
-3.2821 8.0038 -2.4489 0.9647
-3.8285 7.9375 -2.4948 0.9640
-3.9888 7.8621 -2.4958 0.9640
-4.1476 7.7837 -2.4968 0.9640
-4.3050 7.7021 -2.4979 0.9640
-4.4608 7.6175 -2.4990 0.9640
-4.9152 7.3406 -2.5009 0.9639
-5.3475 7.0302 -2.5005 0.9639
-5.6250 6.8090 -2.5003 0.9639
-5.7603 6.6943 -2.5001 0.9640
-6.4009 6.0814 -2.4995 0.9640
-6.5214 5.9514 -2.4994 0.9640
-6.7545 5.6841 -2.4991 0.9640
-6.8670 5.5470 -2.4990 0.9640
-7.0836 5.2662 -2.4988 0.9640
-7.1876 5.1226 -2.4986 0.9640
-7.2887 4.9770 -2.4985 0.9640
-7.3868 4.8293 -2.4984 0.9640
-7.4820 4.6798 -2.4983 0.9640
-7.5741 4.5283 -2.4982 0.9640
-7.7492 4.2201 -2.4980 0.9640
-7.9117 3.9051 -2.4977 0.9640
-7.9882 3.7452 -2.4976 0.9640
-8.1315 3.4211 -2.4974 0.9640
-8.1983 3.2569 -2.4973 0.9640
-8.2617 3.0915 -2.4972 0.9640
-8.3218 2.9248 -2.4971 0.9640
-8.4319 2.5880 -2.4969 0.9640
-8.5284 2.2471 -2.4967 0.9640
-8.6112 1.9026 -2.4966 0.9640
-8.6801 1.5551 -2.4964 0.9640
-8.7758 0.8533 -2.4961 0.9640
-8.7909 0.6768 -2.4960 0.9640
-8.8133 -0.2080 -2.4957 0.9640
-8.8071 -0.3850 -2.4956 0.9640
-8.7674 -0.9146 -2.4955 0.9640
-8.7471 -1.0905 -2.4954 0.9640
-8.6959 -1.4409 -2.4953 0.9640
-8.6307 -1.7889 -2.4952 0.9640
-8.5929 -1.9619 -2.4952 0.9640
-8.5516 -2.1341 -2.4952 0.9640
-8.3524 -2.8134 -2.4950 0.9640
-8.2941 -2.9806 -2.4950 0.9640
-8.2325 -3.1466 -2.4950 0.9640
-8.0994 -3.4746 -2.4950 0.9640
-8.0279 -3.6366 -2.4950 0.9640
-7.7101 -4.2692 -2.4949 0.9640
-7.3426 -4.8743 -2.4950 0.9640
-7.0358 -5.3077 -2.4950 0.9640
-6.9279 -5.4480 -2.4950 0.9640
-6.8171 -5.5861 -2.4950 0.9640
-6.7036 -5.7220 -2.4951 0.9640
-6.5874 -5.8555 -2.4951 0.9640
-6.0965 -6.3657 -2.4952 0.9640
-5.9675 -6.4870 -2.4953 0.9640
-5.7023 -6.7217 -2.4954 0.9640
-5.5663 -6.8350 -2.4954 0.9640
-5.2875 -7.0533 -2.4955 0.9640
-4.8534 -7.3595 -2.4957 0.9640
-4.7048 -7.4557 -2.4957 0.9640
-3.9340 -7.8909 -2.4961 0.9640
-3.7748 -7.9686 -2.4962 0.9640
-3.6141 -8.0430 -2.4962 0.9640
-3.4520 -8.1142 -2.4963 0.9640
-2.7899 -8.3663 -2.4967 0.9640
-2.6214 -8.4209 -2.4967 0.9640
-1.7642 -8.6430 -2.4972 0.9640
-1.5903 -8.6770 -2.4973 0.9640
-1.4158 -8.7076 -2.4974 0.9640
-1.2406 -8.7346 -2.4975 0.9640
-1.0650 -8.7581 -2.4976 0.9640
-0.8889 -8.7781 -2.4977 0.9640
-0.7124 -8.7946 -2.4978 0.9640
-0.3587 -8.8169 -2.4981 0.9640
0.1730 -8.8237 -2.4984 0.9640
0.3502 -8.8189 -2.4985 0.9640
0.7042 -8.7985 -2.4988 0.9640
1.2330 -8.7414 -2.4991 0.9640
1.4084 -8.7153 -2.4993 0.9640
1.7575 -8.6526 -2.4995 0.9640
2.1038 -8.5759 -2.4998 0.9640
2.4468 -8.4853 -2.5000 0.9640
2.7859 -8.3810 -2.5003 0.9639
2.9538 -8.3238 -2.5004 0.9639
3.1206 -8.2633 -2.5005 0.9639
3.9345 -7.9108 -2.5012 0.9639
4.5577 -7.5711 -2.5017 0.9639
4.8586 -7.3827 -2.5020 0.9639
5.0061 -7.2840 -2.5021 0.9639
5.4366 -6.9704 -2.5025 0.9639
5.5758 -6.8601 -2.5026 0.9639
5.9797 -6.5129 -2.5030 0.9639
6.1097 -6.3918 -2.5031 0.9639
6.2371 -6.2681 -2.5033 0.9639
6.3621 -6.1418 -2.5034 0.9639
6.7214 -5.7484 -2.5038 0.9639
6.9476 -5.4743 -2.5040 0.9639
7.0565 -5.3339 -2.5041 0.9639
7.1625 -5.1914 -2.5042 0.9639
7.3660 -4.9000 -2.5045 0.9639
7.4632 -4.7512 -2.5046 0.9639
7.5575 -4.6006 -2.5047 0.9639
7.6487 -4.4481 -2.5048 0.9639
7.8219 -4.1376 -2.5051 0.9639
-0.0602 8.0348 -2.4714 0.9669
-0.2217 8.0365 -2.4728 0.9669
-0.3834 8.0376 -2.4750 0.9669
-1.0349 8.0401 -2.4934 0.9666
-1.1976 8.0268 -2.4962 0.9666
-1.5194 7.9742 -2.4968 0.9666
-2.6258 7.6937 -2.5004 0.9666
-2.7805 7.6414 -2.5011 0.9665
-2.9343 7.5862 -2.5018 0.9665
-3.0865 7.5268 -2.5022 0.9665
-3.2369 7.4629 -2.5020 0.9665
-3.6799 7.2534 -2.5017 0.9665
-3.8247 7.1776 -2.5016 0.9665
-3.9679 7.0990 -2.5014 0.9665
-4.3876 6.8462 -2.5011 0.9665
-4.6586 6.6638 -2.5008 0.9665
-4.9220 6.4707 -2.5006 0.9665
-5.0507 6.3702 -2.5005 0.9666
-5.4244 6.0536 -2.5001 0.9666
-5.6627 5.8303 -2.4999 0.9666
-5.7784 5.7151 -2.4998 0.9666
-5.8917 5.5977 -2.4996 0.9666
-6.1112 5.3560 -2.4994 0.9666
-6.2173 5.2320 -2.4993 0.9666
-6.6160 4.7152 -2.4989 0.9666
-6.7091 4.5812 -2.4988 0.9666
-6.7994 4.4453 -2.4986 0.9666
-6.9719 4.1683 -2.4984 0.9666
-7.0539 4.0272 -2.4983 0.9666
-7.2828 3.5947 -2.4980 0.9666
-7.4207 3.2990 -2.4978 0.9666
-7.4852 3.1492 -2.4977 0.9666
-7.5466 2.9981 -2.4976 0.9666
-7.6051 2.8458 -2.4976 0.9666
-7.7618 2.3823 -2.4973 0.9666
-7.8078 2.2259 -2.4972 0.9666
-7.8507 2.0685 -2.4971 0.9666
-7.9602 1.5918 -2.4969 0.9666
-7.9904 1.4316 -2.4968 0.9666
-8.0614 0.9476 -2.4966 0.9666
-8.0925 0.6231 -2.4964 0.9666
-8.1032 0.4604 -2.4964 0.9666
-8.1106 0.2975 -2.4963 0.9666
-8.1147 0.1346 -2.4962 0.9666
-8.1156 -0.0285 -2.4962 0.9666
-8.1132 -0.1914 -2.4961 0.9666
-8.0710 -0.8420 -2.4959 0.9666
-8.0523 -1.0039 -2.4959 0.9666
-8.0052 -1.3264 -2.4958 0.9666
-7.8313 -2.1223 -2.4956 0.9666
-7.7870 -2.2791 -2.4956 0.9666
-7.7396 -2.4350 -2.4956 0.9666
-7.6890 -2.5900 -2.4955 0.9666
-7.6354 -2.7438 -2.4955 0.9666
-7.4562 -3.1987 -2.4955 0.9666
-7.1753 -3.7868 -2.4955 0.9666
-6.8482 -4.3505 -2.4955 0.9666
-6.3777 -5.0154 -2.4955 0.9666
-5.4935 -5.9718 -2.4958 0.9666
-5.2494 -6.1878 -2.4958 0.9666
-4.6030 -6.6836 -2.4961 0.9666
-4.4679 -6.7748 -2.4961 0.9666
-4.1924 -6.9491 -2.4963 0.9666
-3.7665 -7.1896 -2.4964 0.9666
-3.6215 -7.2640 -2.4965 0.9666
