ply
format ascii 1.0
element vertex 1527
property float32 x
property float32 y
property float32 z
property float32 I
end_header
-31.3508 17.2879 6.3128 0.8647
-30.9487 16.2647 6.1648 0.8676
-32.6319 15.5109 6.3708 0.8635
-67.2592 30.3305 13.0097 0.7411
-43.9823 -17.5336 8.3488 0.8250
-37.3294 -17.5542 7.2736 0.8457
-35.4745 -17.5599 6.9795 0.8515
-33.7630 -17.5651 6.7108 0.8568
-31.9503 -19.1493 6.5681 0.8596
-32.0216 -20.0766 6.6643 0.8577
-24.5765 -18.3102 5.4040 0.8830
-23.9305 -18.5874 5.3429 0.8842
-22.2866 -19.5710 5.2299 0.8865
-22.2992 -20.3892 5.3278 0.8845
-22.1232 -21.0591 5.3857 0.8833
-21.1265 -21.7922 5.3518 0.8840
-20.8903 -22.4327 5.4050 0.8829
-24.6628 -27.5734 6.5230 0.8605
-22.3724 -29.4639 6.5233 0.8605
-11.4565 -16.4166 3.5299 0.9219
-10.5527 -16.4949 3.4528 0.9235
-10.0017 -16.3476 3.3792 0.9251
-9.5295 -16.3021 3.3296 0.9262
-8.6159 -16.1985 3.2351 0.9282
-8.3684 -16.5247 3.2661 0.9275
-8.0673 -18.6355 3.5806 0.9208
-6.6620 -16.2781 3.1013 0.9311
-6.4992 -16.8367 3.1823 0.9293
-5.9686 -16.4369 3.0834 0.9314
-5.9050 -17.3391 3.2298 0.9283
-5.4143 -17.0097 3.1475 0.9301
-6.7292 -24.5032 4.4805 0.9019
-4.8487 -19.1531 3.4837 0.9229
-3.5332 -18.5997 3.3383 0.9260
-2.8098 -18.9020 3.3695 0.9253
-2.0386 -18.9044 3.3527 0.9257
-1.6556 -18.9055 3.3463 0.9258
-1.2662 -18.7933 3.3213 0.9263
-0.8931 -18.9079 3.3377 0.9260
-0.5130 -18.9091 3.3354 0.9260
-0.1333 -18.9102 3.3345 0.9261
0.2464 -18.9114 3.3349 0.9261
0.6163 -18.6125 3.2837 0.9271
0.9907 -18.6137 3.2867 0.9271
1.7424 -18.6160 3.2969 0.9269
2.1385 -18.7777 3.3324 0.9261
3.7117 -18.9221 3.4001 0.9247
4.4809 -18.8111 3.4097 0.9245
4.9117 -18.9258 3.4477 0.9237
6.0528 -18.6294 3.4539 0.9235
6.4694 -18.6307 3.4775 0.9230
6.8920 -18.6320 3.5029 0.9225
7.8819 -18.9350 3.6165 0.9201
9.2580 -18.9393 3.7171 0.9179
9.7345 -18.9408 3.7550 0.9171
10.2211 -18.9423 3.7953 0.9163
11.0491 -18.6449 3.8215 0.9157
31.9804 -51.5762 10.7007 0.7815
28.2979 -33.9006 7.7864 0.8358
29.9342 -34.4317 8.0448 0.8308
30.3710 -33.5495 7.9796 0.8321
30.2372 -32.0831 7.7736 0.8361
25.2022 -24.6766 6.2193 0.8665
26.0889 -23.5697 6.1995 0.8669
25.9621 -20.7588 5.8613 0.8737
27.1127 -20.8005 6.0255 0.8704
28.3281 -19.1396 6.0282 0.8703
29.9346 -18.5198 6.2068 0.8668
31.3820 -17.7144 6.3542 0.8638
77.2003 -37.6416 15.1444 0.7055
78.0408 -36.1309 15.1639 0.7052
73.0609 -23.6569 13.5411 0.7320
75.4770 -21.1324 13.8204 0.7273
77.2385 -19.9626 14.0668 0.7232
87.9723 -19.0055 15.8697 0.6938
55.1160 14.0116 10.0276 0.7938
66.7489 33.8867 13.1995 0.7378
42.6991 23.8794 8.6264 0.8198
39.7924 26.6557 8.4452 0.8232
39.6991 27.7636 8.5420 0.8214
34.3493 25.0638 7.4976 0.8414
32.8236 24.9754 7.2726 0.8458
-18.3599 34.8659 6.0366 0.8526
-19.2665 34.8712 6.1032 0.8511
-22.8414 36.0320 6.5356 0.8414
-25.1919 34.9012 6.5940 0.8401
-26.2428 34.8606 6.6845 0.8381
-27.3948 34.9098 6.7980 0.8356
-53.4906 60.3052 12.3490 0.7217
-53.9412 58.4081 12.1798 0.7249
-32.4460 32.4193 7.0265 0.8306
-34.1464 31.4830 7.1151 0.8287
-35.0295 31.0197 7.1679 0.8275
-27.2327 22.2306 5.3854 0.8674
-27.5534 19.8538 5.2027 0.8716
-27.8578 19.2356 5.1862 0.8720
-27.9389 18.4745 5.1312 0.8732
-28.8459 17.4519 5.1648 0.8725
-29.3439 16.9581 5.1920 0.8718
-30.1943 15.1026 5.1720 0.8723
-31.4423 14.1789 5.2839 0.8697
-33.4329 14.2760 5.5691 0.8632
-37.1681 -17.4783 6.2921 0.8469
-31.8925 -18.2548 5.6295 0.8618
-31.8952 -19.1163 5.6966 0.8603
-31.8977 -19.9989 5.7676 0.8587
-25.7777 -16.8920 4.7213 0.8827
-25.5314 -17.4731 4.7395 0.8823
-24.5701 -18.3054 4.6938 0.8834
-24.5079 -19.0359 4.7540 0.8820
-22.6459 -20.7062 4.7008 0.8832
-22.2703 -21.1991 4.7102 0.8830
-22.0584 -21.8580 4.7573 0.8819
-21.7656 -22.4515 4.7904 0.8811
-21.6521 -23.2508 4.8672 0.8794
-24.6293 -27.5359 5.6596 0.8611
-22.3687 -29.4590 5.6665 0.8610
-11.8145 -16.9297 3.1626 0.9199
-10.5322 -17.2145 3.0916 0.9216
-9.6524 -17.3003 3.0349 0.9230
-8.8888 -16.7114 2.8997 0.9263
-8.6094 -17.0007 2.9193 0.9258
-8.2503 -17.1368 2.9137 0.9259
-7.1270 -16.4635 2.7483 0.9300
-6.8423 -16.7186 2.7674 0.9295
-6.6174 -17.1429 2.8151 0.9283
-7.6209 -20.9871 3.4205 0.9136
-5.7513 -18.0683 2.9048 0.9261
-4.8958 -19.3394 3.0561 0.9224
-4.9071 -21.1608 3.3277 0.9158
-5.5467 -26.3079 4.1188 0.8969
-3.5332 -18.5997 2.9003 0.9262
-3.1479 -18.6009 2.8901 0.9265
-2.0386 -18.9044 2.9128 0.9259
-1.6556 -18.9055 2.9073 0.9261
-0.5130 -18.9091 2.8978 0.9263
-0.1333 -18.9103 2.8970 0.9263
0.2464 -18.9114 2.8974 0.9263
0.6163 -18.6125 2.8529 0.9274
0.9907 -18.6137 2.8556 0.9273
1.7424 -18.6160 2.8643 0.9271
2.1385 -18.7777 2.8952 0.9264
2.5402 -18.9185 2.9242 0.9257
2.9281 -18.9197 2.9329 0.9255
3.7117 -18.9221 2.9540 0.9249
4.1081 -18.9234 2.9665 0.9246
5.2988 -18.8527 3.0000 0.9238
6.0528 -18.6294 3.0008 0.9238
8.2995 -18.8620 3.1569 0.9200
9.2216 -18.8648 3.2168 0.9185
9.7345 -18.9408 3.2624 0.9174
10.2211 -18.9423 3.2973 0.9166
24.7923 -36.6154 6.7741 0.8362
25.2205 -35.6835 6.6941 0.8379
26.9775 -36.5884 6.9640 0.8320
27.2456 -35.4399 6.8482 0.8345
28.5935 -34.2547 6.8356 0.8348
28.5463 -32.8352 6.6654 0.8386
29.6012 -32.6992 6.7570 0.8365
33.7647 -35.8259 7.5417 0.8194
25.4115 -22.9577 5.2463 0.8706
25.6457 -22.2508 5.2014 0.8716
27.2578 -20.0557 5.1843 0.8720
27.2385 -19.2108 5.1062 0.8738
30.0461 -16.9603 5.2856 0.8697
33.1380 -17.8381 5.7653 0.8587
34.0072 -17.4348 5.8545 0.8567
71.3920 -34.8096 12.1676 0.7251
71.4279 -33.0693 12.0582 0.7272
72.4287 -31.7830 12.1170 0.7261
73.5676 -30.5368 12.2025 0.7245
74.6287 -29.2351 12.2786 0.7230
77.4170 -26.7958 12.5502 0.7178
79.1625 -25.6325 12.7471 0.7141
80.8707 -24.4034 12.9407 0.7105
82.1695 -23.0062 13.0720 0.7080
83.0483 -21.4642 13.1406 0.7067
83.7344 -19.8572 13.1834 0.7059
87.9723 -19.0055 13.7878 0.6947
53.6266 14.7852 8.5218 0.7984
53.7504 15.9869 8.5908 0.7970
53.9138 18.4214 8.7281 0.7941
53.9464 19.6504 8.7955 0.7927
81.7612 33.5576 13.5393 0.6993
75.2306 34.4676 12.6769 0.7154
41.9233 24.5632 7.4436 0.8215
41.0938 26.3480 7.4782 0.8207
32.8236 24.9754 6.3185 0.8463
31.8811 25.2845 6.2335 0.8482
31.8844 26.3469 6.3363 0.8459
-17.7198 35.3541 5.1497 0.8526
-18.3703 34.8857 5.1342 0.8530
-20.1937 34.8766 5.2480 0.8500
-22.2795 36.7570 5.5972 0.8408
-24.5245 35.4552 5.6139 0.8404
-25.1903 34.8990 5.6048 0.8406
-26.3031 34.9407 5.6951 0.8383
-53.9242 65.9469 11.0931 0.7092
-51.7978 60.8132 10.4024 0.7245
-33.6676 32.3157 6.0770 0.8284
-33.8012 31.1648 5.9870 0.8307
-34.5674 30.6105 6.0126 0.8301
-39.2974 30.7857 6.5007 0.8176
-38.8889 29.2253 6.3348 0.8218
-29.0728 19.2243 4.5387 0.8688
-28.8331 18.2446 4.4432 0.8714
-30.5729 16.8589 4.5464 0.8686
-30.7913 16.1819 4.5297 0.8691
-30.3666 15.1888 4.4214 0.8720
-30.1647 14.3382 4.3493 0.8740
-31.3839 14.1525 4.4832 0.8703
-32.4700 13.1007 4.5595 0.8683
-39.3477 -17.5476 5.6103 0.8405
-34.1935 -17.7892 5.0192 0.8560
-31.8746 -18.2445 4.7826 0.8623
-26.3217 -17.2485 4.0980 0.8808
-24.9981 -17.8554 4.0004 0.8835
-23.8200 -20.9176 4.1281 0.8800
-21.8560 -19.9840 3.8565 0.8874
-24.6129 -24.3893 4.5122 0.8696
-24.2922 -28.2816 4.8549 0.8604
-22.8250 -28.8390 4.7893 0.8621
-22.1941 -29.2290 4.7791 0.8624
-21.6977 -29.7987 4.8001 0.8618
-12.2438 -17.5448 2.7860 0.9173
-10.7428 -18.3777 2.7720 0.9177
-22.5757 -40.4629 6.0337 0.8295
-7.9660 -16.5461 2.3914 0.9286
-7.5345 -16.4888 2.3607 0.9295
-7.5667 -17.4792 2.4803 0.9260
-7.0772 -17.2925 2.4331 0.9274
-6.6783 -17.3006 2.4149 0.9279
-5.5168 -18.6166 2.5285 0.9247
-6.1822 -22.5112 3.0400 0.9101
-6.8973 -29.7426 3.9759 0.8841
-3.5332 -18.5997 2.4654 0.9265
-3.1479 -18.6009 2.4567 0.9267
-2.4137 -18.8288 2.4720 0.9263
-1.6491 -18.8312 2.4616 0.9266
0.2454 -18.8370 2.4532 0.9268
0.9907 -18.6137 2.4273 0.9276
1.7424 -18.6160 2.4348 0.9274
2.5402 -18.9185 2.4857 0.9259
2.9281 -18.9197 2.4931 0.9257
3.7117 -18.9221 2.5110 0.9252
4.4809 -18.8111 2.5181 0.9250
5.6415 -18.6281 2.5346 0.9245
6.8920 -18.6320 2.5869 0.9230
7.4390 -18.9337 2.6490 0.9212
7.8819 -18.9350 2.6708 0.9206
8.3323 -18.9364 2.6941 0.9199
9.2580 -18.9393 2.7452 0.9185
9.7345 -18.9408 2.7732 0.9177
32.1710 -51.8835 7.9497 0.7817
26.1550 -37.0056 5.9010 0.8329
28.9590 -39.2758 6.3545 0.8213
27.2270 -35.4158 5.8172 0.8351
30.1939 -33.3539 5.8587 0.8340
32.7088 -33.3387 6.0819 0.8283
62.5555 -61.2508 11.4007 0.7025
53.6470 -50.4590 9.5906 0.7430
27.6147 -23.9591 4.7608 0.8629
27.8315 -23.1846 4.7170 0.8641
27.6596 -20.3514 4.4718 0.8706
27.3472 -19.2875 4.3578 0.8737
28.0509 -18.9523 4.4084 0.8724
29.8725 -18.4814 4.5743 0.8679
29.6508 -17.5312 4.4856 0.8703
29.6505 -16.7370 4.4338 0.8717
79.3371 -38.6835 11.4940 0.7004
70.7555 -31.0487 10.0619 0.7322
70.8380 -29.4038 9.9877 0.7339
71.1290 -27.8641 9.9478 0.7348
73.0610 -23.6569 10.0004 0.7336
74.1223 -22.3670 10.0822 0.7318
75.4770 -21.1324 10.2066 0.7289
56.7161 12.0173 7.5496 0.7915
54.5069 13.8568 7.3237 0.7970
54.0116 18.4548 7.4327 0.7943
55.1929 22.6530 7.7691 0.7861
69.2797 35.1715 10.1177 0.7310
42.6348 22.7323 6.2918 0.8229
42.6928 23.8759 6.3698 0.8209
41.9233 24.5632 6.3273 0.8220
40.7606 24.9943 6.2266 0.8246
40.2735 26.9780 6.3124 0.8224
32.8236 24.9754 5.3710 0.8467
31.8811 25.2846 5.2987 0.8486
31.8844 26.3469 5.3861 0.8463
31.8878 27.4453 5.4787 0.8439
-17.7121 35.3387 4.2447 0.8530
-18.3642 34.8740 4.2323 0.8534
-20.2049 34.8958 4.3300 0.8503
-24.5189 35.4470 4.6282 0.8408
-25.1819 34.8873 4.6202 0.8411
-26.3189 34.9617 4.6991 0.8386
-53.9242 65.9469 9.1475 0.7098
-51.7978 60.8132 8.5780 0.7252
-53.5050 60.3214 8.6584 0.7230
-53.9475 58.4150 8.5385 0.7262
-32.4949 31.1901 4.8366 0.8343
-34.3447 30.4133 4.9262 0.8315
-9.5927 8.1571 1.3521 0.9506
-35.8526 29.2672 4.9698 0.8301
-30.3867 20.0931 3.9118 0.8637
-29.8363 18.8795 3.7914 0.8676
-31.9078 17.5950 3.9127 0.8636
-31.9736 15.9926 3.8389 0.8660
-32.9679 14.8669 3.8835 0.8646
-33.2631 14.2035 3.8838 0.8646
-34.3733 13.8686 3.9802 0.8615
-48.8697 4.0347 5.2656 0.8210
-38.4579 -11.8562 4.3215 0.8505
-43.9814 -17.5332 5.0842 0.8266
-41.5556 -17.5408 4.8435 0.8341
-37.3292 -17.5541 4.4296 0.8471
-34.3364 -17.8635 4.1562 0.8558
-32.0870 -19.2313 4.0170 0.8603
-31.8977 -19.9989 4.0428 0.8595
-31.8828 -20.8927 4.0932 0.8578
-31.8857 -21.8219 4.1490 0.8560
-24.9485 -18.5874 3.3408 0.8824
-25.1823 -20.3832 3.4789 0.8778
-22.8545 -19.2710 3.2102 0.8867
-22.7413 -20.7935 3.3089 0.8834
-21.0541 -22.6085 3.3174 0.8831
-22.5934 -28.5464 3.9093 0.8638
-20.8171 -29.8299 3.9061 0.8639
-25.3169 -39.5728 5.0446 0.8278
-25.0868 -41.0037 5.1618 0.8242
-11.1795 -19.1247 2.3788 0.9147
-22.2214 -43.8799 5.2816 0.8205
-20.5696 -42.7251 5.0919 0.8263
-22.8313 -49.9647 5.8989 0.8017
-8.5717 -19.8007 2.3169 0.9169
-6.3631 -18.6840 2.1195 0.9237
-8.6668 -29.2462 3.2755 0.8845
-8.8004 -32.0448 3.5684 0.8749
-8.2782 -35.6976 3.9350 0.8629
-7.5045 -35.5936 3.9061 0.8639
-3.1471 -18.5963 2.0253 0.9269
-1.6289 -18.6010 2.0050 0.9276
-0.8787 -18.6033 1.9999 0.9278
0.2424 -18.6068 1.9982 0.9279
0.6161 -18.6079 1.9992 0.9278
0.9905 -18.6091 2.0011 0.9278
1.7420 -18.6114 2.0073 0.9276
2.1197 -18.6126 2.0116 0.9274
2.8810 -18.6149 2.0227 0.9270
3.6519 -18.6173 2.0373 0.9265
4.4353 -18.6197 2.0554 0.9259
5.6401 -18.6235 2.0895 0.9247
6.0513 -18.6248 2.1029 0.9242
6.8903 -18.6274 2.1327 0.9232
7.3192 -18.6287 2.1492 0.9226
7.7549 -18.6300 2.1669 0.9220
8.1981 -18.6314 2.1858 0.9214
8.6492 -18.6328 2.2059 0.9207
9.1089 -18.6342 2.2272 0.9199
10.0564 -18.6371 2.2740 0.9183
25.2534 -37.2964 4.8367 0.8343
25.6956 -36.3556 4.7806 0.8360
26.1813 -35.5086 4.7374 0.8374
26.7305 -34.7700 4.7095 0.8383
29.1670 -34.9418 4.8875 0.8327
28.4094 -32.6778 4.6497 0.8401
30.5523 -33.7497 4.8885 0.8326
30.0510 -31.8855 4.7049 0.8384
33.4394 -34.0834 5.1273 0.8252
28.2076 -26.5314 4.1583 0.8557
28.1999 -20.7489 3.7595 0.8686
29.1778 -20.5786 3.8340 0.8662
29.5858 -19.9893 3.8341 0.8662
29.8904 -19.3327 3.8225 0.8666
32.1323 -16.4736 3.8775 0.8648
71.3920 -34.8096 8.5289 0.7265
87.3755 -28.2918 9.8621 0.6911
91.9894 -23.7750 10.2026 0.6823
91.5794 -21.7177 10.1067 0.6848
88.7829 -17.3230 9.7134 0.6950
89.6306 15.2610 9.7632 0.6937
57.5111 12.1858 6.3127 0.7894
54.7538 12.7551 6.0370 0.7976
56.1579 14.2765 6.2221 0.7921
52.1392 18.9921 5.9587 0.7999
84.6011 34.7232 9.8200 0.6922
75.9879 34.8146 8.9753 0.7144
75.4968 36.4405 9.0019 0.7137
69.3644 35.2145 8.3533 0.7313
65.3443 34.8406 7.9518 0.7424
40.3837 27.0518 5.2195 0.8224
41.0564 28.7129 5.3799 0.8175
32.8236 24.9754 4.4290 0.8471
31.8811 25.2846 4.3694 0.8490
31.8844 26.3469 4.4415 0.8467
-17.7067 35.3280 3.3452 0.8533
-18.3486 34.8444 3.3336 0.8538
-19.2756 34.8877 3.3741 0.8521
-20.2300 34.9393 3.4177 0.8504
-24.3532 36.7635 3.7330 0.8378
-24.5133 35.4390 3.6478 0.8412
-25.1695 34.8702 3.6405 0.8414
-26.2906 34.9240 3.7005 0.8391
-27.4064 34.9245 3.7581 0.8368
-53.9242 65.9469 7.2113 0.7104
-51.7978 60.8132 6.7623 0.7257
-53.5050 60.3214 6.8257 0.7235
-53.9475 58.4150 6.7312 0.7267
-32.7892 34.1048 4.0050 0.8270
-33.5030 33.4755 4.0092 0.8269
-34.1703 31.5051 3.9345 0.8298
-35.3514 31.3048 3.9973 0.8273
-9.5908 8.1554 1.0657 0.9507
-51.7491 37.2882 5.3995 0.7741
-51.8846 32.8309 5.1976 0.7816
-32.4056 18.7274 3.1684 0.8605
-34.3393 18.9358 3.3196 0.8543
-32.9891 16.5005 3.1225 0.8624
-64.8479 30.8242 6.0781 0.7496
-71.8314 28.9818 6.5570 0.7328
-81.5046 29.1382 7.3272 0.7065
-46.6634 -17.5252 4.2196 0.8187
-41.5554 -17.5408 3.8183 0.8344
-32.1775 -17.5699 3.1035 0.8631
-31.8925 -18.2548 3.1108 0.8628
-31.8952 -19.1164 3.1478 0.8613
-31.8977 -19.9989 3.1871 0.8597
-28.6668 -21.3576 3.0262 0.8663
-25.5127 -19.8163 2.7347 0.8784
-23.7392 -20.8466 2.6745 0.8809
-22.6643 -21.5741 2.6488 0.8820
-21.6409 -22.3229 2.6319 0.8827
-24.1209 -29.2501 3.2094 0.8588
-22.4404 -29.5534 3.1413 0.8616
-21.4647 -30.7578 3.1751 0.8602
-23.6661 -38.6815 3.8387 0.8336
-23.6028 -40.3770 3.9592 0.8288
-22.6128 -40.5293 3.9288 0.8300
-22.5870 -44.6017 4.2322 0.8182
-22.0541 -48.2639 4.4920 0.8081
-8.5626 -19.7798 1.8246 0.9171
-22.0752 -53.9388 4.9337 0.7914
-23.2987 -60.3570 5.4768 0.7713
-22.6173 -62.2852 5.6095 0.7664
-12.0263 -37.7817 3.3564 0.8529
-8.6704 -29.2584 2.5833 0.8847
-8.2284 -35.4831 3.0834 0.8640
-3.4943 -18.3952 1.5851 0.9276
-3.1133 -18.3964 1.5794 0.9278
-1.6114 -18.4010 1.5637 0.9285
-1.2398 -18.4022 1.5613 0.9286
-0.4993 -18.4045 1.5586 0.9288
0.2398 -18.4068 1.5583 0.9288
1.7232 -18.4114 1.5654 0.9285
4.0419 -18.6185 1.6128 0.9264
5.2341 -18.6222 1.6375 0.9253
6.4678 -18.6260 1.6691 0.9239
6.8903 -18.6274 1.6813 0.9234
7.7549 -18.6300 1.7083 0.9222
8.1981 -18.6314 1.7231 0.9215
9.1088 -18.6342 1.7558 0.9201
9.5777 -18.6357 1.7737 0.9193
11.0463 -18.6402 1.8342 0.9167
32.0051 -51.6159 5.1412 0.7836
35.2290 -54.3482 5.4827 0.7711
26.3769 -37.3195 3.8686 0.8324
27.9836 -37.9530 3.9917 0.8275
27.5119 -34.3373 3.7247 0.8381
29.6208 -32.7208 3.7363 0.8376
31.4334 -32.0388 3.7995 0.8351
29.4188 -26.5781 3.3562 0.8529
29.7516 -25.8131 3.3344 0.8537
29.1299 -24.2661 3.2094 0.8588
29.0944 -23.2633 3.1534 0.8611
30.6692 -21.6305 3.1770 0.8601
31.8437 -21.5148 3.2533 0.8570
31.1129 -20.1234 3.1367 0.8618
31.0177 -19.1899 3.0876 0.8638
31.3983 -18.5644 3.0878 0.8638
83.9602 -40.9377 7.9073 0.6873
84.7651 -39.2441 7.9073 0.6873
70.7555 -31.0488 6.5410 0.7333
70.8380 -29.4037 6.4927 0.7350
71.1290 -27.8641 6.4668 0.7359
71.5945 -26.4015 6.4596 0.7362
72.2347 -25.0022 6.4708 0.7358
74.1223 -22.3670 6.5541 0.7329
75.4770 -21.1324 6.6350 0.7301
79.7977 -18.9237 6.9424 0.7195
88.7122 -17.3092 7.6513 0.6957
30.0615 2.0556 2.5507 0.8861
60.3241 5.3435 5.1266 0.7842
87.3818 14.8782 7.5036 0.7006
87.2972 16.6734 7.5235 0.6999
86.6246 18.3545 7.4958 0.7009
55.2594 15.2353 4.8524 0.7945
52.9232 16.9044 4.7031 0.8001
53.2652 19.4022 4.7989 0.7965
69.3486 35.2064 6.5837 0.7318
63.7088 35.6291 6.1792 0.7460
40.7448 24.9846 4.0461 0.8254
40.3285 27.0148 4.1091 0.8230
40.3322 28.2064 4.1663 0.8207
34.3235 25.0450 3.5969 0.8432
32.8236 24.9754 3.4915 0.8474
31.8811 25.2845 3.4446 0.8493
-18.3857 34.9150 2.4469 0.8537
-19.3023 34.9359 2.4751 0.8522
-20.1932 34.8757 2.4990 0.8509
-23.8252 37.5838 2.7594 0.8367
-24.3532 36.7635 2.7346 0.8380
-26.2150 34.8237 2.7029 0.8397
-27.3979 34.9137 2.7520 0.8371
-53.9179 65.9391 5.2818 0.7108
-51.7727 60.7838 4.9512 0.7262
-53.4827 60.2962 4.9979 0.7240
-53.9412 58.4081 4.9302 0.7271
-33.1079 31.7785 2.8457 0.8320
-9.5875 8.1525 0.7804 0.9508
-51.8653 38.9771 4.0231 0.7710
-51.9181 35.8489 3.9124 0.7766
-51.8879 31.3925 3.7606 0.7842
-32.4049 18.7271 2.3209 0.8607
-52.5035 28.9521 3.7179 0.7864
-55.2610 29.0416 3.8711 0.7787
-57.9168 28.9689 4.0156 0.7714
-61.2325 29.1057 4.2042 0.7621
-67.7313 28.9217 4.5669 0.7444
-71.8565 28.9919 4.8048 0.7331
-91.6160 34.8427 6.0781 0.6751
-80.7429 28.8660 5.3172 0.7092
-88.5105 27.6897 5.7509 0.6896
-43.9814 -17.5332 2.9360 0.8272
-35.4745 -17.5599 2.4545 0.8533
-32.1779 -17.5701 2.2734 0.8634
-31.8927 -18.2548 2.2787 0.8631
-31.8954 -19.1164 2.3059 0.8615
-31.8597 -23.7364 2.4637 0.8528
-26.4546 -20.5480 2.0772 0.8744
-26.1572 -21.1723 2.0868 0.8738
-24.9642 -21.9223 2.0602 0.8753
-25.1728 -28.1436 2.3414 0.8596
-24.5482 -28.5796 2.3362 0.8599
-22.8397 -28.8576 2.2821 0.8629
-22.9332 -31.4956 2.4159 0.8554
-24.1569 -37.7595 2.7796 0.8356
-24.1937 -59.1151 3.9609 0.7742
-11.5772 -36.3710 2.3669 0.8582
-9.2054 -36.3628 2.3260 0.8604
-8.9391 -38.5474 2.4538 0.8534
-3.5323 -18.5951 1.1737 0.9269
-0.8787 -18.6033 1.1549 0.9281
-0.5048 -18.6045 1.1541 0.9281
-0.1312 -18.6056 1.1538 0.9281
0.2424 -18.6068 1.1539 0.9281
0.9905 -18.6091 1.1556 0.9280
1.7420 -18.6114 1.1591 0.9278
2.1197 -18.6126 1.1616 0.9277
2.4993 -18.6138 1.1646 0.9275
2.8810 -18.6149 1.1681 0.9273
3.2651 -18.6161 1.1720 0.9271
4.0419 -18.6185 1.1814 0.9265
4.4353 -18.6197 1.1869 0.9262
5.6401 -18.6235 1.2066 0.9250
6.0513 -18.6247 1.2144 0.9245
6.4678 -18.6261 1.2227 0.9240
9.5777 -18.6357 1.2993 0.9195
10.0564 -18.6371 1.3132 0.9186
11.0463 -18.6402 1.3436 0.9168
51.8246 -79.9503 5.9082 0.6826
52.2828 -77.2158 5.7825 0.6882
29.1876 -37.9660 2.9696 0.8254
31.9980 -35.3468 2.9566 0.8261
30.9383 -32.8270 2.7972 0.8346
53.0206 -49.8699 4.5137 0.7470
53.0267 -47.9063 4.4314 0.7510
53.0438 -42.4129 4.2114 0.7617
55.0416 -42.2273 4.3019 0.7573
31.9225 -23.4879 2.4576 0.8531
65.3372 -42.2593 4.8252 0.7321
71.5062 -42.2784 5.1512 0.7168
74.9172 -42.2890 5.3347 0.7084
71.8884 -35.0516 4.9595 0.7258
87.3755 -28.2918 5.6951 0.6921
87.9723 -19.0055 5.5810 0.6972
90.4383 13.5365 5.6706 0.6932
86.8010 14.7793 5.4600 0.7027
57.4479 13.3827 3.6577 0.7895
54.0972 14.9149 3.4797 0.7986
54.4948 18.6199 3.5711 0.7939
56.1359 20.4479 3.7048 0.7871
56.1759 21.7495 3.7355 0.7855
82.1420 35.6570 5.5529 0.6985
75.9879 34.8146 5.1830 0.7154
69.3329 35.1984 4.8217 0.7323
63.6907 35.6190 4.5251 0.7464
40.7369 24.9798 2.9633 0.8257
34.3171 25.0403 2.6344 0.8435
32.8236 24.9754 2.5576 0.8476
31.8811 25.2845 2.5232 0.8495
31.8844 26.3469 2.5648 0.8472
31.8878 27.4453 2.6089 0.8448
-4.5048 7.7803 0.3545 0.9647
-4.7138 7.7769 0.3586 0.9643
-5.1515 7.7767 0.3678 0.9633
-24.7864 32.9259 1.6251 0.8479
-51.7900 63.3368 3.2261 0.7207
-51.9524 56.2546 3.0194 0.7360
-51.9240 54.0073 2.9541 0.7409
-36.4845 33.6388 1.9568 0.8198
-9.5841 8.1497 0.4961 0.9509
-37.7317 30.8012 1.9206 0.8229
-51.8602 40.6275 2.5977 0.7682
-52.5035 28.9521 2.3642 0.7866
-55.1060 28.9602 2.4547 0.7794
-57.9168 28.9689 2.5535 0.7716
-89.7690 24.1736 3.6658 0.6892
-38.4519 -11.8543 1.5866 0.8512
-46.6645 -17.5256 1.9655 0.8191
-43.9832 -17.5339 1.8670 0.8273
-41.5570 -17.5414 1.7786 0.8348
-39.3484 -17.5479 1.6988 0.8416
-35.6727 -17.6580 1.5695 0.8527
-32.1779 -17.5701 1.4456 0.8635
-31.8927 -18.2548 1.4490 0.8632
-32.0205 -19.1914 1.4720 0.8612
-31.8981 -19.9991 1.4845 0.8601
-32.1113 -21.0424 1.5138 0.8575
-31.9038 -21.8343 1.5244 0.8566
-31.8694 -26.8725 1.6438 0.8463
-31.9511 -30.4143 1.7394 0.8381
-32.3951 -32.1008 1.7983 0.8331
-31.9424 -34.3007 1.8482 0.8289
-26.1281 -29.2116 1.5454 0.8548
-25.7273 -29.9524 1.5569 0.8538
-31.9060 -38.6907 1.9774 0.8181
-31.9164 -42.0330 2.0811 0.8096
-32.0039 -43.9529 2.1439 0.8044
-31.9918 -47.8620 2.2700 0.7942
-32.0056 -52.3121 2.4182 0.7823
-25.4045 -43.4591 1.9850 0.8175
-31.9928 -57.3413 2.5891 0.7689
-31.8672 -59.9120 2.6758 0.7621
-31.8295 -62.8526 2.7780 0.7543
-8.5688 -19.7939 0.8505 0.9173
-25.3119 -61.8474 2.6351 0.7653
-31.9167 -82.6823 3.4947 0.7013
-27.2678 -75.0922 3.1501 0.7263
-25.4847 -74.8309 3.1171 0.7287
-23.1291 -84.2195 3.4438 0.7050
-22.0707 -87.1823 3.5461 0.6977
-8.9477 -38.5849 1.5618 0.8534
-3.5323 -18.5951 0.7463 0.9270
-3.1472 -18.5963 0.7437 0.9273
-2.7646 -18.5975 0.7414 0.9275
-2.3842 -18.5987 0.7394 0.9277
-2.0058 -18.5998 0.7377 0.9278
-0.8787 -18.6033 0.7344 0.9282
-0.5048 -18.6045 0.7339 0.9282
-0.1312 -18.6056 0.7337 0.9282
0.2424 -18.6068 0.7337 0.9282
0.6161 -18.6079 0.7341 0.9282
1.7420 -18.6114 0.7371 0.9279
3.2651 -18.6161 0.7453 0.9271
3.6519 -18.6173 0.7481 0.9269
4.0419 -18.6185 0.7512 0.9266
5.6401 -18.6235 0.7673 0.9251
6.0512 -18.6247 0.7722 0.9246
6.4678 -18.6260 0.7775 0.9241
7.3192 -18.6287 0.7892 0.9230
8.1981 -18.6314 0.8026 0.9217
10.5457 -18.6387 0.8444 0.9178
11.0463 -18.6402 0.8544 0.9169
51.9302 -80.1133 3.7646 0.6824
52.6956 -77.8256 3.7060 0.6864
52.8235 -71.6422 3.5098 0.7002
58.7870 -73.3712 3.7072 0.6864
30.5521 -36.6011 1.8799 0.8263
53.3183 -61.3292 3.2044 0.7223
56.7975 -62.7417 3.3371 0.7126
53.3784 -54.4064 3.0054 0.7370
53.3850 -52.2715 2.9461 0.7415
53.3914 -50.2186 2.8902 0.7457
70.6249 -61.2757 3.6869 0.6878
53.6648 -44.7046 2.7541 0.7561
53.1589 -42.5050 2.6838 0.7615
57.9087 -42.6080 2.8349 0.7499
75.5794 -42.6628 3.4222 0.7065
80.0622 -43.0973 3.5853 0.6949
86.8072 -42.3258 3.8081 0.6794
70.7555 -31.0487 3.0468 0.7340
70.8380 -29.4037 3.0243 0.7356
71.1290 -27.8641 3.0122 0.7365
73.0610 -23.6569 3.0281 0.7353
74.1223 -22.3670 3.0529 0.7335
75.4770 -21.1324 3.0906 0.7307
77.2385 -19.9626 3.1457 0.7266
88.1361 15.0066 3.5253 0.6991
86.4379 16.5093 3.4699 0.7031
85.4679 18.1094 3.4449 0.7049
87.5654 20.3987 3.5452 0.6977
58.0197 15.9964 2.3731 0.7859
84.1501 34.5381 3.5867 0.6948
75.4969 36.4405 3.3056 0.7149
63.6727 35.6089 2.8766 0.7467
41.9233 24.5632 1.9159 0.8232
40.7291 24.9750 1.8840 0.8259
41.0564 28.7129 1.9755 0.8183
32.8236 24.9754 1.6263 0.8478
31.8811 25.2846 1.6045 0.8497
31.8844 26.3469 1.6309 0.8474
-4.0242 8.0290 0.1517 0.9647
-4.2283 8.0296 0.1533 0.9643
-51.2867 65.3558 1.4033 0.7172
-51.7978 60.8132 1.3494 0.7265
-51.8052 58.4050 1.3187 0.7317
-51.9524 56.2546 1.2935 0.7361
-51.8630 53.9438 1.2640 0.7413
-51.8695 51.8269 1.2386 0.7458
-36.5028 33.6556 0.8387 0.8199
-51.9840 46.0334 1.1729 0.7575
-51.8550 42.3303 1.1307 0.7651
-51.9180 35.8489 1.0658 0.7769
-51.8834 32.8302 1.0371 0.7822
-51.8879 31.3924 1.0244 0.7846
-32.3952 18.7215 0.6320 0.8610
-46.6164 25.7058 0.8992 0.8082
-55.2610 29.0416 1.0545 0.7790
-57.9168 28.9689 1.0939 0.7718
-63.1736 28.4881 1.1706 0.7579
-57.6503 24.6170 1.0589 0.7782
-71.8554 28.9915 1.3088 0.7335
-80.7429 28.8660 1.4484 0.7096
-86.2646 28.9006 1.5368 0.6949
-88.1653 25.6505 1.5510 0.6926
-88.1770 21.8564 1.5345 0.6953
-92.5702 20.9823 1.6033 0.6840
-85.5529 17.5940 1.4754 0.7051
-96.4651 -1.7365 1.6297 0.6798
-40.8030 -17.2232 0.7481 0.8376
-36.7038 -17.2600 0.6851 0.8502
-33.2363 -17.2911 0.6329 0.8608
-31.8927 -18.2548 0.6207 0.8633
-32.1058 -19.2425 0.6323 0.8609
-31.8566 -22.7542 0.6613 0.8550
-32.0434 -29.2989 0.7334 0.8405
-31.9510 -30.4142 0.7451 0.8382
-32.1575 -35.9525 0.8148 0.8245
-32.0101 -45.8688 0.9448 0.7995
-31.9918 -47.8619 0.9725 0.7943
-24.1517 -37.7515 0.7570 0.8359
-32.0056 -52.3121 1.0359 0.7824
-25.3460 -43.3590 0.8484 0.8180
-32.0027 -57.3590 1.1095 0.7689
-25.2659 -52.4796 0.9839 0.7921
-8.5810 -19.8221 0.3649 0.9172
-8.2308 -20.1112 0.3671 0.9167
-32.3442 -89.0720 1.6007 0.6845
-32.1284 -94.3387 1.6834 0.6712
-8.6252 -29.1060 0.5128 0.8856
-8.9315 -38.5148 0.6679 0.8537
-3.5351 -20.8889 0.3579 0.9187
-3.1095 -20.9178 0.3572 0.9189
-2.6776 -20.8872 0.3557 0.9192
-1.6289 -18.6010 0.3154 0.9280
-1.2628 -18.7431 0.3173 0.9276
-0.8854 -18.7442 0.3170 0.9277
-0.5086 -18.7454 0.3168 0.9277
0.2442 -18.7478 0.3167 0.9277
0.9980 -18.7501 0.3172 0.9276
1.3656 -18.6102 0.3152 0.9281
2.1387 -18.7796 0.3193 0.9272
2.9068 -18.7820 0.3210 0.9268
3.2943 -18.7831 0.3221 0.9265
3.6847 -18.7844 0.3233 0.9263
5.2810 -18.7893 0.3297 0.9249
5.6907 -18.7906 0.3316 0.9245
6.0952 -18.7599 0.3332 0.9241
6.5259 -18.7931 0.3360 0.9235
6.9521 -18.7945 0.3385 0.9230
7.8245 -18.7972 0.3439 0.9218
8.2716 -18.7986 0.3469 0.9211
10.2046 -20.8757 0.3925 0.9112
11.1529 -20.6692 0.3967 0.9103
11.0561 -18.6566 0.3663 0.9169
52.2088 -84.1993 1.6735 0.6728
58.7852 -73.3691 1.5881 0.6865
30.4788 -36.5133 0.8034 0.8267
53.0206 -49.8699 1.2295 0.7474
53.0267 -47.9063 1.2071 0.7513
53.0383 -44.1827 1.1660 0.7587
62.5342 -42.2506 1.2748 0.7394
65.3371 -42.2592 1.3144 0.7325
71.5061 -42.2784 1.4032 0.7173
74.9171 -42.2889 1.4532 0.7088
72.4483 -37.1427 1.3752 0.7220
75.0250 -34.7346 1.3965 0.7184
87.3302 -34.2108 1.5843 0.6871
87.3755 -28.2919 1.5514 0.6925
41.0654 16.8547 0.7498 0.8373
82.0989 35.6382 1.5118 0.6990
75.9879 34.8146 1.4119 0.7158
32.8026 16.6530 0.6214 0.8631
40.5495 24.8648 0.8035 0.8267
41.0937 26.3480 0.8246 0.8226
40.3837 27.0518 0.8211 0.8233
22.9911 16.7760 0.4808 0.8924
22.9327 17.4494 0.4868 0.8911
31.8811 25.2846 0.6873 0.8498
31.8844 26.3469 0.6987 0.8475
31.8878 27.4453 0.7107 0.8451
-20.8540 32.8969 -0.2193 0.8557
-24.6874 32.7944 -0.2311 0.8486
-51.3738 65.4668 -0.4686 0.7169
-51.7978 60.8132 -0.4498 0.7265
-51.8052 58.4050 -0.4396 0.7318
-51.8695 51.8269 -0.4128 0.7458
-51.9152 49.8305 -0.4052 0.7499
-51.8877 45.9482 -0.3902 0.7579
-51.6716 42.1806 -0.3755 0.7658
-51.8602 40.6275 -0.3709 0.7683
-51.8703 37.3755 -0.3599 0.7743
-51.9180 35.8489 -0.3552 0.7770
-51.8963 34.3163 -0.3503 0.7797
-51.8879 31.3925 -0.3414 0.7846
-32.2346 18.6286 -0.2096 0.8616
-57.9168 28.9689 -0.3646 0.7718
-63.3689 28.5762 -0.3914 0.7573
-86.2646 28.9006 -0.5122 0.6950
-88.1653 25.6505 -0.5170 0.6926
-88.1770 21.8564 -0.5115 0.6953
-88.1828 19.9878 -0.5091 0.6965
-94.5201 17.4683 -0.5412 0.6808
-64.9415 2.7438 -0.3660 0.7711
-38.4448 -11.8521 -0.2265 0.8514
-47.9533 -16.9193 -0.2863 0.8159
-37.9866 -16.9406 -0.2342 0.8467
-36.0577 -16.9562 -0.2243 0.8527
-34.2660 -16.9617 -0.2153 0.8582
-32.1779 -17.5701 -0.2064 0.8636
-31.8927 -18.2548 -0.2069 0.8633
-31.8954 -19.1164 -0.2094 0.8618
-31.8981 -19.9991 -0.2120 0.8602
-31.8566 -22.7542 -0.2204 0.8550
-31.8597 -23.7364 -0.2237 0.8531
-31.8661 -25.7932 -0.2308 0.8488
-31.8694 -26.8725 -0.2347 0.8464
-31.9471 -29.2108 -0.2437 0.8410
-31.3698 -32.3584 -0.2537 0.8350
-31.9424 -34.3007 -0.2639 0.8290
-31.9514 -37.1985 -0.2761 0.8219
-31.9060 -38.6907 -0.2823 0.8182
-31.9110 -40.3191 -0.2895 0.8141
-32.0038 -43.9528 -0.3061 0.8045
-32.0101 -45.8688 -0.3149 0.7995
-31.6495 -47.3498 -0.3207 0.7963
-24.1473 -37.7445 -0.2523 0.8359
-31.9221 -60.0151 -0.3827 0.7619
-31.9999 -63.1891 -0.3988 0.7533
-25.2919 -52.5335 -0.3283 0.7920
-32.0031 -70.0366 -0.4335 0.7349
-8.2488 -20.1553 -0.1226 0.9166
-31.1416 -85.7602 -0.5137 0.6942
-31.3999 -92.1998 -0.5484 0.6773
-8.6402 -29.1566 -0.1712 0.8855
-10.2171 -48.4592 -0.2788 0.8203
-3.5337 -18.6024 -0.1066 0.9271
-3.5344 -20.8845 -0.1193 0.9188
-2.2526 -20.8885 -0.1183 0.9194
-1.6289 -18.6010 -0.1051 0.9280
-1.2607 -18.7112 -0.1056 0.9277
-0.5077 -18.7135 -0.1054 0.9279
1.3656 -18.6102 -0.1051 0.9281
2.1351 -18.7476 -0.1062 0.9273
2.5174 -18.7488 -0.1065 0.9271
2.9019 -18.7500 -0.1068 0.9269
3.2888 -18.7512 -0.1072 0.9267
3.6784 -18.7524 -0.1076 0.9264
4.0712 -18.7536 -0.1080 0.9261
4.8676 -18.7561 -0.1091 0.9254
5.6810 -18.7586 -0.1104 0.9246
6.0952 -18.7599 -0.1111 0.9241
6.5148 -18.7612 -0.1118 0.9236
7.8112 -18.7652 -0.1144 0.9219
8.7119 -18.7680 -0.1165 0.9206
10.6915 -20.8028 -0.1317 0.9107
11.1530 -20.6692 -0.1322 0.9103
11.0561 -18.6566 -0.1221 0.9169
51.9302 -80.1133 -0.5375 0.6826
53.1576 -78.5078 -0.5338 0.6844
52.1456 -73.7787 -0.5087 0.6967
58.6252 -79.5107 -0.5562 0.6736
52.0948 -67.7628 -0.4813 0.7104
53.4949 -66.7663 -0.4817 0.7102
53.1160 -56.3586 -0.4360 0.7336
62.5498 -63.7544 -0.5029 0.6996
63.5714 -62.2455 -0.5009 0.7006
53.4034 -46.3340 -0.3981 0.7537
53.6648 -44.7046 -0.3932 0.7562
30.5403 -21.5396 -0.2104 0.8611
63.0871 -42.6241 -0.4287 0.7375
75.5794 -42.6628 -0.4886 0.7067
30.2249 -16.2700 -0.1933 0.8717
86.9503 -42.3956 -0.5446 0.6791
80.4312 -35.2946 -0.4945 0.7037
88.5006 -30.6322 -0.5273 0.6876
87.3755 -28.2919 -0.5171 0.6926
89.3258 -25.0098 -0.5223 0.6900
90.9160 -23.4976 -0.5287 0.6869
50.8865 12.9364 -0.2956 0.8106
56.7739 18.1343 -0.3356 0.7879
41.3339 16.9648 -0.2516 0.8363
61.3342 32.7025 -0.3913 0.7573
43.4062 24.2749 -0.2800 0.8196
41.4417 24.2810 -0.2704 0.8252
40.2697 24.6932 -0.2660 0.8278
39.9455 25.6118 -0.2672 0.8271
-4.7008 9.3790 -0.2954 0.9589
-4.9392 9.3797 -0.2985 0.9585
-33.3017 52.5329 -1.7514 0.7797
-33.2695 50.2235 -1.6963 0.7858
-33.3243 40.7541 -1.4823 0.8100
-33.9870 39.9025 -1.4759 0.8108
-33.1983 33.1710 -1.3215 0.8288
-25.7774 24.7424 -1.0061 0.8668
-33.2681 30.6732 -1.2742 0.8344
-9.5774 8.1440 -0.3540 0.9509
-30.4130 24.8268 -1.1055 0.8546
-33.0594 24.8444 -1.1644 0.8475
-38.9677 26.9068 -1.3334 0.8274
-38.7835 25.6455 -1.3092 0.8302
-38.8500 23.5044 -1.2786 0.8339
-38.8601 21.4287 -1.2496 0.8373
-38.8716 19.4428 -1.2238 0.8404
-38.8772 18.4795 -1.2121 0.8418
-38.8269 17.5090 -1.1993 0.8433
-38.8915 15.6915 -1.1809 0.8455
-34.9499 13.2919 -1.0529 0.8610
-82.8023 27.7406 -2.4589 0.7051
-83.8751 24.4024 -2.4597 0.7050
-84.8095 21.0217 -2.4603 0.7049
-84.7653 19.2132 -2.4474 0.7062
-84.9224 17.4643 -2.4413 0.7069
-84.1806 13.8160 -2.4021 0.7108
-84.1596 8.6524 -2.3822 0.7128
-84.1661 6.9489 -2.3780 0.7132
-58.9849 3.6795 -1.6641 0.7894
-59.0305 2.4941 -1.6636 0.7894
-61.8879 1.3711 -1.7431 0.7806
-64.9849 0.1349 -1.8298 0.7710
-67.2788 -1.2111 -1.8947 0.7639
-83.3750 -3.1759 -2.3494 0.7161
-83.0327 -8.1883 -2.3494 0.7161
-85.1416 -13.6109 -2.4278 0.7082
-86.5505 -15.6240 -2.4765 0.7033
-86.7308 -19.2805 -2.5018 0.7008
-86.3263 -21.0176 -2.5018 0.7008
-45.0738 -16.9282 -1.3557 0.8248
-42.4840 -16.9362 -1.2878 0.8328
-40.1405 -16.9435 -1.2268 0.8400
-37.9866 -16.9406 -1.1712 0.8467
-36.0577 -16.9562 -1.1220 0.8526
-34.2660 -16.9617 -1.0766 0.8581
-32.1779 -17.5701 -1.0323 0.8635
-31.8927 -18.2548 -1.0347 0.8633
-32.0952 -21.9653 -1.0951 0.8559
-31.8566 -22.7542 -1.1023 0.8550
-31.8597 -23.7364 -1.1187 0.8530
-31.8628 -24.7486 -1.1360 0.8509
-24.8282 -21.8029 -0.9304 0.8761
-31.9475 -29.2111 -1.2189 0.8409
-31.9509 -30.4141 -1.2421 0.8382
-31.9110 -40.3191 -1.4479 0.8140
-32.2051 -44.2291 -1.5406 0.8034
-23.7254 -33.9973 -1.1674 0.8471
-23.5978 -36.8856 -1.2330 0.8393
-23.5159 -44.2111 -1.4100 0.8184
-23.6412 -46.6834 -1.4735 0.8111
-23.3942 -48.5919 -1.5186 0.8059
-23.4062 -51.2229 -1.5858 0.7982
-8.5849 -19.8313 -0.6085 0.9172
-23.4973 -60.8714 -1.8373 0.7702
-23.4910 -68.9767 -2.0518 0.7471
-23.5349 -73.9369 -2.1848 0.7331
-3.1095 -20.9178 -0.5955 0.9189
-2.6776 -20.8872 -0.5930 0.9192
-2.2560 -20.9204 -0.5925 0.9192
-1.6289 -18.6010 -0.5258 0.9280
-1.2628 -18.7431 -0.5290 0.9276
-0.8854 -18.7442 -0.5284 0.9277
-0.5086 -18.7454 -0.5280 0.9277
-0.1321 -18.7466 -0.5279 0.9277
0.9980 -18.7501 -0.5287 0.9276
2.9068 -18.7819 -0.5352 0.9268
3.2944 -18.7831 -0.5370 0.9265
3.6847 -18.7844 -0.5390 0.9263
4.0781 -18.7856 -0.5413 0.9260
4.4751 -18.7868 -0.5438 0.9256
4.8759 -18.7880 -0.5466 0.9253
5.6907 -18.7906 -0.5528 0.9244
6.0952 -18.7599 -0.5554 0.9241
6.5259 -18.7931 -0.5602 0.9235
6.9521 -18.7945 -0.5643 0.9229
7.3848 -18.7958 -0.5686 0.9224
7.8245 -18.7972 -0.5733 0.9218
8.2716 -18.7986 -0.5783 0.9211
8.7268 -18.8000 -0.5836 0.9204
11.1530 -20.6692 -0.6613 0.9103
43.9663 -70.9062 -2.3492 0.7162
45.3807 -70.0093 -2.3492 0.7162
29.1614 -43.0681 -1.4646 0.8121
48.1540 -68.1311 -2.3492 0.7162
30.2887 -36.2855 -1.3309 0.8277
58.2134 -59.3344 -2.3405 0.7170
55.0416 -42.2273 -1.9534 0.7576
57.4012 -42.2346 -2.0067 0.7519
30.4407 -21.4693 -1.0489 0.8615
65.3371 -42.2592 -2.1910 0.7324
71.5060 -42.2783 -2.3391 0.7172
72.6536 -41.0113 -2.3492 0.7162
70.8783 -34.5591 -2.2204 0.7294
73.8612 -34.1958 -2.2919 0.7220
74.5328 -32.7063 -2.2919 0.7220
71.5945 -26.4015 -2.1487 0.7369
73.0610 -23.6569 -2.1624 0.7354
74.1223 -22.3670 -2.1801 0.7336
77.2385 -19.9626 -2.2463 0.7267
81.8850 -15.9772 -2.3492 0.7162
66.4395 -11.5841 -1.8990 0.7635
82.4603 -12.6775 -2.3492 0.7162
88.4629 -8.1904 -2.5016 0.7008
88.8062 2.4984 -2.5016 0.7008
88.7381 4.2805 -2.5016 0.7008
83.1037 7.3613 -2.3492 0.7162
82.5100 12.3498 -2.3492 0.7162
75.8068 12.9073 -2.1653 0.7351
67.6024 12.9118 -1.9379 0.7593
50.8245 12.9207 -1.4766 0.8107
77.3915 23.0184 -2.2735 0.7239
50.8231 16.2335 -1.5023 0.8078
50.8214 17.3647 -1.5122 0.8066
62.7951 22.8736 -1.8818 0.7653
40.7794 16.7373 -1.2412 0.8383
40.7885 19.6876 -1.2753 0.8342
32.2861 17.2145 -1.0303 0.8638
32.2887 18.0574 -1.0417 0.8624
32.2914 18.9198 -1.0538 0.8609
32.2941 19.8027 -1.0667 0.8593
32.2969 20.7078 -1.0803 0.8577
23.7174 16.5868 -0.8149 0.8906
22.7359 16.5898 -0.7925 0.8935
22.6089 17.2030 -0.8000 0.8925
22.6111 17.9326 -0.8126 0.8909
22.6135 18.6861 -0.8260 0.8892
22.6159 19.4651 -0.8402 0.8874
-4.7008 9.3790 -0.5320 0.9589
-4.9392 9.3797 -0.5376 0.9584
-5.1593 8.9106 -0.5222 0.9596
-5.1368 8.4747 -0.5026 0.9611
-15.2957 24.1286 -1.4488 0.8919
-15.9999 24.1533 -1.4693 0.8904
-17.4263 24.1426 -1.5100 0.8876
-19.6266 24.0024 -1.5724 0.8832
-20.4315 23.9876 -1.5980 0.8814
-21.2322 23.9371 -1.6227 0.8797
-22.1526 23.9871 -1.6559 0.8774
-24.0328 24.0130 -1.7229 0.8728
-9.5763 8.1431 -0.6375 0.9509
-16.7521 13.6751 -1.0967 0.9170
-17.6332 13.2515 -1.1186 0.9154
-20.0595 13.2643 -1.2196 0.9082
-20.9712 13.2700 -1.2586 0.9054
-21.9435 13.2760 -1.3007 0.9024
-22.8821 13.2238 -1.3403 0.8996
-24.3732 13.4402 -1.4115 0.8945
-28.8499 13.7132 -1.6200 0.8799
-31.0770 13.2701 -1.7137 0.8734
-33.4820 13.5090 -1.8310 0.8654
-44.4836 14.9030 -2.3792 0.8287
-44.2783 13.8521 -2.3529 0.8304
-44.4803 12.9409 -2.3493 0.8307
-31.3093 8.4312 -1.6444 0.8782
-44.9639 11.1451 -2.3493 0.8307
-45.3750 9.3314 -2.3493 0.8307
-45.5532 8.4187 -2.3493 0.8307
-45.7130 7.5026 -2.3493 0.8307
-48.6812 6.9893 -2.4941 0.8212
-49.2858 2.0824 -2.5017 0.8207
-49.3177 1.0926 -2.5017 0.8207
-49.3297 0.1024 -2.5017 0.8207
-49.3218 -0.8878 -2.5017 0.8207
-49.2941 -1.8777 -2.5017 0.8207
-49.2464 -2.8668 -2.5017 0.8207
-48.8578 -6.8078 -2.5017 0.8207
-48.5452 -8.7634 -2.5017 0.8207
-48.1543 -10.7048 -2.5017 0.8207
-44.7808 -11.8597 -2.3493 0.8307
-44.5337 -12.7562 -2.3493 0.8307
-43.9858 -14.5334 -2.3493 0.8307
-42.4840 -16.9362 -2.3194 0.8326
-40.1405 -16.9435 -2.2096 0.8399
-36.0577 -16.9562 -2.0207 0.8525
-34.2660 -16.9617 -1.9390 0.8580
-32.5782 -16.9488 -1.8624 0.8632
-29.7715 -19.5092 -1.8051 0.8671
-32.0952 -21.9653 -1.9724 0.8558
-31.7404 -22.6712 -1.9781 0.8554
-30.2901 -22.5670 -1.9156 0.8596
-23.3754 -20.5271 -1.5777 0.8829
-23.4052 -21.4005 -1.6084 0.8807
-23.3914 -22.2663 -1.6378 0.8787
-23.3767 -26.1354 -1.7783 0.8690
-23.4162 -28.3955 -1.8665 0.8629
-23.4217 -30.8457 -1.9642 0.8563
-23.4474 -38.3239 -2.2785 0.8353
-23.3575 -41.8640 -2.4312 0.8253
-21.3985 -44.4466 -2.5017 0.8207
-8.5803 -19.8207 -1.0953 0.9171
-18.6845 -45.6539 -2.5017 0.8207
-16.8370 -46.3670 -2.5017 0.8207
-15.9029 -46.6957 -2.5017 0.8207
-14.9623 -47.0055 -2.5017 0.8207
-8.5616 -31.1754 -1.6396 0.8785
-8.9943 -35.5290 -1.8587 0.8635
-8.8971 -38.3667 -1.9974 0.8541
-3.5337 -18.6024 -0.9603 0.9270
-3.5352 -20.8889 -1.0744 0.9186
-3.1095 -20.9178 -1.0725 0.9188
-2.2560 -20.9204 -1.0671 0.9192
-1.6289 -18.6010 -0.9469 0.9279
-1.2628 -18.7431 -0.9527 0.9275
-0.8854 -18.7442 -0.9517 0.9276
-0.5086 -18.7454 -0.9510 0.9276
0.6208 -18.7489 -0.9514 0.9276
0.9980 -18.7501 -0.9522 0.9276
1.3656 -18.6102 -0.9463 0.9280
2.1387 -18.7796 -0.9585 0.9271
3.2944 -18.7831 -0.9671 0.9265
4.0781 -18.7856 -0.9749 0.9259
4.8759 -18.7880 -0.9844 0.9252
6.5259 -18.7931 -1.0089 0.9234
7.3848 -18.7958 -1.0241 0.9223
8.2716 -18.7986 -1.0416 0.9210
8.7268 -18.8000 -1.0511 0.9203
10.1838 -20.8332 -1.1760 0.9113
11.1529 -20.6692 -1.1911 0.9102
24.2913 -42.9328 -2.5017 0.8207
11.0561 -18.6566 -1.0998 0.9168
25.9949 -41.9231 -2.5017 0.8207
26.8313 -41.3928 -2.5016 0.8207
27.6567 -40.8459 -2.5016 0.8207
28.5839 -38.7671 -2.4427 0.8246
28.5961 -37.1967 -2.3794 0.8287
29.0588 -36.2679 -2.3569 0.8302
29.7810 -35.6773 -2.3569 0.8302
31.1890 -34.4532 -2.3569 0.8302
31.8743 -33.8202 -2.3569 0.8302
34.5461 -35.2113 -2.5016 0.8207
35.2458 -34.5107 -2.5016 0.8207
37.9005 -31.5724 -2.5016 0.8207
29.1961 -23.3447 -1.8958 0.8609
29.2402 -22.4327 -1.8690 0.8628
29.0775 -20.5079 -1.8045 0.8672
40.8734 -27.6157 -2.5016 0.8207
42.5358 -22.8969 -2.4499 0.8241
42.5409 -21.8098 -2.4244 0.8257
42.5456 -20.7446 -2.4005 0.8273
42.5899 -19.7180 -2.3802 0.8286
42.7267 -18.7492 -2.3663 0.8295
42.9493 -17.8276 -2.3583 0.8301
43.2539 -16.9443 -2.3559 0.8302
44.1112 -15.2680 -2.3673 0.8295
44.6799 -14.4672 -2.3817 0.8285
48.2154 -10.4164 -2.5016 0.8207
48.4148 -9.4465 -2.5016 0.8207
48.5946 -8.4728 -2.5016 0.8207
48.8955 -6.5154 -2.5016 0.8207
49.1177 -4.5476 -2.5016 0.8207
49.1989 -3.5607 -2.5016 0.8207
49.2605 -2.5724 -2.5016 0.8207
49.3022 -1.5831 -2.5016 0.8207
49.0380 5.3379 -2.5016 0.8207
48.7842 7.3018 -2.5016 0.8207
40.3896 8.5580 -2.0938 0.8476
44.8946 11.4132 -2.3492 0.8307
44.0808 15.0613 -2.3624 0.8298
40.7794 16.7373 -2.2355 0.8382
40.7824 17.7032 -2.2547 0.8369
40.7854 18.6862 -2.2752 0.8355
32.2887 18.0574 -1.8762 0.8623
32.2941 19.8027 -1.9212 0.8592
32.2998 21.6366 -1.9716 0.8558
22.7360 16.5898 -1.4274 0.8934
22.6089 17.2030 -1.4408 0.8925
22.6111 17.9326 -1.4636 0.8908
22.6159 19.4651 -1.5133 0.8874
-4.9392 9.3797 -0.7773 0.9584
-5.1593 8.9106 -0.7550 0.9595
-8.7446 13.2009 -1.1610 0.9385
-9.1327 13.2033 -1.1771 0.9376
-10.3212 13.1526 -1.2259 0.9351
-11.7235 13.2171 -1.2954 0.9316
-14.2895 13.1750 -1.4251 0.9250
-14.8822 13.1787 -1.4575 0.9234
-9.5752 8.1421 -0.9216 0.9508
-16.7005 13.6329 -1.5807 0.9172
-17.4600 13.6782 -1.6263 0.9149
-19.3737 13.3774 -1.7263 0.9099
-20.2897 13.4165 -1.7835 0.9070
-22.8821 13.2238 -1.9378 0.8994
-25.7084 13.5107 -2.1295 0.8900
-26.5922 13.3010 -2.1801 0.8876
-28.4689 13.5322 -2.3112 0.8812
-29.2082 13.1714 -2.3493 0.8794
-29.9480 11.3896 -2.3493 0.8794
-30.1706 10.7861 -2.3493 0.8794
-30.3811 10.1783 -2.3493 0.8794
-31.0996 7.7086 -2.3493 0.8794
-33.1872 7.5223 -2.4951 0.8724
-33.4199 6.8728 -2.5017 0.8721
-33.5511 6.2006 -2.5017 0.8721
-33.6688 5.5259 -2.5017 0.8721
-34.0036 2.8074 -2.5017 0.8721
-34.0889 1.4403 -2.5017 0.8721
-34.1110 0.7557 -2.5017 0.8721
-34.0946 -1.2987 -2.5017 0.8721
-34.0150 -2.6662 -2.5017 0.8721
-33.7929 -4.7086 -2.5017 0.8721
-32.8003 -9.3953 -2.5017 0.8721
-32.6051 -10.0518 -2.5017 0.8721
-32.3967 -10.7043 -2.5017 0.8721
-32.0653 -11.3136 -2.4931 0.8725
-29.7630 -11.8650 -2.3493 0.8794
-28.9949 -13.6349 -2.3493 0.8794
-28.7154 -14.2142 -2.3493 0.8794
-27.8078 -15.9167 -2.3493 0.8794
-27.4827 -16.4717 -2.3493 0.8794
-26.4414 -18.0959 -2.3493 0.8794
-26.0728 -18.6230 -2.3493 0.8794
-24.1137 -17.9654 -2.2048 0.8864
-25.2179 -19.5873 -2.3413 0.8798
-23.1996 -24.9125 -2.4960 0.8724
-22.7464 -25.4308 -2.5017 0.8721
-21.7073 -26.3233 -2.5017 0.8721
-21.1745 -26.7537 -2.5017 0.8721
-20.6332 -27.1734 -2.5017 0.8721
-19.5259 -27.9797 -2.5017 0.8721
-18.9603 -28.3659 -2.5017 0.8721
-17.2187 -29.4557 -2.5017 0.8721
-16.6239 -29.7954 -2.5017 0.8721
-14.1804 -31.0327 -2.5017 0.8721
-9.3005 -27.3091 -2.1153 0.8907
-9.1920 -28.8774 -2.2220 0.8856
-7.2381 -31.2124 -2.3493 0.8794
-6.6101 -31.3514 -2.3493 0.8794
-3.5337 -18.6024 -1.3884 0.9269
-1.6289 -18.6010 -1.3691 0.9278
-1.2628 -18.7431 -1.3774 0.9274
-0.8854 -18.7442 -1.3759 0.9275
-0.5086 -18.7454 -1.3750 0.9275
0.6208 -18.7489 -1.3755 0.9275
0.9980 -18.7501 -1.3767 0.9275
1.3656 -18.6102 -1.3682 0.9279
1.7546 -18.7465 -1.3805 0.9273
2.1351 -18.7476 -1.3835 0.9271
2.5174 -18.7488 -1.3870 0.9269
2.9019 -18.7500 -1.3912 0.9267
3.2887 -18.7512 -1.3959 0.9265
4.0712 -18.7536 -1.4071 0.9259
5.2720 -18.7573 -1.4286 0.9248
5.6811 -18.7586 -1.4371 0.9244
6.0952 -18.7599 -1.4463 0.9239
6.5148 -18.7612 -1.4562 0.9234
6.9227 -18.7150 -1.4631 0.9231
7.3192 -18.6287 -1.4675 0.9229
8.1981 -18.6314 -1.4925 0.9216
8.6492 -18.6328 -1.5062 0.9209
10.1838 -20.8332 -1.7003 0.9112
10.7080 -20.8348 -1.7176 0.9103
15.7779 -27.8861 -2.3493 0.8794
11.0561 -18.6566 -1.5901 0.9167
16.8845 -27.2302 -2.3493 0.8794
17.4277 -26.8858 -2.3493 0.8794
17.9638 -26.5306 -2.3493 0.8794
21.8638 -26.1926 -2.5017 0.8721
22.3852 -25.7485 -2.5016 0.8721
23.4007 -24.8292 -2.5016 0.8721
23.8944 -24.3545 -2.5016 0.8721
25.3168 -22.8722 -2.5016 0.8721
26.6475 -21.3069 -2.5016 0.8721
27.4813 -20.2201 -2.5016 0.8721
28.2707 -19.1008 -2.5016 0.8721
28.8235 -16.2702 -2.4269 0.8757
30.1549 -15.4598 -2.4847 0.8729
30.6672 -14.9529 -2.5016 0.8721
30.9612 -14.3342 -2.5016 0.8721
31.5116 -13.0800 -2.5016 0.8721
32.2417 -11.1596 -2.5016 0.8721
32.6637 -9.8565 -2.5016 0.8721
32.8549 -9.1989 -2.5016 0.8721
33.0330 -8.5375 -2.5016 0.8721
33.4869 -6.5339 -2.5016 0.8721
33.8195 -4.5065 -2.5016 0.8721
34.0294 -2.4628 -2.5016 0.8721
34.0719 -1.7792 -2.5016 0.8721
34.1008 -1.0950 -2.5016 0.8721
34.1159 -0.4102 -2.5016 0.8721
34.1172 0.2747 -2.5016 0.8721
33.9853 3.0104 -2.5016 0.8721
33.9180 3.6920 -2.5016 0.8721
33.8371 4.3721 -2.5016 0.8721
33.6343 5.7268 -2.5016 0.8721
33.5126 6.4008 -2.5016 0.8721
33.3773 7.0722 -2.5016 0.8721
30.8875 8.5158 -2.3492 0.8794
30.7103 9.1341 -2.3492 0.8794
30.5208 9.7487 -2.3492 0.8794
30.1049 10.9659 -2.3492 0.8794
29.6404 12.1654 -2.3492 0.8794
29.3903 12.7580 -2.3492 0.8794
28.8545 13.9274 -2.3492 0.8794
28.6856 14.5648 -2.3591 0.8789
28.2634 15.8063 -2.3744 0.8782
27.2700 17.4846 -2.3752 0.8782
23.7174 16.5868 -2.1221 0.8904
22.7359 16.5898 -2.0637 0.8933
22.6111 17.9326 -2.1160 0.8907
22.6135 18.6861 -2.1509 0.8890
-4.7008 9.3790 -1.0072 0.9587
-4.9392 9.3797 -1.0177 0.9583
-5.1704 9.3581 -1.0264 0.9579
-5.1593 8.9106 -0.9885 0.9595
-5.1368 8.4747 -0.9513 0.9610
-10.7570 13.1553 -1.6314 0.9340
-12.4252 13.4542 -1.7582 0.9290
-13.9063 13.3479 -1.8506 0.9255
-14.8822 13.1787 -1.9084 0.9232
-9.5740 8.1411 -1.2065 0.9508
-16.6486 13.5906 -2.0633 0.9173
-17.7906 13.3698 -2.1365 0.9145
-20.6784 13.0846 -2.3493 0.9063
-22.1008 10.5052 -2.3493 0.9063
-23.2030 7.7735 -2.3493 0.9063
-24.3655 7.6225 -2.4510 0.9025
-25.0016 7.2739 -2.4998 0.9007
-25.4133 5.7602 -2.5017 0.9006
-25.6241 4.7356 -2.5017 0.9006
-25.7139 4.2203 -2.5017 0.9006
-25.8626 3.1847 -2.5017 0.9006
-25.9696 2.1441 -2.5017 0.9006
-26.0074 1.6224 -2.5017 0.9006
-26.0348 1.1000 -2.5017 0.9006
-26.0538 -0.4690 -2.5017 0.9006
-26.0139 -1.5144 -2.5017 0.9006
-25.9322 -2.5573 -2.5017 0.9006
-25.7313 -4.1135 -2.5017 0.9006
-25.5454 -5.1430 -2.5017 0.9006
-25.4370 -5.6547 -2.5017 0.9006
-25.0506 -7.1754 -2.5017 0.9006
-24.7424 -8.1752 -2.5017 0.9006
-24.3943 -9.1617 -2.5017 0.9006
-24.2055 -9.6495 -2.5017 0.9006
-24.0069 -10.1334 -2.5017 0.9006
-23.5808 -11.0889 -2.5017 0.9006
-23.1167 -12.0265 -2.5017 0.9006
-22.8706 -12.4881 -2.5017 0.9006
-22.6154 -12.9446 -2.5017 0.9006
-22.0776 -13.8420 -2.5017 0.9006
-20.8961 -15.5682 -2.5017 0.9006
-20.5794 -15.9846 -2.5017 0.9006
-17.7585 -19.0697 -2.5017 0.9006
-16.9788 -19.7671 -2.5017 0.9006
-14.9125 -21.3689 -2.5017 0.9006
-14.4806 -21.6640 -2.5017 0.9006
-13.5994 -22.2277 -2.5017 0.9006
-13.1504 -22.4963 -2.5017 0.9006
-9.6047 -17.2146 -1.8925 0.9238
-12.2369 -23.0060 -2.5017 0.9006
-11.7726 -23.2469 -2.5017 0.9006
-8.9021 -19.4817 -2.0564 0.9175
-8.4185 -19.4469 -2.0344 0.9184
-7.8888 -23.1639 -2.3493 0.9063
-6.0054 -23.7220 -2.3493 0.9063
-5.5279 -23.8378 -2.3493 0.9063
-3.5337 -18.6024 -1.8179 0.9267
-3.5116 -20.7496 -2.0204 0.9189
-3.0847 -20.7509 -2.0141 0.9192
-2.6603 -20.7522 -2.0086 0.9194
-2.2380 -20.7535 -2.0040 0.9195
-1.2628 -18.7431 -1.8035 0.9273
0.2438 -18.7158 -1.7970 0.9275
0.9980 -18.7501 -1.8026 0.9273
1.3656 -18.6102 -1.7915 0.9278
2.8810 -18.6149 -1.8084 0.9271
3.2651 -18.6161 -1.8145 0.9269
3.6519 -18.6173 -1.8214 0.9266
4.4353 -18.6197 -1.8376 0.9260
4.8326 -18.6210 -1.8469 0.9256
6.4678 -18.6260 -1.8929 0.9238
6.8903 -18.6273 -1.9067 0.9233
7.3192 -18.6287 -1.9215 0.9227
11.1529 -20.6692 -2.2548 0.9099
12.8953 -20.7967 -2.3493 0.9063
13.3101 -20.5337 -2.3493 0.9063
14.1236 -19.9829 -2.3493 0.9063
14.9143 -19.3999 -2.3493 0.9063
16.4223 -18.1410 -2.3493 0.9063
16.7831 -17.8077 -2.3493 0.9063
18.9808 -17.8529 -2.5017 0.9006
19.3353 -17.4682 -2.5017 0.9006
19.6821 -17.0766 -2.5017 0.9006
20.0209 -16.6781 -2.5017 0.9006
21.5913 -14.5879 -2.5016 0.9006
21.8798 -14.1516 -2.5016 0.9006
22.1595 -13.7096 -2.5016 0.9006
22.4302 -13.2620 -2.5016 0.9006
22.9444 -12.3510 -2.5016 0.9006
23.4217 -11.4200 -2.5016 0.9006
23.6462 -10.9476 -2.5016 0.9006
23.8612 -10.4707 -2.5016 0.9006
24.9464 -7.5278 -2.5016 0.9006
25.0925 -7.0255 -2.5016 0.9006
25.4698 -5.5025 -2.5016 0.9006
25.5752 -4.9902 -2.5016 0.9006
25.6702 -4.4758 -2.5016 0.9006
25.7548 -3.9596 -2.5016 0.9006
25.8291 -3.4418 -2.5016 0.9006
25.8930 -2.9226 -2.5016 0.9006
25.9894 -1.8810 -2.5016 0.9006
26.0219 -1.3589 -2.5016 0.9006
26.0440 -0.8363 -2.5016 0.9006
26.0471 0.7328 -2.5016 0.9006
25.9557 2.2992 -2.5016 0.9006
25.8425 3.3391 -2.5016 0.9006
25.7703 3.8572 -2.5016 0.9006
25.5947 4.8885 -2.5016 0.9006
25.4914 5.4013 -2.5016 0.9006
25.2541 6.4201 -2.5016 0.9006
25.1201 6.9258 -2.5016 0.9006
24.9632 7.4247 -2.5003 0.9006
22.9921 8.3750 -2.3492 0.9063
22.8194 8.8349 -2.3492 0.9063
22.6374 9.2912 -2.3492 0.9063
22.2463 10.1923 -2.3492 0.9063
22.0372 10.6368 -2.3492 0.9063
21.8193 11.0770 -2.3492 0.9063
21.5925 11.5128 -2.3492 0.9063
21.3571 11.9439 -2.3492 0.9063
20.8604 12.7915 -2.3492 0.9063
20.5995 13.2077 -2.3492 0.9063
19.8423 14.4784 -2.3582 0.9060
19.3714 15.3629 -2.3736 0.9054
18.8019 16.1824 -2.3816 0.9051
-4.9392 9.3797 -1.2592 0.9582
-5.1593 8.9106 -1.2231 0.9594
-5.1368 8.4747 -1.1772 0.9609
-8.4523 13.3334 -1.8752 0.9384
-9.2260 13.3381 -1.9265 0.9368
-10.0318 13.3261 -1.9814 0.9350
-11.3557 13.3322 -2.0803 0.9319
-12.3940 13.4204 -2.1700 0.9291
-9.5729 8.1401 -1.4927 0.9506
-15.5688 12.1967 -2.3493 0.9234
-16.7126 10.5752 -2.3493 0.9234
-16.9215 10.2376 -2.3493 0.9234
-17.3188 9.5501 -2.3493 0.9234
-17.5070 9.2006 -2.3493 0.9234
-17.6882 8.8473 -2.3493 0.9234
-18.9530 7.6470 -2.4277 0.9210
-19.9695 6.6902 -2.5017 0.9187
-20.0998 6.2880 -2.5017 0.9187
-20.2220 5.8833 -2.5017 0.9187
-20.3360 5.4762 -2.5017 0.9187
-20.4418 5.0669 -2.5017 0.9187
-20.5394 4.6555 -2.5017 0.9187
-20.8467 2.9930 -2.5017 0.9187
-20.9500 2.1538 -2.5017 0.9187
-20.9891 1.7329 -2.5017 0.9187
-21.0196 1.3112 -2.5017 0.9187
-21.0417 0.8890 -2.5017 0.9187
-21.0553 0.4665 -2.5017 0.9187
-21.0571 -0.3790 -2.5017 0.9187
-21.0249 -1.2240 -2.5017 0.9187
-20.9588 -2.0669 -2.5017 0.9187
-20.9131 -2.4872 -2.5017 0.9187
-20.8590 -2.9065 -2.5017 0.9187
-20.7255 -3.7414 -2.5017 0.9187
-20.6462 -4.1566 -2.5017 0.9187
-20.4627 -4.9820 -2.5017 0.9187
-20.3586 -5.3918 -2.5017 0.9187
-20.2463 -5.7993 -2.5017 0.9187
-20.1258 -6.2046 -2.5017 0.9187
-19.7159 -7.4046 -2.5017 0.9187
-19.5633 -7.7989 -2.5017 0.9187
-19.2345 -8.5779 -2.5017 0.9187
-19.0584 -8.9622 -2.5017 0.9187
-18.4844 -10.0931 -2.5017 0.9187
-18.2781 -10.4621 -2.5017 0.9187
-17.8434 -11.1873 -2.5017 0.9187
-17.6153 -11.5433 -2.5017 0.9187
-17.3800 -11.8945 -2.5017 0.9187
-16.3699 -13.2502 -2.5017 0.9187
-15.8249 -13.8966 -2.5017 0.9187
-14.9598 -14.8239 -2.5017 0.9187
-14.6592 -15.1212 -2.5017 0.9187
-14.0404 -15.6974 -2.5017 0.9187
-13.7225 -15.9761 -2.5017 0.9187
-12.0525 -17.2707 -2.5017 0.9187
-9.9809 -17.0742 -2.3493 0.9234
-9.2875 -17.4610 -2.3493 0.9234
-8.2198 -17.9884 -2.3493 0.9234
-7.8570 -18.1498 -2.3493 0.9234
-7.1222 -18.4505 -2.3493 0.9234
-6.7504 -18.5897 -2.3493 0.9234
-5.6193 -18.9623 -2.3493 0.9234
-5.2375 -19.0713 -2.3493 0.9234
-4.4678 -19.2661 -2.3493 0.9234
-4.0801 -19.3519 -2.3493 0.9234
-3.5337 -18.6024 -2.2492 0.9266
-3.1787 -18.7825 -2.2628 0.9261
-2.8010 -18.8425 -2.2628 0.9261
-2.4222 -18.8949 -2.2628 0.9261
-1.6289 -18.6010 -2.2180 0.9275
-1.2607 -18.7112 -2.2277 0.9272
-0.8839 -18.7123 -2.2252 0.9273
-0.1319 -18.7146 -2.2231 0.9274
0.2438 -18.7158 -2.2234 0.9274
