ply
format ascii 1.0
element vertex 1538
property float32 x
property float32 y
property float32 z
property float32 I
end_header
-1.0577 62.3022 10.9871 0.7764
-2.2863 61.6872 10.8846 0.7782
-4.6785 60.4898 10.6978 0.7816
-5.8450 59.9060 10.6132 0.7831
-6.9936 59.3310 10.5341 0.7845
-8.1257 58.7643 10.4603 0.7859
-9.2425 58.2053 10.3918 0.7871
-10.3451 57.6534 10.3282 0.7883
-12.5126 56.5684 10.2156 0.7903
-14.6369 55.5051 10.1216 0.7920
-16.7256 54.4595 10.0454 0.7934
-17.7591 53.9422 10.0137 0.7940
-23.8621 50.8871 9.9103 0.7959
-32.7833 57.4217 11.6589 0.7645
-33.9733 56.8260 11.6741 0.7642
-36.3650 55.6287 11.7187 0.7634
-41.2234 53.1965 11.8667 0.7608
-42.4597 52.5775 11.9164 0.7600
-47.5258 50.0413 12.1689 0.7555
-48.8287 49.3890 12.2462 0.7542
-50.1488 48.7281 12.3294 0.7528
-51.4874 48.0579 12.4189 0.7512
-52.8462 47.3776 12.5147 0.7496
-57.0595 45.2682 12.8429 0.7439
-58.5154 44.5393 12.9667 0.7418
-60.0003 43.7959 13.0983 0.7395
-61.5163 43.0369 13.2379 0.7372
-63.0655 42.2613 13.3861 0.7347
-64.6505 41.4677 13.5431 0.7320
-66.2737 40.6550 13.7094 0.7292
-67.9380 39.8218 13.8855 0.7263
-63.6423 3.0862 11.2350 0.7720
-63.2195 1.7949 11.1518 0.7735
-60.9597 -3.1666 10.7633 0.7804
-59.3550 -5.4788 10.5104 0.7850
-65.3692 -8.6917 11.6278 0.7650
-95.7623 -16.6681 17.1393 0.6738
-67.2215 -53.7089 15.1717 0.7051
-66.3826 -55.2574 15.2296 0.7041
-50.8079 -44.0489 11.8569 0.7610
14.2828 -31.2388 5.2621 0.8702
15.2766 -30.1502 5.1779 0.8722
15.4895 -29.1062 5.0510 0.8751
16.1849 -28.9943 5.0869 0.8743
16.8238 -28.7668 5.1052 0.8738
55.2415 -23.3110 9.1853 0.7846
55.9513 -22.2984 9.2270 0.7837
57.7616 -19.0792 9.3190 0.7818
75.7171 -23.3353 12.1378 0.7257
78.3432 -20.7413 12.4152 0.7204
67.5014 -13.5846 10.5482 0.7568
68.2045 -12.3073 10.6173 0.7554
29.2564 -3.4776 4.5134 0.8876
58.3286 -2.2190 8.9421 0.7896
57.0311 0.1208 8.7369 0.7939
55.9079 2.3642 8.5724 0.7974
55.3616 3.4554 8.4976 0.7989
54.8337 4.5288 8.4288 0.8004
56.5748 5.8180 8.7126 0.7944
55.6444 7.9902 8.6118 0.7965
55.0789 9.0407 8.5506 0.7978
51.2732 11.6222 8.0540 0.8084
50.7890 12.5893 8.0161 0.8092
49.4968 15.4844 7.9450 0.8107
48.8916 16.3794 7.8991 0.8117
48.5582 17.3592 7.8999 0.8117
54.9149 22.1555 9.0715 0.7869
50.3510 26.4592 8.7137 0.7944
48.8138 29.5299 8.7399 0.7938
48.3258 30.5761 8.7606 0.7934
47.8083 31.6099 8.7801 0.7930
17.3594 14.1690 3.4327 0.9133
39.0226 35.9737 8.1307 0.8067
11.3116 68.4945 10.6351 0.7551
1.2586 8.7042 1.3473 0.9650
8.3182 66.9962 10.3422 0.7609
6.8812 66.2770 10.2078 0.7637
2.7788 64.2235 9.8479 0.7709
1.4730 63.5700 9.7412 0.7731
0.1948 62.9301 9.6406 0.7752
-1.0577 62.3032 9.5459 0.7771
-2.2864 61.6882 9.4568 0.7790
-3.4928 61.0843 9.3731 0.7807
-5.8451 59.9069 9.2210 0.7838
-6.9937 59.3319 9.1522 0.7852
-8.1258 58.7653 9.0882 0.7866
-9.2426 58.2062 9.0286 0.7878
-10.3452 57.6543 8.9734 0.7890
-11.4350 57.1088 8.9224 0.7900
-14.6371 55.5059 8.7939 0.7927
-16.7258 54.4603 8.7276 0.7941
-17.7593 53.9430 8.7001 0.7947
-18.7867 53.4287 8.6762 0.7952
-19.8089 52.9170 8.6560 0.7956
-20.8267 52.4075 8.6393 0.7960
-22.8527 51.3933 8.6165 0.7964
-32.7838 57.4226 10.1295 0.7652
-33.9738 56.8268 10.1427 0.7650
-36.3655 55.6295 10.1815 0.7642
-37.5692 55.0269 10.2072 0.7637
-38.7795 54.4210 10.2371 0.7631
-41.2240 53.1973 10.3101 0.7616
-42.4604 52.5783 10.3532 0.7607
-50.1495 48.7289 10.7121 0.7535
-52.8470 47.3784 10.8730 0.7504
-57.0604 45.2690 11.1582 0.7447
-58.5164 44.5400 11.2658 0.7426
-60.0013 43.7966 11.3801 0.7404
-61.5173 43.0377 11.5014 0.7380
-63.0666 42.2620 11.6301 0.7355
-64.6516 41.4684 11.7665 0.7328
-66.2749 40.6557 11.9110 0.7301
-61.8460 -0.7273 9.4752 0.7786
-61.1240 -1.9463 9.3686 0.7808
-61.0148 -3.1697 9.3597 0.7810
-59.3557 -5.4789 9.1316 0.7857
-62.8606 -7.0774 9.6907 0.7742
-69.8722 -10.7217 10.8293 0.7512
-78.5891 -15.3102 12.2657 0.7232
-62.3854 -49.8449 12.2330 0.7239
-56.2253 -46.8024 11.2071 0.7438
-50.8682 -44.1012 10.3136 0.7615
-46.3897 -41.8786 9.5741 0.7765
-38.8368 -37.9978 8.3236 0.8026
14.3756 -31.4417 4.5020 0.8698
14.8993 -30.9301 4.4707 0.8707
16.1992 -29.0201 4.3279 0.8745
16.8033 -28.7317 4.3343 0.8744
17.9600 -29.3418 4.4799 0.8704
18.7018 -29.2201 4.5177 0.8694
54.1735 -21.5899 7.5941 0.7904
56.8074 -20.0373 7.8442 0.7843
60.4481 -19.9665 8.2899 0.7735
76.1929 -21.8175 10.3207 0.7264
67.0554 -17.7529 9.0329 0.7559
67.0706 -14.9045 8.9470 0.7579
66.1071 -13.3040 8.7811 0.7618
93.7094 -13.0512 12.3207 0.6827
58.1993 -2.2141 7.5842 0.7906
57.6087 -1.0343 7.5031 0.7926
55.3610 3.4553 7.2232 0.7995
56.5741 5.8179 7.4060 0.7950
55.4972 7.9691 7.3010 0.7976
51.7614 10.6453 6.8815 0.8080
51.2726 11.6221 6.8461 0.8089
49.8328 14.4981 6.7583 0.8111
49.4962 15.4842 6.7535 0.8112
48.8910 16.3792 6.7144 0.8122
48.4661 17.3263 6.7025 0.8125
47.9600 18.2390 6.6818 0.8130
54.9143 22.1552 7.7111 0.7875
54.4107 23.2325 7.7043 0.7877
51.8893 23.3981 7.4123 0.7948
51.3778 24.4199 7.4077 0.7950
50.7407 25.3777 7.3878 0.7954
49.8670 27.4960 7.4154 0.7948
47.8078 31.6095 7.4633 0.7936
17.3554 14.1658 2.9173 0.9136
39.0221 35.9733 6.9113 0.8073
1.2585 8.7037 1.1452 0.9651
8.3183 66.9974 8.7914 0.7616
5.4808 65.5771 8.5693 0.7669
2.7788 64.2246 8.3712 0.7716
-1.0577 62.3042 8.1145 0.7777
-4.6786 60.4917 7.9008 0.7829
-5.8452 59.9078 7.8383 0.7844
-6.9938 59.3329 7.7799 0.7858
-10.3454 57.6551 7.6278 0.7896
-12.5130 56.5701 7.5447 0.7916
-13.5801 56.0360 7.5083 0.7925
-16.7261 54.4612 7.4189 0.7947
-17.7596 53.9438 7.3955 0.7953
-19.8092 52.9178 7.3580 0.7962
-20.8270 52.4083 7.3438 0.7965
-23.8628 50.8886 7.3192 0.7971
-32.7843 57.4234 8.6106 0.7659
-36.3661 55.6303 8.6548 0.7648
-37.5698 55.0277 8.6766 0.7643
-41.2246 53.1981 8.7641 0.7623
-42.4610 52.5791 8.8007 0.7614
-43.7082 51.9547 8.8413 0.7604
-44.9676 51.3242 8.8858 0.7594
-46.2402 50.6871 8.9345 0.7582
-47.5273 50.0428 8.9872 0.7570
-50.1503 48.7296 9.1058 0.7542
-57.0613 45.2697 9.4850 0.7454
-58.5173 44.5408 9.5765 0.7433
-60.0023 43.7973 9.6737 0.7411
-61.5183 43.0384 9.7768 0.7387
-64.6527 41.4692 10.0022 0.7336
-66.2760 40.6564 10.1250 0.7308
-67.9404 39.8231 10.2551 0.7278
-63.6438 3.0863 8.2975 0.7733
-62.9941 1.7885 8.2065 0.7755
-61.7355 -0.7260 8.0398 0.7795
-61.1247 -1.9463 7.9637 0.7814
-59.3563 -5.4790 7.7623 0.7863
-64.3879 -8.5613 8.4584 0.7695
-63.0399 -10.9726 8.3325 0.7725
-60.7714 -15.6870 8.1731 0.7763
-60.1169 -16.8120 8.1288 0.7774
-59.6701 -17.9859 8.1156 0.7777
-61.3610 -19.8474 8.3981 0.7709
-57.4114 -22.4692 8.0283 0.7798
-56.2736 -24.6720 8.0014 0.7805
-55.6471 -25.7409 7.9841 0.7809
-56.7452 -29.0681 8.3025 0.7732
-55.0236 -32.5074 8.3222 0.7728
-51.7804 -33.4651 8.0285 0.7798
-51.2901 -34.6271 8.0587 0.7791
-52.1154 -38.3165 8.4234 0.7703
-49.5264 -37.9676 8.1265 0.7775
-46.2801 -41.7796 8.1191 0.7776
-42.3697 -39.8217 7.5718 0.7909
-39.8182 -38.9579 7.2541 0.7988
15.4975 -29.1213 3.5423 0.8757
16.8240 -28.7671 3.5786 0.8745
18.5805 -29.0304 3.7012 0.8705
19.2040 -28.7184 3.7098 0.8702
69.5261 -56.2592 9.6039 0.6978
71.1207 -52.9713 9.5226 0.6999
52.3627 -25.9122 6.2736 0.7905
52.8122 -23.5455 6.2092 0.7925
54.8968 -21.8782 6.3458 0.7884
57.0079 -20.1079 6.4912 0.7841
60.0667 -19.8406 6.7928 0.7753
75.4412 -23.2503 8.4770 0.7279
76.1913 -21.8171 8.5104 0.7270
65.3412 -15.9028 7.2213 0.7630
64.8598 -13.0530 7.1044 0.7663
65.8337 -11.8795 7.1835 0.7640
97.2525 -11.5600 10.5167 0.6744
90.2944 -7.0725 9.7257 0.6946
58.3251 -2.2189 6.2676 0.7907
57.6079 -1.0343 6.1870 0.7931
57.0296 0.1208 6.1240 0.7950
55.3603 3.4553 5.9562 0.8000
54.8294 4.5285 5.9077 0.8015
55.8266 6.8759 6.0401 0.7975
55.6431 7.9900 6.0363 0.7976
55.0776 9.0405 5.9934 0.7989
54.4480 10.0633 5.9457 0.8003
51.2720 11.6219 5.6453 0.8094
50.7878 12.5890 5.6187 0.8102
50.3080 13.5474 5.5946 0.8109
49.8322 14.4979 5.5729 0.8116
48.8905 16.3790 5.5367 0.8127
48.4238 17.3112 5.5221 0.8131
47.9594 18.2388 5.5098 0.8135
51.8002 22.1178 6.0482 0.7972
44.1390 25.5060 5.4742 0.8146
43.6823 26.4255 5.4822 0.8143
42.7640 28.2746 5.5050 0.8136
42.0066 29.0021 5.4814 0.8144
40.0387 28.8470 5.2991 0.8199
39.8481 29.9426 5.3523 0.8183
17.3515 14.1625 2.4051 0.9138
38.4656 32.7043 5.4216 0.8162
37.9962 33.6421 5.4496 0.8153
37.5217 34.5900 5.4800 0.8144
36.7942 36.7583 5.5849 0.8112
35.7955 38.7533 5.6650 0.8088
35.2850 39.7732 5.7094 0.8074
34.9916 41.0743 5.7941 0.8049
35.3440 43.2158 5.9949 0.7988
34.2294 45.4602 6.1107 0.7954
33.6553 46.6163 6.1740 0.7935
11.3120 68.4970 7.4549 0.7563
8.3185 66.9985 7.2496 0.7622
5.4809 65.5782 7.0665 0.7674
2.7788 64.2257 6.9031 0.7721
0.1948 62.9322 6.7578 0.7763
-3.4929 61.0863 6.5703 0.7818
-4.6787 60.4927 6.5152 0.7834
-6.9939 59.3338 6.4155 0.7864
-10.3456 57.6560 6.2901 0.7901
-12.5132 56.5710 6.2215 0.7921
-13.5803 56.0368 6.1915 0.7930
-14.6375 55.5076 6.1643 0.7938
-17.7599 53.9446 6.0985 0.7957
-22.8533 51.3949 6.0399 0.7975
-33.9748 56.8285 7.1097 0.7662
-36.3666 55.6312 7.1369 0.7654
-38.7807 54.4226 7.1759 0.7643
-39.9986 53.8129 7.1999 0.7636
-41.2252 53.1988 7.2271 0.7628
-42.4616 52.5799 7.2573 0.7619
-46.2409 50.6879 7.3676 0.7588
-48.8310 49.3912 7.4582 0.7562
-52.8487 47.3799 7.6217 0.7516
-55.6332 45.9858 7.7507 0.7480
-57.0623 45.2704 7.8216 0.7460
-60.0033 43.7981 7.9771 0.7417
-63.0687 42.2634 8.1524 0.7368
-66.2771 40.6571 8.3493 0.7314
-67.9416 39.8238 8.4566 0.7285
-98.6013 6.7675 10.6129 0.6719
-63.6446 3.0864 6.8423 0.7739
-62.8645 0.5225 6.7507 0.7765
-61.8475 -0.7273 6.6418 0.7797
-61.1254 -1.9463 6.5671 0.7819
-61.0162 -3.1697 6.5609 0.7821
-60.4222 -4.3564 6.5051 0.7837
-63.5890 -9.7576 6.9082 0.7720
-58.9725 -11.4886 6.4516 0.7853
-61.7996 -13.3321 6.7888 0.7754
-60.6381 -15.6526 6.7249 0.7773
-58.9315 -19.0616 6.6510 0.7794
-58.3703 -20.1828 6.6320 0.7800
-57.8120 -21.2981 6.6158 0.7805
-56.7023 -23.5147 6.5916 0.7812
-56.1501 -24.6179 6.5835 0.7814
-55.5991 -25.7187 6.5781 0.7816
-54.4985 -27.9172 6.5753 0.7817
-53.9481 -29.0167 6.5778 0.7816
-52.8450 -31.2203 6.5909 0.7812
-51.7357 -33.4362 6.6147 0.7805
-51.1775 -34.5512 6.6307 0.7800
-50.6165 -35.6719 6.6494 0.7795
-50.0520 -36.7995 6.6710 0.7789
-46.5039 -35.6505 6.2922 0.7900
-46.1148 -36.8450 6.3384 0.7886
-48.3332 -40.2329 6.7529 0.7765
-47.7500 -41.3978 6.7862 0.7755
-40.0036 -39.1394 6.0097 0.7984
14.8989 -30.9291 2.9062 0.8713
15.2191 -30.0367 2.8505 0.8736
15.4973 -29.1209 2.7925 0.8760
16.0899 -28.8242 2.7945 0.8759
17.9595 -29.3410 2.9122 0.8710
18.5803 -29.0302 2.9177 0.8708
53.9574 -26.7013 5.0963 0.7853
53.4475 -23.8287 4.9538 0.7906
56.0020 -23.6319 5.1455 0.7835
55.4005 -22.0789 5.0485 0.7871
57.4001 -20.2463 5.1525 0.7832
59.6820 -19.7135 5.3207 0.7770
75.4452 -23.2516 6.6831 0.7284
66.0172 -16.0674 5.7517 0.7613
64.5774 -14.3505 5.6000 0.7668
64.4958 -12.9797 5.5692 0.7679
58.1978 -2.2140 4.9302 0.7915
57.5788 -1.0338 4.8750 0.7936
57.0289 0.1208 4.8277 0.7954
56.4620 1.2531 4.7808 0.7972
55.7728 2.3585 4.7255 0.7992
52.6825 8.6474 4.5194 0.8071
52.2088 9.6495 4.4945 0.8080
51.7384 10.6406 4.4715 0.8089
51.2701 11.6215 4.4503 0.8097
49.4006 15.4543 4.3818 0.8124
47.9578 18.2382 4.3434 0.8139
46.4119 20.9282 4.3099 0.8152
45.9573 21.8434 4.3075 0.8152
45.0487 23.6729 4.3080 0.8152
44.5940 24.5885 4.3108 0.8151
43.2236 27.3479 4.3299 0.8144
42.7635 28.2743 4.3398 0.8140
42.0110 29.0050 4.3216 0.8147
38.0273 28.5744 4.0266 0.8262
36.2600 32.1049 4.0998 0.8233
36.0520 33.2352 4.1509 0.8213
35.1238 35.0895 4.2029 0.8193
34.6505 36.0350 4.2319 0.8182
34.1705 36.9939 4.2632 0.8170
33.4132 39.2216 4.3617 0.8132
34.7916 44.3267 4.7702 0.7976
2.7789 64.2267 5.4420 0.7725
0.1949 62.9332 5.3275 0.7768
-3.4930 61.0872 5.1796 0.7822
-4.6788 60.4936 5.1362 0.7838
-5.8453 59.9097 5.0956 0.7853
-6.9940 59.3347 5.0576 0.7868
-10.3457 57.6569 4.9588 0.7905
-11.4355 57.1114 4.9306 0.7915
-14.6377 55.5084 4.8596 0.7942
-15.6861 54.9836 4.8402 0.7949
-20.8276 52.4098 4.7741 0.7974
-32.7852 57.4250 5.5977 0.7669
-35.1689 56.2318 5.6145 0.7663
-41.2258 53.1996 5.6974 0.7632
-43.7095 51.9563 5.7476 0.7614
-48.8317 49.3920 5.8796 0.7567
-50.1519 48.7311 5.9196 0.7552
-51.4906 48.0609 5.9625 0.7537
-55.6341 45.9866 6.1102 0.7484
-57.0632 45.2711 6.1661 0.7465
-58.5192 44.5422 6.2256 0.7444
-63.0697 42.2641 6.4269 0.7373
-64.6549 41.4705 6.5023 0.7347
-67.9427 39.8245 6.6668 0.7290
-62.9958 1.7885 5.3349 0.7765
-61.1262 -1.9463 5.1771 0.7823
-60.5265 -3.1443 5.1306 0.7840
-61.9483 -6.9747 5.2772 0.7786
-64.2011 -8.5364 5.4826 0.7711
-58.1694 -8.9260 4.9818 0.7896
-56.9089 -9.9054 4.8899 0.7930
-57.0393 -11.1120 4.9193 0.7919
-61.3785 -13.2412 5.3154 0.7772
-54.8590 -12.9923 4.7724 0.7975
-60.7378 -15.6783 5.3102 0.7774
-59.5158 -17.9394 5.2621 0.7792
-59.0285 -19.0929 5.2518 0.7795
-58.4663 -20.2160 5.2368 0.7801
-57.9070 -21.3332 5.2241 0.7806
-56.7956 -23.5534 5.2049 0.7813
-56.2425 -24.6583 5.1986 0.7815
-55.6905 -25.7610 5.1943 0.7817
-55.1392 -26.8623 5.1921 0.7818
-54.0368 -29.0644 5.1941 0.7817
-52.9319 -31.2716 5.2044 0.7813
-51.7525 -33.4472 5.2163 0.7809
-51.1942 -34.5624 5.2289 0.7804
-49.3543 -36.2865 5.1857 0.7820
-44.9388 -34.4507 4.7934 0.7967
-44.0431 -35.1897 4.7723 0.7975
-47.7505 -41.3983 5.3499 0.7759
-46.2750 -41.7750 5.2774 0.7786
15.4920 -30.5754 2.1255 0.8716
16.1074 -30.2674 2.1261 0.8716
17.3406 -29.6504 2.1300 0.8714
17.9593 -29.3407 2.1332 0.8712
19.2036 -28.7178 2.1423 0.8707
68.4434 -57.6941 5.5509 0.6985
69.0287 -51.4132 5.3373 0.7083
70.9016 -50.6279 5.4024 0.7053
73.9892 -50.6217 5.5592 0.6982
53.8190 -25.3012 3.6877 0.7879
81.7402 -32.5761 5.4564 0.7028
76.1881 -21.8161 4.9143 0.7279
65.9635 -17.4638 4.2313 0.7607
66.6473 -12.0262 4.1996 0.7623
94.2132 -13.1213 5.8986 0.6830
97.4772 -11.5868 6.0871 0.6748
57.6064 -1.0343 3.5728 0.7938
56.5099 1.2542 3.5051 0.7973
32.8467 2.0501 2.0408 0.8764
54.8276 4.5283 3.4114 0.8021
53.7705 5.5296 3.3519 0.8052
52.8989 8.6829 3.3242 0.8067
51.7595 10.6449 3.2768 0.8091
51.2696 11.6214 3.2599 0.8100
50.7855 12.5884 3.2445 0.8108
49.4592 15.4727 3.2136 0.8125
27.7942 9.9362 1.8304 0.8884
47.9572 18.2380 3.1816 0.8141
58.5993 23.6419 3.9184 0.7763
83.3063 35.5704 5.6170 0.6956
46.4113 20.9279 3.1570 0.8154
45.5025 22.7579 3.1549 0.8155
45.0482 23.6726 3.1557 0.8155
44.5935 24.5882 3.1578 0.8154
42.7630 28.2740 3.1790 0.8143
42.0153 29.0080 3.1660 0.8150
17.3436 14.1562 1.3883 0.9142
34.7718 30.7872 2.8799 0.8302
34.3375 31.6547 2.8960 0.8293
32.7776 35.4859 2.9956 0.8240
31.3517 38.3343 3.0709 0.8200
34.2285 45.4591 3.5287 0.7961
33.6544 46.6151 3.5652 0.7942
11.3124 68.4994 4.3052 0.7571
1.2581 8.7007 0.5451 0.9654
8.3187 67.0008 4.1866 0.7629
4.1142 64.8962 4.0323 0.7706
1.4732 63.5741 3.9433 0.7750
0.1949 62.9342 3.9026 0.7771
-1.0578 62.3072 3.8642 0.7790
-2.2865 61.6921 3.8282 0.7808
-4.6788 60.4946 3.7625 0.7841
-5.8454 59.9106 3.7327 0.7857
-6.9941 59.3356 3.7049 0.7871
-9.2431 58.2098 3.6548 0.7896
-10.3459 57.6578 3.6325 0.7908
-11.4357 57.1122 3.6118 0.7918
-12.5136 56.5726 3.5929 0.7928
-14.6380 55.5092 3.5598 0.7945
-16.7268 54.4635 3.5330 0.7959
-19.8101 52.9201 3.5040 0.7974
-20.8280 52.4106 3.4972 0.7977
-32.7857 57.4259 4.1005 0.7672
-33.9757 56.8302 4.1058 0.7669
-36.3676 55.6328 4.1215 0.7662
-38.7818 54.4242 4.1440 0.7650
-39.9998 53.8145 4.1579 0.7644
-42.4629 52.5814 4.1910 0.7627
-43.7102 51.9570 4.2104 0.7618
-46.2422 50.6894 4.2547 0.7596
-50.1526 48.7318 4.3363 0.7556
-51.4914 48.0616 4.3678 0.7541
-52.8503 47.3813 4.4015 0.7524
-57.0641 45.2719 4.5169 0.7468
-58.5202 44.5429 4.5605 0.7447
-60.0052 43.7995 4.6067 0.7425
-63.0708 42.2648 4.7080 0.7377
-66.2794 40.6585 4.8217 0.7323
-67.9439 39.8252 4.8836 0.7293
-74.1248 6.5846 4.6146 0.7421
-63.6462 3.0864 3.9514 0.7746
-63.2234 1.7950 3.9221 0.7761
-62.5853 0.5202 3.8811 0.7782
-61.8489 -0.7273 3.8356 0.7804
-61.1269 -1.9464 3.7924 0.7826
-60.9305 -3.1653 3.7834 0.7831
-60.3697 -4.3526 3.7533 0.7846
-53.5106 -7.1150 3.3474 0.8055
-52.7800 -8.0990 3.3112 0.8073
-52.8789 -9.2040 3.3283 0.8065
-61.2175 -14.4982 3.9011 0.7771
-58.9329 -19.0620 3.8409 0.7802
-57.8133 -21.2986 3.8206 0.7812
-56.7036 -23.5153 3.8066 0.7819
-56.1514 -24.6184 3.8019 0.7821
-55.6003 -25.7193 3.7988 0.7823
-55.0499 -26.8188 3.7972 0.7824
-54.4997 -27.9179 3.7972 0.7824
-51.1787 -34.5519 3.8292 0.7808
-50.0532 -36.8003 3.8524 0.7796
-46.8058 -35.8819 3.6572 0.7895
-39.9319 -33.2397 3.2218 0.8120
15.4838 -30.5591 1.3508 0.8718
16.1840 -30.4113 1.3584 0.8712
16.7145 -29.9431 1.3522 0.8717
17.3403 -29.6499 1.3544 0.8715
17.9590 -29.3402 1.3564 0.8714
18.9267 -29.5714 1.3844 0.8689
19.2033 -28.7174 1.3622 0.8708
70.0000 -56.6427 3.5506 0.6974
69.5055 -53.9706 3.4699 0.7031
70.0380 -52.1649 3.4435 0.7050
71.1664 -50.8170 3.4481 0.7046
84.1088 -39.5409 3.6647 0.6893
85.5458 -38.1392 3.6932 0.6873
81.2680 -34.2937 3.4781 0.7025
83.1417 -33.1347 3.5291 0.6989
78.3813 -27.6469 3.2770 0.7170
75.4387 -23.2495 3.1127 0.7291
76.1865 -21.8157 3.1248 0.7282
66.5743 -16.2029 2.7017 0.7601
65.9613 -13.2747 2.6531 0.7639
96.2476 -7.5388 3.8068 0.6795
57.0274 0.1208 2.2487 0.7959
56.5091 1.2542 2.2288 0.7975
55.9044 2.3640 2.2063 0.7993
54.4422 5.5987 2.1580 0.8033
53.4988 6.5892 2.1255 0.8059
53.2593 7.6477 2.1216 0.8062
52.8983 8.6828 2.1138 0.8069
52.2531 9.6577 2.0953 0.8084
51.7589 10.6448 2.0836 0.8093
51.2690 11.6213 2.0729 0.8102
50.7849 12.5883 2.0631 0.8110
49.8293 14.4971 2.0463 0.8124
49.3995 15.4540 2.0410 0.8129
48.8877 16.3781 2.0330 0.8135
28.2102 10.0850 1.1813 0.8870
47.9567 18.2378 2.0231 0.8143
45.5020 22.7576 2.0061 0.8157
43.6808 26.4247 2.0130 0.8152
42.7626 28.2737 2.0214 0.8145
27.4180 18.9298 1.3138 0.8751
35.1659 26.4243 1.7345 0.8385
33.5316 29.6891 1.7660 0.8359
33.1128 30.5256 1.7758 0.8350
32.6892 31.3719 1.7865 0.8341
31.8256 33.0971 1.8105 0.8321
25.9667 29.2696 1.5428 0.8550
30.4821 35.7809 1.8534 0.8285
30.0194 36.7053 1.8697 0.8271
29.5482 37.6464 1.8871 0.8257
33.6540 46.6145 2.2670 0.7944
4.1142 64.8972 2.5641 0.7708
2.7790 64.2288 2.5350 0.7731
0.1949 62.9352 2.4816 0.7773
-2.2866 61.6931 2.4343 0.7810
-5.8455 59.9115 2.3736 0.7859
-6.9942 59.3365 2.3559 0.7873
-10.3460 57.6586 2.3098 0.7910
-11.4358 57.1131 2.2967 0.7920
-12.5138 56.5735 2.2847 0.7930
-13.5809 56.0393 2.2736 0.7939
-16.7271 54.4643 2.2466 0.7961
-20.8283 52.4113 2.2238 0.7979
-23.8641 50.8916 2.2164 0.7985
-33.9762 56.8309 2.6108 0.7672
-35.1699 56.2334 2.6153 0.7668
-41.2270 53.2012 2.6539 0.7638
-42.4635 52.5822 2.6650 0.7630
-44.9703 51.3273 2.6908 0.7610
-46.2429 50.6902 2.7055 0.7598
-47.5302 50.0458 2.7215 0.7586
-51.4922 48.0624 2.7774 0.7543
-57.0650 45.2726 2.8723 0.7471
-61.5223 43.0412 2.9606 0.7404
-63.0718 42.2655 2.9938 0.7379
-64.6570 41.4719 3.0289 0.7353
-66.2805 40.6591 3.0661 0.7325
-67.9451 39.8258 3.1055 0.7296
-83.2388 21.1809 3.3868 0.7090
-82.1984 19.1682 3.3281 0.7133
-81.1930 17.2232 3.2728 0.7173
-78.3630 11.7483 3.1245 0.7282
-77.4747 10.0297 3.0804 0.7314
-74.9496 5.1442 2.9623 0.7403
-63.5078 1.8030 2.5052 0.7754
-61.1276 -1.9464 2.4116 0.7828
-61.0184 -3.1698 2.4093 0.7830
-60.4244 -4.3565 2.3888 0.7847
-59.3591 -5.4792 2.3505 0.7877
-51.1199 -6.7971 2.0334 0.8135
-51.2207 -7.8597 2.0433 0.8127
-68.9152 -13.4255 2.7685 0.7550
-68.2451 -14.7226 2.7529 0.7562
-67.8584 -18.9769 2.7784 0.7542
-67.1981 -20.2550 2.7674 0.7551
-65.2447 -24.0364 2.7417 0.7570
-64.6007 -25.2829 2.7354 0.7575
-63.9595 -26.5243 2.7302 0.7579
-63.3203 -27.7615 2.7262 0.7582
-62.0465 -30.2273 2.7214 0.7586
-61.4107 -31.4581 2.7207 0.7587
-60.7750 -32.6886 2.7211 0.7586
-60.1389 -33.9199 2.7225 0.7585
-59.5019 -35.1531 2.7251 0.7583
-56.9339 -40.1241 2.7465 0.7567
-39.3892 -31.4713 1.9880 0.8172
-38.4645 -33.3476 2.0073 0.8156
-46.3923 -41.8810 2.4644 0.7786
-42.3611 -39.8136 2.2923 0.7924
-39.9979 -39.1338 2.2065 0.7993
16.2119 -30.4638 0.5829 0.8711
16.7190 -29.9512 0.5794 0.8718
18.9034 -29.5350 0.5923 0.8691
71.2340 -55.3127 1.5234 0.6971
85.5442 -38.1385 1.5821 0.6875
81.5902 -34.4297 1.4959 0.7017
83.1401 -33.1340 1.5118 0.6990
80.0761 -26.4498 1.4245 0.7136
81.4025 -21.5513 1.4224 0.7140
82.9436 -18.4318 1.4352 0.7118
88.1135 -17.7328 1.5182 0.6980
58.1591 -9.2934 0.9949 0.7901
97.4247 -11.5805 1.6573 0.6754
57.6049 -1.0343 0.9732 0.7941
56.6152 1.2565 0.9566 0.7973
55.9037 2.3640 0.9452 0.7994
55.3575 3.4551 0.9369 0.8010
53.2587 7.6476 0.9089 0.8063
52.2525 9.6575 0.8976 0.8085
50.7843 12.5881 0.8838 0.8111
50.4430 13.5837 0.8824 0.8114
49.8287 14.4969 0.8766 0.8125
49.4922 15.4830 0.8760 0.8126
47.9561 18.2376 0.8667 0.8144
45.0472 23.6721 0.8596 0.8158
44.5925 24.5877 0.8602 0.8157
44.1370 25.5049 0.8611 0.8155
43.6803 26.4243 0.8623 0.8153
43.2222 27.3469 0.8640 0.8150
42.0238 29.0140 0.8626 0.8152
36.2790 26.1382 0.7553 0.8362
33.4770 26.2228 0.7183 0.8436
17.3358 14.1498 0.3780 0.9144
31.8881 29.3967 0.7326 0.8407
30.2239 32.7212 0.7524 0.8368
25.9531 29.2543 0.6606 0.8552
29.3547 34.4575 0.7646 0.8344
28.9091 35.3477 0.7713 0.8330
11.3128 68.5018 1.1728 0.7575
1.2578 8.6986 0.1485 0.9654
8.3190 67.0031 1.1405 0.7633
6.8819 66.2838 1.1257 0.7660
-1.0578 62.3092 1.0527 0.7793
-4.6790 60.4965 1.0250 0.7845
-6.9943 59.3374 1.0093 0.7874
-11.4360 57.1139 0.9839 0.7921
-12.5140 56.5743 0.9787 0.7931
-15.6868 54.9860 0.9659 0.7955
-17.7609 53.9477 0.9594 0.7967
-18.7884 53.4334 0.9568 0.7972
-23.8645 50.8923 0.9495 0.7986
-32.7866 57.4275 1.1170 0.7676
-36.3686 55.6344 1.1228 0.7665
-37.5725 55.0317 1.1256 0.7660
-40.0009 53.8160 1.1327 0.7647
-41.2276 53.2019 1.1369 0.7639
-44.9709 51.3281 1.1527 0.7611
-47.5309 50.0465 1.1659 0.7587
-48.8339 49.3942 1.1733 0.7574
-55.6367 45.9887 1.2193 0.7492
-57.0659 45.2733 1.2305 0.7472
-60.0071 43.8009 1.2549 0.7429
-63.0729 42.2662 1.2825 0.7381
-66.2816 40.6599 1.3135 0.7327
-67.9462 39.8265 1.3304 0.7297
-87.4388 33.8740 1.5840 0.6872
-86.0739 31.3735 1.5475 0.6932
-89.9510 17.2020 1.5470 0.6932
-98.6064 6.7679 1.6696 0.6734
-63.6478 3.0865 1.0764 0.7750
-62.9980 1.7886 1.0646 0.7771
-62.3622 0.5184 1.0534 0.7792
-61.7392 -0.7261 1.0430 0.7811
-59.9394 -4.3215 1.0151 0.7863
-49.7169 -7.6290 0.8496 0.8177
-73.6181 -12.8138 1.2622 0.7416
-84.1909 -18.1625 1.4549 0.7085
-86.1040 -25.9536 1.5191 0.6978
-79.0679 -51.1008 1.5903 0.6862
-73.3147 -49.4965 1.4942 0.7020
-78.7153 -57.8734 1.6504 0.6765
-71.5274 -54.8339 1.5224 0.6973
-37.3617 -31.1002 0.8211 0.8233
13.5295 -28.0864 -0.1755 0.8828
14.0899 -27.8081 -0.1755 0.8828
14.6505 -27.5296 -0.1756 0.8827
15.7740 -26.9717 -0.1759 0.8825
16.9037 -26.4106 -0.1765 0.8821
17.4720 -26.1284 -0.1770 0.8819
17.9938 -25.7737 -0.1770 0.8818
62.5683 -57.1911 -0.4773 0.7124
72.0649 -53.6746 -0.5059 0.6981
82.4071 -36.7399 -0.5080 0.6970
83.1385 -33.1334 -0.5039 0.6991
75.1716 -26.5147 -0.4488 0.7270
76.1832 -21.8147 -0.4462 0.7283
58.1579 -9.2933 -0.3316 0.7901
58.2448 -2.2158 -0.3282 0.7920
57.0259 0.1208 -0.3211 0.7960
56.5077 1.2541 -0.3182 0.7976
55.3568 3.4551 -0.3123 0.8010
51.8676 4.2838 -0.2930 0.8121
52.6947 6.4901 -0.2989 0.8087
53.2580 7.6475 -0.3029 0.8064
51.7577 10.6446 -0.2975 0.8095
51.2678 11.6210 -0.2960 0.8104
50.7837 12.5880 -0.2946 0.8112
49.8282 14.4968 -0.2922 0.8125
49.4917 15.4828 -0.2920 0.8127
48.8866 16.3777 -0.2903 0.8136
28.2096 10.0847 -0.1687 0.8871
47.9556 18.2374 -0.2889 0.8145
58.5973 23.6411 -0.3557 0.7767
45.9552 21.8425 -0.2865 0.8158
43.6799 26.4241 -0.2874 0.8153
42.7616 28.2730 -0.2886 0.8146
36.2823 26.1405 -0.2518 0.8362
32.5647 24.4697 -0.2293 0.8496
17.3319 14.1466 -0.1260 0.9144
31.0513 27.4930 -0.2335 0.8471
30.6635 28.2677 -0.2348 0.8463
29.8740 29.8448 -0.2377 0.8446
29.4714 30.6489 -0.2394 0.8436
29.0631 31.4645 -0.2412 0.8425
28.2273 33.1342 -0.2451 0.8402
27.3625 34.8617 -0.2495 0.8376
26.9179 35.7499 -0.2520 0.8361
26.4643 36.6560 -0.2545 0.8346
11.3130 68.5030 -0.3909 0.7575
5.4813 65.5837 -0.3705 0.7685
4.1144 64.8994 -0.3661 0.7710
2.7791 64.2309 -0.3620 0.7732
1.4732 63.5772 -0.3580 0.7754
0.1949 62.9373 -0.3543 0.7774
-1.0578 62.3102 -0.3509 0.7794
-2.2866 61.6950 -0.3476 0.7812
-3.4932 61.0910 -0.3445 0.7829
-5.8457 59.9134 -0.3389 0.7860
-6.9945 59.3383 -0.3364 0.7874
-10.3463 57.6603 -0.3298 0.7911
-11.4362 57.1148 -0.3279 0.7922
-12.5141 56.5751 -0.3262 0.7931
-13.5813 56.0409 -0.3246 0.7940
-17.7611 53.9485 -0.3198 0.7968
-18.7886 53.4341 -0.3189 0.7973
-20.8289 52.4128 -0.3175 0.7980
-22.8550 51.3985 -0.3167 0.7985
-32.7871 57.4283 -0.3723 0.7676
-35.1709 56.2350 -0.3734 0.7670
-37.5730 55.0325 -0.3752 0.7660
-38.7835 54.4266 -0.3763 0.7654
-40.0015 53.8168 -0.3775 0.7647
-41.2283 53.2027 -0.3790 0.7640
-43.7121 51.9593 -0.3823 0.7622
-46.2443 50.6917 -0.3863 0.7600
-48.8346 49.3950 -0.3911 0.7574
-50.1549 48.7341 -0.3937 0.7560
-52.8528 47.3835 -0.3996 0.7528
-60.0081 43.8016 -0.4183 0.7429
-61.5243 43.0426 -0.4227 0.7406
-63.0739 42.2669 -0.4275 0.7381
-64.6592 41.4733 -0.4325 0.7355
-66.2828 40.6605 -0.4378 0.7327
-98.6076 6.7679 -0.5565 0.6734
-29.5658 0.8394 -0.1665 0.8884
-32.5077 0.2702 -0.1830 0.8781
-61.1291 -1.9465 -0.3443 0.7830
-61.0199 -3.1699 -0.3440 0.7832
-80.5811 -15.6982 -0.4622 0.7201
-77.6951 -52.4538 -0.5278 0.6873
-78.7086 -57.8685 -0.5500 0.6765
-71.5282 -54.8345 -0.5074 0.6973
-21.1582 -19.1006 -0.1605 0.8922
-18.3985 -17.2920 -0.1422 0.9039
-18.1423 -17.7504 -0.1429 0.9035
13.5293 -28.0860 -0.8778 0.8827
14.6502 -27.5293 -0.8781 0.8827
15.2115 -27.2505 -0.8788 0.8826
15.7738 -26.9713 -0.8798 0.8825
8.2620 -13.4980 -0.4456 0.9386
17.4718 -26.1280 -0.8850 0.8818
55.1366 -72.5853 -2.5667 0.6944
63.5492 -65.5301 -2.5704 0.6940
64.8652 -64.2549 -2.5709 0.6939
62.5673 -57.1903 -2.3868 0.7123
59.2270 -38.7999 -1.9937 0.7533
56.9837 -34.1432 -1.8705 0.7666
55.1986 -30.1315 -1.7708 0.7775
53.8362 -28.0002 -1.7087 0.7844
52.0891 -24.4879 -1.6207 0.7943
50.4951 -21.3081 -1.5432 0.8031
52.7738 -21.0320 -1.5997 0.7967
54.6072 -19.2612 -1.6305 0.7932
57.0090 -18.8305 -1.6906 0.7864
57.6237 -17.7592 -1.6979 0.7856
60.1548 -17.2250 -1.7619 0.7785
58.8053 -15.5687 -1.7129 0.7839
62.9809 -15.3284 -1.8252 0.7715
58.1568 -9.2931 -1.6583 0.7900
73.2063 -10.1957 -2.0812 0.7440
58.0899 -2.2099 -1.6369 0.7925
56.8985 0.1206 -1.6021 0.7964
55.7566 2.3578 -1.5714 0.7999
55.2104 3.4459 -1.5576 0.8014
54.5402 4.5046 -1.5410 0.8033
53.4968 6.5889 -1.5177 0.8060
51.6459 10.6216 -1.4847 0.8098
51.1709 11.5990 -1.4774 0.8106
50.7001 12.5673 -1.4708 0.8114
28.2093 10.0846 -0.8435 0.8870
47.9223 18.2247 -1.4437 0.8145
58.6200 23.6503 -1.7799 0.7765
46.4092 20.9270 -1.4335 0.8157
45.9547 21.8422 -1.4327 0.8158
45.5005 22.7568 -1.4325 0.8158
45.0462 23.6716 -1.4329 0.8158
44.5915 24.5872 -1.4338 0.8157
43.2212 27.3463 -1.4402 0.8149
42.0324 29.0199 -1.4382 0.8151
31.8088 23.9018 -1.1203 0.8528
30.9057 24.2086 -1.1054 0.8546
17.3281 14.1435 -0.6298 0.9144
30.1795 25.6593 -1.1154 0.8534
29.8112 26.3950 -1.1212 0.8527
29.0622 27.8911 -1.1342 0.8511
28.6809 28.6529 -1.1415 0.8502
27.9024 30.2079 -1.1579 0.8483
27.1000 31.8108 -1.1767 0.8460
26.6886 32.6327 -1.1870 0.8448
26.2697 33.4694 -1.1980 0.8434
24.9626 36.0803 -1.2354 0.8390
44.5464 76.9152 -2.5028 0.7007
42.9860 77.7798 -2.5023 0.7007
39.8144 79.4115 -2.5014 0.7008
29.9048 83.3938 -2.4946 0.7015
24.7899 84.8978 -2.4904 0.7019
17.8611 86.4183 -2.4848 0.7025
1.2575 8.6966 -0.2474 0.9654
6.8822 66.2860 -1.8765 0.7659
5.4814 65.5848 -1.8532 0.7685
4.1145 64.9005 -1.8311 0.7709
2.7791 64.2320 -1.8103 0.7732
-1.0578 62.3112 -1.7548 0.7793
-2.2866 61.6960 -1.7384 0.7811
-4.6791 60.4983 -1.7086 0.7844
-9.2437 58.2132 -1.6597 0.7899
-10.3465 57.6612 -1.6495 0.7910
-13.5815 56.0418 -1.6237 0.7939
-23.8652 50.8937 -1.5828 0.7986
-40.0040 77.1000 -2.4458 0.7064
-32.7876 57.4292 -1.8621 0.7675
-35.1714 56.2358 -1.8677 0.7669
-36.3697 55.6359 -1.8716 0.7665
-40.0021 53.8176 -1.8882 0.7647
-41.2288 53.2035 -1.8953 0.7639
-42.4653 52.5845 -1.9032 0.7630
-44.9722 51.3296 -1.9216 0.7610
-46.2450 50.6924 -1.9321 0.7599
-47.5323 50.0480 -1.9435 0.7587
-50.1557 48.7348 -1.9692 0.7559
-52.8536 47.3842 -1.9988 0.7527
-57.0677 45.2747 -2.0512 0.7471
-36.9058 28.0911 -1.3060 0.8306
-37.7056 26.3789 -1.2957 0.8318
-63.0749 42.2676 -2.1380 0.7380
-74.5170 43.6780 -2.4321 0.7078
-76.2039 40.6492 -2.4319 0.7078
-36.9680 16.0561 -1.1349 0.8511
-80.5385 31.2009 -2.4320 0.7078
-81.1521 29.5796 -2.4321 0.7078
-81.7338 27.9464 -2.4323 0.7078
-83.5485 19.4831 -2.4157 0.7094
-83.7502 17.7656 -2.4107 0.7099
-84.1381 12.6141 -2.3956 0.7115
-84.1973 10.9001 -2.3906 0.7120
-84.2193 9.1883 -2.3855 0.7125
-84.2049 7.4802 -2.3804 0.7130
-32.7063 -0.3846 -0.9210 0.8773
-61.1298 -1.9465 -1.7221 0.7829
-60.5301 -3.1445 -1.7067 0.7846
-59.9408 -4.3216 -1.6922 0.7862
-51.1367 -5.7574 -1.4490 0.8139
-77.7800 -15.1525 -2.2313 0.7283
-79.9446 -17.2465 -2.3029 0.7209
-79.4048 -18.8055 -2.2977 0.7214
-79.0373 -20.4020 -2.2985 0.7213
-62.1001 -17.3666 -1.8157 0.7726
-68.4837 -22.1512 -2.0267 0.7497
-82.2751 -28.4485 -2.4513 0.7058
-81.7201 -30.1060 -2.4522 0.7057
-79.1745 -36.6241 -2.4563 0.7053
-76.9290 -41.3772 -2.4596 0.7050
-69.8704 -43.1936 -2.3130 0.7199
-67.2420 -47.3887 -2.3163 0.7195
-66.3103 -48.7529 -2.3175 0.7194
-38.5794 -30.8243 -1.3905 0.8207
-21.7695 -18.1211 -0.7976 0.8928
-21.4632 -18.6080 -0.7999 0.8926
-21.1656 -19.1074 -0.8029 0.8922
-18.1425 -17.7506 -0.7147 0.9034
13.5291 -28.0856 -1.5810 0.8826
15.2112 -27.2501 -1.5827 0.8825
15.7735 -26.9709 -1.5845 0.8824
8.2447 -13.4696 -0.8009 0.9387
17.4715 -26.1276 -1.5940 0.8817
17.9933 -25.7730 -1.5941 0.8817
29.1685 -36.8401 -2.3830 0.8285
33.3789 -37.3050 -2.5387 0.8183
34.1250 -36.6320 -2.5390 0.8183
36.2797 -34.5236 -2.5398 0.8183
36.9688 -33.7917 -2.5401 0.8182
38.9456 -31.5140 -2.5407 0.8182
40.7796 -29.1191 -2.5412 0.8182
42.4644 -26.6162 -2.5416 0.8181
42.9914 -25.7594 -2.5417 0.8181
43.5010 -24.8921 -2.5418 0.8181
44.4230 -23.1044 -2.5394 0.8183
43.3245 -20.3675 -2.4278 0.8255
43.3647 -18.2992 -2.3870 0.8282
43.7225 -17.4249 -2.3870 0.8282
44.6879 -14.7608 -2.3867 0.8282
44.9733 -13.8604 -2.3866 0.8282
31.2978 -8.2861 -1.6419 0.8784
30.3636 -7.3899 -1.5848 0.8824
29.6547 -6.5899 -1.5406 0.8854
29.3189 -5.9004 -1.5167 0.8871
29.6936 -5.3581 -1.5302 0.8862
25.7547 -3.0614 -1.3153 0.9013
48.8135 -0.8765 -2.4759 0.8224
39.8923 0.0845 -2.0231 0.8523
48.7973 2.0634 -2.4769 0.8223
48.7523 3.0428 -2.4772 0.8223
48.2303 7.9166 -2.4787 0.8222
47.8837 9.8477 -2.4792 0.8222
47.6812 10.8080 -2.4795 0.8222
46.9572 13.6615 -2.4801 0.8221
46.3787 15.5375 -2.4805 0.8221
44.9957 19.2124 -2.4812 0.8220
44.1937 21.0052 -2.4815 0.8220
43.7653 21.8890 -2.4816 0.8220
43.3193 22.7641 -2.4818 0.8220
41.8758 25.3327 -2.4821 0.8220
41.3602 26.1689 -2.4821 0.8220
40.8277 26.9944 -2.4822 0.8220
36.2888 26.1452 -2.2683 0.8360
31.8114 23.9037 -2.0180 0.8527
29.8771 23.4030 -1.9247 0.8590
29.1751 24.8053 -1.9421 0.8578
28.8190 25.5166 -1.9521 0.8571
27.7263 27.6992 -1.9876 0.8547
27.3528 28.4456 -2.0013 0.8538
26.9738 29.2026 -2.0161 0.8528
25.9525 29.2536 -1.9832 0.8550
26.1980 30.7522 -2.0488 0.8506
25.8003 31.5466 -2.0668 0.8494
25.3396 32.2844 -2.0814 0.8484
24.7678 32.8943 -2.0882 0.8480
24.3504 33.7280 -2.1097 0.8465
23.9242 34.5794 -2.1325 0.8450
23.4885 35.4498 -2.1566 0.8434
26.0752 41.1232 -2.4694 0.8228
25.2459 41.6404 -2.4696 0.8228
23.5565 42.6236 -2.4698 0.8228
21.6454 43.1725 -2.4492 0.8241
19.9049 44.0276 -2.4504 0.8241
19.0109 44.4033 -2.4496 0.8241
18.0935 44.7206 -2.4466 0.8243
17.1909 45.0711 -2.4464 0.8243
16.2871 45.4188 -2.4470 0.8243
15.3718 45.7353 -2.4469 0.8243
14.4363 45.9886 -2.4445 0.8244
12.5844 46.5507 -2.4455 0.8244
11.6428 46.7746 -2.4445 0.8244
10.6985 46.9849 -2.4438 0.8245
9.7559 47.2023 -2.4444 0.8244
7.8480 47.5217 -2.4427 0.8246
1.2573 8.6956 -0.4456 0.9654
5.9375 47.8215 -2.4439 0.8245
4.0107 47.9871 -2.4421 0.8246
2.0807 48.0899 -2.4411 0.8247
1.1152 48.1254 -2.4413 0.8246
-0.8168 48.1123 -2.4403 0.8247
-1.7823 48.0878 -2.4404 0.8247
-3.7103 47.9719 -2.4401 0.8247
-6.5875 47.6405 -2.4390 0.8248
-7.5431 47.5036 -2.4393 0.8248
-11.3186 46.7043 -2.4371 0.8249
-13.1819 46.2059 -2.4368 0.8249
-14.1037 45.9224 -2.4363 0.8250
-15.0218 45.6279 -2.4362 0.8250
-15.9285 45.3000 -2.4352 0.8250
-16.8329 44.9670 -2.4350 0.8251
-17.7247 44.6018 -2.4340 0.8251
-18.6048 44.2097 -2.4325 0.8252
-19.4845 43.8188 -2.4320 0.8253
-21.2142 42.9747 -2.4305 0.8253
-22.9103 42.0678 -2.4293 0.8254
-28.4865 38.3248 -2.4217 0.8259
-29.2361 37.7275 -2.4206 0.8260
-29.9726 37.1149 -2.4194 0.8261
-31.4019 35.8409 -2.4166 0.8263
-32.7769 34.5117 -2.4138 0.8264
-33.4424 33.8261 -2.4123 0.8265
-34.7244 32.4114 -2.4089 0.8268
-35.3435 31.6861 -2.4073 0.8269
-36.5340 30.1986 -2.4038 0.8271
-37.1055 29.4376 -2.4021 0.8272
-36.8418 26.8918 -2.3132 0.8330
-38.7182 27.0874 -2.3964 0.8276
-39.2216 26.2830 -2.3944 0.8277
-41.0610 22.9733 -2.3861 0.8282
-41.4752 22.1240 -2.3839 0.8284
-42.2498 20.4031 -2.3794 0.8287
-42.9510 18.6547 -2.3748 0.8290
-43.2729 17.7709 -2.3724 0.8291
-43.5764 16.8817 -2.3700 0.8293
-43.8615 15.9873 -2.3676 0.8295
-44.3750 14.1845 -2.3626 0.8298
-44.6029 13.2768 -2.3601 0.8300
-45.0019 11.4511 -2.3550 0.8303
-45.3233 9.6143 -2.3497 0.8306
-45.4556 8.6927 -2.3470 0.8308
-45.6632 6.8459 -2.3417 0.8312
-45.7383 5.9212 -2.3389 0.8313
-45.7942 4.9961 -2.3362 0.8315
-45.8488 3.1468 -2.3307 0.8319
-29.6216 0.8410 -1.5028 0.8881
-31.7909 0.2643 -1.6123 0.8804
-45.6187 -2.3698 -2.3166 0.8328
-46.9770 -9.1517 -2.4272 0.8256
-47.4082 -11.2277 -2.4708 0.8227
-47.1827 -12.1793 -2.4713 0.8227
-46.9382 -13.1265 -2.4718 0.8227
-46.6752 -14.0689 -2.4723 0.8226
-46.0928 -15.9376 -2.4734 0.8226
-45.7739 -16.8633 -2.4739 0.8225
-45.4365 -17.7826 -2.4745 0.8225
-45.0808 -18.6952 -2.4750 0.8225
-43.9057 -21.3897 -2.4768 0.8223
-43.4784 -22.2721 -2.4774 0.8223
-42.5713 -24.0113 -2.4787 0.8222
-42.0916 -24.8673 -2.4793 0.8222
-41.5950 -25.7139 -2.4800 0.8221
-28.0905 -21.5345 -1.7950 0.8678
-35.9362 -28.7124 -2.3328 0.8317
-21.7697 -18.1213 -1.4365 0.8928
-21.4635 -18.6082 -1.4406 0.8925
-21.1656 -19.1073 -1.4461 0.8921
-18.4145 -17.3071 -1.2816 0.9037
14.0893 -27.8069 -2.2856 0.8825
14.6498 -27.5285 -2.2865 0.8824
15.7733 -26.9705 -2.2909 0.8822
8.2384 -13.4592 -1.1571 0.9387
17.4713 -26.1272 -2.3046 0.8816
17.9930 -25.7726 -2.3047 0.8816
18.5680 -25.4904 -2.3123 0.8812
21.0911 -24.5460 -2.3729 0.8783
21.5815 -24.1199 -2.3731 0.8783
22.0631 -23.6840 -2.3733 0.8783
23.9834 -24.7310 -2.5260 0.8709
24.9753 -23.7664 -2.5279 0.8709
26.3653 -22.2246 -2.5284 0.8708
27.2388 -21.1508 -2.5286 0.8708
27.6592 -20.6008 -2.5287 0.8708
28.0682 -20.0424 -2.5288 0.8708
28.4659 -19.4758 -2.5289 0.8708
29.2264 -18.3188 -2.5291 0.8708
29.9394 -17.1319 -2.5292 0.8708
31.2179 -14.6761 -2.5293 0.8708
32.0439 -12.7705 -2.5292 0.8708
32.5294 -11.4738 -2.5291 0.8708
32.7523 -10.8184 -2.5291 0.8708
33.1580 -9.4947 -2.5289 0.8708
33.3406 -8.8269 -2.5288 0.8708
30.2793 -7.3694 -2.2850 0.8825
26.7663 -4.2771 -1.9875 0.8970
24.6429 -2.4287 -1.8156 0.9055
25.2448 -1.4683 -1.8541 0.9036
32.3418 -1.2304 -2.3731 0.8783
32.3571 -0.5810 -2.3729 0.8783
32.3240 1.3669 -2.3722 0.8783
32.2465 3.3161 -2.3769 0.8781
32.1978 3.9658 -2.3787 0.8780
31.9702 5.9089 -2.3838 0.8777
31.3177 9.1114 -2.3915 0.8774
31.1409 9.7419 -2.3924 0.8773
15.3911 6.2096 -1.2169 0.9356
15.8750 6.7783 -1.2657 0.9331
29.8150 13.4441 -2.3981 0.8771
29.5505 14.0452 -2.3990 0.8770
29.2739 14.6411 -2.3999 0.8770
28.6842 15.8162 -2.4017 0.8769
28.3716 16.3948 -2.4026 0.8768
27.7112 17.5332 -2.4044 0.8768
26.2305 19.7101 -2.4057 0.8767
25.8316 20.2341 -2.4059 0.8767
17.3203 14.1371 -1.6393 0.9142
25.0005 21.2560 -2.4061 0.8767
24.5690 21.7536 -2.4061 0.8767
24.1273 22.2422 -2.4061 0.8767
23.6753 22.7213 -2.4060 0.8767
23.2136 23.1909 -2.4059 0.8767
22.7477 23.6566 -2.4064 0.8767
22.2762 24.1168 -2.4072 0.8766
21.3015 25.0044 -2.4085 0.8766
19.7493 26.2292 -2.4074 0.8766
18.6771 26.9955 -2.4069 0.8766
17.0289 28.0873 -2.4084 0.8766
15.8803 28.7341 -2.4072 0.8766
15.2965 29.0398 -2.4066 0.8767
14.7099 29.3395 -2.4065 0.8767
12.3089 30.4232 -2.4063 0.8767
11.0719 30.8754 -2.4050 0.8767
9.8290 31.3115 -2.4063 0.8767
9.1955 31.4917 -2.4055 0.8767
7.9189 31.8138 -2.4038 0.8768
6.6381 32.1171 -2.4047 0.8767
1.2572 8.6946 -0.6441 0.9654
3.3841 32.5943 -2.4027 0.8768
2.7286 32.6475 -2.4021 0.8769
2.0722 32.6860 -2.4014 0.8769
0.7588 32.7470 -2.4017 0.8769
0.1014 32.7423 -2.4008 0.8769
-0.5556 32.7251 -2.3998 0.8770
-1.8681 32.6710 -2.3994 0.8770
-3.8288 32.4824 -2.3982 0.8771
-5.1268 32.2869 -2.3970 0.8771
-6.4130 32.0282 -2.3950 0.8772
-7.6921 31.7404 -2.3946 0.8772
-8.9546 31.3881 -2.3933 0.8773
-10.2014 30.9863 -2.3919 0.8774
-10.8183 30.7669 -2.3913 0.8774
-12.0380 30.2918 -2.3900 0.8775
-14.4023 29.1755 -2.3857 0.8777
-14.9799 28.8708 -2.3849 0.8777
-17.7687 27.1813 -2.3811 0.8779
-18.8289 26.4234 -2.3790 0.8780
-19.3456 26.0270 -2.3778 0.8780
-19.8540 25.6205 -2.3766 0.8781
-20.3564 25.2072 -2.3757 0.8781
-20.8510 24.7849 -2.3748 0.8782
-21.3354 24.3514 -2.3739 0.8782
-21.8080 23.9053 -2.3726 0.8783
-22.2712 23.4500 -2.3713 0.8784
-22.7250 22.9858 -2.3700 0.8784
-23.1696 22.5132 -2.3687 0.8785
-23.6061 22.0338 -2.3677 0.8785
-24.4461 21.0468 -2.3652 0.8786
-25.6262 19.5055 -2.3613 0.8788
-26.3566 18.4391 -2.3585 0.8790
-26.7050 17.8954 -2.3571 0.8790
-27.9850 15.6573 -2.3512 0.8793
-28.2756 15.0830 -2.3497 0.8794
-28.8207 13.9180 -2.3467 0.8795
-29.0751 13.3279 -2.3452 0.8796
-29.3172 12.7332 -2.3436 0.8797
-29.7637 11.5305 -2.3404 0.8798
-30.3383 9.6976 -2.3354 0.8801
-30.5045 9.0801 -2.3336 0.8802
-30.6579 8.4598 -2.3319 0.8802
-30.9259 7.2117 -2.3284 0.8804
-31.0405 6.5845 -2.3266 0.8805
-31.4436 4.0706 -2.3248 0.8806
-31.5212 3.4390 -2.3249 0.8806
-31.5861 2.8058 -2.3251 0.8806
-31.6386 2.1715 -2.3253 0.8806
-31.7055 0.9002 -2.3257 0.8805
-31.7219 -0.3730 -2.3261 0.8805
-32.2782 -1.6768 -2.3699 0.8784
-33.6122 -2.4234 -2.4709 0.8736
-33.4169 -5.1277 -2.4789 0.8732
-33.0604 -7.1321 -2.4798 0.8732
-32.4000 -9.7661 -2.4812 0.8731
-32.2023 -10.4160 -2.4816 0.8731
-31.9916 -11.0618 -2.4820 0.8730
-31.7680 -11.7035 -2.4823 0.8730
-30.7471 -14.2228 -2.4840 0.8730
-30.1618 -15.4506 -2.4848 0.8729
-29.5278 -16.6545 -2.4857 0.8729
-29.1929 -17.2468 -2.4861 0.8728
-27.7362 -19.5471 -2.4880 0.8728
-24.9091 -19.9020 -2.3378 0.8800
-21.7700 -18.1215 -2.0769 0.8926
-23.6805 -21.3777 -2.3392 0.8799
10.2400 -22.3965 -2.3643 0.9058
10.6886 -22.1888 -2.3645 0.9058
11.5729 -21.7465 -2.3650 0.9058
12.0082 -21.5120 -2.3652 0.9057
12.4387 -21.2688 -2.3655 0.9057
8.2371 -13.4572 -1.5148 0.9386
13.2847 -20.7563 -2.3659 0.9057
14.1095 -20.2099 -2.3663 0.9057
14.9116 -19.6306 -2.3667 0.9057
15.3038 -19.3289 -2.3669 0.9057
15.6898 -19.0192 -2.3671 0.9057
16.0695 -18.7018 -2.3672 0.9057
17.0036 -18.2528 -2.3949 0.9046
18.2677 -18.8371 -2.5192 0.8999
18.6588 -18.4833 -2.5214 0.8998
19.0271 -18.1061 -2.5216 0.8998
19.3876 -17.7215 -2.5217 0.8998
19.7404 -17.3296 -2.5218 0.8998
20.0851 -16.9307 -2.5220 0.8998
20.4217 -16.5249 -2.5221 0.8998
21.0700 -15.6931 -2.5222 0.8998
21.6841 -14.8358 -2.5224 0.8998
21.9781 -14.3980 -2.5225 0.8998
22.2631 -13.9543 -2.5225 0.8998
22.8060 -13.0500 -2.5226 0.8998
23.3118 -12.1245 -2.5227 0.8998
23.5505 -11.6542 -2.5227 0.8998
23.9993 -10.6997 -2.5227 0.8998
24.4090 -9.7278 -2.5226 0.8998
25.1088 -7.7383 -2.5225 0.8998
25.2584 -7.2326 -2.5224 0.8998
25.3977 -6.7240 -2.5223 0.8998
25.5267 -6.2128 -2.5222 0.8998
25.7536 -5.1829 -2.5220 0.8998
25.8514 -4.6648 -2.5219 0.8998
26.0153 -3.6232 -2.5217 0.8998
26.1369 -2.5760 -2.5214 0.8998
26.1800 -2.0506 -2.5211 0.8999
24.6297 1.0415 -2.3667 0.9057
24.6018 1.5355 -2.3665 0.9057
24.3909 3.5024 -2.3657 0.9057
24.3134 3.9908 -2.3654 0.9057
24.2260 4.4776 -2.3652 0.9057
24.1288 4.9624 -2.3650 0.9058
24.0219 5.4451 -2.3647 0.9058
23.9052 5.9255 -2.3645 0.9058
16.9158 4.5552 -1.6819 0.9320
23.4975 7.3509 -2.3637 0.9058
23.3528 7.8235 -2.3645 0.9058
15.3782 6.5662 -1.6053 0.9350
22.4958 10.1439 -2.3691 0.9056
21.8665 11.4907 -2.3715 0.9055
12.4899 6.8868 -1.3693 0.9443
21.4004 12.3664 -2.3729 0.9055
20.6376 13.6450 -2.3752 0.9054
20.0861 14.4715 -2.3767 0.9053
19.7958 14.8749 -2.3772 0.9053
18.2031 14.2586 -2.2199 0.9113
17.2959 14.1172 -2.1434 0.9142
17.8825 17.1618 -2.3795 0.9052
17.5362 17.5191 -2.3798 0.9052
17.1827 17.8692 -2.3800 0.9052
16.4541 18.5470 -2.3803 0.9052
16.0794 18.8745 -2.3804 0.9052
15.6980 19.1942 -2.3805 0.9052
14.9199 19.8152 -2.3813 0.9051
14.5236 20.1168 -2.3820 0.9051
14.1169 20.4043 -2.3820 0.9051
13.7043 20.6832 -2.3820 0.9051
13.2860 20.9534 -2.3819 0.9051
12.4334 21.4678 -2.3817 0.9051
11.9993 21.7118 -2.3816 0.9051
11.5603 21.9467 -2.3814 0.9051
9.7654 22.8088 -2.3820 0.9051
8.8400 23.1766 -2.3814 0.9051
8.3720 23.3466 -2.3811 0.9051
7.9007 23.5068 -2.3808 0.9052
6.9516 23.8070 -2.3810 0.9051
6.4726 23.9426 -2.3811 0.9051
5.9898 24.0638 -2.3807 0.9052
5.5046 24.1748 -2.3803 0.9052
4.5309 24.3810 -2.3808 0.9052
4.0399 24.4624 -2.3803 0.9052
3.0536 24.5942 -2.3793 0.9052
2.0632 24.6865 -2.3783 0.9052
1.5670 24.7179 -2.3778 0.9053
1.0708 24.7483 -2.3782 0.9053
0.5738 24.7613 -2.3778 0.9053
0.0767 24.7618 -2.3773 0.9053
-0.4202 24.7519 -2.3766 0.9053
-1.4132 24.7141 -2.3766 0.9053
-2.4025 24.6238 -2.3752 0.9054
-3.3869 24.4939 -2.3739 0.9054
-4.3658 24.3305 -2.3732 0.9054
-4.8524 24.2340 -2.3728 0.9055
-5.3362 24.1244 -2.3720 0.9055
-5.8175 24.0048 -2.3713 0.9055
-6.2974 23.8808 -2.3711 0.9055
-6.7743 23.7454 -2.3706 0.9055
-7.2471 23.5970 -2.3699 0.9056
-7.7166 23.4388 -2.3690 0.9056
-9.1066 22.9154 -2.3673 0.9057
-9.5612 22.7198 -2.3665 0.9057
-10.4578 22.3017 -2.3648 0.9058
-12.1947 21.3596 -2.3613 0.9059
-13.0344 20.8408 -2.3599 0.9059
-13.8496 20.2852 -2.3581 0.9060
-14.2482 19.9951 -2.3571 0.9061
-14.6416 19.6984 -2.3563 0.9061
-15.7839 18.7618 -2.3539 0.9062
-16.1501 18.4332 -2.3528 0.9062
-16.5096 18.0974 -2.3518 0.9063
-16.8621 17.7546 -2.3508 0.9063
-17.2073 17.4047 -2.3497 0.9063
-17.5455 17.0484 -2.3487 0.9064
-17.8781 16.6873 -2.3479 0.9064
-18.2011 16.3176 -2.3468 0.9064
-18.8232 15.5590 -2.3446 0.9065
-19.4136 14.7767 -2.3423 0.9066
-20.2378 13.5617 -2.3388 0.9067
-20.4960 13.1464 -2.3377 0.9068
-21.2167 11.8705 -2.3340 0.9069
-21.6531 10.9979 -2.3316 0.9070
-22.0575 10.1111 -2.3295 0.9071
-22.2561 9.6664 -2.3295 0.9071
-22.4458 9.2178 -2.3295 0.9071
-22.6265 8.7656 -2.3296 0.9071
-22.7982 8.3098 -2.3296 0.9071
-22.9607 7.8507 -2.3296 0.9071
-23.1141 7.3884 -2.3297 0.9071
-19.2647 5.3160 -1.9186 0.9228
-23.5188 5.9846 -2.3299 0.9071
-23.6350 5.5116 -2.3300 0.9071
-23.7417 5.0362 -2.3300 0.9071
-23.8389 4.5589 -2.3301 0.9071
-24.1492 2.6347 -2.3322 0.9070
-25.4951 1.7498 -2.4534 0.9024
-25.7992 1.2511 -2.4798 0.9014
-25.8577 0.2149 -2.4826 0.9013
-25.8587 -0.3041 -2.4827 0.9013
-25.8296 -1.3418 -2.4831 0.9013
-25.7591 -2.3777 -2.4835 0.9013
-25.4030 -4.9488 -2.4847 0.9012
-25.1890 -5.9655 -2.4852 0.9012
-25.0669 -6.4706 -2.4854 0.9012
-24.6403 -7.9700 -2.4863 0.9012
-24.4782 -8.4639 -2.4865 0.9012
-24.3063 -8.9545 -2.4868 0.9011
-23.9331 -9.9252 -2.4874 0.9011
-23.7321 -10.4049 -2.4878 0.9011
-23.5215 -10.8804 -2.4881 0.9011
-23.3014 -11.3518 -2.4884 0.9011
-23.0719 -11.8187 -2.4887 0.9011
-22.8331 -12.2811 -2.4891 0.9011
-22.5851 -12.7386 -2.4894 0.9010
-22.3279 -13.1911 -2.4897 0.9010
-21.7867 -14.0805 -2.4904 0.9010
-21.2102 -14.9479 -2.4912 0.9010
-19.8995 -16.5645 -2.4857 0.9012
-17.4386 -17.0619 -2.3422 0.9066
8.6278 -17.9108 -2.3615 0.9230
9.6924 -17.3635 -2.3621 0.9230
10.0398 -17.1668 -2.3623 0.9230
8.1620 -13.3345 -1.8571 0.9390
11.7134 -16.0803 -2.3632 0.9230
12.3508 -15.5992 -2.3635 0.9230
13.6091 -15.8384 -2.4805 0.9193
14.1180 -15.7786 -2.5150 0.9182
15.0574 -14.9157 -2.5176 0.9182
15.3544 -14.6111 -2.5177 0.9182
15.6451 -14.3006 -2.5178 0.9182
16.4792 -13.3346 -2.5181 0.9182
16.7440 -13.0016 -2.5182 0.9182
17.2533 -12.3198 -2.5183 0.9181
17.9645 -11.2599 -2.5185 0.9181
18.1871 -10.8973 -2.5185 0.9181
18.4024 -10.5302 -2.5185 0.9181
18.6102 -10.1588 -2.5185 0.9181
19.0031 -9.4039 -2.5186 0.9181
19.1880 -9.0206 -2.5186 0.9181
19.3652 -8.6337 -2.5186 0.9181
19.8492 -7.4525 -2.5185 0.9181
19.9945 -7.0525 -2.5185 0.9181
20.1318 -6.6497 -2.5184 0.9181
20.2608 -6.2442 -2.5184 0.9181
20.3816 -5.8362 -2.5184 0.9181
20.6943 -4.5987 -2.5182 0.9182
20.8608 -3.7643 -2.5180 0.9182
20.9314 -3.3447 -2.5179 0.9182
20.9934 -2.9238 -2.5178 0.9182
21.0470 -2.5018 -2.5177 0.9182
21.0920 -2.0788 -2.5176 0.9182
21.1285 -1.6549 -2.5175 0.9182
21.1564 -1.2305 -2.5173 0.9182
21.1758 -0.8056 -2.5172 0.9182
21.1886 0.0449 -2.5169 0.9182
21.1822 0.4701 -2.5168 0.9182
21.1672 0.8951 -2.5166 0.9182
21.1230 1.3184 -2.5140 0.9183
19.7755 2.4356 -2.3668 0.9229
19.6865 2.8269 -2.3625 0.9230
19.6243 3.2212 -2.3623 0.9230
19.5541 3.6141 -2.3621 0.9230
19.0855 5.5526 -2.3611 0.9231
18.9685 5.9340 -2.3609 0.9231
18.8438 6.3129 -2.3607 0.9231
18.7115 6.6892 -2.3604 0.9231
18.5717 7.0627 -2.3602 0.9231
14.8609 5.9957 -1.9035 0.9375
13.2066 5.9551 -1.7209 0.9433
17.7615 8.8833 -2.3590 0.9231
11.7783 6.4944 -1.5977 0.9473
16.9843 10.2746 -2.3579 0.9232
16.7732 10.6125 -2.3577 0.9232
16.1158 11.6110 -2.3594 0.9231
15.3972 12.5675 -2.3609 0.9231
15.1446 12.8763 -2.3613 0.9230
14.8857 13.1799 -2.3617 0.9230
14.3490 13.7708 -2.3624 0.9230
14.0722 14.0583 -2.3628 0.9230
13.7907 14.3417 -2.3634 0.9230
11.9751 15.9042 -2.3648 0.9229
11.6541 16.1423 -2.3650 0.9229
11.3284 16.3738 -2.3651 0.9229
10.6631 16.8167 -2.3653 0.9229
10.3237 17.0278 -2.3654 0.9229
9.9800 17.2318 -2.3654 0.9229
9.2821 17.6218 -2.3658 0.9229
8.2052 18.1490 -2.3659 0.9229
7.4696 18.4622 -2.3657 0.9229
7.0982 18.6100 -2.3659 0.9229
6.7239 18.7505 -2.3662 0.9229
5.5821 19.1170 -2.3657 0.9229
4.4203 19.4129 -2.3650 0.9229
3.2431 19.6380 -2.3643 0.9230
2.4523 19.7515 -2.3642 0.9230
1.2587 19.8542 -2.3631 0.9230
0.8600 19.8775 -2.3634 0.9230
-0.3375 19.8829 -2.3621 0.9230
-1.1348 19.8457 -2.3612 0.9231
-2.7210 19.6780 -2.3597 0.9231
-3.1148 19.6160 -2.3593 0.9231
-3.5071 19.5452 -2.3588 0.9231
-4.2866 19.3794 -2.3576 0.9232
-5.8223 18.9577 -2.3557 0.9232
-7.3171 18.4124 -2.3535 0.9233
-8.0453 18.0931 -2.3521 0.9233
-8.4043 17.9227 -2.3514 0.9234
-8.7598 17.7452 -2.3507 0.9234
-9.1114 17.5604 -2.3500 0.9234
-9.8026 17.1697 -2.3485 0.9234
-10.4771 16.7519 -2.3470 0.9235
-10.8077 16.5329 -2.3463 0.9235
-11.4551 16.0754 -2.3447 0.9236
-12.0832 15.5927 -2.3432 0.9236
-12.3894 15.3417 -2.3424 0.9236
-12.6902 15.0845 -2.3416 0.9237
-12.9856 14.8213 -2.3407 0.9237
-13.2765 14.5533 -2.3400 0.9237
-14.6393 13.1244 -2.3355 0.9239
-15.1422 12.5164 -2.3336 0.9239
-15.3907 12.2102 -2.3337 0.9239
-15.8674 11.5820 -2.3335 0.9239
-16.0963 11.2610 -2.3335 0.9239
-16.3187 10.9354 -2.3334 0.9239
-16.7438 10.2713 -2.3333 0.9239
-16.9464 9.9331 -2.3333 0.9239
-17.1421 9.5909 -2.3333 0.9239
-17.5130 8.8951 -2.3333 0.9239
-17.6879 8.5418 -2.3332 0.9239
-17.8558 8.1850 -2.3332 0.9239
-18.0166 7.8250 -2.3333 0.9239
-18.3163 7.0958 -2.3333 0.9239
-18.4553 6.7269 -2.3333 0.9239
-18.7109 5.9809 -2.3334 0.9239
-18.8275 5.6043 -2.3334 0.9239
-18.9366 5.2254 -2.3335 0.9239
-19.0381 4.8444 -2.3335 0.9239
-19.6223 4.5758 -2.3934 0.9220
-20.6243 3.5166 -2.4852 0.9192
-20.6915 3.1021 -2.4853 0.9192
-20.8433 1.8515 -2.4856 0.9192
-20.8773 1.4329 -2.4858 0.9192
-20.9029 1.0136 -2.4859 0.9192
-20.9202 0.5939 -2.4860 0.9192
-20.9295 -0.2461 -2.4863 0.9191
-20.9053 -1.0860 -2.4866 0.9191
-20.8477 -1.9244 -2.4869 0.9191
-20.6986 -3.1761 -2.4875 0.9191
-20.6323 -3.5912 -2.4877 0.9191
-20.5577 -4.0049 -2.4879 0.9191
-20.4748 -4.4170 -2.4881 0.9191
-20.3837 -4.8275 -2.4883 0.9191
-20.2845 -5.2361 -2.4885 0.9191
-20.0616 -6.0470 -2.4889 0.9191
-19.6668 -7.2453 -2.4896 0.9190
-19.3640 -8.0304 -2.4901 0.9190
-19.2009 -8.4182 -2.4904 0.9190
-18.4717 -9.9352 -2.4914 0.9190
-18.2706 -10.3051 -2.4917 0.9190
-18.0621 -10.6709 -2.4920 0.9190
-17.3932 -11.7425 -2.4928 0.9189
-17.1560 -12.0907 -2.4931 0.9189
-16.4032 -13.1059 -2.4940 0.9189
-16.1389 -13.4341 -2.4943 0.9189
-15.8679 -13.7571 -2.4946 0.9189
-15.0701 -14.1638 -2.4567 0.9201
-14.1021 -13.7974 -2.3435 0.9236
6.9239 -15.1437 -2.3593 0.9349
7.2270 -15.0028 -2.3595 0.9349
7.5272 -14.8558 -2.3597 0.9349
7.8244 -14.7028 -2.3598 0.9349
8.4092 -14.3788 -2.3602 0.9349
8.1531 -13.3200 -2.2128 0.9389
9.2610 -13.8493 -2.3606 0.9349
9.5377 -13.6614 -2.3607 0.9349
10.1248 -13.8995 -2.4365 0.9329
11.2928 -13.6892 -2.5144 0.9308
11.5658 -13.4604 -2.5145 0.9308
11.8342 -13.2262 -2.5147 0.9308
12.0978 -12.9866 -2.5148 0.9308
12.3566 -12.7417 -2.5149 0.9308
12.6103 -12.4916 -2.5150 0.9308
