ply
format ascii 1.0
element vertex 1548
property float32 x
property float32 y
property float32 z
property float32 I
end_header
7.3799 39.1722 -0.2244 0.8526
6.6475 39.6486 -0.2263 0.8515
5.9021 40.1334 -0.2284 0.8502
5.1428 40.6272 -0.2306 0.8489
4.3687 41.1308 -0.2329 0.8475
3.5784 41.6448 -0.2353 0.8460
1.9177 42.1019 -0.2373 0.8449
1.0356 40.7364 -0.2294 0.8496
0.2098 39.4579 -0.2222 0.8540
-1.2955 37.1273 -0.2092 0.8619
-1.9846 36.0606 -0.2033 0.8655
-3.2548 34.0941 -0.1928 0.8720
-4.6414 34.0749 -0.1936 0.8715
-6.2266 35.0989 -0.2007 0.8671
-7.0642 35.6399 -0.2046 0.8647
-7.9351 36.2025 -0.2087 0.8622
-12.8962 39.4070 -0.2334 0.8472
-14.0366 40.1436 -0.2394 0.8436
-11.5323 16.9415 -0.1154 0.9213
-43.8327 61.6897 -0.4261 0.7388
-46.4387 57.6552 -0.4168 0.7437
-48.1179 55.0554 -0.4117 0.7464
-48.9428 53.7785 -0.4094 0.7476
-51.3680 50.0238 -0.4037 0.7507
-52.1626 48.7938 -0.4021 0.7515
-52.9513 47.5726 -0.4008 0.7522
-54.5144 45.1528 -0.3985 0.7534
-55.2901 43.9519 -0.3977 0.7539
-56.8328 41.5636 -0.3964 0.7545
-57.6011 40.3740 -0.3960 0.7547
-58.3683 39.1863 -0.3958 0.7549
-62.9817 32.0442 -0.3979 0.7538
-80.5798 31.2682 -0.4866 0.7077
-64.0103 -59.3334 -2.4576 0.7052
-61.6149 -61.8988 -2.4592 0.7050
-56.5240 -66.7408 -2.4627 0.7047
-43.6089 -53.6412 -1.9466 0.7583
-50.5565 -64.8057 -2.3144 0.7197
-49.2625 -65.8337 -2.3153 0.7196
-34.9356 -50.8244 -1.7366 0.7813
-45.2588 -68.7633 -2.3180 0.7193
-5.4417 -11.5167 -0.3587 0.9503
-26.6875 -59.5509 -1.8375 0.7702
-25.5692 -60.2733 -1.8436 0.7695
-25.4290 -71.6785 -2.1416 0.7376
-22.6148 -68.0568 -2.0194 0.7505
-16.9633 -58.8551 -1.7246 0.7826
-14.8071 -55.5460 -1.6187 0.7945
-10.5750 -52.1099 -1.4972 0.8083
-6.7056 -41.5464 -1.1850 0.8450
-4.6384 -38.5252 -1.0926 0.8562
-3.6936 -36.9158 -1.0447 0.8620
-2.0596 -34.5606 -0.9749 0.8706
-0.6253 -32.3556 -0.9112 0.8785
0.0243 -31.3569 -0.8829 0.8821
0.6351 -30.4179 -0.8567 0.8854
1.2108 -29.5329 -0.8323 0.8884
1.7548 -28.6965 -0.8095 0.8913
3.2245 -26.4370 -0.7499 0.8989
4.0917 -25.1038 -0.7162 0.9032
5.2583 -23.3102 -0.6729 0.9088
5.6169 -22.7589 -0.6601 0.9105
5.9325 -22.1169 -0.6448 0.9124
6.2640 -21.6073 -0.6335 0.9139
6.6172 -21.2211 -0.6259 0.9149
6.9284 -20.7427 -0.6158 0.9162
7.2298 -20.2793 -0.6062 0.9175
7.8059 -19.3935 -0.5887 0.9197
8.3505 -18.5563 -0.5730 0.9218
9.0715 -17.2911 -0.5498 0.9248
9.3164 -16.9223 -0.5439 0.9256
9.5532 -16.5558 -0.5382 0.9264
14.0572 -19.5308 -0.6776 0.9082
15.2313 -20.2892 -0.7144 0.9035
18.0116 -22.0851 -0.8025 0.8922
19.4940 -22.9453 -0.8478 0.8865
23.7787 -25.8103 -0.9882 0.8690
45.0453 -46.9637 -1.8324 0.7707
45.7713 -45.8398 -1.8240 0.7717
43.4535 -40.1535 -1.6660 0.7892
51.5462 -45.7457 -1.9406 0.7590
65.8062 -53.8326 -2.3940 0.7116
72.3676 -54.4965 -2.5509 0.6959
73.4698 -53.0466 -2.5516 0.6959
75.5856 -50.0799 -2.5531 0.6957
77.5791 -47.0272 -2.5545 0.6956
79.4465 -43.8937 -2.5558 0.6954
81.1842 -40.6845 -2.5570 0.6953
82.0040 -39.0533 -2.5575 0.6953
83.5415 -35.7409 -2.5586 0.6952
79.4797 -32.1292 -2.4139 0.7096
79.7689 -30.3955 -2.4037 0.7106
80.9536 -27.1745 -2.4045 0.7106
61.1504 -19.1684 -1.8045 0.7738
72.3637 -21.0957 -2.1224 0.7396
64.6637 -16.0619 -1.8761 0.7660
55.3551 -10.2541 -1.5852 0.7983
53.6296 -8.8236 -1.5304 0.8045
51.3412 -7.3905 -1.4606 0.8126
47.1609 -4.8638 -1.3350 0.8272
45.3540 -3.7579 -1.2815 0.8335
42.4519 -1.8040 -1.1964 0.8436
54.5797 3.1706 -1.5394 0.8035
35.2093 3.4695 -0.9962 0.8680
23.0407 3.6834 -0.6570 0.9109
40.3766 11.5719 -1.1827 0.8453
41.0944 12.6768 -1.2109 0.8419
44.3500 17.6941 -1.3445 0.8261
46.1761 20.6106 -1.4239 0.8168
48.5930 22.8715 -1.5123 0.8066
48.3460 23.9537 -1.5192 0.8058
50.1365 26.1087 -1.5917 0.7976
51.9259 28.3816 -1.6663 0.7892
55.7358 34.9831 -1.8529 0.7685
59.0668 40.4712 -2.0162 0.7509
32.4311 23.1925 -1.1227 0.8525
31.0053 24.1134 -1.1060 0.8546
29.6191 25.0088 -1.0915 0.8563
25.4945 22.4193 -0.9560 0.8730
28.3735 25.9806 -1.0833 0.8573
27.6009 26.3124 -1.0738 0.8585
27.0440 26.8394 -1.0729 0.8586
26.2886 27.1601 -1.0643 0.8596
24.4499 28.5151 -1.0577 0.8604
23.6041 28.6753 -1.0458 0.8619
22.8336 28.9042 -1.0372 0.8629
22.4580 29.6344 -1.0470 0.8618
20.0252 31.3730 -1.0480 0.8616
19.3234 31.6591 -1.0444 0.8621
18.7669 32.1846 -1.0491 0.8615
18.0681 32.4687 -1.0463 0.8618
16.1722 33.6934 -1.0524 0.8611
15.5344 34.1053 -1.0553 0.8607
14.2470 34.9369 -1.0624 0.8599
13.6477 35.4912 -1.0707 0.8589
12.9399 35.7812 -1.0714 0.8588
28.7590 84.8163 -2.5218 0.6988
27.0360 85.3375 -2.5206 0.6989
10.2525 37.5393 -1.0957 0.8558
8.8095 38.2419 -1.1050 0.8547
6.6474 39.6482 -1.1320 0.8514
5.1428 40.6269 -1.1531 0.8489
4.3686 41.1304 -1.1647 0.8475
2.7710 42.1695 -1.1900 0.8444
1.9177 42.1030 -1.1868 0.8448
0.2099 39.4588 -1.1111 0.8539
-1.2956 37.1282 -1.0461 0.8619
-1.9846 36.0614 -1.0170 0.8654
-2.6366 35.0520 -0.9898 0.8688
-3.2549 34.0947 -0.9644 0.8719
-3.8425 33.1850 -0.9407 0.8749
-5.9213 33.3775 -0.9545 0.8731
-9.3078 35.5650 -1.0352 0.8632
-10.2478 36.1721 -1.0586 0.8603
-11.0870 36.3332 -1.0696 0.8590
-14.3033 38.4107 -1.1541 0.8487
-16.7515 39.9921 -1.2209 0.8407
-37.2148 79.6962 -2.4767 0.7033
-38.7919 78.8975 -2.4756 0.7034
-40.3524 78.0682 -2.4745 0.7035
-41.8954 77.2084 -2.4735 0.7036
-44.9266 75.3989 -2.4714 0.7038
-46.4137 74.4499 -2.4704 0.7039
-11.5299 16.9380 -0.5770 0.9213
-45.5832 58.9814 -2.0990 0.7421
-7.0032 8.3456 -0.3068 0.9573
-48.1186 55.0562 -2.0589 0.7463
-50.5677 51.2645 -2.0276 0.7497
-52.9520 47.5733 -2.0044 0.7521
-56.8335 41.5641 -1.9826 0.7545
-57.6019 40.3746 -1.9807 0.7547
-59.1357 38.0000 -1.9793 0.7548
-62.2093 33.2417 -1.9861 0.7541
-63.7590 30.8425 -1.9943 0.7532
-64.5393 29.6344 -1.9997 0.7526
-65.3242 28.4193 -2.0059 0.7520
-81.6015 29.7919 -2.4461 0.7064
-27.7236 -31.4313 -2.1255 0.8455
-28.2570 -36.2211 -2.3298 0.8319
-26.7900 -37.3435 -2.3308 0.8319
-24.5073 -38.9160 -2.3323 0.8318
-22.9340 -39.8877 -2.3334 0.8317
-22.1329 -40.3500 -2.3339 0.8317
-20.5032 -41.2265 -2.3351 0.8316
-5.4410 -11.5152 -0.6459 0.9503
-18.8389 -42.0375 -2.3362 0.8315
-17.9947 -42.4180 -2.3368 0.8315
-16.2836 -43.1284 -2.3379 0.8314
-12.7803 -44.3421 -2.3403 0.8312
-11.8896 -44.6016 -2.3409 0.8312
-10.9937 -44.8433 -2.3415 0.8312
-10.0928 -45.0669 -2.3422 0.8311
-9.1875 -45.2726 -2.3428 0.8311
-8.1397 -44.7011 -2.3043 0.8336
-6.7054 -41.5451 -2.1342 0.8449
-3.6935 -36.9148 -1.8815 0.8619
-1.3182 -33.4201 -1.6962 0.8746
-0.6253 -32.3548 -1.6412 0.8784
0.6350 -30.4172 -1.5429 0.8853
2.7453 -27.0161 -1.3772 0.8969
3.6680 -25.7546 -1.3193 0.9011
4.8853 -23.8831 -1.2363 0.9070
5.6169 -22.7585 -1.1888 0.9104
5.9324 -22.1165 -1.1613 0.9124
6.6171 -21.2208 -1.1273 0.9148
7.2297 -20.2789 -1.0918 0.9174
7.5220 -19.8296 -1.0756 0.9186
8.0818 -18.9690 -1.0457 0.9207
8.8675 -17.7611 -1.0068 0.9236
9.3163 -16.9220 -0.9796 0.9255
9.5530 -16.5555 -0.9693 0.9263
8.2214 -13.0102 -0.7805 0.9402
12.0363 -18.2256 -1.1077 0.9162
12.9980 -18.8469 -1.1611 0.9124
16.5411 -21.1355 -1.3611 0.8981
19.4946 -22.9460 -1.5270 0.8864
21.5813 -24.3913 -1.6517 0.8777
23.7795 -25.8112 -1.7798 0.8689
34.4652 -35.9330 -2.5251 0.8192
35.8954 -34.5325 -2.5260 0.8191
37.2682 -33.0744 -2.5270 0.8191
37.9323 -32.3245 -2.5274 0.8191
38.5810 -31.5612 -2.5279 0.8190
39.2143 -30.7848 -2.5283 0.8190
39.8318 -29.9955 -2.5288 0.8190
41.0185 -28.3797 -2.5296 0.8189
41.5870 -27.5538 -2.5300 0.8189
42.1387 -26.7165 -2.5304 0.8189
43.6907 -24.1388 -2.5314 0.8188
44.1729 -23.2590 -2.5318 0.8188
45.0832 -21.4703 -2.5324 0.8187
45.5108 -20.5622 -2.5327 0.8187
45.9201 -19.6456 -2.5330 0.8187
46.3106 -18.7208 -2.5332 0.8187
47.0350 -16.8479 -2.5338 0.8186
47.3684 -15.9006 -2.5340 0.8186
47.6826 -14.9467 -2.5342 0.8186
47.9772 -13.9865 -2.5344 0.8186
47.4966 -11.7978 -2.4819 0.8220
41.3098 -0.9243 -2.0955 0.8475
40.0920 -0.0911 -2.0332 0.8517
37.6857 1.4300 -1.9126 0.8598
36.6426 2.1286 -1.8614 0.8633
35.5992 2.7869 -1.8109 0.8667
35.0386 3.4527 -1.7856 0.8685
23.0379 3.6829 -1.1832 0.9108
37.9905 7.6504 -1.9653 0.8562
38.7810 8.6241 -2.0148 0.8529
39.6100 10.4955 -2.0781 0.8486
40.7371 11.6752 -2.1491 0.8439
42.8514 15.1300 -2.3047 0.8336
43.6557 16.4080 -2.3652 0.8296
32.6842 13.0400 -1.7846 0.8685
43.8615 20.6445 -2.4585 0.8235
43.4449 21.5254 -2.4589 0.8235
38.0481 21.8006 -2.2239 0.8389
40.5770 26.6201 -2.4611 0.8234
40.0396 27.4342 -2.4615 0.8233
32.4308 23.1922 -2.0220 0.8524
25.4942 22.4191 -1.7217 0.8729
27.6007 26.3122 -1.9339 0.8584
26.9417 26.7379 -1.9250 0.8590
26.2884 27.1599 -1.9169 0.8595
23.6038 28.6751 -1.8835 0.8618
22.8334 28.9039 -1.8681 0.8628
21.8292 30.0402 -1.8832 0.8618
19.3232 31.6588 -1.8810 0.8620
18.0680 32.4685 -1.8844 0.8617
17.4383 32.8751 -1.8873 0.8615
16.8444 33.3581 -1.8952 0.8610
14.8928 34.5194 -1.9066 0.8602
13.5961 35.3569 -1.9211 0.8592
12.9398 35.7809 -1.9296 0.8587
14.6986 46.3953 -2.4682 0.8229
13.7634 46.6820 -2.4682 0.8229
8.8094 38.2416 -1.9902 0.8546
8.1002 38.7029 -2.0053 0.8535
6.6473 39.6479 -2.0388 0.8513
5.9020 40.1326 -2.0572 0.8500
3.5784 41.6440 -2.1197 0.8459
1.0357 40.7384 -2.0667 0.8494
0.2099 39.4598 -2.0012 0.8538
-0.2802 18.9555 -0.9614 0.9269
-1.2956 37.1290 -1.8841 0.8617
-2.6367 35.0528 -1.7827 0.8687
-3.2550 34.0955 -1.7370 0.8718
-3.8426 33.1857 -1.6942 0.8748
-4.4022 32.3193 -1.6542 0.8775
-4.9546 31.6100 -1.6226 0.8797
-5.6922 32.0864 -1.6526 0.8776
-7.1568 32.6514 -1.6952 0.8747
-7.9747 33.1797 -1.7306 0.8723
-8.8278 33.7308 -1.7682 0.8697
-9.7193 34.3066 -1.8083 0.8669
-12.4876 35.7138 -1.9187 0.8594
-14.6835 37.1321 -2.0250 0.8522
-16.9050 38.1861 -2.1179 0.8460
-21.1498 43.0157 -2.4309 0.8253
-24.4789 41.0821 -2.4253 0.8257
-25.3023 40.5861 -2.4255 0.8257
-11.5275 16.9345 -1.0389 0.9212
-27.6547 38.9209 -2.4214 0.8259
-29.1547 37.7241 -2.4179 0.8262
-7.0025 8.3448 -0.5525 0.9573
-31.3283 35.8451 -2.4143 0.8264
-32.0409 35.2066 -2.4142 0.8264
-37.0784 29.4749 -2.4022 0.8272
-37.6486 28.7126 -2.4012 0.8273
-38.1945 27.9328 -2.3997 0.8274
-39.2356 26.3413 -2.3966 0.8276
-39.7262 25.5276 -2.3948 0.8277
-40.2230 24.7189 -2.3943 0.8277
-40.6708 23.8815 -2.3919 0.8279
-41.1330 23.0540 -2.3913 0.8279
-42.3444 20.4835 -2.3855 0.8283
-42.7218 19.6165 -2.3841 0.8284
-43.0708 18.7380 -2.3821 0.8285
-43.7262 16.9675 -2.3786 0.8287
-44.0350 16.0767 -2.3774 0.8288
-23.3377 -21.6324 -2.3332 0.8802
-22.9011 -22.0999 -2.3335 0.8802
-21.0635 -23.8805 -2.3348 0.8801
-19.5945 -25.1171 -2.3358 0.8801
-14.7767 -28.2721 -2.3390 0.8799
-14.2078 -28.5681 -2.3394 0.8799
-5.4403 -11.5137 -0.9337 0.9502
-13.0526 -29.1258 -2.3402 0.8798
-12.4668 -29.3873 -2.3406 0.8798
-11.8756 -29.6370 -2.3410 0.8798
-10.6787 -30.1008 -2.3418 0.8798
-8.8501 -30.7060 -2.3431 0.8797
-8.2331 -30.8829 -2.3435 0.8797
-3.8254 -31.7732 -2.3465 0.8795
-2.5464 -31.9132 -2.3474 0.8795
-0.6189 -32.0266 -2.3487 0.8794
0.0243 -31.3554 -2.2990 0.8818
1.7547 -28.6953 -2.1079 0.8911
2.2700 -27.9032 -2.0527 0.8938
2.7453 -27.0155 -1.9910 0.8968
3.2244 -26.4359 -1.9527 0.8987
4.4968 -24.4798 -1.8249 0.9050
4.8852 -23.8826 -1.7874 0.9069
5.2582 -23.3093 -1.7520 0.9086
6.2638 -21.6066 -1.6495 0.9137
6.6170 -21.2204 -1.6298 0.9147
7.5219 -19.8293 -1.5550 0.9185
7.8057 -19.3929 -1.5328 0.9196
8.0817 -18.9687 -1.5118 0.9206
8.3502 -18.5558 -1.4920 0.9216
9.0712 -17.2905 -1.4317 0.9247
9.3161 -16.9218 -1.4163 0.9255
10.3547 -17.1396 -1.4682 0.9228
8.2204 -13.0087 -1.1283 0.9401
12.0366 -18.2261 -1.6015 0.9161
12.9983 -18.8473 -1.6787 0.9123
15.2320 -20.2902 -1.8603 0.9032
16.5415 -21.1361 -1.9679 0.8979
18.0126 -22.0863 -2.0897 0.8920
21.8465 -23.7131 -2.3641 0.8787
22.3218 -23.2725 -2.3644 0.8787
22.7881 -22.8223 -2.3647 0.8787
23.6931 -21.8938 -2.3654 0.8786
24.1314 -21.4159 -2.3657 0.8786
21.8124 -18.5877 -2.1013 0.8914
27.8719 -20.1240 -2.5206 0.8712
28.2737 -19.5619 -2.5209 0.8712
29.7657 -17.2351 -2.5219 0.8711
30.1088 -16.6349 -2.5222 0.8711
31.0648 -14.7942 -2.5228 0.8711
31.3584 -14.1680 -2.5230 0.8711
31.9072 -12.8983 -2.5234 0.8711
32.4042 -11.6072 -2.5238 0.8711
32.6330 -10.9543 -2.5239 0.8710
32.8487 -10.2968 -2.5241 0.8710
33.0507 -9.6351 -2.5242 0.8710
33.2395 -8.9694 -2.5244 0.8710
33.4147 -8.2999 -2.5245 0.8710
33.8583 -6.2720 -2.5248 0.8710
34.0852 -4.9066 -2.5250 0.8710
34.1886 -3.5259 -2.5201 0.8712
32.3126 -1.3732 -2.3714 0.8783
32.3340 -0.7235 -2.3714 0.8783
32.3188 1.2263 -2.3714 0.8783
32.2427 2.5241 -2.3713 0.8783
32.0302 4.4623 -2.3712 0.8784
22.9564 3.6699 -1.7046 0.9110
31.9176 5.7626 -2.3781 0.8780
32.0082 6.4458 -2.3940 0.8773
32.0826 7.1346 -2.4098 0.8765
31.8848 8.4486 -2.4185 0.8761
31.7043 9.7801 -2.4327 0.8754
31.0773 12.3988 -2.4533 0.8744
30.8249 13.0223 -2.4536 0.8744
30.5601 13.6405 -2.4538 0.8744
30.2828 14.2534 -2.4541 0.8744
29.6913 15.4620 -2.4545 0.8744
28.7140 17.2280 -2.4552 0.8743
28.3645 17.8033 -2.4555 0.8743
26.8526 20.0308 -2.4563 0.8743
26.4468 20.5682 -2.4566 0.8743
25.1656 22.1298 -2.4572 0.8742
24.7176 22.6329 -2.4573 0.8742
23.7916 23.6117 -2.4577 0.8742
23.3138 24.0868 -2.4579 0.8742
22.8267 24.5521 -2.4581 0.8742
14.6338 16.3885 -1.6110 0.9157
20.7866 26.3130 -2.4587 0.8742
18.6105 27.9037 -2.4593 0.8741
18.0468 28.2736 -2.4594 0.8741
17.4758 28.6320 -2.4595 0.8741
16.8977 28.9789 -2.4596 0.8741
15.7208 29.6372 -2.4599 0.8741
14.5181 30.2476 -2.4601 0.8741
12.6704 31.0706 -2.4603 0.8741
8.8417 32.3738 -2.4607 0.8741
8.1895 32.5455 -2.4607 0.8741
6.8750 32.8492 -2.4608 0.8741
5.5494 33.0994 -2.4608 0.8741
4.2148 33.2958 -2.4608 0.8741
3.5447 33.3738 -2.4608 0.8741
2.8732 33.4382 -2.4608 0.8741
2.2006 33.4890 -2.4608 0.8741
0.1785 33.5597 -2.4607 0.8741
-0.2802 18.9553 -1.3900 0.9268
-2.4982 33.2123 -2.4421 0.8750
-3.1654 33.1571 -2.4422 0.8749
-3.8314 33.0884 -2.4423 0.8749
-4.4023 32.3199 -2.3916 0.8774
-4.9363 31.4931 -2.3373 0.8800
-5.4467 30.7028 -2.2863 0.8824
-6.8649 31.3198 -2.3509 0.8793
-8.9479 31.5837 -2.4069 0.8766
-10.8050 30.9015 -2.4003 0.8770
-11.4256 30.6828 -2.4007 0.8769
-12.0389 30.4443 -2.4004 0.8770
-12.6371 30.1693 -2.3983 0.8771
-14.4110 29.3102 -2.3948 0.8772
-14.9937 29.0078 -2.3942 0.8772
-15.5601 28.6766 -2.3923 0.8773
-16.6849 28.0016 -2.3900 0.8775
-17.2437 27.6597 -2.3899 0.8775
-11.5251 16.9310 -1.5017 0.9211
-18.8374 26.5116 -2.3846 0.8777
-19.3682 26.1299 -2.3848 0.8777
-20.3751 25.2963 -2.3816 0.8779
-7.0018 8.3439 -0.7987 0.9573
-21.3498 24.4279 -2.3788 0.8780
-21.8339 23.9912 -2.3785 0.8780
-22.2949 23.5299 -2.3767 0.8781
-24.0605 21.6164 -2.3716 0.8783
-25.6602 19.5696 -2.3662 0.8786
-26.7486 17.9580 -2.3623 0.8788
-27.0844 17.4041 -2.3605 0.8789
-28.8675 13.9642 -2.3513 0.8793
-29.3702 12.7775 -2.3485 0.8794
-29.5990 12.1755 -2.3467 0.8795
-29.8164 11.5699 -2.3450 0.8796
-15.7418 -18.5871 -2.3384 0.9068
-15.3667 -18.9018 -2.3387 0.9068
-14.9853 -19.2089 -2.3389 0.9067
-14.5979 -19.5084 -2.3392 0.9067
-13.8053 -20.0840 -2.3397 0.9067
-12.5744 -20.8868 -2.3406 0.9067
-12.1536 -21.1379 -2.3409 0.9067
-11.2971 -21.6147 -2.3415 0.9066
-5.4396 -11.5122 -1.2224 0.9501
-9.5296 -22.4637 -2.3427 0.9066
-8.6214 -22.8345 -2.3433 0.9066
-7.6988 -23.1688 -2.3439 0.9066
-7.2326 -23.3220 -2.3442 0.9065
-5.8164 -23.7253 -2.3452 0.9065
-3.4092 -24.2060 -2.3468 0.9064
-2.9224 -24.2731 -2.3472 0.9064
-1.4550 -24.4155 -2.3482 0.9064
-0.9641 -24.4433 -2.3485 0.9064
-0.4727 -24.4612 -2.3488 0.9064
0.0190 -24.4693 -2.3492 0.9064
0.5108 -24.4675 -2.3495 0.9063
1.4941 -24.4342 -2.3502 0.9063
1.9852 -24.4027 -2.3505 0.9063
2.4756 -24.3613 -2.3509 0.9063
3.4536 -24.2491 -2.3515 0.9063
4.4266 -24.0975 -2.3522 0.9062
5.2581 -23.3089 -2.2940 0.9084
5.9322 -22.1157 -2.1983 0.9121
6.2636 -21.6062 -2.1597 0.9136
7.2295 -20.2783 -2.0668 0.9171
7.8056 -19.3926 -2.0069 0.9194
8.8672 -17.7605 -1.9058 0.9233
9.0711 -17.2903 -1.8745 0.9245
9.3160 -16.9215 -1.8545 0.9253
8.2194 -13.0071 -1.4772 0.9400
12.9986 -18.8477 -2.1981 0.9121
14.0582 -19.5321 -2.3104 0.9078
14.7536 -19.6529 -2.3593 0.9060
15.1473 -19.3546 -2.3595 0.9060
15.5350 -19.0485 -2.3598 0.9059
17.0220 -17.7470 -2.3608 0.9059
17.7251 -17.0520 -2.3613 0.9059
18.0660 -16.6940 -2.3615 0.9059
18.3997 -16.3292 -2.3618 0.9059
18.8211 -16.0387 -2.3740 0.9054
20.2541 -16.5688 -2.5122 0.9002
20.6113 -16.1807 -2.5157 0.9001
20.9342 -15.7645 -2.5159 0.9000
21.5545 -14.9130 -2.5163 0.9000
22.9508 -12.6802 -2.5173 0.9000
24.1148 -10.3169 -2.5181 0.9000
24.3187 -9.8307 -2.5183 0.9000
25.0346 -7.8474 -2.5188 0.8999
25.4651 -6.3253 -2.5191 0.8999
25.5879 -5.8124 -2.5191 0.8999
25.7004 -5.2972 -2.5192 0.8999
25.8939 -4.2603 -2.5194 0.8999
26.0454 -3.2164 -2.5195 0.8999
26.1052 -2.6923 -2.5195 0.8999
26.1930 -1.6410 -2.5196 0.8999
26.2209 -1.1143 -2.5196 0.8999
26.2406 0.4678 -2.5196 0.8999
26.2222 0.9950 -2.5193 0.8999
26.1228 1.5175 -2.5121 0.9002
25.2809 1.9791 -2.4345 0.9031
24.2513 4.3785 -2.3659 0.9057
24.1578 4.8649 -2.3658 0.9057
23.9413 5.8314 -2.3657 0.9057
23.8185 6.3112 -2.3656 0.9057
23.6859 6.7884 -2.3655 0.9057
23.5438 7.2628 -2.3654 0.9057
23.3920 7.7342 -2.3653 0.9057
23.2308 8.2024 -2.3652 0.9057
23.0602 8.6672 -2.3651 0.9057
22.8801 9.1284 -2.3650 0.9058
22.4974 10.0417 -2.3652 0.9057
10.9282 5.1436 -1.1596 0.9526
10.5947 5.2493 -1.1351 0.9536
10.3129 5.3705 -1.1163 0.9544
10.1444 5.5447 -1.1099 0.9546
10.0513 5.7591 -1.1122 0.9545
21.0274 13.1975 -2.3834 0.9051
20.5729 14.0961 -2.3942 0.9046
20.3383 14.5445 -2.4005 0.9044
20.0916 14.9874 -2.4064 0.9042
18.9818 16.6920 -2.4267 0.9034
18.6449 17.0723 -2.4270 0.9034
17.9482 17.8125 -2.4277 0.9034
17.5889 18.1720 -2.4280 0.9034
17.2223 18.5241 -2.4283 0.9034
16.8486 18.8688 -2.4286 0.9033
16.4680 19.2061 -2.4289 0.9033
16.0806 19.5355 -2.4292 0.9033
14.8795 20.4764 -2.4300 0.9033
14.0478 21.0627 -2.4306 0.9033
12.7573 21.8783 -2.4314 0.9032
12.3163 22.1327 -2.4317 0.9032
11.4193 22.6145 -2.4322 0.9032
10.5034 23.0598 -2.4327 0.9032
10.0388 23.2686 -2.4329 0.9032
9.5701 23.4679 -2.4332 0.9032
8.1172 23.9392 -2.4268 0.9034
6.6214 24.2304 -2.4117 0.9040
5.6180 24.3885 -2.4027 0.9043
5.1223 24.4745 -2.4006 0.9044
4.6259 24.5553 -2.3989 0.9045
4.1295 24.6276 -2.3974 0.9045
3.6318 24.6917 -2.3961 0.9046
3.1327 24.7473 -2.3948 0.9046
2.6333 24.7932 -2.3937 0.9047
1.1349 24.9159 -2.3945 0.9046
0.1328 24.9170 -2.3922 0.9047
-1.3672 24.8422 -2.3886 0.9049
-1.8654 24.7981 -2.3875 0.9049
-2.3623 24.7442 -2.3864 0.9049
-2.8580 24.6821 -2.3854 0.9050
-3.3540 24.6240 -2.3859 0.9050
-3.8485 24.5534 -2.3860 0.9050
-4.3391 24.4588 -2.3848 0.9050
-4.8274 24.3546 -2.3837 0.9050
-5.3133 24.2410 -2.3825 0.9051
-7.2352 23.7105 -2.3799 0.9052
-9.5555 22.8126 -2.3745 0.9054
-10.0135 22.6190 -2.3748 0.9054
-10.4623 22.4052 -2.3740 0.9054
-11.7754 21.7007 -2.3703 0.9056
-12.6305 21.1975 -2.3689 0.9056
-10.9581 17.5774 -1.9886 0.9201
-11.2039 17.1921 -1.9701 0.9208
-11.6860 16.4468 -1.9370 0.9221
-15.0463 19.4688 -2.3622 0.9059
-15.4324 19.1598 -2.3619 0.9059
-16.1724 18.5041 -2.3594 0.9060
-9.1619 9.2882 -1.2525 0.9489
-17.9057 16.7493 -2.3539 0.9062
-18.2287 16.3771 -2.3526 0.9062
-9.5874 8.2714 -1.2157 0.9504
-18.8520 15.6146 -2.3501 0.9063
-19.1517 15.2243 -2.3488 0.9064
-19.4472 14.8313 -2.3480 0.9064
-10.9169 7.9839 -1.2985 0.9471
-12.0394 8.4387 -1.4115 0.9426
-12.1245 8.1399 -1.4020 0.9430
-20.5330 13.1943 -2.3432 0.9066
-21.0228 12.3444 -2.3405 0.9067
-21.2547 11.9127 -2.3392 0.9067
-21.4780 11.4768 -2.3379 0.9068
-22.0931 10.1445 -2.3340 0.9069
-22.2939 9.6990 -2.3341 0.9069
-22.8342 8.3365 -2.3337 0.9069
-15.3435 -14.2224 -2.4852 0.9192
-14.2999 -13.7997 -2.3606 0.9231
-13.8958 -13.9598 -2.3397 0.9237
-13.3257 -14.5094 -2.3401 0.9237
-13.0325 -14.7755 -2.3403 0.9237
-12.7341 -15.0358 -2.3405 0.9237
-12.4304 -15.2900 -2.3407 0.9237
-11.8080 -15.7800 -2.3411 0.9237
-11.1664 -16.2449 -2.3416 0.9237
-10.5065 -16.6837 -2.3420 0.9237
-9.4849 -17.2916 -2.3427 0.9236
-9.1364 -17.4806 -2.3430 0.9236
-8.7841 -17.6625 -2.3432 0.9236
-8.0688 -18.0049 -2.3437 0.9236
-7.3403 -18.3186 -2.3442 0.9236
-6.9714 -18.4643 -2.3444 0.9236
-6.5996 -18.6027 -2.3447 0.9236
-6.2251 -18.7337 -2.3449 0.9236
-5.8479 -18.8571 -2.3452 0.9236
-5.0865 -19.0811 -2.3457 0.9235
-4.3165 -19.2744 -2.3462 0.9235
-3.1483 -19.5061 -2.3470 0.9235
-2.7559 -19.5677 -2.3473 0.9235
-0.3821 -19.7708 -2.3489 0.9234
0.8103 -19.7647 -2.3497 0.9234
2.0005 -19.6867 -2.3506 0.9234
2.3961 -19.6448 -2.3508 0.9234
2.7908 -19.5950 -2.3511 0.9234
3.1844 -19.5372 -2.3514 0.9234
5.1313 -19.1299 -2.3527 0.9233
5.5154 -19.0251 -2.3530 0.9233
5.8973 -18.9125 -2.3532 0.9233
6.2769 -18.7922 -2.3535 0.9233
6.6541 -18.6643 -2.3537 0.9233
7.0286 -18.5288 -2.3540 0.9233
8.4976 -17.9122 -2.3550 0.9232
8.8568 -17.7396 -2.3552 0.9232
9.0709 -17.2900 -2.3193 0.9244
9.3159 -16.9213 -2.2945 0.9251
10.9332 -16.5553 -2.3567 0.9232
11.2648 -16.3338 -2.3569 0.9232
12.2321 -15.6297 -2.3576 0.9232
12.5449 -15.3821 -2.3578 0.9232
13.7445 -14.3299 -2.3586 0.9231
14.0309 -14.0520 -2.3588 0.9231
15.4641 -14.2897 -2.5011 0.9187
15.8119 -14.0326 -2.5112 0.9184
16.0997 -13.7196 -2.5126 0.9183
16.3734 -13.3943 -2.5128 0.9183
17.1545 -12.3859 -2.5133 0.9183
17.4012 -12.0395 -2.5135 0.9183
17.8733 -11.3319 -2.5138 0.9183
18.3165 -10.6057 -2.5142 0.9183
18.7300 -9.8622 -2.5144 0.9183
19.4655 -8.3278 -2.5150 0.9183
19.7862 -7.5395 -2.5152 0.9182
20.0749 -6.7387 -2.5154 0.9182
20.2070 -6.3341 -2.5155 0.9182
20.4466 -5.5173 -2.5156 0.9182
20.8258 -3.8579 -2.5159 0.9182
21.0699 -2.1730 -2.5161 0.9182
21.1406 -1.3245 -2.5161 0.9182
21.1631 -0.8994 -2.5162 0.9182
21.1770 -0.4738 -2.5162 0.9182
21.1823 -0.0481 -2.5162 0.9182
21.1790 0.3776 -2.5162 0.9182
21.1671 0.8032 -2.5162 0.9182
21.1466 1.2284 -2.5162 0.9182
20.9787 2.9226 -2.5160 0.9182
20.9154 3.3436 -2.5160 0.9182
20.8080 3.7568 -2.5117 0.9184
19.7634 4.3950 -2.4050 0.9217
19.3239 4.7068 -2.3625 0.9230
19.2249 5.0940 -2.3625 0.9230
19.0035 5.8622 -2.3623 0.9230
18.8812 6.2427 -2.3622 0.9230
18.7512 6.6207 -2.3621 0.9230
18.6136 6.9959 -2.3620 0.9230
12.0710 4.8159 -1.5438 0.9490
11.3072 4.7768 -1.4581 0.9518
10.7174 5.0444 -1.4070 0.9534
10.0803 5.2494 -1.3500 0.9553
9.7892 5.3506 -1.3252 0.9561
9.5671 5.4817 -1.3098 0.9566
9.4488 5.6692 -1.3089 0.9566
9.5089 6.5153 -1.3692 0.9546
16.1633 11.5588 -2.3604 0.9231
15.9266 11.8805 -2.3602 0.9231
15.6847 12.1983 -2.3602 0.9231
15.4435 12.5168 -2.3613 0.9230
14.1394 14.0324 -2.3663 0.9229
13.8596 14.3191 -2.3672 0.9229
13.5738 14.5999 -2.3680 0.9228
13.2821 14.8747 -2.3688 0.9228
12.6815 15.4057 -2.3702 0.9228
12.0583 15.9116 -2.3715 0.9227
11.4145 16.3906 -2.3726 0.9227
9.3679 17.6605 -2.3747 0.9226
8.2880 18.1960 -2.3751 0.9226
7.5504 18.5151 -2.3752 0.9226
7.1766 18.6629 -2.3752 0.9226
6.7999 18.8029 -2.3751 0.9226
5.6536 19.1755 -2.3747 0.9226
5.2666 19.2837 -2.3745 0.9226
4.8767 19.3843 -2.3743 0.9226
4.4865 19.4759 -2.3741 0.9226
3.6993 19.6357 -2.3735 0.9227
2.9080 19.7746 -2.3742 0.9226
2.5100 19.8285 -2.3741 0.9226
2.1106 19.8714 -2.3737 0.9227
0.9087 19.9506 -2.3723 0.9227
0.5075 19.9605 -2.3718 0.9227
-0.6958 19.9413 -2.3702 0.9228
-1.0963 19.9187 -2.3696 0.9228
-1.4960 19.8878 -2.3691 0.9228
-2.2941 19.8129 -2.3692 0.9228
-2.6911 19.7572 -2.3686 0.9228
-3.0868 19.6936 -2.3679 0.9228
-3.4810 19.6219 -2.3672 0.9229
-3.8735 19.5423 -2.3665 0.9229
-4.6530 19.3593 -2.3651 0.9229
-5.4263 19.1533 -2.3647 0.9229
-5.8084 19.0347 -2.3640 0.9230
-6.1877 18.9077 -2.3632 0.9230
-6.5642 18.7732 -2.3624 0.9230
-7.3084 18.4816 -2.3608 0.9231
-8.0396 18.1604 -2.3591 0.9231
-8.4018 17.9928 -2.3588 0.9231
-8.7597 17.8159 -2.3582 0.9231
-9.4614 17.4363 -2.3565 0.9232
-9.8062 17.2361 -2.3556 0.9232
-10.1468 17.0291 -2.3547 0.9233
-11.4662 16.1375 -2.3515 0.9234
-11.7835 15.8974 -2.3506 0.9234
-12.3976 15.3943 -2.3486 0.9235
-9.1117 9.2373 -1.5412 0.9491
-10.8667 8.2874 -1.6234 0.9464
-11.8211 8.6452 -1.7396 0.9427
-16.5587 10.6404 -2.3380 0.9238
-17.3556 9.2740 -2.3375 0.9238
-17.5376 8.9228 -2.3373 0.9238
-17.7124 8.5681 -2.3372 0.9238
-18.3399 7.1166 -2.3368 0.9238
-12.9029 -11.9602 -2.4928 0.9314
-11.5575 -12.5841 -2.4209 0.9333
-10.6821 -12.6129 -2.3419 0.9354
-9.6376 -13.4342 -2.3426 0.9354
-9.3664 -13.6262 -2.3428 0.9354
-8.8126 -13.9939 -2.3432 0.9354
-8.5303 -14.1693 -2.3434 0.9354
-7.6628 -14.6613 -2.3440 0.9354
-6.7672 -15.1004 -2.3446 0.9353
-6.4629 -15.2347 -2.3448 0.9353
-5.5346 -15.6006 -2.3454 0.9353
-5.2204 -15.7102 -2.3456 0.9353
-4.2654 -16.0007 -2.3463 0.9353
-3.9433 -16.0847 -2.3465 0.9353
-3.6196 -16.1622 -2.3467 0.9353
-3.2943 -16.2332 -2.3470 0.9353
-2.9677 -16.2977 -2.3472 0.9353
-2.6398 -16.3556 -2.3474 0.9353
-1.9807 -16.4516 -2.3478 0.9352
-1.3182 -16.5211 -2.3483 0.9352
-0.9860 -16.5459 -2.3485 0.9352
-0.6533 -16.5639 -2.3488 0.9352
-0.3203 -16.5753 -2.3490 0.9352
0.0129 -16.5800 -2.3492 0.9352
0.3461 -16.5780 -2.3494 0.9352
1.0123 -16.5539 -2.3499 0.9352
1.3449 -16.5318 -2.3501 0.9352
1.6770 -16.5031 -2.3503 0.9352
2.0085 -16.4676 -2.3506 0.9352
2.6693 -16.3767 -2.3510 0.9352
2.9981 -16.3213 -2.3513 0.9352
3.3259 -16.2594 -2.3515 0.9352
3.6523 -16.1907 -2.3517 0.9351
4.6227 -15.9457 -2.3524 0.9351
4.9427 -15.8511 -2.3526 0.9351
5.8905 -15.5287 -2.3532 0.9351
6.8175 -15.1496 -2.3539 0.9351
7.4221 -14.8660 -2.3543 0.9351
8.5950 -14.2268 -2.3551 0.9351
9.9830 -13.2981 -2.3560 0.9350
10.5109 -12.8881 -2.3564 0.9350
12.7681 -12.2833 -2.5104 0.9309
13.4878 -11.4938 -2.5108 0.9309
13.7169 -11.2211 -2.5110 0.9309
14.1585 -10.6621 -2.5113 0.9309
14.3708 -10.3760 -2.5115 0.9309
14.5772 -10.0856 -2.5116 0.9309
14.9724 -9.4927 -2.5119 0.9309
15.1609 -9.1903 -2.5120 0.9309
15.3434 -8.8842 -2.5121 0.9309
15.5196 -8.5745 -2.5123 0.9309
15.6895 -8.2612 -2.5124 0.9309
15.8531 -7.9446 -2.5125 0.9309
16.1609 -7.3017 -2.5127 0.9309
16.3051 -6.9757 -2.5128 0.9309
16.5735 -6.3153 -2.5130 0.9309
16.6976 -5.9811 -2.5131 0.9309
16.9256 -5.3055 -2.5132 0.9308
17.2159 -4.2763 -2.5134 0.9308
17.5598 -2.5277 -2.5137 0.9308
17.6073 -2.1743 -2.5137 0.9308
17.6808 -1.4650 -2.5138 0.9308
17.7417 -0.0403 -2.5138 0.9308
17.7389 0.3163 -2.5138 0.9308
17.7290 0.6727 -2.5138 0.9308
17.6874 1.3846 -2.5138 0.9308
17.6172 2.0943 -2.5137 0.9308
17.4582 3.1520 -2.5136 0.9308
17.3910 3.5022 -2.5136 0.9308
17.3168 3.8509 -2.5135 0.9308
17.2356 4.1981 -2.5135 0.9308
16.9144 5.2178 -2.5080 0.9310
12.6099 4.4523 -1.8948 0.9474
12.1223 4.5562 -1.8349 0.9490
11.2682 4.7603 -1.7332 0.9518
10.5126 4.9480 -1.6463 0.9541
10.1565 5.0321 -1.6060 0.9552
9.5932 5.2434 -1.5490 0.9568
9.3457 5.3549 -1.5261 0.9574
9.1446 6.8215 -1.6165 0.9550
13.1386 10.2181 -2.3583 0.9350
12.7158 10.7366 -2.3580 0.9350
12.4967 10.9893 -2.3579 0.9350
10.8269 12.6271 -2.3568 0.9350
5.4798 6.6572 -1.2217 0.9658
5.3082 6.7195 -1.2133 0.9660
4.7527 7.1261 -1.2137 0.9660
8.6698 14.2044 -2.3579 0.9350
8.3839 14.3780 -2.3583 0.9350
7.9525 14.2908 -2.3173 0.9361
7.2056 15.0121 -2.3594 0.9349
6.9030 15.1553 -2.3596 0.9349
6.5975 15.2922 -2.3598 0.9349
5.6649 15.6644 -2.3602 0.9349
5.3491 15.7756 -2.3602 0.9349
4.3888 16.0695 -2.3603 0.9349
3.7393 16.2323 -2.3602 0.9349
3.4122 16.3036 -2.3601 0.9349
3.0837 16.3681 -2.3600 0.9349
2.7540 16.4260 -2.3599 0.9349
2.4237 16.4808 -2.3603 0.9349
2.0918 16.5250 -2.3601 0.9349
1.7591 16.5623 -2.3599 0.9349
1.4257 16.5927 -2.3597 0.9349
1.0919 16.6162 -2.3594 0.9349
0.7576 16.6330 -2.3592 0.9349
0.0885 16.6458 -2.3586 0.9350
-0.5803 16.6312 -2.3579 0.9350
-0.9143 16.6137 -2.3575 0.9350
-1.2478 16.5893 -2.3572 0.9350
-1.9133 16.5236 -2.3569 0.9350
-2.2446 16.4788 -2.3564 0.9350
-2.9039 16.3688 -2.3555 0.9350
-3.8825 16.1537 -2.3540 0.9351
-4.2054 16.0688 -2.3535 0.9351
-4.8456 15.8794 -2.3524 0.9351
-5.1625 15.7750 -2.3518 0.9351
-6.4069 15.2956 -2.3497 0.9352
-6.7112 15.1596 -2.3490 0.9352
-7.3109 14.8693 -2.3477 0.9353
-7.6060 14.7151 -2.3470 0.9353
-8.4715 14.2174 -2.3450 0.9353
-9.0307 13.8574 -2.3436 0.9354
-9.3051 13.6697 -2.3430 0.9354
-9.8454 13.2826 -2.3426 0.9354
-10.1096 13.0810 -2.3424 0.9354
-8.9891 9.8772 -1.8923 0.9475
-8.9261 9.4205 -1.8388 0.9489
-9.6410 8.3177 -1.8042 0.9499
-10.6485 8.4649 -1.9274 0.9465
-11.8017 9.0006 -2.1030 0.9418
-11.0316 7.7323 -1.9088 0.9470
-12.0546 8.0930 -2.0572 0.9430
-12.1682 7.8191 -2.0494 0.9432
-12.2950 7.5558 -2.0447 0.9434
-12.5499 7.0339 -2.0384 0.9435
-14.5620 7.7812 -2.3394 0.9355
-14.7148 7.4867 -2.3393 0.9355
-15.0025 6.8887 -2.3391 0.9355
-15.2659 6.2797 -2.3389 0.9355
-15.5628 6.0390 -2.3653 0.9348
-16.0828 5.8716 -2.4259 0.9332
-11.1031 -10.2918 -2.4940 0.9405
-10.8946 -10.5135 -2.4942 0.9405
-9.7850 -11.5537 -2.4942 0.9405
-9.5359 -11.7297 -2.4903 0.9406
-8.3306 -11.6123 -2.3544 0.9437
-7.8222 -11.8846 -2.3439 0.9440
-7.3393 -12.1911 -2.3442 0.9439
-6.8444 -12.4780 -2.3445 0.9439
-5.3925 -11.4126 -2.0794 0.9501
-5.5601 -13.1066 -2.3454 0.9439
-4.2188 -13.6036 -2.3463 0.9439
-3.6692 -13.7643 -2.3467 0.9439
-3.3921 -13.8364 -2.3469 0.9439
-3.1136 -13.9029 -2.3471 0.9439
-2.5528 -14.0191 -2.3475 0.9439
-1.7037 -14.1510 -2.3480 0.9439
-1.1339 -14.2103 -2.3484 0.9438
-0.8481 -14.2315 -2.3486 0.9438
-0.5619 -14.2468 -2.3488 0.9438
-0.2755 -14.2564 -2.3490 0.9438
0.2977 -14.2583 -2.3494 0.9438
0.5842 -14.2507 -2.3496 0.9438
1.1566 -14.2180 -2.3500 0.9438
2.0119 -14.1260 -2.3506 0.9438
2.2955 -14.0839 -2.3508 0.9438
2.5783 -14.0361 -2.3510 0.9438
3.1409 -13.9234 -2.3514 0.9438
3.9752 -13.7122 -2.3519 0.9438
4.2503 -13.6306 -2.3521 0.9438
4.5237 -13.5435 -2.3523 0.9438
4.7954 -13.4509 -2.3525 0.9438
5.3329 -13.2494 -2.3529 0.9437
5.5986 -13.1405 -2.3530 0.9437
6.1231 -12.9069 -2.3534 0.9437
6.3817 -12.7822 -2.3536 0.9437
7.1420 -12.3771 -2.3541 0.9437
7.6347 -12.0819 -2.3544 0.9437
7.8804 -11.9327 -2.3558 0.9437
8.1616 -11.8342 -2.3682 0.9434
8.5837 -11.9260 -2.4207 0.9422
9.3634 -11.9641 -2.5028 0.9403
9.6176 -11.7928 -2.5069 0.9402
9.8585 -11.6039 -2.5084 0.9401
10.0904 -11.4042 -2.5085 0.9401
10.3181 -11.1998 -2.5087 0.9401
11.1869 -10.3374 -2.5093 0.9401
11.5946 -9.8806 -2.5096 0.9401
11.9836 -9.4076 -2.5098 0.9401
12.3533 -8.9193 -2.5101 0.9401
12.7030 -8.4165 -2.5103 0.9401
13.0321 -7.8999 -2.5106 0.9401
13.3402 -7.3704 -2.5108 0.9401
13.4862 -7.1011 -2.5109 0.9401
13.6267 -6.8289 -2.5110 0.9401
13.7617 -6.5539 -2.5111 0.9401
14.0150 -5.9959 -2.5112 0.9401
14.2455 -5.4282 -2.5114 0.9401
14.3522 -5.1410 -2.5115 0.9401
14.4530 -4.8516 -2.5115 0.9401
14.5480 -4.5603 -2.5116 0.9401
14.6371 -4.2671 -2.5117 0.9401
14.7974 -3.6755 -2.5118 0.9401
14.8686 -3.3775 -2.5118 0.9401
14.9337 -3.0780 -2.5119 0.9401
14.9928 -2.7773 -2.5119 0.9401
15.0458 -2.4755 -2.5120 0.9401
15.1335 -1.8688 -2.5120 0.9401
15.2190 -0.9535 -2.5121 0.9401
15.2452 -0.3411 -2.5121 0.9401
15.2233 0.8843 -2.5121 0.9401
15.2024 1.1901 -2.5121 0.9401
15.1753 1.4954 -2.5121 0.9401
15.1026 2.1040 -2.5120 0.9401
14.9478 3.0102 -2.5119 0.9401
14.8840 3.3099 -2.5119 0.9401
14.8142 3.6083 -2.5118 0.9401
14.7384 3.9053 -2.5118 0.9401
12.2130 4.5903 -2.1494 0.9485
11.6835 4.6613 -2.0723 0.9503
10.4627 4.9245 -1.9050 0.9542
10.1258 5.0170 -1.8616 0.9552
9.7683 5.0869 -1.8143 0.9563
8.8213 5.5368 -1.7158 0.9587
8.7491 5.7398 -1.7238 0.9585
8.7331 5.9837 -1.7440 0.9580
8.8317 6.5880 -1.8151 0.9563
11.1148 9.0085 -2.3569 0.9437
10.9310 9.2296 -2.3568 0.9437
7.1918 6.5853 -1.6064 0.9612
6.7478 6.6968 -1.5662 0.9622
6.5696 7.0662 -1.5895 0.9616
5.1904 6.0533 -1.3136 0.9682
4.8129 6.0925 -1.2791 0.9690
4.6381 6.1201 -1.2650 0.9693
4.3346 6.4991 -1.2869 0.9688
4.2649 6.9875 -1.3486 0.9674
6.9486 12.4867 -2.3541 0.9437
6.6957 12.6229 -2.3539 0.9437
6.4402 12.7540 -2.3538 0.9437
6.1821 12.8799 -2.3536 0.9437
5.9216 13.0005 -2.3534 0.9437
5.3935 13.2260 -2.3530 0.9437
4.8568 13.4300 -2.3527 0.9437
4.3125 13.6122 -2.3523 0.9438
4.0377 13.6950 -2.3521 0.9438
3.2043 13.9101 -2.3516 0.9438
2.9239 13.9705 -2.3514 0.9438
2.3597 14.0745 -2.3510 0.9438
2.0762 14.1179 -2.3508 0.9438
1.7919 14.1556 -2.3506 0.9438
1.5069 14.1875 -2.3504 0.9438
0.9353 14.2343 -2.3500 0.9438
0.6490 14.2490 -2.3498 0.9438
0.3625 14.2580 -2.3496 0.9438
-0.2108 14.2587 -2.3492 0.9438
-0.4973 14.2504 -2.3490 0.9438
-1.3548 14.1910 -2.3484 0.9438
-1.9237 14.1227 -2.3480 0.9439
-2.2069 14.0800 -2.3479 0.9439
-2.4893 14.0317 -2.3477 0.9439
-2.7705 13.9777 -2.3475 0.9439
-3.8829 13.7056 -2.3467 0.9439
-4.4299 13.5363 -2.3463 0.9439
-4.7006 13.4434 -2.3461 0.9439
-5.2363 13.2416 -2.3458 0.9439
-6.0233 12.8990 -2.3452 0.9439
-6.2809 12.7744 -2.3451 0.9439
-6.7882 12.5098 -2.3447 0.9439
-7.0377 12.3700 -2.3445 0.9439
-7.7687 11.9208 -2.3440 0.9439
-8.0062 11.7615 -2.3439 0.9440
-8.2404 11.5974 -2.3437 0.9440
-8.6986 11.2554 -2.3434 0.9440
-6.9405 8.2708 -1.7787 0.9572
-9.3592 10.7086 -2.3429 0.9440
-9.5720 10.5177 -2.3428 0.9440
-9.1682 9.2946 -2.1507 0.9485
-9.2269 8.9855 -2.1217 0.9491
-10.3833 9.7127 -2.3422 0.9440
-10.7640 9.2865 -2.3420 0.9440
-11.1273 8.8455 -2.3417 0.9440
-11.4726 8.3903 -2.3415 0.9440
-11.1299 7.8012 -2.2391 0.9464
-11.2123 7.5275 -2.2248 0.9467
-12.1071 7.4404 -2.3411 0.9440
-12.2537 7.1953 -2.3410 0.9440
-12.7425 6.8090 -2.3801 0.9431
-13.1554 6.6933 -2.4316 0.9419
-13.5787 6.5685 -2.4849 0.9407
-13.7280 6.3034 -2.4885 0.9406
-13.9905 5.7550 -2.4922 0.9405
-14.1029 5.4725 -2.4921 0.9405
-14.2096 5.1878 -2.4920 0.9405
-9.7350 -9.0237 -2.4950 0.9474
-8.5814 -10.1325 -2.4958 0.9474
-7.5237 -10.9455 -2.4965 0.9474
-7.0622 -11.2143 -2.4910 0.9475
-6.7892 -11.2773 -2.4742 0.9478
-6.4548 -11.2264 -2.4340 0.9487
-5.3313 -11.2830 -2.3456 0.9505
-4.8742 -11.4897 -2.3459 0.9505
-4.4091 -11.6779 -2.3462 0.9505
-4.1738 -11.7649 -2.3464 0.9505
-3.6981 -11.9248 -2.3467 0.9505
-3.4579 -11.9975 -2.3469 0.9505
-2.2376 -12.2883 -2.3477 0.9504
-1.9903 -12.3317 -2.3479 0.9504
-1.7422 -12.3701 -2.3480 0.9504
-1.4933 -12.4035 -2.3482 0.9504
-1.2439 -12.4319 -2.3484 0.9504
-0.9938 -12.4553 -2.3485 0.9504
-0.7433 -12.4737 -2.3487 0.9504
0.0097 -12.4985 -2.3492 0.9504
0.2609 -12.4967 -2.3494 0.9504
0.7630 -12.4779 -2.3497 0.9504
1.5139 -12.4120 -2.3503 0.9504
1.7632 -12.3800 -2.3504 0.9504
2.0118 -12.3429 -2.3506 0.9504
2.5065 -12.2539 -2.3509 0.9504
2.9974 -12.1450 -2.3513 0.9504
3.7246 -11.9448 -2.3518 0.9504
3.9642 -11.8684 -2.3519 0.9503
4.6732 -11.6103 -2.3524 0.9503
5.3654 -11.3099 -2.3529 0.9503
5.9705 -11.3803 -2.4155 0.9490
6.6280 -11.4864 -2.4926 0.9475
7.1169 -11.2624 -2.5041 0.9472
7.3492 -11.1283 -2.5067 0.9472
7.7915 -10.8253 -2.5070 0.9472
8.0079 -10.6672 -2.5071 0.9472
8.2212 -10.5047 -2.5073 0.9472
8.8407 -9.9919 -2.5077 0.9471
9.2362 -9.6296 -2.5080 0.9471
9.6167 -9.2515 -2.5082 0.9471
9.8012 -9.0569 -2.5083 0.9471
9.9817 -8.8585 -2.5085 0.9471
10.9779 -7.5954 -2.5092 0.9471
11.2752 -7.1487 -2.5094 0.9471
11.4171 -6.9209 -2.5095 0.9471
11.5543 -6.6903 -2.5096 0.9471
11.8147 -6.2210 -2.5097 0.9471
12.1693 -5.4982 -2.5100 0.9471
12.2777 -5.2527 -2.5101 0.9471
12.3812 -5.0050 -2.5101 0.9471
12.4796 -4.7553 -2.5102 0.9471
12.5730 -4.5037 -2.5103 0.9471
12.6613 -4.2501 -2.5103 0.9471
12.7444 -3.9949 -2.5104 0.9471
12.8952 -3.4796 -2.5105 0.9471
12.9628 -3.2199 -2.5105 0.9471
13.0821 -2.6964 -2.5106 0.9471
13.1339 -2.4330 -2.5107 0.9471
13.1803 -2.1686 -2.5107 0.9471
13.2214 -1.9032 -2.5107 0.9471
13.3548 -0.2988 -2.5108 0.9471
13.2645 1.5769 -2.5108 0.9471
13.0386 2.8995 -2.5106 0.9471
12.9775 3.1609 -2.5106 0.9471
12.9111 3.4211 -2.5105 0.9471
12.6807 4.1926 -2.5104 0.9471
12.5936 4.4466 -2.5103 0.9471
12.4041 4.9488 -2.5102 0.9471
10.8774 4.8551 -2.2389 0.9527
9.1787 5.2592 -1.9884 0.9579
8.9472 5.3682 -1.9612 0.9584
8.7848 5.5138 -1.9495 0.9587
8.6906 5.7013 -1.9536 0.9586
8.7403 6.2504 -2.0197 0.9572
8.8239 6.5822 -2.0692 0.9562
7.1276 5.7768 -1.7245 0.9633
6.6175 5.8193 -1.6564 0.9648
6.3856 5.8471 -1.6274 0.9654
5.7304 5.9203 -1.5487 0.9670
5.5296 5.9476 -1.5264 0.9675
5.1280 5.9806 -1.4808 0.9684
4.9369 5.9976 -1.4601 0.9689
4.5698 6.0301 -1.4221 0.9697
4.2366 6.0837 -1.3935 0.9703
4.1471 6.2180 -1.4048 0.9700
4.0696 6.6676 -1.4682 0.9687
4.0285 6.9088 -1.5032 0.9680
3.8534 7.6312 -1.6069 0.9658
5.4171 11.2861 -2.3531 0.9503
5.1888 11.3920 -2.3529 0.9503
4.9585 11.4932 -2.3527 0.9503
4.4920 11.6816 -2.3524 0.9503
3.7791 11.9286 -2.3519 0.9503
2.3156 12.2914 -2.3509 0.9504
2.0680 12.3345 -2.3508 0.9504
1.5704 12.4059 -2.3504 0.9504
1.3206 12.4340 -2.3503 0.9504
0.5688 12.4883 -2.3497 0.9504
0.0665 12.4992 -2.3494 0.9504
-0.4358 12.4900 -2.3491 0.9504
-0.6867 12.4778 -2.3489 0.9504
-0.9373 12.4605 -2.3487 0.9504
-1.4371 12.4110 -2.3484 0.9504
-1.6861 12.3787 -2.3482 0.9504
-1.9344 12.3415 -2.3480 0.9504
-2.4285 12.2520 -2.3477 0.9504
-2.6740 12.1998 -2.3475 0.9504
-3.1617 12.0808 -2.3472 0.9504
-3.4036 12.0139 -2.3470 0.9504
-4.3563 11.6986 -2.3464 0.9505
-4.5902 11.6078 -2.3462 0.9505
-5.5061 11.1987 -2.3456 0.9505
-6.1698 10.8444 -2.3451 0.9505
-7.6263 9.8679 -2.3441 0.9505
-7.8226 9.7120 -2.3440 0.9505
-8.3923 9.2214 -2.3436 0.9505
-8.5754 9.0504 -2.3435 0.9505
-9.1038 8.5159 -2.3431 0.9505
-9.2727 8.3308 -2.3430 0.9505
-9.5991 7.9506 -2.3428 0.9505
-9.7565 7.7557 -2.3427 0.9505
-10.7591 7.2233 -2.4358 0.9486
-11.4340 6.7139 -2.4923 0.9475
-11.5738 6.4868 -2.4938 0.9474
-11.8243 6.0160 -2.4936 0.9474
-12.4600 4.5490 -2.4932 0.9474
-8.6590 -8.0264 -2.4957 0.9529
-8.1607 -8.5348 -2.4961 0.9529
-7.9879 -8.6975 -2.4962 0.9529
-7.8119 -8.8567 -2.4963 0.9529
-7.4504 -9.1643 -2.4965 0.9529
-6.8856 -9.5981 -2.4969 0.9529
-6.6917 -9.7351 -2.4971 0.9529
-6.4950 -9.8682 -2.4972 0.9528
-6.2957 -9.9972 -2.4973 0.9528
-6.0939 -10.1223 -2.4975 0.9528
-5.8895 -10.2433 -2.4976 0.9528
-5.6828 -10.3602 -2.4977 0.9528
-5.4737 -10.4729 -2.4979 0.9528
-5.2625 -10.5814 -2.4980 0.9528
-4.8264 -10.7698 -2.4947 0.9529
-4.6059 -10.8573 -2.4930 0.9529
-4.1305 -10.9400 -2.4718 0.9533
-3.8738 -10.9193 -2.4491 0.9537
-3.6239 -10.9058 -2.4292 0.9541
-3.3785 -10.8943 -2.4110 0.9544
-3.1367 -10.8829 -2.3941 0.9548
-2.2089 -10.8848 -2.3477 0.9556
-1.7699 -10.9662 -2.3480 0.9556
-1.5493 -11.0002 -2.3482 0.9556
-1.3280 -11.0299 -2.3483 0.9556
-1.1061 -11.0550 -2.3485 0.9556
-0.4380 -11.1037 -2.3489 0.9556
-0.2147 -11.1110 -2.3491 0.9556
0.0086 -11.1138 -2.3492 0.9556
0.4553 -11.1059 -2.3495 0.9556
0.6785 -11.0953 -2.3497 0.9556
1.3461 -11.0364 -2.3502 0.9556
1.5677 -11.0078 -2.3503 0.9556
1.7888 -10.9748 -2.3505 0.9556
2.2354 -10.9284 -2.3579 0.9554
2.4691 -10.9453 -2.3718 0.9552
3.6899 -11.0471 -2.4619 0.9535
3.9481 -11.0742 -2.4852 0.9531
4.4156 -10.9703 -2.4997 0.9528
4.6389 -10.8880 -2.5017 0.9528
4.8609 -10.8018 -2.5038 0.9527
5.0796 -10.7074 -2.5051 0.9527
5.2941 -10.6038 -2.5053 0.9527
5.7166 -10.3836 -2.5055 0.9527
5.9245 -10.2673 -2.5057 0.9527
6.1300 -10.1467 -2.5058 0.9527
6.3330 -10.0220 -2.5060 0.9527
7.1190 -9.4830 -2.5065 0.9527
7.4951 -9.1902 -2.5068 0.9527
7.8592 -8.8825 -2.5070 0.9527
8.2106 -8.5603 -2.5073 0.9527
8.3814 -8.3939 -2.5074 0.9527
8.7127 -8.0511 -2.5076 0.9527
8.8732 -7.8747 -2.5077 0.9527
9.0300 -7.6951 -2.5078 0.9527
9.1833 -7.5124 -2.5079 0.9527
9.3328 -7.3266 -2.5080 0.9526
9.4785 -7.1378 -2.5081 0.9526
9.6204 -6.9462 -2.5082 0.9526
9.7584 -6.7517 -2.5083 0.9526
9.8925 -6.5544 -2.5084 0.9526
10.0226 -6.3545 -2.5085 0.9526
10.1487 -6.1520 -2.5086 0.9526
10.9134 -4.6690 -2.5091 0.9526
11.0928 -4.2269 -2.5092 0.9526
11.1757 -4.0032 -2.5093 0.9526
11.3281 -3.5510 -2.5094 0.9526
11.3974 -3.3226 -2.5095 0.9526
11.5221 -2.8620 -2.5095 0.9526
11.5775 -2.6299 -2.5096 0.9526
11.6741 -2.1626 -2.5097 0.9526
11.7519 -1.6917 -2.5097 0.9526
11.7836 -1.4552 -2.5097 0.9526
11.8105 -1.2180 -2.5098 0.9526
11.8327 -0.9804 -2.5098 0.9526
11.8501 -0.7424 -2.5098 0.9526
11.8734 -0.0270 -2.5098 0.9526
11.8715 0.2116 -2.5098 0.9526
11.8649 0.4502 -2.5098 0.9526
11.8534 0.6886 -2.5098 0.9526
11.8371 0.9266 -2.5098 0.9526
11.8160 1.1644 -2.5098 0.9526
11.7902 1.4016 -2.5098 0.9526
11.7595 1.6383 -2.5097 0.9526
11.7241 1.8743 -2.5097 0.9526
11.6840 2.1095 -2.5097 0.9526
11.5895 2.5773 -2.5096 0.9526
11.3443 3.4995 -2.5095 0.9526
11.1121 4.1765 -2.5093 0.9526
11.0257 4.3989 -2.5092 0.9526
10.9348 4.6195 -2.5092 0.9526
10.8395 4.8382 -2.5091 0.9526
10.7397 5.0549 -2.5091 0.9526
10.6357 5.2696 -2.5090 0.9526
9.9226 6.5096 -2.5085 0.9526
9.6410 6.8946 -2.5054 0.9527
9.4903 7.0793 -2.5027 0.9527
7.4425 5.7881 -1.9930 0.9622
7.1025 5.7565 -1.9325 0.9633
6.5735 5.7806 -1.8504 0.9648
6.3329 5.7988 -1.8151 0.9655
5.6506 5.8379 -1.7174 0.9673
5.2471 5.8762 -1.6652 0.9683
4.7005 5.9502 -1.6029 0.9695
4.3441 5.9782 -1.5621 0.9702
4.0190 6.0258 -1.5311 0.9708
3.9240 6.1476 -1.5416 0.9706
3.8387 6.2892 -1.5575 0.9703
3.7837 6.4889 -1.5878 0.9698
3.7226 6.6897 -1.6183 0.9692
3.3836 7.0494 -1.6529 0.9685
3.1321 7.2599 -1.6713 0.9682
3.7840 10.4633 -2.3519 0.9555
3.5727 10.5366 -2.3518 0.9555
3.3600 10.6057 -2.3516 0.9555
2.4968 10.8385 -2.3511 0.9555
2.0589 10.9287 -2.3508 0.9556
1.8387 10.9672 -2.3506 0.9556
1.3963 11.0308 -2.3503 0.9556
0.9518 11.0766 -2.3500 0.9556
0.7289 11.0928 -2.3498 0.9556
0.5058 11.1045 -2.3497 0.9556
0.2825 11.1116 -2.3495 0.9556
-0.1643 11.1126 -2.3492 0.9556
-0.6106 11.0956 -2.3489 0.9556
-0.8335 11.0803 -2.3488 0.9556
-1.2779 11.0364 -2.3485 0.9556
-1.7202 10.9748 -2.3482 0.9556
-1.9403 10.9373 -2.3480 0.9556
-2.1596 10.8954 -2.3479 0.9556
-2.3780 10.8491 -2.3477 0.9556
-2.5954 10.7984 -2.3476 0.9556
-3.8742 10.4039 -2.3467 0.9556
-4.2886 10.2385 -2.3464 0.9556
-4.6961 10.0567 -2.3461 0.9556
-5.6797 9.5321 -2.3455 0.9556
-6.0575 9.2951 -2.3452 0.9557
-6.4255 9.0432 -2.3449 0.9557
-6.7830 8.7767 -2.3447 0.9557
-7.4645 8.2020 -2.3442 0.9557
-8.7579 7.5558 -2.4450 0.9538
-9.0629 7.5066 -2.4875 0.9530
-9.2224 7.3312 -2.4903 0.9530
-9.3771 7.1514 -2.4928 0.9529
-9.5282 6.9683 -2.4952 0.9529
-9.7998 6.5792 -2.4950 0.9529
-9.9297 6.3807 -2.4949 0.9529
-10.6232 5.1388 -2.4945 0.9529
-7.7898 -7.2207 -2.4963 0.9573
-7.6434 -7.3761 -2.4964 0.9573
-7.4939 -7.5285 -2.4965 0.9573
-7.3414 -7.6779 -2.4966 0.9573
-6.3661 -8.5076 -2.4973 0.9573
-6.0196 -8.7574 -2.4975 0.9573
-5.4818 -9.1055 -2.4979 0.9573
-4.9238 -9.4208 -2.4983 0.9573
-4.7337 -9.5183 -2.4984 0.9573
-4.3479 -9.7019 -2.4987 0.9573
-4.1522 -9.7878 -2.4988 0.9573
-3.5554 -10.0219 -2.4992 0.9572
-3.1501 -10.1578 -2.4995 0.9572
-2.9455 -10.2196 -2.4996 0.9572
-2.3245 -10.3796 -2.4999 0.9572
-1.6936 -10.4934 -2.4981 0.9573
-1.4821 -10.5234 -2.4977 0.9573
-1.0577 -10.5715 -2.4970 0.9573
-0.8450 -10.5899 -2.4968 0.9573
-0.2053 -10.6217 -2.4968 0.9573
0.2218 -10.6229 -2.4972 0.9573
0.4353 -10.6175 -2.4974 0.9573
0.6487 -10.6086 -2.4979 0.9573
1.0750 -10.5787 -2.4991 0.9572
1.2877 -10.5579 -2.4997 0.9572
1.5001 -10.5330 -2.5005 0.9572
1.7121 -10.5041 -2.5013 0.9572
2.1344 -10.4344 -2.5031 0.9572
2.3438 -10.3900 -2.5032 0.9572
2.5523 -10.3413 -2.5034 0.9572
2.7597 -10.2886 -2.5035 0.9572
3.1714 -10.1705 -2.5038 0.9572
3.3753 -10.1053 -2.5039 0.9572
3.7791 -9.9625 -2.5042 0.9572
3.9788 -9.8851 -2.5044 0.9572
4.7609 -9.5357 -2.5049 0.9572
4.9518 -9.4385 -2.5050 0.9571
5.3276 -9.2329 -2.5053 0.9571
6.0531 -8.7769 -2.5058 0.9571
6.2286 -8.6539 -2.5059 0.9571
6.4016 -8.5274 -2.5060 0.9571
6.7397 -8.2640 -2.5063 0.9571
7.2265 -7.8439 -2.5066 0.9571
7.5365 -7.5478 -2.5068 0.9571
7.6870 -7.3951 -2.5069 0.9571
8.1196 -6.9193 -2.5072 0.9571
8.2574 -6.7549 -2.5073 0.9571
8.3918 -6.5879 -2.5074 0.9571
8.5228 -6.4181 -2.5075 0.9571
8.6503 -6.2457 -2.5076 0.9571
8.7744 -6.0708 -2.5077 0.9571
8.8950 -5.8934 -2.5077 0.9571
9.0119 -5.7137 -2.5078 0.9571
9.2348 -5.3472 -2.5080 0.9571
9.3407 -5.1607 -2.5080 0.9571
9.4428 -4.9720 -2.5081 0.9571
9.7260 -4.3943 -2.5083 0.9571
9.8952 -4.0001 -2.5084 0.9571
9.9738 -3.8005 -2.5085 0.9571
10.0484 -3.5994 -2.5085 0.9571
10.1189 -3.3967 -2.5086 0.9571
10.3057 -2.7809 -2.5087 0.9571
10.3597 -2.5733 -2.5088 0.9571
10.4095 -2.3646 -2.5088 0.9571
10.4550 -2.1549 -2.5088 0.9571
10.4963 -1.9444 -2.5089 0.9571
10.5334 -1.7330 -2.5089 0.9571
10.6545 -0.6675 -2.5090 0.9571
10.6754 -0.0243 -2.5090 0.9571
10.6738 0.1903 -2.5090 0.9571
10.6678 0.4048 -2.5090 0.9571
10.6575 0.6191 -2.5090 0.9571
10.6429 0.8331 -2.5090 0.9571
10.6239 1.0469 -2.5090 0.9571
10.6006 1.2602 -2.5089 0.9571
10.5731 1.4730 -2.5089 0.9571
10.5413 1.6852 -2.5089 0.9571
10.5052 1.8967 -2.5089 0.9571
10.4203 2.3173 -2.5088 0.9571
10.3184 2.7341 -2.5088 0.9571
10.2612 2.9409 -2.5087 0.9571
10.1344 3.3508 -2.5086 0.9571
10.0648 3.5537 -2.5086 0.9571
9.9912 3.7552 -2.5085 0.9571
9.8318 4.1535 -2.5084 0.9571
9.7461 4.3502 -2.5084 0.9571
9.1505 5.4902 -2.5080 0.9571
9.0380 5.6728 -2.5079 0.9571
8.6789 6.2065 -2.5077 0.9571
8.5521 6.3795 -2.5076 0.9571
8.4219 6.5499 -2.5075 0.9571
6.5887 5.7939 -2.0621 0.9646
6.1059 5.8209 -1.9826 0.9659
4.8473 5.8887 -1.7925 0.9691
4.6467 5.8821 -1.7617 0.9697
3.9493 5.9214 -1.6728 0.9712
3.7910 5.9393 -1.6560 0.9715
3.3756 6.0660 -1.6315 0.9719
3.3045 6.2296 -1.6573 0.9714
3.1928 6.3230 -1.6648 0.9713
3.0790 6.4149 -1.6723 0.9712
3.0798 7.1386 -1.8272 0.9686
3.0846 7.5643 -1.9199 0.9670
3.4029 9.4097 -2.3517 0.9597
3.2129 9.4756 -2.3515 0.9597
3.0217 9.5378 -2.3514 0.9597
2.8292 9.5961 -2.3513 0.9597
2.4410 9.7009 -2.3510 0.9597
1.6537 9.8633 -2.3505 0.9597
1.4550 9.8940 -2.3503 0.9597
1.2558 9.9207 -2.3502 0.9597
0.6556 9.9766 -2.3498 0.9598
0.4549 9.9872 -2.3497 0.9598
0.2541 9.9937 -2.3495 0.9598
-0.3486 9.9891 -2.3491 0.9598
-0.7496 9.9659 -2.3488 0.9598
-1.1494 9.9265 -2.3486 0.9598
-1.3486 9.9009 -2.3484 0.9598
-1.7452 9.8375 -2.3481 0.9598
-1.9425 9.7999 -2.3480 0.9598
-2.3345 9.7128 -2.3477 0.9598
-2.5290 9.6634 -2.3476 0.9598
-2.7226 9.6101 -2.3475 0.9598
-3.1063 9.4918 -2.3472 0.9598
-3.2962 9.4269 -2.3471 0.9598
-3.6720 9.2859 -2.3468 0.9598
-4.4049 8.9590 -2.3463 0.9598
-4.5839 8.8682 -2.3462 0.9598
-4.7609 8.7739 -2.3461 0.9598
-5.1092 8.5746 -2.3458 0.9598
-5.4491 8.3615 -2.3456 0.9598
-5.9422 8.0168 -2.3453 0.9598
-6.1018 7.8953 -2.3452 0.9598
-6.3286 7.8572 -2.3711 0.9594
-6.8156 7.7982 -2.4341 0.9583
-7.0688 7.7672 -2.4683 0.9578
-7.2870 7.6907 -2.4900 0.9574
-7.4461 7.5487 -2.4920 0.9574
-7.7559 7.2550 -2.4960 0.9573
-8.0419 6.9381 -2.4962 0.9573
-8.3137 6.6088 -2.4960 0.9573
-8.4445 6.4401 -2.4960 0.9573
-8.5719 6.2689 -2.4959 0.9573
-8.9332 5.7404 -2.4956 0.9573
-9.0465 5.5595 -2.4955 0.9573
-9.1561 5.3764 -2.4955 0.9573
-9.2621 5.1911 -2.4954 0.9573
-9.4627 4.8145 -2.4952 0.9573
-9.5573 4.6232 -2.4952 0.9573
-9.6480 4.4301 -2.4951 0.9573
-9.7349 4.2351 -2.4951 0.9573
-9.8178 4.0385 -2.4950 0.9573
-9.8967 3.8403 -2.4949 0.9573
-9.9717 3.6406 -2.4949 0.9573
-6.9394 -6.6966 -2.4969 0.9609
-6.8036 -6.8350 -2.4970 0.9609
-6.5240 -7.1034 -2.4972 0.9609
-6.3801 -7.2334 -2.4973 0.9609
-6.0848 -7.4846 -2.4975 0.9609
-5.9334 -7.6057 -2.4976 0.9609
-5.7795 -7.7237 -2.4977 0.9609
-5.6234 -7.8386 -2.4978 0.9609
-5.4649 -7.9504 -2.4979 0.9609
-5.3043 -8.0590 -2.4980 0.9609
-4.9766 -8.2664 -2.4982 0.9609
-4.4700 -8.5524 -2.4986 0.9609
-4.2974 -8.6410 -2.4987 0.9609
-3.9470 -8.8075 -2.4989 0.9609
-3.4096 -9.0307 -2.4993 0.9609
-3.2276 -9.0979 -2.4994 0.9609
-2.8597 -9.2211 -2.4997 0.9609
-2.6739 -9.2772 -2.4998 0.9609
-2.4870 -9.3296 -2.4999 0.9609
-1.9206 -9.4639 -2.5003 0.9609
-1.7301 -9.5011 -2.5005 0.9609
-0.5747 -9.6433 -2.5012 0.9609
0.3958 -9.6548 -2.5019 0.9609
0.7836 -9.6322 -2.5022 0.9609
1.3628 -9.5690 -2.5026 0.9609
1.5550 -9.5401 -2.5027 0.9608
1.7465 -9.5075 -2.5028 0.9608
1.9373 -9.4709 -2.5030 0.9608
2.1274 -9.4306 -2.5031 0.9608
2.3166 -9.3864 -2.5032 0.9608
2.5049 -9.3384 -2.5034 0.9608
2.8785 -9.2312 -2.5036 0.9608
3.0636 -9.1719 -2.5037 0.9608
3.2474 -9.1089 -2.5039 0.9608
3.4300 -9.0423 -2.5040 0.9608
3.6112 -8.9719 -2.5041 0.9608
4.1459 -8.7393 -2.5045 0.9608
4.3210 -8.6546 -2.5046 0.9608
4.4943 -8.5665 -2.5047 0.9608
4.6657 -8.4748 -2.5048 0.9608
4.8353 -8.3797 -2.5049 0.9608
5.0030 -8.2812 -2.5051 0.9608
5.1687 -8.1794 -2.5052 0.9608
5.6529 -7.8541 -2.5055 0.9608
5.8099 -7.7392 -2.5056 0.9608
5.9645 -7.6212 -2.5057 0.9608
6.1167 -7.5001 -2.5058 0.9608
6.9762 -6.7114 -2.5064 0.9608
7.2408 -6.4260 -2.5066 0.9608
7.4938 -6.1303 -2.5068 0.9608
8.0723 -5.3483 -2.5072 0.9608
8.2812 -5.0199 -2.5073 0.9608
8.3806 -4.8526 -2.5074 0.9608
8.4767 -4.6833 -2.5075 0.9608
8.5693 -4.5121 -2.5075 0.9608
8.6585 -4.3391 -2.5076 0.9608
8.7441 -4.1643 -2.5076 0.9608
8.8263 -3.9878 -2.5077 0.9608
9.0511 -3.4489 -2.5079 0.9608
9.1188 -3.2663 -2.5079 0.9608
9.2995 -2.7111 -2.5080 0.9608
9.3523 -2.5236 -2.5081 0.9608
9.4012 -2.3352 -2.5081 0.9608
9.4877 -1.9555 -2.5082 0.9608
9.5252 -1.7645 -2.5082 0.9608
9.5588 -1.5727 -2.5082 0.9608
9.6144 -1.1873 -2.5083 0.9608
9.6364 -0.9938 -2.5083 0.9608
9.6789 -0.4113 -2.5083 0.9608
9.6852 -0.2167 -2.5083 0.9608
9.6861 0.1727 -2.5083 0.9608
9.6807 0.3673 -2.5083 0.9608
9.5948 1.3367 -2.5083 0.9608
9.5659 1.5293 -2.5082 0.9608
