ply
format ascii 1.0
element vertex 1588
property float32 x
property float32 y
property float32 z
property float32 I
end_header
9.7731 -3.8145 -2.4657 0.9578
9.8466 -3.6169 -2.4654 0.9578
9.9161 -3.4179 -2.4651 0.9578
10.1009 -2.8134 -2.4643 0.9578
10.1545 -2.6096 -2.4641 0.9578
10.2040 -2.4049 -2.4639 0.9578
10.2494 -2.1992 -2.4637 0.9578
10.3903 -1.3688 -2.4631 0.9579
10.4360 -0.9501 -2.4629 0.9579
10.4651 -0.5300 -2.4627 0.9579
10.4776 -0.1091 -2.4626 0.9579
10.4776 0.1014 -2.4626 0.9579
10.4360 0.9424 -2.4627 0.9579
10.3903 1.3610 -2.4628 0.9579
10.3280 1.7775 -2.4630 0.9579
10.1544 2.6017 -2.4636 0.9578
10.1009 2.8054 -2.4638 0.9578
9.9817 3.2095 -2.4642 0.9578
9.9161 3.4097 -2.4644 0.9578
9.8466 3.6086 -2.4647 0.9578
9.6146 4.1967 -2.4655 0.9578
9.3480 4.7702 -2.4665 0.9578
9.2515 4.9578 -2.4669 0.9578
9.1514 5.1435 -2.4672 0.9578
9.0476 5.3271 -2.4676 0.9578
8.9402 5.5087 -2.4680 0.9578
8.4606 6.2026 -2.4655 0.9578
8.3288 6.3672 -2.4639 0.9578
8.1536 6.4969 -2.4502 0.9581
7.9087 6.5659 -2.4158 0.9586
7.6669 6.6299 -2.3822 0.9592
7.4315 6.6919 -2.3503 0.9597
7.2080 6.7579 -2.3221 0.9602
7.0723 6.9028 -2.3227 0.9602
6.7923 7.1847 -2.3237 0.9602
6.5013 7.4553 -2.3248 0.9602
6.3517 7.5862 -2.3254 0.9602
6.0448 7.8392 -2.3265 0.9601
5.8875 7.9611 -2.3271 0.9601
5.7279 8.0799 -2.3277 0.9601
5.5658 8.1955 -2.3283 0.9601
-8.7518 4.3989 -2.5361 0.9603
-9.1548 3.5011 -2.5378 0.9603
-9.2243 3.3168 -2.5380 0.9603
-9.4102 2.7559 -2.5388 0.9603
-9.5150 2.3760 -2.5392 0.9603
-9.6777 1.6048 -2.5399 0.9603
-9.7085 1.4101 -2.5401 0.9603
-9.7353 1.2148 -2.5402 0.9603
-9.7582 1.0190 -2.5403 0.9603
-9.7919 0.6261 -2.5405 0.9603
-9.8123 0.0350 -2.5406 0.9603
-9.8111 -0.1621 -2.5406 0.9603
-9.7966 -0.5562 -2.5406 0.9603
-9.7833 -0.7529 -2.5406 0.9603
-9.7660 -0.9493 -2.5405 0.9603
-9.7447 -1.1453 -2.5405 0.9603
-9.5786 -2.1165 -2.5399 0.9603
-9.4846 -2.4994 -2.5396 0.9603
-9.3752 -2.8780 -2.5392 0.9603
-9.3146 -3.0655 -2.5390 0.9603
-9.2503 -3.2517 -2.5387 0.9603
-9.1822 -3.4366 -2.5385 0.9603
-8.9556 -3.9823 -2.5377 0.9603
-8.7862 -4.3379 -2.5371 0.9603
-8.6962 -4.5129 -2.5367 0.9603
-8.6026 -4.6861 -2.5364 0.9603
-8.5055 -4.8573 -2.5360 0.9603
-7.9691 -5.6815 -2.5340 0.9604
-7.4818 -6.2985 -2.5322 0.9604
-7.3524 -6.4463 -2.5317 0.9604
-6.8055 -7.0102 -2.5297 0.9604
-6.6619 -7.1440 -2.5292 0.9604
-6.3667 -7.4027 -2.5280 0.9605
-6.0614 -7.6490 -2.5269 0.9605
-5.9051 -7.7674 -2.5263 0.9605
-5.7464 -7.8826 -2.5257 0.9605
-5.4224 -8.1032 -2.5245 0.9605
-5.2572 -8.2085 -2.5239 0.9605
-5.0900 -8.3104 -2.5232 0.9605
-4.7495 -8.5038 -2.5219 0.9606
-3.8674 -8.9255 -2.5186 0.9606
-3.6863 -8.9989 -2.5179 0.9606
-3.3199 -9.1347 -2.5165 0.9606
-2.9486 -9.2555 -2.5151 0.9607
-2.7612 -9.3102 -2.5144 0.9607
-2.5729 -9.3611 -2.5136 0.9607
-2.1934 -9.4515 -2.5122 0.9607
-2.0025 -9.4909 -2.5115 0.9607
-1.4258 -9.5859 -2.5093 0.9607
-1.2325 -9.6097 -2.5085 0.9608
-0.8449 -9.6458 -2.5070 0.9608
-0.0676 -9.6709 -2.5040 0.9608
0.5147 -9.6488 -2.5018 0.9609
0.9014 -9.6146 -2.5003 0.9609
1.0941 -9.5917 -2.4996 0.9609
1.2862 -9.5649 -2.4988 0.9609
1.8585 -9.4617 -2.4966 0.9609
2.2358 -9.3739 -2.4952 0.9610
2.4230 -9.3244 -2.4944 0.9610
2.6091 -9.2711 -2.4937 0.9610
3.1602 -9.0893 -2.4916 0.9610
3.3413 -9.0214 -2.4909 0.9610
3.8755 -8.7964 -2.4888 0.9611
4.0504 -8.7144 -2.4881 0.9611
4.2235 -8.6289 -2.4874 0.9611
4.3949 -8.5400 -2.4868 0.9611
5.0611 -8.1511 -2.4842 0.9611
5.2225 -8.0457 -2.4836 0.9611
5.5388 -7.8254 -2.4823 0.9612
5.6935 -7.7107 -2.4817 0.9612
5.8459 -7.5929 -2.4811 0.9612
5.9959 -7.4721 -2.4805 0.9612
6.2883 -7.2219 -2.4794 0.9612
6.4307 -7.0924 -2.4788 0.9612
6.5705 -6.9603 -2.4783 0.9612
6.7075 -6.8253 -2.4777 0.9612
6.8419 -6.6878 -2.4772 0.9612
6.9734 -6.5476 -2.4767 0.9612
7.1021 -6.4048 -2.4762 0.9613
7.2279 -6.2596 -2.4757 0.9613
7.3508 -6.1119 -2.4752 0.9613
7.5875 -5.8094 -2.4743 0.9613
7.7013 -5.6547 -2.4738 0.9613
7.8120 -5.4979 -2.4734 0.9613
8.0238 -5.1778 -2.4725 0.9613
8.2227 -4.8497 -2.4717 0.9613
8.3173 -4.6827 -2.4713 0.9613
8.7390 -3.8222 -2.4696 0.9614
8.8129 -3.6454 -2.4693 0.9614
9.0136 -3.1068 -2.4685 0.9614
9.1293 -2.7416 -2.4680 0.9614
9.2306 -2.3722 -2.4676 0.9614
9.2756 -2.1861 -2.4674 0.9614
9.3170 -1.9991 -2.4672 0.9614
9.4453 -1.2443 -2.4667 0.9614
9.4680 -1.0542 -2.4666 0.9614
9.4869 -0.8637 -2.4665 0.9614
9.5021 -0.6729 -2.4664 0.9614
9.5134 -0.4819 -2.4664 0.9614
9.5210 -0.2906 -2.4663 0.9614
9.5248 -0.0992 -2.4663 0.9614
9.5248 0.0922 -2.4663 0.9614
9.5021 0.6659 -2.4663 0.9614
9.4869 0.8567 -2.4663 0.9614
9.4680 1.0471 -2.4664 0.9614
9.4453 1.2372 -2.4665 0.9614
9.2307 2.3650 -2.4672 0.9614
9.1819 2.5501 -2.4673 0.9614
9.0138 3.0994 -2.4679 0.9614
8.9505 3.2802 -2.4682 0.9614
8.8836 3.4597 -2.4684 0.9614
8.8132 3.6379 -2.4687 0.9614
8.7393 3.8147 -2.4689 0.9614
8.4967 4.3358 -2.4698 0.9614
8.4089 4.5063 -2.4701 0.9613
8.3178 4.6749 -2.4705 0.9613
8.2233 4.8418 -2.4708 0.9613
8.0245 5.1698 -2.4716 0.9613
7.8128 5.4898 -2.4723 0.9613
7.3519 6.1036 -2.4741 0.9613
7.2291 6.2513 -2.4745 0.9613
7.0985 6.3921 -2.4733 0.9613
6.6908 6.7983 -2.4697 0.9614
6.5143 6.8906 -2.4552 0.9616
6.0952 6.9896 -2.4012 0.9624
5.8914 7.0364 -2.3761 0.9628
5.6916 7.0822 -2.3525 0.9632
5.4982 7.1304 -2.3313 0.9635
5.3491 7.2331 -2.3292 0.9635
5.2039 7.3408 -2.3298 0.9635
5.0566 7.4456 -2.3304 0.9635
-8.1524 3.6951 -2.5339 0.9635
-8.2962 3.3653 -2.5345 0.9635
-8.3630 3.1983 -2.5347 0.9635
-8.4265 3.0300 -2.5350 0.9635
-8.4865 2.8603 -2.5352 0.9635
-8.5430 2.6894 -2.5355 0.9635
-8.5961 2.5175 -2.5357 0.9634
-8.6917 2.1704 -2.5361 0.9634
-8.7341 1.9954 -2.5363 0.9634
-8.7730 1.8197 -2.5364 0.9634
-8.8083 1.6431 -2.5366 0.9634
-8.8401 1.4659 -2.5367 0.9634
-8.9603 0.2121 -2.5373 0.9634
-8.9617 -0.1481 -2.5374 0.9634
-8.9569 -0.3281 -2.5374 0.9634
-8.9485 -0.5080 -2.5373 0.9634
-8.9012 -1.0462 -2.5372 0.9634
-8.8781 -1.2248 -2.5371 0.9634
-8.8514 -1.4029 -2.5370 0.9634
-8.8211 -1.5804 -2.5369 0.9634
-8.6156 -2.4565 -2.5362 0.9634
-8.5087 -2.8003 -2.5359 0.9634
-8.3879 -3.1393 -2.5354 0.9635
-8.3224 -3.3069 -2.5352 0.9635
-8.1811 -3.6379 -2.5347 0.9635
-8.1055 -3.8012 -2.5344 0.9635
-7.6786 -4.5921 -2.5328 0.9635
-7.5837 -4.7449 -2.5325 0.9635
-7.4858 -4.8956 -2.5321 0.9635
-7.0642 -5.4774 -2.5306 0.9635
-6.8361 -5.7549 -2.5297 0.9635
-6.7179 -5.8901 -2.5293 0.9635
-6.2187 -6.4057 -2.5274 0.9636
-5.9539 -6.6477 -2.5264 0.9636
-5.6797 -6.8788 -2.5254 0.9636
-5.3965 -7.0984 -2.5243 0.9636
-5.2516 -7.2039 -2.5237 0.9636
-5.1047 -7.3063 -2.5232 0.9636
-4.8048 -7.5022 -2.5221 0.9636
-4.4975 -7.6856 -2.5209 0.9637
-4.3411 -7.7726 -2.5203 0.9637
-4.0234 -7.9369 -2.5191 0.9637
-3.6994 -8.0882 -2.5179 0.9637
-2.8659 -8.4079 -2.5147 0.9637
-2.6957 -8.4616 -2.5140 0.9638
-2.5244 -8.5118 -2.5134 0.9638
-2.3523 -8.5586 -2.5127 0.9638
-2.0055 -8.6416 -2.5114 0.9638
-1.8309 -8.6779 -2.5107 0.9638
-1.4800 -8.7397 -2.5094 0.9638
-0.5951 -8.8322 -2.5060 0.9639
0.1158 -8.8418 -2.5033 0.9639
0.2934 -8.8352 -2.5026 0.9639
0.6478 -8.8115 -2.5012 0.9639
0.8245 -8.7943 -2.5005 0.9639
1.1765 -8.7493 -2.4992 0.9640
1.3517 -8.7216 -2.4985 0.9640
1.7001 -8.6555 -2.4971 0.9640
2.2168 -8.5306 -2.4952 0.9640
2.7245 -8.3749 -2.4932 0.9640
3.5463 -8.0491 -2.4900 0.9641
4.0083 -7.7888 -2.4798 0.9642
4.1553 -7.6906 -2.4746 0.9643
4.4821 -7.5531 -2.4864 0.9641
4.6318 -7.4597 -2.4858 0.9642
4.7797 -7.3634 -2.4852 0.9642
4.9255 -7.2643 -2.4846 0.9642
5.0694 -7.1622 -2.4841 0.9642
5.2111 -7.0573 -2.4835 0.9642
5.4880 -6.8393 -2.4824 0.9642
5.7559 -6.6104 -2.4814 0.9642
5.8864 -6.4921 -2.4809 0.9642
6.0144 -6.3712 -2.4804 0.9642
6.1400 -6.2479 -2.4799 0.9642
6.3836 -5.9938 -2.4789 0.9643
6.5015 -5.8632 -2.4784 0.9643
6.6168 -5.7303 -2.4780 0.9643
6.8393 -5.4579 -2.4771 0.9643
6.9464 -5.3185 -2.4767 0.9643
7.3463 -4.7405 -2.4751 0.9643
7.4389 -4.5913 -2.4747 0.9643
7.6152 -4.2875 -2.4740 0.9643
7.6988 -4.1330 -2.4737 0.9643
8.0018 -3.4998 -2.4724 0.9643
8.1342 -3.1748 -2.4719 0.9644
8.2535 -2.8449 -2.4714 0.9644
8.3083 -2.6782 -2.4712 0.9644
8.3597 -2.5105 -2.4710 0.9644
8.4525 -2.1722 -2.4706 0.9644
8.5318 -1.8306 -2.4703 0.9644
8.6251 -1.3131 -2.4698 0.9644
8.6494 -1.1395 -2.4697 0.9644
8.6876 -0.7909 -2.4696 0.9644
8.7119 -0.4412 -2.4694 0.9644
8.7188 -0.2661 -2.4694 0.9644
8.7119 0.4348 -2.4694 0.9644
8.7015 0.6098 -2.4694 0.9644
8.6703 0.9589 -2.4695 0.9644
8.6495 1.1330 -2.4695 0.9644
8.5976 1.4797 -2.4697 0.9644
8.5319 1.8241 -2.4699 0.9644
8.4940 1.9953 -2.4700 0.9644
8.3600 2.5038 -2.4705 0.9644
8.3086 2.6715 -2.4707 0.9644
8.1959 3.0037 -2.4711 0.9644
8.1346 3.1680 -2.4713 0.9644
8.0023 3.4930 -2.4718 0.9644
7.8571 3.8125 -2.4723 0.9643
7.7799 3.9700 -2.4726 0.9643
7.6994 4.1261 -2.4729 0.9643
7.5293 4.4332 -2.4735 0.9643
7.4397 4.5842 -2.4739 0.9643
7.3471 4.7334 -2.4742 0.9643
7.0517 5.1697 -2.4753 0.9643
6.9475 5.3112 -2.4757 0.9643
6.6182 5.7230 -2.4769 0.9643
6.3852 5.9864 -2.4778 0.9643
5.8883 6.4846 -2.4796 0.9642
5.0583 7.1354 -2.4761 0.9643
-7.6281 3.0943 -2.5319 0.9661
-7.8029 2.6299 -2.5326 0.9661
-7.8548 2.4728 -2.5329 0.9661
-7.9490 2.1555 -2.5332 0.9661
-7.9913 1.9955 -2.5334 0.9661
-8.0303 1.8347 -2.5336 0.9661
-8.0660 1.6730 -2.5337 0.9661
-8.0985 1.5107 -2.5339 0.9661
-8.1276 1.3477 -2.5340 0.9661
-8.1759 1.0202 -2.5342 0.9661
-8.2108 0.6909 -2.5344 0.9661
-8.2232 0.5258 -2.5345 0.9661
-8.2323 0.3605 -2.5345 0.9661
-8.2403 0.0294 -2.5346 0.9661
-8.2393 -0.1362 -2.5346 0.9661
-8.2349 -0.3017 -2.5346 0.9661
-8.2160 -0.6323 -2.5345 0.9661
-8.2015 -0.7972 -2.5345 0.9661
-8.1379 -1.2898 -2.5343 0.9661
-8.1101 -1.4530 -2.5342 0.9661
-8.0789 -1.6156 -2.5341 0.9661
-8.0067 -1.9387 -2.5338 0.9661
-7.8739 -2.4171 -2.5334 0.9661
-7.8232 -2.5747 -2.5332 0.9661
-7.7122 -2.8864 -2.5328 0.9661
-7.6520 -3.0406 -2.5326 0.9661
-7.5222 -3.3449 -2.5321 0.9661
-7.3803 -3.6437 -2.5316 0.9661
-7.3048 -3.7908 -2.5313 0.9661
-7.2263 -3.9364 -2.5310 0.9661
-7.1449 -4.0803 -2.5307 0.9662
-6.7907 -4.6384 -2.5294 0.9662
-6.5970 -4.9061 -2.5287 0.9662
-6.3926 -5.1657 -2.5279 0.9662
-6.2865 -5.2922 -2.5275 0.9662
-6.0668 -5.5388 -2.5267 0.9662
-5.8374 -5.7761 -2.5259 0.9662
-5.7192 -5.8912 -2.5254 0.9662
-5.5986 -6.0038 -2.5250 0.9662
-5.4759 -6.1140 -2.5245 0.9662
-5.0947 -6.4291 -2.5231 0.9663
-4.5584 -6.8119 -2.5210 0.9663
-4.4196 -6.9007 -2.5205 0.9663
-3.9933 -7.1499 -2.5189 0.9663
-3.5529 -7.3725 -2.5172 0.9663
-3.2524 -7.5059 -2.5161 0.9663
-3.1002 -7.5680 -2.5155 0.9664
-2.9468 -7.6270 -2.5149 0.9664
-2.7923 -7.6829 -2.5143 0.9664
-2.6367 -7.7356 -2.5137 0.9664
-2.3227 -7.8316 -2.5125 0.9664
-2.1644 -7.8748 -2.5119 0.9664
-2.0052 -7.9148 -2.5113 0.9664
-0.8742 -8.1037 -2.5070 0.9665
-0.2205 -8.1396 -2.5045 0.9665
-0.0569 -8.1403 -2.5039 0.9665
0.1066 -8.1378 -2.5032 0.9665
0.4333 -8.1229 -2.5020 0.9665
1.4050 -7.9998 -2.4982 0.9666
1.5651 -7.9680 -2.4976 0.9666
1.7244 -7.9330 -2.4970 0.9666
2.1976 -7.8089 -2.4952 0.9666
2.5084 -7.7106 -2.4940 0.9666
2.6622 -7.6568 -2.4934 0.9666
2.9663 -7.5401 -2.4922 0.9667
3.1165 -7.4772 -2.4916 0.9667
3.2653 -7.4114 -2.4910 0.9667
3.7033 -7.1963 -2.4893 0.9667
4.1274 -6.9554 -2.4877 0.9667
4.2654 -6.8696 -2.4871 0.9667
4.4017 -6.7811 -2.4866 0.9667
4.5361 -6.6899 -2.4861 0.9667
4.6686 -6.5960 -2.4855 0.9667
5.0544 -6.2989 -2.4840 0.9668
5.7688 -5.6389 -2.4812 0.9668
6.1987 -5.1540 -2.4795 0.9668
6.3000 -5.0276 -2.4791 0.9668
6.4949 -4.7689 -2.4784 0.9668
6.6793 -4.5027 -2.4776 0.9669
6.7674 -4.3670 -2.4773 0.9669
6.8529 -4.2296 -2.4769 0.9669
6.9355 -4.0905 -2.4766 0.9669
7.2380 -3.5187 -2.4754 0.9669
7.3719 -3.2243 -2.4748 0.9669
7.5506 -2.7735 -2.4741 0.9669
7.6041 -2.6210 -2.4739 0.9669
7.6546 -2.4675 -2.4737 0.9669
7.7020 -2.3130 -2.4735 0.9669
7.7463 -2.1576 -2.4733 0.9669
7.7876 -2.0014 -2.4731 0.9669
7.8926 -1.5283 -2.4727 0.9669
7.9213 -1.3693 -2.4726 0.9669
7.9469 -1.2098 -2.4724 0.9669
7.9692 -1.0498 -2.4723 0.9669
7.9884 -0.8895 -2.4723 0.9669
8.0044 -0.7288 -2.4722 0.9669
8.0173 -0.5678 -2.4721 0.9669
8.0269 -0.4066 -2.4721 0.9669
8.0333 -0.2452 -2.4720 0.9669
8.0365 -0.0837 -2.4720 0.9669
8.0333 0.2392 -2.4720 0.9669
8.0270 0.4006 -2.4720 0.9669
8.0173 0.5618 -2.4720 0.9669
7.9886 0.8835 -2.4721 0.9669
7.9470 1.2038 -2.4722 0.9669
7.7879 1.9953 -2.4728 0.9669
7.7467 2.1515 -2.4729 0.9669
7.6550 2.4614 -2.4732 0.9669
7.5510 2.7673 -2.4736 0.9669
7.3725 3.2181 -2.4742 0.9669
7.2387 3.5124 -2.4747 0.9669
7.0933 3.8012 -2.4753 0.9669
6.9364 4.0841 -2.4758 0.9669
6.8538 4.2232 -2.4761 0.9669
6.5895 4.6302 -2.4771 0.9669
6.4961 4.7624 -2.4775 0.9669
6.3013 5.0210 -2.4782 0.9668
6.0964 5.2717 -2.4790 0.9668
5.9902 5.3941 -2.4794 0.9668
5.8816 5.5142 -2.4798 0.9668
5.7705 5.6322 -2.4802 0.9668
5.4236 5.9728 -2.4815 0.9668
4.6711 6.5893 -2.4843 0.9668
-6.7970 3.4164 -2.5287 0.9684
-6.8650 3.2794 -2.5290 0.9684
-7.1628 2.5755 -2.5302 0.9684
-7.3487 1.9927 -2.5310 0.9684
-7.3877 1.8448 -2.5311 0.9684
-7.5136 1.2459 -2.5317 0.9684
-7.5374 1.0947 -2.5318 0.9684
-7.5581 0.9431 -2.5319 0.9684
-7.6054 -0.4318 -2.5322 0.9684
-7.5952 -0.5845 -2.5321 0.9684
-7.5818 -0.7370 -2.5321 0.9684
-7.5653 -0.8892 -2.5321 0.9684
-7.5457 -1.0410 -2.5320 0.9684
-7.5231 -1.1923 -2.5319 0.9684
-7.4973 -1.3432 -2.5318 0.9684
-7.4685 -1.4935 -2.5317 0.9684
-7.4367 -1.6432 -2.5316 0.9684
-7.2792 -2.2346 -2.5311 0.9684
-7.1825 -2.5249 -2.5307 0.9684
-7.1298 -2.6685 -2.5305 0.9684
-7.0742 -2.8110 -2.5303 0.9684
-6.9543 -3.0924 -2.5299 0.9684
-6.8232 -3.3687 -2.5294 0.9684
-6.6058 -3.7724 -2.5286 0.9684
-6.5279 -3.9040 -2.5283 0.9684
-6.4474 -4.0339 -2.5280 0.9685
-6.3642 -4.1621 -2.5277 0.9685
-6.2785 -4.2886 -2.5274 0.9685
-6.1903 -4.4133 -2.5271 0.9685
-5.8127 -4.8934 -2.5257 0.9685
-5.5048 -5.2323 -2.5245 0.9685
-5.2884 -5.4475 -2.5237 0.9685
-5.1771 -5.5517 -2.5233 0.9685
-5.0636 -5.6537 -2.5229 0.9685
-4.9481 -5.7533 -2.5224 0.9685
-4.8307 -5.8505 -2.5220 0.9685
-4.7113 -5.9453 -2.5215 0.9685
-4.2156 -6.2997 -2.5197 0.9686
-4.0874 -6.3820 -2.5192 0.9686
-3.8262 -6.5384 -2.5182 0.9686
-3.6933 -6.6127 -2.5177 0.9686
-3.5590 -6.6842 -2.5172 0.9686
-3.4232 -6.7530 -2.5167 0.9686
-3.2862 -6.8190 -2.5161 0.9686
-3.1478 -6.8822 -2.5156 0.9686
-3.0083 -6.9426 -2.5151 0.9686
-2.8675 -7.0002 -2.5146 0.9686
-2.5829 -7.1067 -2.5135 0.9686
-2.2942 -7.2015 -2.5124 0.9686
-1.7071 -7.3559 -2.5101 0.9687
-1.5586 -7.3871 -2.5096 0.9687
-1.4095 -7.4152 -2.5090 0.9687
-1.1099 -7.4624 -2.5078 0.9687
-0.9596 -7.4815 -2.5073 0.9687
-0.8089 -7.4975 -2.5067 0.9687
-0.6579 -7.5105 -2.5061 0.9687
-0.3554 -7.5274 -2.5049 0.9687
-0.2040 -7.5313 -2.5044 0.9687
-0.0527 -7.5321 -2.5038 0.9687
0.0987 -7.5299 -2.5032 0.9688
0.2499 -7.5247 -2.5026 0.9688
0.4009 -7.5164 -2.5020 0.9688
0.5517 -7.5051 -2.5015 0.9688
0.7023 -7.4907 -2.5009 0.9688
0.8525 -7.4734 -2.5003 0.9688
1.0022 -7.4530 -2.4997 0.9688
1.3002 -7.4033 -2.4986 0.9688
1.5959 -7.3417 -2.4974 0.9688
1.7427 -7.3065 -2.4969 0.9688
2.1783 -7.1834 -2.4952 0.9689
2.3217 -7.1366 -2.4946 0.9689
2.4641 -7.0869 -2.4941 0.9689
2.6054 -7.0344 -2.4935 0.9689
2.8847 -6.9211 -2.4924 0.9689
3.1591 -6.7967 -2.4914 0.9689
3.4281 -6.6615 -2.4903 0.9689
3.5606 -6.5899 -2.4898 0.9689
4.0749 -6.2777 -2.4878 0.9689
4.3221 -6.1065 -2.4868 0.9690
4.5623 -5.9257 -2.4859 0.9690
4.6796 -5.8317 -2.4854 0.9690
5.1290 -5.4333 -2.4837 0.9690
5.2363 -5.3283 -2.4832 0.9690
5.6435 -4.8875 -2.4816 0.9690
5.7397 -4.7723 -2.4813 0.9690
5.9251 -4.5365 -2.4805 0.9690
6.1008 -4.2936 -2.4798 0.9690
6.2668 -4.0439 -2.4792 0.9691
6.4226 -3.7879 -2.4785 0.9691
6.6368 -3.3929 -2.4777 0.9691
6.8270 -2.9860 -2.4769 0.9691
6.8850 -2.8479 -2.4767 0.9691
7.0422 -2.4273 -2.4760 0.9691
7.1330 -2.1421 -2.4757 0.9691
7.2123 -1.8535 -2.4753 0.9691
7.3097 -1.4154 -2.4749 0.9691
7.3363 -1.2682 -2.4748 0.9691
7.3807 -0.9723 -2.4746 0.9691
7.4253 -0.5258 -2.4744 0.9691
7.4342 -0.3765 -2.4743 0.9691
7.4402 -0.2271 -2.4743 0.9691
7.4431 -0.0775 -2.4743 0.9691
7.4432 0.0720 -2.4743 0.9691
7.4402 0.2216 -2.4743 0.9691
7.3987 0.8183 -2.4744 0.9691
7.3809 0.9668 -2.4744 0.9691
7.3602 1.1149 -2.4745 0.9691
7.3100 1.4099 -2.4747 0.9691
7.2480 1.7026 -2.4749 0.9691
7.1745 1.9926 -2.4751 0.9691
7.0895 2.2795 -2.4754 0.9691
7.0428 2.4217 -2.4756 0.9691
6.9932 2.5629 -2.4758 0.9691
6.9408 2.7031 -2.4759 0.9691
6.8277 2.9803 -2.4764 0.9691
6.6376 3.3872 -2.4771 0.9691
6.4975 3.6519 -2.4776 0.9691
6.4235 3.7821 -2.4778 0.9691
6.1020 4.2877 -2.4790 0.9691
5.7412 4.7664 -2.4804 0.9690
5.6451 4.8815 -2.4807 0.9690
5.5467 4.9947 -2.4811 0.9690
5.3432 5.2151 -2.4819 0.9690
5.2381 5.3223 -2.4823 0.9690
4.9104 5.6310 -2.4835 0.9690
4.6818 5.8257 -2.4843 0.9690
4.4456 6.0113 -2.4852 0.9690
-6.3134 3.1733 -2.5269 0.9704
-6.4371 2.9176 -2.5274 0.9704
-6.6029 2.5252 -2.5280 0.9704
-6.7001 2.2582 -2.5284 0.9704
-6.7864 1.9875 -2.5288 0.9704
-6.8616 1.7134 -2.5291 0.9704
-6.8950 1.5753 -2.5292 0.9704
-6.9534 1.2971 -2.5295 0.9704
-7.0681 0.3095 -2.5300 0.9704
-7.0741 -0.1169 -2.5301 0.9704
-7.0264 -0.8258 -2.5300 0.9704
-7.0082 -0.9668 -2.5299 0.9704
-6.9366 -1.3872 -2.5297 0.9704
-6.9070 -1.5262 -2.5296 0.9704
-6.8747 -1.6646 -2.5295 0.9704
-6.8015 -1.9393 -2.5292 0.9704
-6.7608 -2.0754 -2.5291 0.9704
-6.6222 -2.4785 -2.5286 0.9704
-6.5163 -2.7421 -2.5282 0.9704
-6.3998 -3.0012 -2.5278 0.9704
-6.0635 -3.6263 -2.5265 0.9704
-5.9116 -3.8661 -2.5260 0.9704
-5.8320 -3.9836 -2.5257 0.9704
-5.6659 -4.2137 -2.5251 0.9704
-5.4906 -4.4368 -2.5244 0.9705
-5.3996 -4.5456 -2.5241 0.9705
-5.1138 -4.8606 -2.5230 0.9705
-4.4878 -5.4353 -2.5206 0.9705
-4.3770 -5.5235 -2.5202 0.9705
-4.2644 -5.6093 -2.5198 0.9705
-4.1501 -5.6929 -2.5194 0.9705
-4.0342 -5.7742 -2.5189 0.9705
-3.7976 -5.9295 -2.5180 0.9705
-3.4316 -6.1441 -2.5166 0.9705
-3.1807 -6.2746 -2.5157 0.9706
-2.7953 -6.4511 -2.5142 0.9706
-2.4001 -6.6039 -2.5127 0.9706
-2.1320 -6.6922 -2.5117 0.9706
-1.9967 -6.7323 -2.5112 0.9706
-1.5865 -6.8361 -2.5096 0.9706
-1.4485 -6.8652 -2.5091 0.9706
-1.1710 -6.9149 -2.5080 0.9706
-1.0316 -6.9356 -2.5075 0.9707
-0.8918 -6.9534 -2.5070 0.9707
-0.6115 -6.9806 -2.5059 0.9707
-0.4710 -6.9900 -2.5053 0.9707
0.0917 -6.9992 -2.5032 0.9707
0.2323 -6.9944 -2.5026 0.9707
0.5129 -6.9765 -2.5016 0.9707
0.6528 -6.9632 -2.5010 0.9707
0.7924 -6.9472 -2.5005 0.9707
0.9317 -6.9284 -2.4999 0.9707
1.4837 -6.8254 -2.4978 0.9708
1.6202 -6.7928 -2.4973 0.9708
2.1586 -6.6352 -2.4952 0.9708
2.5528 -6.4891 -2.4937 0.9708
2.6821 -6.4352 -2.4932 0.9708
2.8103 -6.3788 -2.4927 0.9708
3.1877 -6.1942 -2.4912 0.9708
3.3108 -6.1277 -2.4907 0.9708
3.7893 -5.8377 -2.4889 0.9709
3.9052 -5.7594 -2.4884 0.9709
4.0194 -5.6787 -2.4880 0.9709
4.1319 -5.5958 -2.4875 0.9709
4.2428 -5.5107 -2.4871 0.9709
4.3519 -5.4234 -2.4867 0.9709
4.4592 -5.3340 -2.4862 0.9709
4.5648 -5.2424 -2.4858 0.9709
4.8700 -4.9555 -2.4846 0.9709
5.1573 -4.6510 -2.4835 0.9709
5.2490 -4.5457 -2.4831 0.9709
5.3385 -4.4387 -2.4828 0.9709
5.5939 -4.1074 -2.4818 0.9709
5.6746 -3.9936 -2.4814 0.9710
5.7530 -3.8783 -2.4811 0.9710
5.9740 -3.5234 -2.4802 0.9710
6.1094 -3.2798 -2.4797 0.9710
6.1735 -3.1561 -2.4794 0.9710
6.2350 -3.0311 -2.4792 0.9710
6.2941 -2.9049 -2.4790 0.9710
6.4045 -2.6492 -2.4785 0.9710
6.5047 -2.3893 -2.4781 0.9710
6.5509 -2.2580 -2.4779 0.9710
6.5945 -2.1257 -2.4777 0.9710
6.6354 -1.9927 -2.4776 0.9710
6.6737 -1.8588 -2.4774 0.9710
6.7093 -1.7242 -2.4773 0.9710
6.7724 -1.4531 -2.4770 0.9710
6.8247 -1.1797 -2.4768 0.9710
6.8826 -0.7664 -2.4765 0.9710
6.8965 -0.6279 -2.4764 0.9710
6.9242 -0.0721 -2.4763 0.9710
6.9159 0.3452 -2.4763 0.9710
6.8828 0.7612 -2.4764 0.9710
6.8663 0.8994 -2.4764 0.9710
6.8470 1.0372 -2.4765 0.9710
6.8250 1.1746 -2.4765 0.9710
6.8002 1.3115 -2.4766 0.9710
6.7727 1.4480 -2.4767 0.9710
6.6741 1.8536 -2.4771 0.9710
6.6359 1.9875 -2.4772 0.9710
6.5950 2.1205 -2.4773 0.9710
6.5053 2.3841 -2.4777 0.9710
6.4566 2.5145 -2.4778 0.9710
6.3513 2.7723 -2.4782 0.9710
6.2948 2.8996 -2.4784 0.9710
6.1743 3.1507 -2.4789 0.9710
5.6758 3.9882 -2.4807 0.9710
5.5952 4.1020 -2.4810 0.9710
5.5124 4.2141 -2.4813 0.9710
5.4273 4.3245 -2.4816 0.9710
5.3400 4.4333 -2.4819 0.9709
5.1589 4.6455 -2.4826 0.9709
4.9696 4.8504 -2.4833 0.9709
4.8718 4.9500 -2.4837 0.9709
4.7721 5.0477 -2.4841 0.9709
4.5668 5.2370 -2.4848 0.9709
4.3541 5.4180 -2.4856 0.9709
4.1343 5.5904 -2.4865 0.9709
-6.0030 2.7209 -2.5257 0.9722
-6.1575 2.3549 -2.5263 0.9722
-6.2040 2.2308 -2.5265 0.9722
-6.2481 2.1059 -2.5267 0.9722
-6.2895 1.9800 -2.5269 0.9721
-6.3285 1.8534 -2.5270 0.9721
-6.4297 1.4690 -2.5275 0.9721
-6.4841 1.2096 -2.5277 0.9721
-6.5074 1.0791 -2.5278 0.9721
-6.5280 0.9481 -2.5279 0.9721
-6.5459 0.8168 -2.5280 0.9721
-6.5612 0.6851 -2.5280 0.9721
-6.5738 0.5532 -2.5281 0.9721
-6.5837 0.4210 -2.5282 0.9721
-6.5910 0.2886 -2.5282 0.9721
-6.5965 -0.1090 -2.5283 0.9721
-6.5155 -1.0327 -2.5280 0.9721
-6.4408 -1.4232 -2.5278 0.9721
-6.4107 -1.5522 -2.5277 0.9721
-6.2210 -2.1869 -2.5270 0.9721
-6.1273 -2.4347 -2.5267 0.9722
-5.9681 -2.7988 -2.5261 0.9722
-5.9102 -2.9179 -2.5259 0.9722
-5.8498 -3.0358 -2.5257 0.9722
-5.7871 -3.1525 -2.5254 0.9722
-5.6547 -3.3818 -2.5249 0.9722
-5.5850 -3.4943 -2.5247 0.9722
-5.5131 -3.6055 -2.5244 0.9722
-5.4390 -3.7151 -2.5241 0.9722
-5.3626 -3.8232 -2.5239 0.9722
-5.0359 -4.2394 -2.5226 0.9722
-4.8602 -4.4372 -2.5220 0.9722
-4.6767 -4.6276 -2.5213 0.9722
-4.5822 -4.7200 -2.5209 0.9722
-4.4858 -4.8104 -2.5206 0.9722
-4.2876 -4.9853 -2.5198 0.9722
-3.8711 -5.3101 -2.5183 0.9722
-3.5424 -5.5310 -2.5170 0.9723
-3.4299 -5.6001 -2.5166 0.9723
-3.0847 -5.7935 -2.5153 0.9723
-2.7286 -5.9656 -2.5139 0.9723
-2.6077 -6.0182 -2.5135 0.9723
-2.2391 -6.1609 -2.5121 0.9723
-2.1145 -6.2035 -2.5116 0.9723
-1.9890 -6.2435 -2.5111 0.9723
-1.8628 -6.2810 -2.5106 0.9723
-1.6083 -6.3483 -2.5097 0.9723
-1.4802 -6.3781 -2.5092 0.9723
-1.3514 -6.4053 -2.5087 0.9723
-0.9625 -6.4713 -2.5072 0.9724
-0.8321 -6.4880 -2.5067 0.9724
-0.3083 -6.5286 -2.5047 0.9724
-0.1770 -6.5322 -2.5042 0.9724
0.0856 -6.5314 -2.5032 0.9724
0.6092 -6.4982 -2.5011 0.9724
1.1281 -6.4232 -2.4991 0.9725
1.2567 -6.3979 -2.4986 0.9725
1.3847 -6.3701 -2.4982 0.9725
1.5121 -6.3397 -2.4977 0.9725
1.7649 -6.2714 -2.4967 0.9725
2.1383 -6.1501 -2.4952 0.9725
2.5036 -6.0067 -2.4938 0.9725
2.6232 -5.9541 -2.4934 0.9725
3.0906 -5.7201 -2.4915 0.9725
3.2043 -5.6558 -2.4911 0.9725
3.3167 -5.5893 -2.4907 0.9725
3.7523 -5.3013 -2.4889 0.9726
3.9609 -5.1446 -2.4881 0.9726
4.1631 -4.9797 -2.4873 0.9726
4.2616 -4.8943 -2.4870 0.9726
4.3585 -4.8069 -2.4866 0.9726
4.5467 -4.6266 -2.4858 0.9726
4.7276 -4.4389 -2.4851 0.9726
4.8151 -4.3424 -2.4848 0.9726
4.9844 -4.1443 -2.4841 0.9726
5.0660 -4.0428 -2.4838 0.9726
5.1455 -3.9397 -2.4835 0.9726
5.2230 -3.8350 -2.4832 0.9726
5.3716 -3.6212 -2.4826 0.9726
5.4427 -3.5121 -2.4823 0.9726
5.5115 -3.4017 -2.4820 0.9726
5.5782 -3.2899 -2.4817 0.9726
5.6425 -3.1769 -2.4815 0.9726
5.8220 -2.8303 -2.4808 0.9727
5.9300 -2.5936 -2.4803 0.9727
5.9804 -2.4737 -2.4801 0.9727
6.0740 -2.2311 -2.4797 0.9727
6.1579 -1.9850 -2.4794 0.9727
6.2959 -1.4838 -2.4788 0.9727
6.3936 -0.9733 -2.4784 0.9727
6.4117 -0.8446 -2.4783 0.9727
6.4272 -0.7156 -2.4782 0.9727
6.4401 -0.5863 -2.4782 0.9727
6.4505 -0.4568 -2.4781 0.9727
6.4582 -0.3271 -2.4781 0.9727
6.4634 -0.1973 -2.4781 0.9727
6.4660 -0.0674 -2.4780 0.9727
6.4506 0.4520 -2.4780 0.9727
6.4403 0.5816 -2.4781 0.9727
6.3502 1.2248 -2.4784 0.9727
6.2963 1.4790 -2.4785 0.9727
6.2324 1.7310 -2.4788 0.9727
6.1178 2.1036 -2.4792 0.9727
6.0747 2.2263 -2.4793 0.9727
5.8780 2.7076 -2.4800 0.9727
5.8229 2.8254 -2.4802 0.9727
5.7056 3.0576 -2.4807 0.9727
5.4438 3.5072 -2.4816 0.9726
5.2997 3.7239 -2.4822 0.9726
5.2243 3.8301 -2.4824 0.9726
5.0674 4.0378 -2.4830 0.9726
4.7293 4.4339 -2.4843 0.9726
4.6399 4.5287 -2.4846 0.9726
4.1652 4.9748 -2.4864 0.9726
4.0650 5.0582 -2.4868 0.9726
3.9632 5.1397 -2.4872 0.9726
-5.5097 2.7693 -2.5238 0.9737
-5.6175 2.5462 -2.5242 0.9737
-5.6680 2.4330 -2.5245 0.9737
-5.7162 2.3188 -2.5246 0.9737
-5.7620 2.2036 -2.5248 0.9737
-5.8467 1.9706 -2.5252 0.9737
-5.8855 1.8528 -2.5253 0.9737
-5.9219 1.7343 -2.5255 0.9737
-5.9559 1.6151 -2.5256 0.9737
-6.0433 1.2535 -2.5260 0.9737
-6.0675 1.1318 -2.5261 0.9737
-6.1396 0.6411 -2.5264 0.9737
-6.1513 0.5176 -2.5265 0.9737
-6.1674 0.2701 -2.5266 0.9737
-6.1734 0.0221 -2.5266 0.9737
-6.1726 -0.1020 -2.5266 0.9737
-6.0760 -1.0886 -2.5263 0.9737
-6.0527 -1.2104 -2.5263 0.9737
-5.8995 -1.8110 -2.5257 0.9737
-5.8616 -1.9291 -2.5256 0.9737
-5.7787 -2.1628 -2.5253 0.9737
-5.6864 -2.3929 -2.5250 0.9737
-5.6368 -2.5065 -2.5248 0.9737
-5.5848 -2.6191 -2.5246 0.9737
-5.5306 -2.7305 -2.5244 0.9737
-5.4742 -2.8409 -2.5242 0.9737
-5.4156 -2.9500 -2.5240 0.9737
-5.3547 -3.0580 -2.5238 0.9737
-5.2917 -3.1647 -2.5235 0.9737
-5.0899 -3.4767 -2.5228 0.9737
-5.0185 -3.5779 -2.5225 0.9737
-4.8696 -3.7758 -2.5220 0.9737
-4.7129 -3.9675 -2.5214 0.9737
-4.6317 -4.0609 -2.5211 0.9737
-4.2885 -4.4174 -2.5198 0.9737
-4.1983 -4.5021 -2.5194 0.9737
-3.9178 -4.7449 -2.5184 0.9738
-3.7229 -4.8970 -2.5177 0.9738
-3.6232 -4.9701 -2.5173 0.9738
-3.5221 -5.0411 -2.5169 0.9738
-3.4195 -5.1101 -2.5165 0.9738
-3.3156 -5.1770 -2.5161 0.9738
-3.2104 -5.2417 -2.5157 0.9738
-3.1040 -5.3043 -2.5153 0.9738
-2.8874 -5.4230 -2.5145 0.9738
-2.7774 -5.4790 -2.5141 0.9738
-2.6663 -5.5327 -2.5136 0.9738
-2.5542 -5.5843 -2.5132 0.9738
-2.0961 -5.7673 -2.5115 0.9738
-1.7439 -5.8800 -2.5101 0.9738
-1.3857 -5.9711 -2.5088 0.9739
-1.2652 -5.9966 -2.5083 0.9739
-1.1443 -6.0197 -2.5078 0.9739
-0.9011 -6.0586 -2.5069 0.9739
-0.5342 -6.0985 -2.5055 0.9739
-0.2886 -6.1127 -2.5046 0.9739
-0.1657 -6.1161 -2.5041 0.9739
-0.0428 -6.1170 -2.5036 0.9739
0.0801 -6.1155 -2.5031 0.9739
0.2030 -6.1115 -2.5027 0.9739
0.4482 -6.0961 -2.5017 0.9739
0.9355 -6.0359 -2.4998 0.9739
1.0564 -6.0148 -2.4994 0.9740
1.2967 -5.9653 -2.4985 0.9740
1.5348 -5.9062 -2.4975 0.9740
2.1175 -5.7173 -2.4953 0.9740
2.2316 -5.6726 -2.4948 0.9740
2.3447 -5.6256 -2.4944 0.9740
2.4568 -5.5764 -2.4940 0.9740
2.5679 -5.5249 -2.4935 0.9740
2.6780 -5.4713 -2.4931 0.9740
3.1065 -5.2351 -2.4914 0.9740
3.2106 -5.1707 -2.4910 0.9740
3.3133 -5.1044 -2.4906 0.9740
3.4146 -5.0360 -2.4902 0.9740
3.9919 -4.5845 -2.4880 0.9741
4.1717 -4.4192 -2.4873 0.9741
4.3447 -4.2469 -2.4866 0.9741
4.4286 -4.1581 -2.4862 0.9741
4.5107 -4.0678 -2.4859 0.9741
4.5909 -3.9758 -2.4856 0.9741
4.7458 -3.7872 -2.4850 0.9741
4.8203 -3.6907 -2.4847 0.9741
4.8929 -3.5927 -2.4844 0.9741
5.0322 -3.3924 -2.4839 0.9741
5.0988 -3.2903 -2.4836 0.9741
5.1634 -3.1868 -2.4833 0.9741
5.2258 -3.0821 -2.4831 0.9741
5.2862 -2.9762 -2.4828 0.9741
5.3444 -2.8691 -2.4826 0.9741
5.4544 -2.6516 -2.4822 0.9741
5.6907 -2.0903 -2.4812 0.9741
5.8051 -1.7433 -2.4807 0.9741
5.8387 -1.6263 -2.4806 0.9741
5.8699 -1.5085 -2.4805 0.9741
5.8987 -1.3902 -2.4803 0.9741
5.9493 -1.1520 -2.4801 0.9741
5.9903 -0.9120 -2.4799 0.9742
6.0073 -0.7914 -2.4799 0.9742
6.0339 -0.5493 -2.4797 0.9742
6.0436 -0.4280 -2.4797 0.9742
6.0509 -0.3065 -2.4797 0.9742
6.0582 -0.0631 -2.4796 0.9742
6.0582 0.0586 -2.4796 0.9742
6.0558 0.1803 -2.4796 0.9742
6.0510 0.3020 -2.4796 0.9742
6.0437 0.4235 -2.4796 0.9742
6.0075 0.7869 -2.4797 0.9742
5.9906 0.9075 -2.4798 0.9742
5.9496 1.1475 -2.4799 0.9742
5.9256 1.2669 -2.4800 0.9742
5.8991 1.3857 -2.4801 0.9741
5.8392 1.6217 -2.4803 0.9741
5.8057 1.7388 -2.4804 0.9741
5.7699 1.8552 -2.4805 0.9741
5.5564 2.4254 -2.4813 0.9741
5.4014 2.7563 -2.4819 0.9741
5.2872 2.9716 -2.4823 0.9741
5.1645 3.1822 -2.4827 0.9741
5.0334 3.3878 -2.4832 0.9741
4.9649 3.4886 -2.4835 0.9741
4.7472 3.7827 -2.4843 0.9741
4.5925 3.9713 -2.4849 0.9741
4.5123 4.0632 -2.4852 0.9741
4.3465 4.2423 -2.4858 0.9741
4.2609 4.3293 -2.4861 0.9741
3.9017 4.6600 -2.4875 0.9741
3.8078 4.7381 -2.4878 0.9741
3.7123 4.8144 -2.4882 0.9741
-5.1715 2.5994 -2.5225 0.9751
-5.2232 2.4951 -2.5227 0.9751
-5.3200 2.2836 -2.5231 0.9751
-5.4082 2.0683 -2.5235 0.9751
-5.4491 1.9594 -2.5237 0.9750
-5.4877 1.8496 -2.5238 0.9750
-5.5582 1.6278 -2.5241 0.9750
-5.6470 1.2902 -2.5245 0.9750
-5.6720 1.1765 -2.5246 0.9750
-5.6948 1.0623 -2.5247 0.9750
-5.7821 0.3697 -2.5251 0.9750
-5.7940 0.0207 -2.5252 0.9750
-5.7668 -0.5606 -2.5251 0.9750
-5.7394 -0.7918 -2.5250 0.9750
-5.7222 -0.9069 -2.5250 0.9750
-5.6567 -1.2499 -2.5247 0.9750
-5.6302 -1.3633 -2.5247 0.9750
-5.6015 -1.4761 -2.5246 0.9750
-5.5704 -1.5883 -2.5244 0.9750
-5.4238 -2.0300 -2.5239 0.9750
-5.3816 -2.1384 -2.5238 0.9750
-5.2906 -2.3526 -2.5234 0.9751
-5.1382 -2.6665 -2.5229 0.9751
-4.9669 -2.9705 -2.5223 0.9751
-4.9058 -3.0694 -2.5220 0.9751
-4.8427 -3.1671 -2.5218 0.9751
-4.7106 -3.3584 -2.5213 0.9751
-4.4983 -3.6350 -2.5205 0.9751
-4.2697 -3.8981 -2.5197 0.9751
-4.1900 -3.9826 -2.5194 0.9751
-4.0256 -4.1467 -2.5187 0.9751
-3.9410 -4.2262 -2.5184 0.9751
-3.8548 -4.3040 -2.5181 0.9751
-3.6778 -4.4542 -2.5174 0.9751
-3.4013 -4.6658 -2.5164 0.9751
-3.0140 -4.9210 -2.5149 0.9751
-2.8130 -5.0366 -2.5142 0.9751
-2.7108 -5.0913 -2.5138 0.9751
-2.5033 -5.1944 -2.5130 0.9752
-2.3980 -5.2429 -2.5126 0.9752
-2.0768 -5.3752 -2.5114 0.9752
-1.8585 -5.4525 -2.5105 0.9752
-1.5259 -5.5517 -2.5093 0.9752
-1.0744 -5.6524 -2.5075 0.9752
-0.9605 -5.6719 -2.5071 0.9752
-0.7316 -5.7039 -2.5062 0.9752
-0.6167 -5.7165 -2.5058 0.9752
-0.5016 -5.7267 -2.5053 0.9752
-0.3864 -5.7346 -2.5049 0.9752
-0.2710 -5.7402 -2.5045 0.9752
-0.0402 -5.7444 -2.5036 0.9752
0.1906 -5.7393 -2.5027 0.9753
0.3058 -5.7333 -2.5022 0.9753
0.4209 -5.7250 -2.5018 0.9753
0.6503 -5.7015 -2.5009 0.9753
0.7646 -5.6862 -2.5005 0.9753
0.9921 -5.6490 -2.4996 0.9753
1.1052 -5.6269 -2.4992 0.9753
1.2179 -5.6026 -2.4987 0.9753
1.4415 -5.5472 -2.4979 0.9753
1.6626 -5.4829 -2.4970 0.9753
1.7722 -5.4475 -2.4966 0.9753
1.8810 -5.4099 -2.4962 0.9753
1.9889 -5.3701 -2.4957 0.9753
2.2024 -5.2841 -2.4949 0.9753
2.5155 -5.1393 -2.4937 0.9753
2.9182 -4.9176 -2.4921 0.9754
3.0016 -4.8342 -2.4799 0.9755
3.2840 -4.6398 -2.4774 0.9755
3.3942 -4.5967 -2.4903 0.9754
3.5751 -4.4553 -2.4896 0.9754
3.6634 -4.3820 -2.4892 0.9754
3.8355 -4.2301 -2.4885 0.9754
3.9192 -4.1516 -2.4882 0.9754
4.1606 -3.9065 -2.4873 0.9754
4.3131 -3.7353 -2.4866 0.9754
4.3868 -3.6474 -2.4864 0.9754
4.4587 -3.5581 -2.4861 0.9754
4.5970 -3.3754 -2.4855 0.9754
4.7279 -3.1873 -2.4850 0.9754
4.8512 -2.9942 -2.4845 0.9754
5.0741 -2.5940 -2.4836 0.9754
5.2644 -2.1776 -2.4828 0.9754
5.3067 -2.0712 -2.4827 0.9755
5.3469 -1.9640 -2.4825 0.9755
5.3850 -1.8561 -2.4824 0.9755
5.5425 -1.3063 -2.4817 0.9755
5.5901 -1.0824 -2.4815 0.9755
5.6446 -0.7436 -2.4813 0.9755
5.6582 -0.6300 -2.4812 0.9755
5.6787 -0.4022 -2.4811 0.9755
5.6856 -0.2880 -2.4811 0.9755
5.6902 -0.1737 -2.4810 0.9755
5.6925 -0.0593 -2.4810 0.9755
5.6925 0.0551 -2.4810 0.9755
5.6902 0.1695 -2.4810 0.9755
5.6857 0.2838 -2.4810 0.9755
5.6789 0.3980 -2.4810 0.9755
5.6448 0.7394 -2.4811 0.9755
5.6289 0.8527 -2.4812 0.9755
5.6108 0.9657 -2.4812 0.9755
5.5904 1.0782 -2.4813 0.9755
5.5678 1.1904 -2.4814 0.9755
5.5429 1.3020 -2.4815 0.9755
5.4866 1.5238 -2.4816 0.9755
5.4551 1.6338 -2.4818 0.9755
5.4214 1.7432 -2.4819 0.9755
5.2651 2.1733 -2.4824 0.9755
5.1743 2.3835 -2.4828 0.9754
5.1257 2.4871 -2.4829 0.9754
4.9677 2.7920 -2.4835 0.9754
4.8523 2.9899 -2.4840 0.9754
4.7917 3.0871 -2.4842 0.9754
4.5984 3.3711 -2.4849 0.9754
4.4601 3.5539 -2.4854 0.9754
4.3883 3.6432 -2.4857 0.9754
4.3147 3.7310 -2.4860 0.9754
4.0835 3.9856 -2.4868 0.9754
4.0030 4.0673 -2.4871 0.9754
3.8374 4.2260 -2.4877 0.9754
3.7522 4.3027 -2.4881 0.9754
3.6654 4.3778 -2.4884 0.9754
3.4875 4.5228 -2.4891 0.9754
-5.0065 2.1491 -2.5219 0.9763
-5.0491 2.0482 -2.5221 0.9763
-5.0895 1.9464 -2.5223 0.9763
-5.1985 1.6365 -2.5227 0.9763
-5.2306 1.5318 -2.5229 0.9763
-5.2884 1.3206 -2.5231 0.9763
-5.3590 0.9997 -2.5234 0.9763
-5.4100 0.6750 -2.5236 0.9763
-5.4330 0.4572 -2.5237 0.9763
-5.4517 -0.0901 -2.5239 0.9763
-5.4436 -0.3090 -2.5238 0.9763
-5.4010 -0.7451 -2.5237 0.9763
-5.3848 -0.8534 -2.5237 0.9763
-5.3665 -0.9615 -2.5236 0.9763
-5.3459 -1.0691 -2.5235 0.9763
-5.2983 -1.2829 -2.5234 0.9763
-5.2421 -1.4946 -2.5232 0.9763
-5.2107 -1.5996 -2.5231 0.9763
-5.1041 -1.9103 -2.5227 0.9763
-5.0644 -2.0124 -2.5225 0.9763
-5.0227 -2.1136 -2.5224 0.9763
-4.8852 -2.4119 -2.5219 0.9763
-4.8354 -2.5094 -2.5217 0.9763
-4.7837 -2.6058 -2.5215 0.9763
-4.5575 -2.9805 -2.5207 0.9763
-4.3684 -3.2488 -2.5200 0.9763
-4.3019 -3.3356 -2.5197 0.9763
-4.1635 -3.5050 -2.5192 0.9763
-4.0918 -3.5876 -2.5189 0.9763
-4.0185 -3.6687 -2.5187 0.9763
-3.7888 -3.9028 -2.5178 0.9763
-3.7092 -3.9776 -2.5175 0.9763
-3.6281 -4.0509 -2.5172 0.9763
-3.5455 -4.1225 -2.5169 0.9763
-3.4616 -4.1923 -2.5166 0.9763
-3.2895 -4.3269 -2.5159 0.9763
-3.2014 -4.3916 -2.5156 0.9763
-3.0216 -4.5154 -2.5149 0.9763
-2.8369 -4.6319 -2.5142 0.9763
-2.7429 -4.6873 -2.5139 0.9763
-2.6478 -4.7408 -2.5135 0.9763
-2.5516 -4.7923 -2.5131 0.9764
-2.3563 -4.8896 -2.5124 0.9764
-2.2573 -4.9352 -2.5120 0.9764
-2.1573 -4.9787 -2.5116 0.9764
-2.0565 -5.0203 -2.5113 0.9764
-1.9549 -5.0599 -2.5109 0.9764
-1.8526 -5.0973 -2.5105 0.9764
-1.7495 -5.1327 -2.5101 0.9764
-1.6458 -5.1660 -2.5097 0.9764
-1.5414 -5.1972 -2.5093 0.9764
-1.2249 -5.2781 -2.5081 0.9764
-1.1184 -5.3008 -2.5077 0.9764
-0.9042 -5.3397 -2.5069 0.9764
-0.7966 -5.3559 -2.5064 0.9764
0.0708 -5.4072 -2.5031 0.9764
0.2879 -5.3982 -2.5023 0.9765
0.3963 -5.3904 -2.5019 0.9765
0.5044 -5.3804 -2.5014 0.9765
0.8273 -5.3376 -2.5002 0.9765
1.0407 -5.2983 -2.4994 0.9765
1.3574 -5.2234 -2.4981 0.9765
1.4618 -5.1943 -2.4977 0.9765
1.5656 -5.1630 -2.4973 0.9765
1.6688 -5.1297 -2.4969 0.9765
1.7712 -5.0943 -2.4965 0.9765
1.9739 -5.0175 -2.4958 0.9765
2.0740 -4.9760 -2.4954 0.9765
2.1732 -4.9326 -2.4950 0.9765
2.2715 -4.8872 -2.4946 0.9765
2.4653 -4.7905 -2.4939 0.9765
2.5607 -4.7393 -2.4935 0.9765
2.8253 -4.5503 -2.4793 0.9767
2.9138 -4.4889 -2.4772 0.9767
3.0035 -4.4296 -2.4773 0.9767
3.0964 -4.3747 -2.4809 0.9767
3.1966 -4.3292 -2.4910 0.9766
3.2825 -4.2635 -2.4907 0.9766
3.4503 -4.1271 -2.4900 0.9766
3.7686 -3.8348 -2.4888 0.9766
3.9914 -3.5995 -2.4879 0.9766
4.1319 -3.4355 -2.4873 0.9766
4.4533 -3.0022 -2.4860 0.9766
4.5123 -2.9118 -2.4858 0.9766
4.5695 -2.8203 -2.4856 0.9766
4.6783 -2.6339 -2.4851 0.9766
4.7299 -2.5392 -2.4849 0.9766
4.7796 -2.4435 -2.4847 0.9766
4.8273 -2.3467 -2.4845 0.9766
4.8731 -2.2491 -2.4844 0.9766
4.9170 -2.1506 -2.4842 0.9766
4.9988 -1.9510 -2.4838 0.9766
5.0725 -1.7484 -2.4835 0.9766
5.1063 -1.6460 -2.4834 0.9766
5.1381 -1.5430 -2.4833 0.9766
5.1678 -1.4394 -2.4832 0.9766
5.1954 -1.3352 -2.4830 0.9766
5.2210 -1.2305 -2.4829 0.9766
5.3172 -0.7005 -2.4825 0.9766
5.3408 -0.4862 -2.4824 0.9766
5.3602 -0.1636 -2.4823 0.9766
5.3623 -0.0559 -2.4823 0.9766
5.3623 0.0519 -2.4823 0.9766
5.3559 0.2673 -2.4823 0.9766
5.3495 0.3749 -2.4823 0.9766
5.3303 0.5895 -2.4823 0.9766
5.3174 0.6965 -2.4824 0.9766
5.3025 0.8032 -2.4824 0.9766
5.1959 1.3312 -2.4828 0.9766
5.0731 1.7444 -2.4832 0.9766
4.9995 1.9471 -2.4835 0.9766
4.8282 2.3428 -2.4841 0.9766
4.7805 2.4395 -2.4843 0.9766
4.7309 2.5352 -2.4845 0.9766
4.6259 2.7237 -2.4848 0.9766
4.4545 2.9982 -2.4855 0.9766
4.3938 3.0874 -2.4857 0.9766
4.2670 3.2620 -2.4862 0.9766
3.9930 3.5956 -2.4872 0.9766
3.8461 3.7539 -2.4878 0.9766
3.7703 3.8309 -2.4880 0.9766
3.6142 3.9802 -2.4886 0.9766
3.5340 4.0525 -2.4889 0.9766
3.4522 4.1232 -2.4892 0.9766
3.1116 4.3894 -2.4905 0.9766
3.0232 4.4516 -2.4908 0.9766
-4.6365 2.2149 -2.5205 0.9774
-4.6804 2.1214 -2.5207 0.9774
-4.7224 2.0271 -2.5209 0.9774
-4.8007 1.8359 -2.5212 0.9774
-4.8711 1.6418 -2.5215 0.9774
-4.9034 1.5436 -2.5216 0.9774
-4.9337 1.4449 -2.5217 0.9774
-4.9882 1.2456 -2.5219 0.9774
-5.0346 1.0442 -2.5221 0.9774
-5.0547 0.9429 -2.5222 0.9774
-5.1244 0.4312 -2.5225 0.9773
-5.1378 0.2250 -2.5226 0.9773
-5.1427 0.0184 -2.5227 0.9773
-5.1276 -0.3946 -2.5226 0.9773
-5.1075 -0.6003 -2.5226 0.9773
-5.0617 -0.9069 -2.5224 0.9773
-5.0423 -1.0084 -2.5224 0.9774
-5.0209 -1.1094 -2.5223 0.9774
-4.9975 -1.2101 -2.5222 0.9774
-4.9444 -1.4098 -2.5220 0.9774
-4.9149 -1.5088 -2.5219 0.9774
-4.8499 -1.7049 -2.5217 0.9774
-4.7770 -1.8982 -2.5214 0.9774
-4.7376 -1.9936 -2.5213 0.9774
-4.4616 -2.5480 -2.5203 0.9774
-4.4092 -2.6369 -2.5201 0.9774
-4.2990 -2.8115 -2.5197 0.9774
-4.2413 -2.8970 -2.5195 0.9774
-4.1818 -2.9814 -2.5192 0.9774
-4.1207 -3.0646 -2.5190 0.9774
-4.0579 -3.1464 -2.5188 0.9774
-3.9935 -3.2270 -2.5185 0.9774
-3.7907 -3.4607 -2.5178 0.9774
-3.7200 -3.5358 -2.5175 0.9774
-3.6478 -3.6095 -2.5172 0.9774
-3.5742 -3.6816 -2.5170 0.9774
-3.4226 -3.8214 -2.5164 0.9774
-3.3447 -3.8890 -2.5161 0.9774
-3.2655 -3.9549 -2.5158 0.9774
-3.1850 -4.0192 -2.5155 0.9774
-2.9360 -4.2022 -2.5146 0.9774
-2.8506 -4.2598 -2.5142 0.9774
-2.7640 -4.3157 -2.5139 0.9774
-2.6764 -4.3698 -2.5136 0.9774
-2.5877 -4.4221 -2.5132 0.9774
-2.4073 -4.5213 -2.5126 0.9774
-2.3156 -4.5681 -2.5122 0.9774
-2.1296 -4.6561 -2.5115 0.9774
-2.0354 -4.6973 -2.5111 0.9774
-1.9403 -4.7366 -2.5108 0.9775
-1.3553 -4.9312 -2.5086 0.9775
-1.2558 -4.9567 -2.5082 0.9775
-1.1557 -4.9801 -2.5078 0.9775
-1.0553 -5.0016 -2.5074 0.9775
-0.8532 -5.0384 -2.5066 0.9775
-0.6499 -5.0670 -2.5059 0.9775
-0.4456 -5.0875 -2.5051 0.9775
-0.2408 -5.0997 -2.5043 0.9775
-0.0357 -5.1036 -2.5035 0.9775
0.2717 -5.0941 -2.5023 0.9775
0.6794 -5.0526 -2.5007 0.9775
0.7807 -5.0372 -2.5003 0.9775
0.9821 -5.0002 -2.4996 0.9776
1.0822 -4.9787 -2.4992 0.9776
1.1819 -4.9552 -2.4988 0.9776
1.2810 -4.9296 -2.4984 0.9776
1.3796 -4.9022 -2.4980 0.9776
1.4776 -4.8727 -2.4977 0.9776
1.7677 -4.7727 -2.4965 0.9776
2.1439 -4.6126 -2.4951 0.9776
2.2359 -4.5680 -2.4947 0.9776
2.3269 -4.5215 -2.4944 0.9776
2.6809 -4.3177 -2.4930 0.9776
2.8515 -4.2054 -2.4923 0.9776
3.0173 -4.0863 -2.4917 0.9776
3.3340 -3.8290 -2.4904 0.9776
3.4843 -3.6910 -2.4898 0.9776
3.5574 -3.6199 -2.4895 0.9776
3.6991 -3.4732 -2.4890 0.9776
3.8349 -3.3211 -2.4884 0.9777
4.0268 -3.0831 -2.4877 0.9777
4.1466 -2.9182 -2.4872 0.9777
4.2040 -2.8341 -2.4870 0.9777
4.2597 -2.7488 -2.4868 0.9777
4.3137 -2.6624 -2.4865 0.9777
4.3660 -2.5750 -2.4863 0.9777
4.4652 -2.3971 -2.4859 0.9777
4.5121 -2.3067 -2.4858 0.9777
4.5572 -2.2154 -2.4856 0.9777
4.6419 -2.0303 -2.4852 0.9777
4.7191 -1.8419 -2.4849 0.9777
4.7549 -1.7466 -2.4848 0.9777
4.7888 -1.6506 -2.4846 0.9777
4.8207 -1.5540 -2.4845 0.9777
4.9895 -0.8625 -2.4838 0.9777
5.0422 -0.4591 -2.4835 0.9777
5.0503 -0.3577 -2.4835 0.9777
5.0564 -0.2561 -2.4835 0.9777
5.0625 -0.0527 -2.4834 0.9777
5.0605 0.1507 -2.4834 0.9777
5.0201 0.6576 -2.4835 0.9777
5.0060 0.7583 -2.4836 0.9777
4.9516 1.0586 -2.4837 0.9777
4.8513 1.4530 -2.4841 0.9777
4.7894 1.6469 -2.4843 0.9777
4.7556 1.7428 -2.4844 0.9777
4.6427 2.0265 -2.4848 0.9777
4.6013 2.1195 -2.4850 0.9777
4.5581 2.2117 -2.4852 0.9777
4.4175 2.4828 -2.4857 0.9777
4.3148 2.6587 -2.4860 0.9777
4.2609 2.7451 -2.4862 0.9777
4.0888 2.9975 -2.4869 0.9777
4.0281 3.0794 -2.4871 0.9777
3.9658 3.1600 -2.4873 0.9777
3.9019 3.2394 -2.4876 0.9777
3.8364 3.3174 -2.4878 0.9777
3.7693 3.3942 -2.4881 0.9777
3.7007 3.4696 -2.4883 0.9777
3.5591 3.6163 -2.4889 0.9776
3.4117 3.7572 -2.4894 0.9776
3.3359 3.8254 -2.4897 0.9776
3.1802 3.9573 -2.4903 0.9776
3.1005 4.0209 -2.4906 0.9776
3.0194 4.0829 -2.4909 0.9776
2.9371 4.1432 -2.4912 0.9776
-4.3823 2.0935 -2.5195 0.9784
-4.5013 1.8260 -2.5200 0.9783
-4.5716 1.6438 -2.5203 0.9783
-4.6344 1.4590 -2.5206 0.9783
-4.6630 1.3656 -2.5207 0.9783
-4.6897 1.2717 -2.5208 0.9783
-4.7145 1.1773 -2.5209 0.9783
-4.7374 1.0823 -2.5210 0.9783
-4.8340 0.5048 -2.5214 0.9783
-4.8433 0.4076 -2.5215 0.9783
-4.8505 0.3102 -2.5215 0.9783
-4.8592 0.1150 -2.5216 0.9783
-4.8599 -0.0803 -2.5216 0.9783
-4.8573 -0.1779 -2.5216 0.9783
-4.8462 -0.3730 -2.5216 0.9783
-4.8377 -0.4703 -2.5215 0.9783
-4.8148 -0.6642 -2.5215 0.9783
-4.8004 -0.7608 -2.5214 0.9783
-4.7840 -0.8571 -2.5214 0.9783
-4.7454 -1.0486 -2.5212 0.9783
-4.7233 -1.1437 -2.5211 0.9783
-4.6732 -1.3324 -2.5210 0.9783
-4.6155 -1.5190 -2.5208 0.9783
-4.5503 -1.7030 -2.5205 0.9783
-4.5150 -1.7940 -2.5204 0.9783
-4.3110 -2.2372 -2.5197 0.9784
-4.2649 -2.3232 -2.5195 0.9784
-4.1162 -2.5754 -2.5189 0.9784
-4.0633 -2.6574 -2.5188 0.9784
-4.0088 -2.7383 -2.5186 0.9784
-3.9527 -2.8180 -2.5183 0.9784
-3.8356 -2.9740 -2.5179 0.9784
-3.7123 -3.1252 -2.5174 0.9784
-3.5831 -3.2712 -2.5170 0.9784
-3.3784 -3.4800 -2.5162 0.9784
-3.3075 -3.5469 -2.5159 0.9784
-3.1616 -3.6761 -2.5154 0.9784
-3.0107 -3.7993 -2.5148 0.9784
-2.9334 -3.8585 -2.5145 0.9784
-2.6946 -4.0268 -2.5136 0.9784
-2.6129 -4.0797 -2.5133 0.9784
-2.5301 -4.1308 -2.5130 0.9784
-2.4462 -4.1803 -2.5127 0.9784
-2.2757 -4.2741 -2.5120 0.9784
-2.1891 -4.3184 -2.5117 0.9784
-2.1016 -4.3609 -2.5114 0.9784
-2.0133 -4.4017 -2.5110 0.9784
-1.8343 -4.4778 -2.5104 0.9784
-1.4680 -4.6081 -2.5090 0.9784
-1.2813 -4.6620 -2.5082 0.9784
-1.1872 -4.6862 -2.5079 0.9785
-1.0927 -4.7084 -2.5075 0.9785
-0.9023 -4.7471 -2.5068 0.9785
-0.7107 -4.7781 -2.5061 0.9785
-0.4213 -4.8101 -2.5049 0.9785
-0.3246 -4.8169 -2.5046 0.9785
-0.2277 -4.8217 -2.5042 0.9785
-0.0337 -4.8256 -2.5035 0.9785
0.0632 -4.8246 -2.5031 0.9785
0.2569 -4.8167 -2.5023 0.9785
0.3536 -4.8098 -2.5020 0.9785
0.9287 -4.7282 -2.4998 0.9785
1.3973 -4.6078 -2.4979 0.9785
1.4894 -4.5782 -2.4976 0.9785
1.5808 -4.5467 -2.4972 0.9785
1.7617 -4.4782 -2.4965 0.9785
1.9397 -4.4026 -2.4958 0.9786
2.2857 -4.2304 -2.4945 0.9786
2.4532 -4.1340 -2.4938 0.9786
2.6166 -4.0311 -2.4932 0.9786
2.6968 -3.9772 -2.4929 0.9786
2.7758 -3.9217 -2.4926 0.9786
2.8537 -3.8647 -2.4923 0.9786
2.9304 -3.8061 -2.4920 0.9786
3.1533 -3.6214 -2.4911 0.9786
3.2250 -3.5569 -2.4908 0.9786
3.2955 -3.4910 -2.4905 0.9786
3.3646 -3.4237 -2.4903 0.9786
3.4987 -3.2850 -2.4897 0.9786
3.5636 -3.2138 -2.4895 0.9786
3.6271 -3.1412 -2.4892 0.9786
3.8662 -2.8387 -2.4883 0.9786
3.9221 -2.7602 -2.4881 0.9786
3.9764 -2.6806 -2.4878 0.9786
4.0802 -2.5183 -2.4874 0.9786
4.1774 -2.3520 -2.4870 0.9786
4.3106 -2.0955 -2.4865 0.9786
4.5297 -1.5613 -2.4856 0.9786
4.5600 -1.4699 -2.4855 0.9786
4.5884 -1.3779 -2.4854 0.9786
4.6149 -1.2854 -2.4853 0.9786
4.6396 -1.1923 -2.4852 0.9786
4.6625 -1.0988 -2.4851 0.9786
4.7025 -0.9106 -2.4849 0.9786
4.7197 -0.8159 -2.4848 0.9786
4.7350 -0.7208 -2.4847 0.9786
4.7600 -0.5300 -2.4846 0.9786
4.7696 -0.4342 -2.4846 0.9786
4.7773 -0.3383 -2.4845 0.9786
4.7830 -0.2423 -2.4845 0.9787
4.7869 -0.1461 -2.4845 0.9787
4.7869 0.1426 -2.4845 0.9787
4.7831 0.2387 -2.4845 0.9787
4.7774 0.3348 -2.4845 0.9787
4.7602 0.5265 -2.4845 0.9786
4.7487 0.6220 -2.4846 0.9786
4.6838 1.0014 -2.4848 0.9786
4.6401 1.1888 -2.4849 0.9786
4.6154 1.2819 -2.4850 0.9786
4.5889 1.3744 -2.4851 0.9786
4.5606 1.4664 -2.4852 0.9786
4.4984 1.6486 -2.4854 0.9786
4.4646 1.7387 -2.4856 0.9786
4.4289 1.8282 -2.4857 0.9786
4.3916 1.9169 -2.4858 0.9786
4.3524 2.0049 -2.4860 0.9786
4.3115 2.0921 -2.4861 0.9786
4.1784 2.3485 -2.4866 0.9786
4.1307 2.4321 -2.4868 0.9786
4.0303 2.5965 -2.4871 0.9786
3.8674 2.8353 -2.4878 0.9786
3.8100 2.9127 -2.4880 0.9786
3.7510 2.9889 -2.4882 0.9786
3.6286 3.1378 -2.4886 0.9786
3.5003 3.2817 -2.4891 0.9786
3.4340 3.3517 -2.4894 0.9786
3.2268 3.5536 -2.4901 0.9786
3.1551 3.6181 -2.4904 0.9786
3.0821 3.6812 -2.4907 0.9786
2.8557 3.8615 -2.4915 0.9786
2.6989 3.9741 -2.4921 0.9786
-4.1887 1.8985 -2.5188 0.9792
-4.2262 1.8141 -2.5190 0.9792
-4.3286 1.5564 -2.5194 0.9792
-4.4404 1.2041 -2.5198 0.9792
-4.4639 1.1147 -2.5199 0.9792
-4.5054 0.9345 -2.5201 0.9792
-4.5234 0.8438 -2.5202 0.9792
-4.5538 0.6614 -2.5203 0.9792
-4.5663 0.5698 -2.5204 0.9792
-4.5926 0.2937 -2.5205 0.9792
-4.5976 0.2013 -2.5205 0.9792
-4.6008 0.1089 -2.5206 0.9792
-4.6015 -0.0760 -2.5206 0.9792
-4.5885 -0.3531 -2.5206 0.9792
-4.5804 -0.4452 -2.5205 0.9792
-4.5705 -0.5372 -2.5205 0.9792
-4.5451 -0.7204 -2.5204 0.9792
-4.5296 -0.8115 -2.5204 0.9792
-4.5123 -0.9024 -2.5203 0.9792
-4.4493 -1.1725 -2.5201 0.9792
-4.3983 -1.3502 -2.5199 0.9792
-4.2397 -1.7841 -2.5193 0.9792
-4.2028 -1.8689 -2.5192 0.9792
-4.1642 -1.9528 -2.5191 0.9792
-4.0382 -2.1998 -2.5186 0.9792
-3.9929 -2.2803 -2.5184 0.9792
-3.9460 -2.3599 -2.5183 0.9792
-3.8975 -2.4386 -2.5181 0.9793
-3.7427 -2.6683 -2.5175 0.9793
-3.6880 -2.7428 -2.5173 0.9793
-3.5743 -2.8883 -2.5169 0.9793
-3.5152 -2.9592 -2.5167 0.9793
-3.3928 -3.0975 -2.5162 0.9793
-3.3296 -3.1648 -2.5160 0.9793
-3.2650 -3.2307 -2.5157 0.9793
-3.1991 -3.2953 -2.5155 0.9793
-3.0635 -3.4205 -2.5150 0.9793
-2.9939 -3.4810 -2.5147 0.9793
-2.9230 -3.5401 -2.5145 0.9793
-2.8510 -3.5977 -2.5142 0.9793
-2.7778 -3.6539 -2.5139 0.9793
-2.7035 -3.7086 -2.5136 0.9793
-2.3166 -3.9587 -2.5122 0.9793
-2.2363 -4.0040 -2.5119 0.9793
-2.1551 -4.0476 -2.5115 0.9793
-2.0731 -4.0896 -2.5112 0.9793
-1.9066 -4.1685 -2.5106 0.9793
-1.8222 -4.2055 -2.5103 0.9793
-1.7371 -4.2407 -2.5100 0.9793
-1.5650 -4.3059 -2.5093 0.9793
-1.3903 -4.3642 -2.5086 0.9793
-1.3022 -4.3906 -2.5083 0.9793
-1.1244 -4.4382 -2.5076 0.9793
-1.0349 -4.4593 -2.5073 0.9793
-0.9449 -4.4786 -2.5069 0.9793
-0.8546 -4.4960 -2.5066 0.9793
-0.7640 -4.5117 -2.5062 0.9793
-0.6731 -4.5255 -2.5059 0.9793
-0.3074 -4.5624 -2.5045 0.9794
0.1517 -4.5670 -2.5027 0.9794
0.3349 -4.5559 -2.5020 0.9794
0.4264 -4.5476 -2.5017 0.9794
0.6993 -4.5118 -2.5006 0.9794
0.7897 -4.4962 -2.5003 0.9794
0.8797 -4.4788 -2.4999 0.9794
1.3236 -4.3650 -2.4982 0.9794
1.4109 -4.3369 -2.4979 0.9794
1.7536 -4.2074 -2.4965 0.9794
1.9207 -4.1324 -2.4959 0.9794
2.0847 -4.0509 -2.4952 0.9794
2.1654 -4.0077 -2.4949 0.9794
2.3241 -3.9165 -2.4943 0.9794
2.4020 -3.8685 -2.4940 0.9794
2.4790 -3.8190 -2.4937 0.9794
2.5549 -3.7680 -2.4934 0.9795
2.6298 -3.7154 -2.4931 0.9795
2.7763 -3.6060 -2.4925 0.9795
2.8479 -3.5491 -2.4923 0.9795
3.1223 -3.3075 -2.4912 0.9795
3.1878 -3.2437 -2.4909 0.9795
3.3149 -3.1124 -2.4904 0.9795
3.3764 -3.0449 -2.4902 0.9795
3.5527 -2.8352 -2.4895 0.9795
3.6086 -2.7630 -2.4893 0.9795
3.6631 -2.6896 -2.4891 0.9795
3.7676 -2.5399 -2.4886 0.9795
3.9129 -2.3077 -2.4881 0.9795
3.9582 -2.2285 -2.4879 0.9795
4.0439 -2.0674 -2.4875 0.9795
4.0844 -1.9856 -2.4874 0.9795
4.1232 -1.9030 -2.4872 0.9795
4.1604 -1.8196 -2.4871 0.9795
4.2296 -1.6508 -2.4868 0.9795
4.2617 -1.5654 -2.4866 0.9795
4.2921 -1.4794 -2.4865 0.9795
4.3963 -1.1298 -2.4861 0.9795
4.4559 -0.8628 -2.4858 0.9795
4.4722 -0.7731 -2.4858 0.9795
4.4867 -0.6830 -2.4857 0.9795
4.4994 -0.5927 -2.4856 0.9795
4.5103 -0.5022 -2.4856 0.9795
4.5194 -0.4115 -2.4855 0.9795
4.5267 -0.3206 -2.4855 0.9795
4.5322 -0.2295 -2.4855 0.9795
4.5377 -0.0473 -2.4854 0.9795
4.5377 0.0439 -2.4854 0.9795
4.5323 0.2262 -2.4854 0.9795
4.5269 0.3172 -2.4855 0.9795
4.5196 0.4081 -2.4855 0.9795
4.4997 0.5894 -2.4855 0.9795
4.4725 0.7698 -2.4856 0.9795
4.4562 0.8595 -2.4857 0.9795
4.4382 0.9489 -2.4857 0.9795
4.3967 1.1265 -2.4859 0.9795
4.3733 1.2146 -2.4860 0.9795
4.3482 1.3023 -2.4860 0.9795
4.1966 1.7323 -2.4866 0.9795
4.1240 1.8997 -2.4869 0.9795
4.0448 2.0641 -2.4871 0.9795
3.9591 2.2252 -2.4875 0.9795
3.9139 2.3045 -2.4876 0.9795
3.7173 2.6120 -2.4884 0.9795
3.5541 2.8319 -2.4890 0.9795
3.4967 2.9030 -2.4892 0.9795
3.3779 3.0417 -2.4896 0.9795
3.2536 3.1756 -2.4901 0.9795
3.1239 3.3044 -2.4906 0.9795
2.8497 3.5460 -2.4916 0.9795
2.7782 3.6029 -2.4919 0.9795
2.7055 3.6584 -2.4921 0.9795
2.5569 3.7650 -2.4927 0.9795
-3.8963 1.9584 -2.5177 0.9801
-3.9351 1.8798 -2.5178 0.9801
-3.9723 1.8005 -2.5180 0.9801
-4.0419 1.6396 -2.5183 0.9801
-4.0742 1.5581 -2.5184 0.9801
-4.1049 1.4760 -2.5185 0.9801
-4.1339 1.3933 -2.5186 0.9801
-4.1613 1.3100 -2.5188 0.9801
-4.1869 1.2262 -2.5189 0.9801
-4.2109 1.1419 -2.5190 0.9800
-4.2725 0.8862 -2.5192 0.9800
-4.3185 0.6272 -2.5194 0.9800
-4.3487 0.3659 -2.5196 0.9800
-4.3552 0.2785 -2.5196 0.9800
-4.3599 0.1909 -2.5196 0.9800
-4.3636 -0.0721 -2.5197 0.9800
-4.3613 -0.1598 -2.5197 0.9800
-4.3572 -0.2474 -2.5197 0.9800
-4.3513 -0.3349 -2.5196 0.9800
-4.3342 -0.5094 -2.5196 0.9800
-4.3101 -0.6831 -2.5195 0.9800
-4.2955 -0.7696 -2.5195 0.9800
-4.2410 -1.0269 -2.5193 0.9800
-4.2194 -1.1119 -2.5192 0.9800
-4.1960 -1.1964 -2.5191 0.9800
-4.1443 -1.3639 -2.5189 0.9801
-4.1159 -1.4468 -2.5188 0.9801
-4.0858 -1.5292 -2.5187 0.9801
-4.0540 -1.6109 -2.5186 0.9801
-3.9108 -1.9308 -2.5181 0.9801
-3.8296 -2.0861 -2.5178 0.9801
-3.6488 -2.3862 -2.5171 0.9801
-3.4444 -2.6707 -2.5164 0.9801
-3.3897 -2.7392 -2.5162 0.9801
-3.2764 -2.8726 -2.5157 0.9801
-3.0965 -3.0640 -2.5151 0.9801
-3.0341 -3.1253 -2.5148 0.9801
-2.9704 -3.1854 -2.5146 0.9801
-2.9055 -3.2441 -2.5144 0.9801
-2.8394 -3.3015 -2.5141 0.9801
-2.7723 -3.3575 -2.5139 0.9801
-2.6346 -3.4655 -2.5133 0.9801
-2.5641 -3.5173 -2.5131 0.9801
-2.4927 -3.5678 -2.5128 0.9801
-2.3468 -3.6642 -2.5122 0.9801
-2.2724 -3.7102 -2.5120 0.9801
