ply
format ascii 1.0
element vertex 1576
property float32 x
property float32 y
property float32 z
property float32 I
end_header
-14.2181 -10.3426 -2.4912 0.9314
-14.0084 -10.6267 -2.4913 0.9314
-13.7929 -10.9066 -2.4915 0.9314
-13.1136 -11.7197 -2.4919 0.9314
-12.8764 -11.9815 -2.4921 0.9314
-12.1341 -12.7379 -2.4926 0.9314
-11.8767 -12.9799 -2.4928 0.9314
-11.6144 -13.2168 -2.4930 0.9314
-11.3475 -13.4485 -2.4932 0.9314
-11.0759 -13.6747 -2.4934 0.9314
-10.5195 -14.1107 -2.4938 0.9314
-10.2240 -14.3052 -2.4913 0.9314
-9.0649 -13.8253 -2.3424 0.9354
-8.5037 -14.1806 -2.3428 0.9354
-8.2180 -14.3498 -2.3430 0.9354
-7.9288 -14.5132 -2.3432 0.9354
-7.6364 -14.6708 -2.3434 0.9354
-7.0423 -14.9684 -2.3439 0.9354
-6.7408 -15.1082 -2.3441 0.9353
-6.4366 -15.2419 -2.3443 0.9353
-6.1298 -15.3696 -2.3445 0.9353
-5.8204 -15.4910 -2.3447 0.9353
-5.5086 -15.6062 -2.3449 0.9353
-4.5601 -15.9142 -2.3456 0.9353
-4.2400 -16.0042 -2.3459 0.9353
-3.5945 -16.1647 -2.3463 0.9353
-1.9567 -16.4519 -2.3475 0.9353
-1.6260 -16.4895 -2.3477 0.9353
-1.2946 -16.5205 -2.3480 0.9352
-0.2975 -16.5735 -2.3487 0.9352
0.3684 -16.5755 -2.3491 0.9352
0.7014 -16.5664 -2.3494 0.9352
1.3664 -16.5282 -2.3499 0.9352
1.6983 -16.4991 -2.3501 0.9352
2.6896 -16.3718 -2.3508 0.9352
3.0182 -16.3161 -2.3510 0.9352
3.3456 -16.2538 -2.3513 0.9352
4.3196 -16.0276 -2.3520 0.9351
4.6411 -15.9392 -2.3522 0.9351
4.9608 -15.8443 -2.3524 0.9351
5.2785 -15.7430 -2.3527 0.9351
5.9077 -15.5213 -2.3531 0.9351
6.5275 -15.2744 -2.3536 0.9351
6.8336 -15.1417 -2.3538 0.9351
7.4375 -14.8577 -2.3542 0.9351
7.7352 -14.7067 -2.3544 0.9351
8.0297 -14.5497 -2.3546 0.9351
8.8937 -14.0435 -2.3553 0.9351
9.1747 -13.8632 -2.3555 0.9350
9.4521 -13.6773 -2.3557 0.9350
9.9955 -13.2889 -2.3561 0.9350
10.2612 -13.0865 -2.3563 0.9350
10.5228 -12.8788 -2.3564 0.9350
12.9962 7.7313 -2.4912 0.9405
12.4426 7.7445 -2.4144 0.9423
11.8363 8.0441 -2.3576 0.9436
11.5026 8.5121 -2.3574 0.9436
10.9674 9.1879 -2.3570 0.9436
9.0410 8.2141 -2.0123 0.9517
9.9880 10.2382 -2.3563 0.9437
9.5675 10.6298 -2.3560 0.9437
9.1317 11.0040 -2.3557 0.9437
8.9083 11.1844 -2.3555 0.9437
7.7393 12.0170 -2.3547 0.9437
7.4958 12.1691 -2.3545 0.9437
6.7479 12.5956 -2.3540 0.9437
6.4930 12.7276 -2.3538 0.9437
5.7134 13.0924 -2.3533 0.9437
5.4489 13.2035 -2.3531 0.9437
4.7806 13.0470 -2.2891 0.9452
4.2515 13.2244 -2.2884 0.9452
3.9609 13.2267 -2.2746 0.9456
3.5026 13.6722 -2.3251 0.9444
3.1135 13.2554 -2.2431 0.9463
2.7055 14.0271 -2.3534 0.9437
2.2826 13.2621 -2.2169 0.9469
2.0567 13.5750 -2.2618 0.9459
1.7795 13.5824 -2.2567 0.9460
1.1971 13.2491 -2.1915 0.9475
0.9171 13.0760 -2.1594 0.9482
0.1294 13.2556 -2.1838 0.9477
-0.1369 13.2578 -2.1842 0.9477
-0.4040 13.2817 -2.1890 0.9476
-0.6876 13.6047 -2.2441 0.9463
-2.0891 13.7359 -2.2889 0.9452
-2.2964 13.2970 -2.2230 0.9468
-2.5686 13.2774 -2.2279 0.9467
-3.3661 13.1086 -2.2296 0.9466
-3.6489 13.1108 -2.2420 0.9463
-3.9871 13.2868 -2.2853 0.9453
-4.2805 13.2892 -2.3000 0.9450
-3.0929 8.4264 -1.4787 0.9643
-5.4383 13.1567 -2.3453 0.9439
-5.0329 9.3816 -1.7539 0.9578
-5.2509 9.3330 -1.7642 0.9575
-5.3061 9.0031 -1.7216 0.9585
-7.4686 12.1096 -2.3438 0.9440
-6.0715 9.0130 -1.7903 0.9569
-8.8665 11.1190 -2.3428 0.9440
-9.3046 10.7525 -2.3425 0.9440
-9.5181 10.5628 -2.3423 0.9440
-9.7277 10.3688 -2.3422 0.9440
-9.9333 10.1707 -2.3420 0.9440
-10.1349 9.9685 -2.3419 0.9440
-10.8997 9.1208 -2.3413 0.9440
-11.0801 8.8995 -2.3412 0.9440
-11.5941 8.2148 -2.3408 0.9440
-11.7561 7.9799 -2.3407 0.9440
-11.9134 7.7418 -2.3406 0.9440
-13.4460 6.9290 -2.4919 0.9405
-13.5819 6.6573 -2.4918 0.9405
-13.7123 6.3829 -2.4917 0.9405
-13.9566 5.8266 -2.4915 0.9405
-14.1784 5.2611 -2.4914 0.9405
-14.5533 4.1057 -2.4911 0.9405
-14.7058 3.5178 -2.4910 0.9405
-14.7731 3.2216 -2.4909 0.9405
-14.8901 2.6256 -2.4908 0.9405
-14.9396 2.3260 -2.4908 0.9405
-15.0520 1.4221 -2.4907 0.9405
-15.1172 0.2094 -2.4906 0.9406
-15.1183 -0.0942 -2.4906 0.9406
-15.1134 -0.3979 -2.4906 0.9406
-15.1024 -0.7013 -2.4906 0.9406
-15.0622 -1.3073 -2.4907 0.9406
-14.9978 -1.9112 -2.4907 0.9405
-14.9565 -2.2121 -2.4907 0.9405
-14.9093 -2.5120 -2.4908 0.9405
-14.6605 -3.7008 -2.4909 0.9405
-14.5836 -3.9946 -2.4910 0.9405
-14.5007 -4.2867 -2.4910 0.9405
-14.4121 -4.5772 -2.4911 0.9405
-13.8826 -6.0000 -2.4915 0.9405
-13.6313 -6.5532 -2.4916 0.9405
-13.4975 -6.8259 -2.4917 0.9405
-13.3582 -7.0958 -2.4918 0.9405
-13.2135 -7.3630 -2.4919 0.9405
-12.7478 -8.1464 -2.4922 0.9405
-12.5822 -8.4012 -2.4924 0.9405
-12.2358 -8.9006 -2.4926 0.9405
-11.8697 -9.3858 -2.4929 0.9405
-11.4844 -9.8560 -2.4931 0.9405
-11.2848 -10.0853 -2.4933 0.9405
-10.6588 -10.7484 -2.4937 0.9405
-9.9941 -11.3729 -2.4942 0.9405
-9.7643 -11.5721 -2.4943 0.9405
-9.5305 -11.7667 -2.4945 0.9405
-9.2929 -11.9565 -2.4947 0.9405
-9.0515 -12.1416 -2.4949 0.9405
-8.2868 -12.6386 -2.4897 0.9406
-7.8264 -12.4758 -2.4262 0.9420
-7.0707 -12.3464 -2.3439 0.9440
-6.8218 -12.4869 -2.3440 0.9439
-6.3158 -12.7527 -2.3444 0.9439
-6.0588 -12.8780 -2.3446 0.9439
-3.6474 -13.7676 -2.3463 0.9439
-3.0921 -13.9053 -2.3467 0.9439
-2.8124 -13.9658 -2.3469 0.9439
-2.2497 -14.0698 -2.3473 0.9439
-1.9668 -14.1134 -2.3475 0.9439
-1.3986 -14.1835 -2.3479 0.9439
-1.1136 -14.2099 -2.3481 0.9439
-0.8280 -14.2307 -2.3483 0.9439
0.0305 -14.2584 -2.3489 0.9438
0.6032 -14.2482 -2.3493 0.9438
0.8893 -14.2344 -2.3495 0.9438
1.1752 -14.2149 -2.3497 0.9438
2.0296 -14.1221 -2.3504 0.9438
2.3130 -14.0797 -2.3506 0.9438
2.8771 -13.9778 -2.3510 0.9438
3.1575 -13.9184 -2.3512 0.9438
4.2658 -13.6247 -2.3520 0.9438
4.8104 -13.4446 -2.3524 0.9438
5.0798 -13.3464 -2.3525 0.9438
5.3473 -13.2428 -2.3527 0.9437
5.6127 -13.1337 -2.3529 0.9437
5.8758 -13.0194 -2.3531 0.9437
6.1366 -12.8998 -2.3533 0.9437
7.1543 -12.3696 -2.3540 0.9437
7.8880 -11.9189 -2.3546 0.9437
8.5933 -11.4247 -2.3551 0.9437
8.8217 -11.2506 -2.3552 0.9437
11.6106 6.5950 -2.5098 0.9471
10.8572 7.7020 -2.5021 0.9473
10.4526 7.7351 -2.4441 0.9485
9.7686 7.8552 -2.3561 0.9503
9.0288 8.2031 -2.2929 0.9516
8.9295 8.7929 -2.3555 0.9503
8.3825 9.3131 -2.3551 0.9503
8.1932 9.4790 -2.3550 0.9503
7.8050 9.7993 -2.3547 0.9503
7.6062 9.9535 -2.3546 0.9503
7.4043 10.1036 -2.3544 0.9503
6.9917 10.3916 -2.3542 0.9503
6.7811 10.5292 -2.3540 0.9503
6.3520 10.7917 -2.3537 0.9503
5.6894 11.1524 -2.3532 0.9503
5.4639 11.2636 -2.3531 0.9503
5.2362 11.3703 -2.3529 0.9503
5.0065 11.4724 -2.3527 0.9503
4.5410 11.6626 -2.3524 0.9503
4.3056 11.7506 -2.3522 0.9503
3.5893 11.9860 -2.3517 0.9504
3.3476 12.0547 -2.3516 0.9504
2.3687 12.2809 -2.3509 0.9504
2.1214 12.3251 -2.3507 0.9504
1.1250 12.4518 -2.3500 0.9504
0.8746 12.4709 -2.3498 0.9504
0.6239 12.4850 -2.3496 0.9504
0.3730 12.4941 -2.3494 0.9504
-0.8812 12.4637 -2.3485 0.9504
-1.3808 12.4164 -2.3482 0.9504
-1.6298 12.3852 -2.3480 0.9504
-1.8781 12.3491 -2.3478 0.9504
-2.1256 12.3079 -2.3477 0.9504
-2.8623 12.1548 -2.3471 0.9504
-3.5883 11.9578 -2.3466 0.9505
-3.0931 8.4268 -1.6872 0.9641
-3.1402 8.0515 -1.6244 0.9654
-5.2260 11.3312 -2.3454 0.9505
-4.3000 8.8515 -1.8497 0.9607
-4.7429 8.8412 -1.8858 0.9600
-6.3336 10.7465 -2.3446 0.9505
-6.5477 10.6164 -2.3445 0.9505
-6.3512 9.4282 -2.1367 0.9548
-7.1738 10.2008 -2.3440 0.9505
-7.3767 10.0541 -2.3439 0.9505
-8.3451 9.2611 -2.3432 0.9505
-8.5289 9.0911 -2.3430 0.9505
-8.8862 8.7402 -2.3428 0.9505
-9.2290 8.3754 -2.3425 0.9505
-9.3949 8.1880 -2.3424 0.9505
-9.7152 7.8032 -2.3422 0.9505
-10.4127 7.6965 -2.4338 0.9487
-10.9618 7.4407 -2.4902 0.9475
-11.2664 7.0036 -2.4935 0.9474
-11.4044 6.7756 -2.4934 0.9474
-11.6664 6.3116 -2.4932 0.9474
-11.7904 6.0758 -2.4931 0.9474
-11.9096 5.8376 -2.4930 0.9474
-12.0240 5.5970 -2.4929 0.9475
-12.1336 5.3542 -2.4928 0.9475
-12.4329 4.6134 -2.4926 0.9475
-12.6075 4.1101 -2.4925 0.9475
-12.6872 3.8560 -2.4924 0.9475
-12.7618 3.6003 -2.4924 0.9475
-12.8956 3.0848 -2.4923 0.9475
-13.0086 2.5643 -2.4922 0.9475
-13.0573 2.3025 -2.4921 0.9475
-13.1008 2.0397 -2.4921 0.9475
-13.2217 0.9817 -2.4920 0.9475
-13.2576 -0.0826 -2.4920 0.9475
-13.2436 -0.6150 -2.4920 0.9475
-13.2287 -0.8809 -2.4920 0.9475
-13.1519 -1.6760 -2.4920 0.9475
-13.1157 -1.9398 -2.4920 0.9475
-13.0275 -2.4650 -2.4921 0.9475
-12.8560 -3.2452 -2.4922 0.9475
-12.5551 -4.2669 -2.4924 0.9475
-12.3742 -4.7679 -2.4925 0.9475
-12.2763 -5.0156 -2.4926 0.9475
-12.1734 -5.2613 -2.4927 0.9475
-12.0657 -5.5049 -2.4928 0.9475
-11.9530 -5.7463 -2.4928 0.9475
-11.8356 -5.9854 -2.4929 0.9475
-11.7134 -6.2222 -2.4930 0.9474
-11.5865 -6.4564 -2.4931 0.9474
-11.4549 -6.6880 -2.4932 0.9474
-11.1779 -7.1432 -2.4934 0.9474
-10.7288 -7.8044 -2.4937 0.9474
-10.5704 -8.0187 -2.4938 0.9474
-10.4077 -8.2297 -2.4939 0.9474
-9.5325 -9.2340 -2.4945 0.9474
-9.1549 -9.6104 -2.4948 0.9474
-8.9605 -9.7929 -2.4949 0.9474
-8.5610 -10.1460 -2.4952 0.9474
-7.7209 -10.8029 -2.4958 0.9474
-7.5028 -10.9565 -2.4960 0.9474
-7.2817 -11.1057 -2.4961 0.9474
-7.0576 -11.2504 -2.4963 0.9474
-5.3837 -11.4431 -2.3770 0.9498
-5.0840 -11.3948 -2.3453 0.9505
-4.1543 -11.7694 -2.3460 0.9505
-3.6788 -11.9285 -2.3463 0.9505
-3.1973 -12.0684 -2.3466 0.9505
-2.9545 -12.1311 -2.3468 0.9505
-2.4652 -12.2417 -2.3472 0.9504
-1.7239 -12.3708 -2.3477 0.9504
-1.4752 -12.4038 -2.3479 0.9504
-1.2259 -12.4319 -2.3480 0.9504
-0.2243 -12.4940 -2.3488 0.9504
0.0267 -12.4970 -2.3489 0.9504
0.5287 -12.4877 -2.3493 0.9504
0.7794 -12.4755 -2.3495 0.9504
1.5297 -12.4088 -2.3500 0.9504
1.7787 -12.3765 -2.3502 0.9504
2.0271 -12.3392 -2.3504 0.9504
2.5214 -12.2497 -2.3507 0.9504
2.8390 -11.4440 -2.2162 0.9531
3.7382 -11.9396 -2.3516 0.9504
3.9776 -11.8630 -2.3518 0.9504
4.2154 -11.7816 -2.3519 0.9503
4.4514 -11.6954 -2.3521 0.9503
4.6858 -11.6044 -2.3523 0.9503
6.7749 -11.1887 -2.4585 0.9482
7.5707 -10.9549 -2.5029 0.9472
8.2307 -10.4970 -2.5072 0.9472
8.4404 -10.3302 -2.5074 0.9472
10.2003 6.0680 -2.5088 0.9526
10.0760 6.2715 -2.5087 0.9526
9.6789 6.8661 -2.5084 0.9526
9.2371 7.4278 -2.5055 0.9527
9.0748 7.6025 -2.5024 0.9528
8.8532 7.7247 -2.4836 0.9531
7.9378 7.8163 -2.3548 0.9555
7.7788 7.9737 -2.3547 0.9555
7.6168 8.1280 -2.3546 0.9555
7.4516 8.2789 -2.3545 0.9555
6.9384 8.7113 -2.3541 0.9555
6.7617 8.8484 -2.3540 0.9555
6.5823 8.9820 -2.3538 0.9555
6.2156 9.2380 -2.3536 0.9555
6.0284 9.3605 -2.3535 0.9555
5.8389 9.4791 -2.3533 0.9555
5.4528 9.7048 -2.3530 0.9555
4.8576 10.0138 -2.3526 0.9555
4.2450 10.2863 -2.3522 0.9555
4.0373 10.3688 -2.3520 0.9555
3.8280 10.4471 -2.3519 0.9555
3.4049 10.5911 -2.3516 0.9555
2.5432 10.8274 -2.3510 0.9555
2.3251 10.8755 -2.3508 0.9555
2.1060 10.9193 -2.3507 0.9556
1.6656 10.9936 -2.3503 0.9556
1.2226 11.0501 -2.3500 0.9556
1.0003 11.0717 -2.3499 0.9556
0.7777 11.0888 -2.3497 0.9556
0.1085 11.1133 -2.3492 0.9556
-0.1148 11.1125 -2.3491 0.9556
-0.3379 11.1071 -2.3489 0.9556
-0.7836 11.0831 -2.3486 0.9556
-1.2279 11.0412 -2.3483 0.9556
-1.6701 10.9815 -2.3480 0.9556
-1.8902 10.9450 -2.3478 0.9556
-2.3279 10.8588 -2.3475 0.9556
-2.9771 10.6968 -2.3470 0.9556
-3.1911 10.6342 -2.3469 0.9556
-3.8249 10.4206 -2.3464 0.9556
-3.1402 8.0515 -1.8268 0.9653
-4.2398 10.2573 -2.3461 0.9556
-4.4447 10.1695 -2.3460 0.9556
-4.6478 10.0775 -2.3458 0.9556
-5.2509 9.3330 -2.2636 0.9572
-5.6330 9.5578 -2.3451 0.9557
-5.8235 9.4422 -2.3450 0.9557
-6.0116 9.3228 -2.3448 0.9557
-6.7390 8.8083 -2.3443 0.9557
-7.9040 7.7742 -2.3435 0.9557
-8.1624 7.7121 -2.3737 0.9551
-8.4873 7.7023 -2.4227 0.9542
-9.0328 7.5586 -2.4897 0.9530
-9.4909 7.0151 -2.4947 0.9529
-9.6295 6.8229 -2.4946 0.9529
-9.8950 6.4301 -2.4944 0.9529
-10.0218 6.2299 -2.4943 0.9529
-10.3777 5.6144 -2.4941 0.9529
-10.4880 5.4047 -2.4940 0.9529
-10.6959 4.9788 -2.4938 0.9529
-10.7935 4.7628 -2.4938 0.9529
-11.0598 4.1039 -2.4936 0.9529
-11.1397 3.8808 -2.4935 0.9529
-11.2861 3.4302 -2.4934 0.9529
-11.5242 2.5131 -2.4932 0.9529
-11.5722 2.2811 -2.4932 0.9529
-11.6155 2.0482 -2.4932 0.9529
-11.6541 1.8145 -2.4931 0.9529
-11.6881 1.5800 -2.4931 0.9529
-11.7769 0.6369 -2.4930 0.9529
-11.7872 0.4002 -2.4930 0.9529
-11.7929 0.1634 -2.4930 0.9529
-11.7937 -0.0735 -2.4930 0.9529
-11.7899 -0.3104 -2.4930 0.9529
-11.7813 -0.5471 -2.4930 0.9529
-11.7271 -1.2556 -2.4930 0.9529
-11.6305 -1.9596 -2.4931 0.9529
-11.5889 -2.1928 -2.4931 0.9529
-11.4918 -2.6565 -2.4932 0.9529
-11.4363 -2.8869 -2.4932 0.9529
-11.3762 -3.1160 -2.4933 0.9529
-11.2423 -3.5705 -2.4934 0.9529
-11.0903 -4.0193 -2.4935 0.9529
-11.0076 -4.2413 -2.4935 0.9529
-10.9205 -4.4617 -2.4936 0.9529
-10.6328 -5.1116 -2.4938 0.9529
-10.4196 -5.5348 -2.4939 0.9529
-10.1895 -5.9492 -2.4941 0.9529
-10.0683 -6.1529 -2.4942 0.9529
-9.9430 -6.3541 -2.4943 0.9529
-9.1092 -7.5052 -2.4949 0.9529
-8.9570 -7.6869 -2.4950 0.9529
-8.3126 -8.3825 -2.4954 0.9529
-7.9700 -8.7104 -2.4957 0.9529
-7.4322 -9.1760 -2.4960 0.9529
-7.2468 -9.3239 -2.4962 0.9529
-6.8672 -9.6085 -2.4964 0.9529
-6.6732 -9.7450 -2.4966 0.9529
-6.2771 -10.0062 -2.4969 0.9529
-6.0752 -10.1309 -2.4970 0.9529
-5.4551 -10.4802 -2.4974 0.9528
-5.0304 -10.6921 -2.4977 0.9528
-4.8149 -10.7917 -2.4979 0.9528
-4.3731 -10.9649 -2.4953 0.9529
-3.9249 -11.1195 -2.4926 0.9529
-3.6990 -11.1905 -2.4913 0.9530
-2.7297 -11.2084 -2.4385 0.9539
-2.4927 -11.2100 -2.4274 0.9541
-2.0246 -11.2128 -2.4085 0.9545
-1.1060 -11.2161 -2.3823 0.9550
-0.8790 -11.2164 -2.3782 0.9550
-0.6527 -11.2166 -2.3750 0.9551
-0.4268 -11.2167 -2.3727 0.9551
-0.2013 -11.2166 -2.3713 0.9552
0.0240 -11.2163 -2.3709 0.9552
0.2493 -11.2158 -2.3714 0.9552
0.7006 -11.2144 -2.3751 0.9551
1.8412 -11.2077 -2.4008 0.9546
2.0729 -11.2058 -2.4089 0.9545
2.3061 -11.2037 -2.4179 0.9543
2.5412 -11.2015 -2.4279 0.9541
3.0176 -11.1964 -2.4511 0.9537
3.2593 -11.1936 -2.4644 0.9535
3.5037 -11.1905 -2.4787 0.9532
3.7510 -11.1872 -2.4941 0.9529
3.9805 -11.1251 -2.4976 0.9528
4.2055 -11.0492 -2.4990 0.9528
4.8725 -10.7964 -2.5038 0.9527
5.3050 -10.5977 -2.5051 0.9527
5.5171 -10.4896 -2.5053 0.9527
5.7271 -10.3773 -2.5054 0.9527
5.9347 -10.2608 -2.5056 0.9527
6.3427 -10.0154 -2.5059 0.9527
6.7406 -9.7537 -2.5062 0.9527
6.9355 -9.6169 -2.5063 0.9527
7.5033 -9.1833 -2.5067 0.9527
9.1714 5.4560 -2.5081 0.9571
9.0597 5.6389 -2.5080 0.9571
8.7028 6.1736 -2.5077 0.9571
8.5767 6.3470 -2.5076 0.9571
7.7467 7.3275 -2.5061 0.9571
7.5901 7.4739 -2.5035 0.9572
6.2391 7.8333 -2.3536 0.9597
5.9189 8.0767 -2.3534 0.9597
5.7552 8.1936 -2.3532 0.9597
5.5892 8.3071 -2.3531 0.9597
5.4210 8.4172 -2.3530 0.9597
4.7269 8.8233 -2.3525 0.9597
4.5485 8.9160 -2.3524 0.9597
4.1863 9.0905 -2.3521 0.9597
3.6307 9.3245 -2.3517 0.9597
3.2529 9.4617 -2.3515 0.9597
3.0620 9.5246 -2.3513 0.9597
2.8699 9.5836 -2.3512 0.9597
2.4824 9.6900 -2.3509 0.9597
2.2872 9.7373 -2.3508 0.9597
1.6963 9.8556 -2.3504 0.9597
1.4979 9.8871 -2.3502 0.9597
1.2990 9.9146 -2.3501 0.9597
-0.1032 9.9946 -2.3491 0.9598
-0.9048 9.9516 -2.3485 0.9598
-1.3036 9.9060 -2.3482 0.9598
-1.5022 9.8772 -2.3481 0.9598
-1.7001 9.8445 -2.3479 0.9598
-1.8974 9.8078 -2.3478 0.9598
-2.0939 9.7671 -2.3476 0.9598
-2.2895 9.7225 -2.3475 0.9598
-2.4842 9.6739 -2.3474 0.9598
-2.8703 9.5652 -2.3471 0.9598
-3.4406 9.3734 -2.3467 0.9598
-3.1402 8.0515 -2.0311 0.9651
-3.8138 9.2266 -2.3464 0.9598
-3.9981 9.1476 -2.3463 0.9598
-4.1808 9.0650 -2.3461 0.9598
-4.7183 8.7953 -2.3458 0.9598
-4.8938 8.6983 -2.3456 0.9598
-5.0672 8.5978 -2.3455 0.9598
-5.2386 8.4938 -2.3454 0.9598
-5.4079 8.3865 -2.3453 0.9598
-5.5749 8.2757 -2.3451 0.9598
-5.7397 8.1617 -2.3450 0.9598
-5.9022 8.0444 -2.3449 0.9598
-6.0623 7.9238 -2.3448 0.9598
-6.2199 7.8001 -2.3447 0.9598
-6.4124 7.7183 -2.3583 0.9596
-6.9409 7.7027 -2.4369 0.9583
-7.2185 7.6943 -2.4796 0.9576
-7.4041 7.5810 -2.4905 0.9574
-7.5619 7.4377 -2.4928 0.9574
-8.1438 6.8147 -2.4957 0.9573
-8.4103 6.4816 -2.4955 0.9573
-8.6632 6.1382 -2.4953 0.9573
-8.7844 5.9627 -2.4952 0.9573
-8.9021 5.7849 -2.4951 0.9573
-9.0161 5.6047 -2.4951 0.9573
-9.1266 5.4223 -2.4950 0.9573
-9.4357 4.8624 -2.4947 0.9573
-9.6229 4.4793 -2.4946 0.9573
-9.9503 3.6922 -2.4944 0.9573
-10.0223 3.4915 -2.4943 0.9573
-10.2138 2.8815 -2.4942 0.9573
-10.2694 2.6757 -2.4941 0.9573
-10.3209 2.4689 -2.4941 0.9573
-10.5158 1.4216 -2.4939 0.9573
-10.5422 1.2101 -2.4939 0.9573
-10.5643 0.9981 -2.4939 0.9573
-10.5821 0.7857 -2.4939 0.9573
-10.5957 0.5730 -2.4939 0.9573
-10.6050 0.3601 -2.4939 0.9573
-10.6101 0.1470 -2.4939 0.9573
-10.6109 -0.0661 -2.4939 0.9573
-10.6074 -0.2792 -2.4939 0.9573
-10.5877 -0.7050 -2.4939 0.9573
-10.5509 -1.1297 -2.4939 0.9573
-10.5262 -1.3413 -2.4939 0.9573
-10.4972 -1.5525 -2.4939 0.9573
-10.3850 -2.1819 -2.4940 0.9573
-10.3392 -2.3901 -2.4940 0.9573
-10.2892 -2.5973 -2.4941 0.9573
-10.1769 -3.0085 -2.4941 0.9573
-10.1146 -3.2124 -2.4942 0.9573
-9.8250 -4.0141 -2.4944 0.9573
-9.5661 -4.5988 -2.4946 0.9573
-9.0581 -5.5355 -2.4949 0.9573
-8.9454 -5.7165 -2.4950 0.9573
-8.8290 -5.8952 -2.4951 0.9573
-8.7092 -6.0716 -2.4952 0.9573
-8.5857 -6.2455 -2.4952 0.9573
-8.1950 -6.7519 -2.4955 0.9573
-8.0580 -6.9154 -2.4956 0.9573
-7.9178 -7.0762 -2.4957 0.9573
-7.6279 -7.3890 -2.4959 0.9573
-6.8501 -8.1184 -2.4965 0.9573
-6.5191 -8.3877 -2.4967 0.9573
-6.3496 -8.5174 -2.4968 0.9573
-6.1776 -8.6436 -2.4969 0.9573
-6.0031 -8.7664 -2.4971 0.9573
-5.8261 -8.8856 -2.4972 0.9573
-5.6467 -9.0013 -2.4973 0.9573
-5.4651 -9.1134 -2.4974 0.9573
-5.2812 -9.2218 -2.4976 0.9573
-5.0952 -9.3265 -2.4977 0.9573
-4.7170 -9.5246 -2.4980 0.9573
-3.9383 -9.8746 -2.4985 0.9573
-3.5389 -10.0260 -2.4988 0.9573
-3.3370 -10.0956 -2.4990 0.9573
-3.1338 -10.1612 -2.4991 0.9572
-2.9292 -10.2227 -2.4992 0.9572
-2.7235 -10.2800 -2.4994 0.9572
-2.5166 -10.3333 -2.4995 0.9572
-2.0998 -10.4272 -2.4998 0.9572
-1.6796 -10.5044 -2.5001 0.9572
-1.2565 -10.5647 -2.5004 0.9572
-1.0441 -10.5884 -2.5006 0.9572
-0.4046 -10.6340 -2.5010 0.9572
-0.1910 -10.6407 -2.5012 0.9572
0.2365 -10.6411 -2.5015 0.9572
0.4502 -10.6348 -2.5017 0.9572
0.6638 -10.6243 -2.5018 0.9572
0.8771 -10.6095 -2.5020 0.9572
1.3026 -10.5669 -2.5023 0.9572
1.7262 -10.5074 -2.5026 0.9572
1.9370 -10.4712 -2.5027 0.9572
2.7718 -10.2845 -2.5033 0.9572
3.1829 -10.1660 -2.5036 0.9572
3.9895 -9.8801 -2.5042 0.9572
4.1874 -9.7985 -2.5043 0.9572
4.3836 -9.7130 -2.5045 0.9572
4.7706 -9.5302 -2.5048 0.9572
4.9614 -9.4329 -2.5049 0.9572
5.5213 -9.1185 -2.5053 0.9571
5.7036 -9.0062 -2.5054 0.9571
6.0613 -8.7708 -2.5057 0.9571
6.4094 -8.5212 -2.5059 0.9571
8.3230 4.9513 -2.5075 0.9608
8.2216 5.1173 -2.5074 0.9608
8.1169 5.2812 -2.5073 0.9608
8.0090 5.4430 -2.5072 0.9608
7.7834 5.7599 -2.5071 0.9608
7.6659 5.9149 -2.5070 0.9608
7.4217 6.2175 -2.5068 0.9608
7.1655 6.5101 -2.5066 0.9608
7.0330 6.6525 -2.5065 0.9608
6.7597 6.9290 -2.5064 0.9608
6.6189 7.0631 -2.5063 0.9608
6.4754 7.1944 -2.5062 0.9608
6.3271 7.3200 -2.5052 0.9608
6.0179 7.5555 -2.5009 0.9609
5.8601 7.6686 -2.4989 0.9609
5.6571 7.7195 -2.4780 0.9612
5.4263 7.7253 -2.4443 0.9617
4.9822 7.7359 -2.3824 0.9627
4.7705 7.7447 -2.3551 0.9631
4.2901 8.0079 -2.3522 0.9632
3.9646 8.1730 -2.3520 0.9632
3.7995 8.2505 -2.3518 0.9632
3.6328 8.3248 -2.3517 0.9632
3.4647 8.3956 -2.3516 0.9632
3.1245 8.5271 -2.3514 0.9632
2.7792 8.6448 -2.3511 0.9632
2.6048 8.6984 -2.3510 0.9632
2.4295 8.7485 -2.3509 0.9632
1.1791 8.9993 -2.3500 0.9632
0.8166 9.0383 -2.3497 0.9632
0.6349 9.0524 -2.3496 0.9632
0.2708 9.0696 -2.3493 0.9632
-0.2759 9.0680 -2.3489 0.9632
-0.4579 9.0601 -2.3488 0.9632
-0.6397 9.0486 -2.3487 0.9632
-0.8213 9.0334 -2.3486 0.9632
-1.0025 9.0146 -2.3484 0.9632
-1.1833 8.9921 -2.3483 0.9632
-1.3636 8.9660 -2.3482 0.9632
-1.5433 8.9363 -2.3480 0.9632
-1.7224 8.9031 -2.3479 0.9632
-1.9008 8.8662 -2.3478 0.9632
-2.0783 8.8257 -2.3476 0.9632
-2.4308 8.7342 -2.3474 0.9632
-2.7794 8.6286 -2.3471 0.9632
-2.9520 8.5706 -2.3470 0.9632
-3.1233 8.5091 -2.3469 0.9632
-3.1402 8.0515 -2.2376 0.9649
-3.6295 8.3043 -2.3465 0.9632
-3.7954 8.2293 -2.3464 0.9632
-4.1224 8.0695 -2.3462 0.9633
-4.6002 7.8054 -2.3458 0.9633
-4.9765 7.7175 -2.3776 0.9628
-5.1948 7.7115 -2.4074 0.9623
-5.4187 7.7053 -2.4390 0.9618
-5.6485 7.6987 -2.4723 0.9613
-5.8451 7.6400 -2.4907 0.9610
-6.0017 7.5265 -2.4925 0.9610
-6.1563 7.4100 -2.4943 0.9610
-7.0086 6.6219 -2.4965 0.9609
-7.1399 6.4795 -2.4964 0.9609
-7.2683 6.3346 -2.4963 0.9609
-7.3938 6.1871 -2.4962 0.9609
-7.5163 6.0371 -2.4961 0.9609
-7.6358 5.8847 -2.4960 0.9610
-7.7522 5.7300 -2.4960 0.9610
-8.3833 4.7555 -2.4955 0.9610
-8.5670 4.4148 -2.4954 0.9610
-8.6538 4.2417 -2.4953 0.9610
-8.7370 4.0670 -2.4952 0.9610
-8.8167 3.8906 -2.4952 0.9610
-8.8929 3.7126 -2.4951 0.9610
-9.1614 2.9867 -2.4949 0.9610
-9.2194 2.8020 -2.4949 0.9610
-9.2737 2.6163 -2.4948 0.9610
-9.3242 2.4294 -2.4948 0.9610
-9.5480 1.2907 -2.4946 0.9610
-9.5719 1.0987 -2.4946 0.9610
-9.6082 0.7134 -2.4946 0.9610
-9.6206 0.5203 -2.4946 0.9610
-9.6290 0.3269 -2.4946 0.9610
-9.6312 -0.2535 -2.4946 0.9610
-9.6242 -0.4469 -2.4946 0.9610
-9.6133 -0.6401 -2.4946 0.9610
-9.5985 -0.8331 -2.4946 0.9610
-9.5009 -1.6008 -2.4946 0.9610
-9.4670 -1.7913 -2.4947 0.9610
-9.4292 -1.9811 -2.4947 0.9610
-9.2402 -2.7316 -2.4948 0.9610
-9.1836 -2.9167 -2.4948 0.9610
-9.0594 -3.2833 -2.4949 0.9610
-8.9206 -3.6446 -2.4950 0.9610
-8.7674 -4.0001 -2.4951 0.9610
-8.6001 -4.3492 -2.4953 0.9610
-8.5112 -4.5211 -2.4953 0.9610
-8.4189 -4.6913 -2.4954 0.9610
-7.6800 -5.8260 -2.4959 0.9610
-7.5617 -5.9793 -2.4960 0.9610
-7.3159 -6.2786 -2.4962 0.9609
-7.1886 -6.4245 -2.4962 0.9609
-7.0584 -6.5678 -2.4963 0.9609
-6.7894 -6.8465 -2.4965 0.9609
-6.6508 -6.9818 -2.4966 0.9609
-6.0700 -7.4942 -2.4970 0.9609
-5.9185 -7.6150 -2.4971 0.9609
-5.7646 -7.7327 -2.4972 0.9609
-5.4499 -7.9586 -2.4975 0.9609
-5.2892 -8.0668 -2.4976 0.9609
-4.7945 -8.3719 -2.4979 0.9609
-4.4548 -8.5585 -2.4982 0.9609
-4.1079 -8.7314 -2.4984 0.9609
-3.5752 -8.9643 -2.4988 0.9609
-3.3946 -9.0348 -2.4989 0.9609
-3.0293 -9.1647 -2.4992 0.9609
-2.4723 -9.3320 -2.4996 0.9609
-2.2845 -9.3803 -2.4997 0.9609
-2.0958 -9.4248 -2.4999 0.9609
-1.7158 -9.5024 -2.5001 0.9609
-1.1406 -9.5900 -2.5005 0.9609
-0.9478 -9.6116 -2.5007 0.9609
-0.5611 -9.6429 -2.5009 0.9609
0.0207 -9.6608 -2.5014 0.9609
0.2147 -9.6590 -2.5015 0.9609
0.6025 -9.6437 -2.5018 0.9609
0.7961 -9.6301 -2.5019 0.9609
0.9894 -9.6127 -2.5021 0.9609
1.1824 -9.5915 -2.5022 0.9609
1.3748 -9.5663 -2.5023 0.9609
1.5668 -9.5373 -2.5025 0.9609
1.7581 -9.5044 -2.5026 0.9608
1.9488 -9.4677 -2.5027 0.9608
2.1387 -9.4272 -2.5029 0.9608
2.3277 -9.3828 -2.5030 0.9608
2.7029 -9.2828 -2.5033 0.9608
2.8890 -9.2271 -2.5034 0.9608
3.0739 -9.1677 -2.5036 0.9608
3.2575 -9.1046 -2.5037 0.9608
3.4399 -9.0378 -2.5038 0.9608
3.6209 -8.9674 -2.5039 0.9608
3.8005 -8.8933 -2.5041 0.9608
3.9786 -8.8156 -2.5042 0.9608
4.1550 -8.7344 -2.5043 0.9608
4.6742 -8.4696 -2.5047 0.9608
4.8436 -8.3744 -2.5048 0.9608
5.0110 -8.2758 -2.5049 0.9608
5.3399 -8.0687 -2.5052 0.9608
5.6601 -7.8484 -2.5054 0.9608
5.8169 -7.7335 -2.5055 0.9608
6.1233 -7.4943 -2.5058 0.9608
7.7002 4.3738 -2.5070 0.9639
7.5180 4.6793 -2.5069 0.9639
7.4223 4.8292 -2.5068 0.9639
7.3236 4.9772 -2.5067 0.9639
7.2220 5.1231 -2.5067 0.9639
7.0100 5.4088 -2.5065 0.9639
6.3076 6.2111 -2.5060 0.9639
5.9215 6.5789 -2.5057 0.9639
5.6521 6.8109 -2.5056 0.9639
5.5139 6.9228 -2.5055 0.9639
5.3735 7.0319 -2.5054 0.9639
4.7857 7.4308 -2.5021 0.9639
4.4776 7.6072 -2.4989 0.9640
4.3213 7.6909 -2.4974 0.9640
4.1340 7.7165 -2.4782 0.9643
3.5590 7.7283 -2.4087 0.9652
3.1921 7.7350 -2.3688 0.9658
3.0149 7.7430 -2.3523 0.9660
2.8574 7.7983 -2.3512 0.9661
2.5417 7.9060 -2.3509 0.9661
2.3822 7.9551 -2.3508 0.9661
2.2219 8.0009 -2.3507 0.9661
2.0606 8.0435 -2.3506 0.9661
1.8986 8.0829 -2.3505 0.9661
1.7358 8.1190 -2.3504 0.9661
1.5723 8.1518 -2.3503 0.9661
1.4082 8.1813 -2.3501 0.9661
1.2435 8.2076 -2.3500 0.9661
0.7469 8.2663 -2.3497 0.9661
0.4142 8.2888 -2.3494 0.9661
0.2476 8.2950 -2.3493 0.9661
0.0810 8.2979 -2.3492 0.9661
-0.2523 8.2936 -2.3490 0.9661
-0.4188 8.2864 -2.3488 0.9661
-1.2472 8.2006 -2.3482 0.9661
-1.4116 8.1735 -2.3481 0.9661
-1.7385 8.1094 -2.3479 0.9661
-2.5422 7.8923 -2.3473 0.9661
-2.8568 7.7831 -2.3471 0.9661
-3.1923 7.7231 -2.3658 0.9659
-3.3738 7.7193 -2.3849 0.9656
-4.1314 7.7013 -2.4741 0.9643
-4.4706 7.5855 -2.4926 0.9641
-4.6246 7.4983 -2.4940 0.9640
-5.0757 7.2175 -2.4979 0.9640
-5.2194 7.1138 -2.4978 0.9640
-5.5005 6.8979 -2.4976 0.9640
-5.7726 6.6709 -2.4974 0.9640
-5.9052 6.5533 -2.4973 0.9640
-6.1631 6.3104 -2.4971 0.9640
-6.2884 6.1852 -2.4970 0.9640
-6.4112 6.0574 -2.4969 0.9640
-6.5313 5.9272 -2.4968 0.9640
-6.6488 5.7946 -2.4968 0.9640
-6.9850 5.3832 -2.4965 0.9640
-7.0915 5.2416 -2.4964 0.9640
-7.3936 4.8046 -2.4962 0.9640
-7.5802 4.5036 -2.4961 0.9640
-7.9164 3.8803 -2.4958 0.9640
-7.9926 3.7204 -2.4958 0.9640
-8.1352 3.3963 -2.4957 0.9640
-8.2016 3.2322 -2.4956 0.9640
-8.2647 3.0667 -2.4956 0.9640
-8.3245 2.9001 -2.4955 0.9640
-8.4340 2.5633 -2.4954 0.9640
-8.4836 2.3934 -2.4954 0.9640
-8.5299 2.2225 -2.4954 0.9640
-8.6479 1.7047 -2.4953 0.9640
-8.6803 1.5307 -2.4953 0.9640
-8.7749 0.8290 -2.4952 0.9640
-8.7898 0.6526 -2.4952 0.9640
-8.8011 0.4759 -2.4952 0.9640
-8.8088 0.2991 -2.4951 0.9640
-8.8130 0.1221 -2.4951 0.9640
-8.8137 -0.0549 -2.4951 0.9640
-8.8044 -0.4088 -2.4951 0.9640
-8.7944 -0.5856 -2.4952 0.9640
-8.6916 -1.4644 -2.4952 0.9640
-8.6259 -1.8124 -2.4953 0.9640
-8.5879 -1.9852 -2.4953 0.9640
-8.2876 -3.0036 -2.4955 0.9640
-8.0204 -3.6593 -2.4957 0.9640
-7.7015 -4.2915 -2.4959 0.9640
-7.6140 -4.4455 -2.4960 0.9640
-7.5233 -4.5976 -2.4960 0.9640
-7.3330 -4.8963 -2.4962 0.9640
-7.2334 -5.0428 -2.4962 0.9640
-7.1309 -5.1872 -2.4963 0.9640
-6.5759 -5.8769 -2.4967 0.9640
-6.4567 -6.0080 -2.4968 0.9640
-6.3350 -6.1367 -2.4969 0.9640
-5.4139 -6.9657 -2.4975 0.9640
-5.1302 -7.1781 -2.4977 0.9640
-4.6892 -7.4750 -2.4980 0.9640
-4.5383 -7.5679 -2.4981 0.9640
-4.3856 -7.6579 -2.4982 0.9640
-4.2311 -7.7448 -2.4983 0.9640
-3.9170 -7.9092 -2.4986 0.9640
-3.4341 -8.1318 -2.4989 0.9640
-3.1050 -8.2639 -2.4991 0.9640
-2.9385 -8.3250 -2.4993 0.9640
-2.6021 -8.4371 -2.4995 0.9640
-2.4322 -8.4881 -2.4996 0.9640
-2.2613 -8.5357 -2.4997 0.9640
-1.5693 -8.6913 -2.5002 0.9640
-1.3945 -8.7215 -2.5004 0.9639
-1.2191 -8.7482 -2.5005 0.9639
-0.8669 -8.7910 -2.5007 0.9639
-0.6901 -8.8071 -2.5009 0.9639
-0.5132 -8.8196 -2.5010 0.9639
-0.1586 -8.8340 -2.5012 0.9639
0.1964 -8.8341 -2.5015 0.9639
0.5510 -8.8200 -2.5018 0.9639
0.9049 -8.7917 -2.5020 0.9639
1.0814 -8.7722 -2.5021 0.9639
1.7823 -8.6588 -2.5026 0.9639
1.9559 -8.6217 -2.5028 0.9639
2.1288 -8.5811 -2.5029 0.9639
2.4719 -8.4895 -2.5031 0.9639
2.6421 -8.4386 -2.5033 0.9639
2.8112 -8.3842 -2.5034 0.9639
2.9791 -8.3265 -2.5035 0.9639
3.1459 -8.2653 -2.5036 0.9639
3.3114 -8.2009 -2.5037 0.9639
3.7998 -7.9877 -2.5041 0.9639
4.2746 -7.7454 -2.5044 0.9639
4.7339 -7.4749 -2.5048 0.9639
4.8833 -7.3787 -2.5049 0.9639
5.0307 -7.2794 -2.5050 0.9639
5.3194 -7.0721 -2.5052 0.9639
5.4606 -6.9641 -2.5053 0.9639
5.5996 -6.8533 -2.5054 0.9639
6.6459 4.7145 -2.5062 0.9665
6.4509 4.9773 -2.5061 0.9665
6.3494 5.1058 -2.5060 0.9665
6.2454 5.2321 -2.5060 0.9665
5.9185 5.5982 -2.5057 0.9665
5.8046 5.7158 -2.5057 0.9665
5.6885 5.8310 -2.5056 0.9665
5.4494 6.0544 -2.5054 0.9665
4.9452 6.4713 -2.5050 0.9665
4.8140 6.5690 -2.5050 0.9665
4.6809 6.6641 -2.5049 0.9665
4.5460 6.7565 -2.5048 0.9665
4.4092 6.8462 -2.5047 0.9665
4.2706 6.9331 -2.5046 0.9665
4.1303 7.0172 -2.5045 0.9665
3.8449 7.1769 -2.5043 0.9665
3.5518 7.3219 -2.5031 0.9665
3.2517 7.4515 -2.5006 0.9665
2.9472 7.5693 -2.4984 0.9666
2.6387 7.6753 -2.4964 0.9666
1.1703 7.7247 -2.4031 0.9678
0.3862 7.7275 -2.3798 0.9681
0.0754 7.7274 -2.3769 0.9682
-0.2351 7.7267 -2.3777 0.9682
-0.3905 7.7261 -2.3794 0.9681
-1.3330 7.7187 -2.4092 0.9678
-1.4929 7.7169 -2.4175 0.9676
-2.3120 7.7048 -2.4742 0.9669
-2.4808 7.7017 -2.4888 0.9667
-2.6391 7.6624 -2.4927 0.9667
-2.7934 7.6102 -2.4934 0.9666
-2.9466 7.5550 -2.4943 0.9666
-3.2500 7.4360 -2.4960 0.9666
-3.4000 7.3721 -2.4970 0.9666
-3.5488 7.3052 -2.4980 0.9666
-3.9833 7.0801 -2.4987 0.9666
-4.2641 6.9138 -2.4985 0.9666
-4.5380 6.7365 -2.4983 0.9666
-4.6722 6.6437 -2.4982 0.9666
-4.8045 6.5483 -2.4981 0.9666
-5.0632 6.3496 -2.4979 0.9666
-5.3137 6.1406 -2.4977 0.9666
-6.0122 5.4562 -2.4972 0.9666
-6.1204 5.3341 -2.4971 0.9666
-6.4300 4.9554 -2.4969 0.9666
-6.6234 4.6929 -2.4968 0.9666
-6.7161 4.5588 -2.4967 0.9666
-6.8062 4.4229 -2.4966 0.9666
-7.1385 3.8620 -2.4964 0.9666
-7.2875 3.5721 -2.4963 0.9666
-7.3577 3.4249 -2.4962 0.9666
-7.4248 3.2764 -2.4962 0.9666
-7.4890 3.1265 -2.4961 0.9666
-7.5501 2.9754 -2.4961 0.9666
-7.6082 2.8231 -2.4960 0.9666
-7.6633 2.6697 -2.4960 0.9666
-7.7152 2.5152 -2.4960 0.9666
-7.8098 2.2033 -2.4959 0.9666
-7.8524 2.0459 -2.4959 0.9666
-7.9280 1.7289 -2.4958 0.9666
-7.9909 1.4091 -2.4957 0.9666
-8.0175 1.2483 -2.4957 0.9666
-8.0780 0.7632 -2.4957 0.9666
-8.1092 0.2753 -2.4956 0.9666
-8.1137 -0.0506 -2.4956 0.9666
-8.1110 -0.2135 -2.4956 0.9666
-8.0959 -0.5391 -2.4957 0.9666
-8.0835 -0.7016 -2.4957 0.9666
-8.0013 -1.3481 -2.4957 0.9666
-7.8676 -1.9860 -2.4958 0.9666
-7.7816 -2.3004 -2.4959 0.9666
-7.6832 -2.6112 -2.4959 0.9666
-7.5123 -3.0693 -2.4960 0.9666
-7.3143 -3.5163 -2.4962 0.9666
-7.2423 -3.6625 -2.4962 0.9666
-7.1674 -3.8073 -2.4963 0.9666
-6.8394 -4.3707 -2.4965 0.9666
-6.7504 -4.5073 -2.4966 0.9666
-6.6587 -4.6421 -2.4966 0.9666
-6.3676 -5.0351 -2.4968 0.9666
-6.2653 -5.1621 -2.4969 0.9666
-6.0533 -5.4099 -2.4971 0.9666
-5.4813 -5.9905 -2.4975 0.9666
-5.3601 -6.0996 -2.4976 0.9666
-5.2367 -6.2062 -2.4976 0.9666
-4.9835 -6.4120 -2.4978 0.9666
-4.8539 -6.5110 -2.4979 0.9666
-4.7224 -6.6074 -2.4980 0.9666
-4.0369 -7.0490 -2.4985 0.9666
-3.8947 -7.1289 -2.4986 0.9666
-3.4587 -7.3514 -2.4989 0.9666
-3.3105 -7.4197 -2.4990 0.9666
-2.5504 -7.7159 -2.4995 0.9666
-2.0814 -7.8566 -2.4999 0.9666
-1.9233 -7.8972 -2.5000 0.9666
-1.7644 -7.9345 -2.5001 0.9666
-1.6047 -7.9688 -2.5002 0.9666
-1.4444 -7.9997 -2.5003 0.9666
-1.1221 -8.0520 -2.5006 0.9665
-0.9602 -8.0733 -2.5007 0.9665
-0.7979 -8.0914 -2.5008 0.9665
-0.4723 -8.1176 -2.5010 0.9665
0.0174 -8.1325 -2.5014 0.9665
0.3440 -8.1260 -2.5016 0.9665
0.5072 -8.1178 -2.5017 0.9665
0.6702 -8.1064 -2.5018 0.9665
0.9953 -8.0737 -2.5021 0.9665
1.3188 -8.0279 -2.5023 0.9665
2.8953 -7.6068 -2.5034 0.9665
3.1987 -7.4851 -2.5037 0.9665
3.3486 -7.4196 -2.5038 0.9665
3.4971 -7.3512 -2.5039 0.9665
3.6441 -7.2798 -2.5040 0.9665
4.0764 -7.0480 -2.5043 0.9665
4.2173 -6.9650 -2.5044 0.9665
4.7635 -6.6051 -2.5048 0.9665
5.0253 -6.4089 -2.5050 0.9665
5.1532 -6.3070 -2.5051 0.9665
6.3192 4.1115 -2.5060 0.9687
6.2352 4.2375 -2.5059 0.9687
6.1487 4.3618 -2.5059 0.9687
6.0597 4.4843 -2.5058 0.9687
5.7782 4.8407 -2.5056 0.9687
5.6796 4.9556 -2.5056 0.9687
5.4757 5.1794 -2.5054 0.9687
5.1534 5.4993 -2.5052 0.9687
5.0417 5.6015 -2.5051 0.9687
4.8124 5.7991 -2.5049 0.9687
4.4540 6.0778 -2.5047 0.9687
3.9513 6.4147 -2.5043 0.9687
3.8215 6.4925 -2.5042 0.9687
3.6902 6.5677 -2.5042 0.9687
3.4232 6.7101 -2.5040 0.9687
3.1507 6.8417 -2.5038 0.9687
2.8732 6.9621 -2.5036 0.9688
2.7326 7.0181 -2.5035 0.9688
2.5910 7.0713 -2.5034 0.9688
2.4484 7.1217 -2.5033 0.9688
2.0148 7.2553 -2.5030 0.9688
1.7209 7.3264 -2.5016 0.9688
1.5730 7.3576 -2.5010 0.9688
1.2756 7.4115 -2.4998 0.9688
0.9766 7.4539 -2.4989 0.9688
0.8266 7.4708 -2.4985 0.9688
0.6762 7.4849 -2.4981 0.9688
0.5257 7.4960 -2.4978 0.9688
0.0733 7.5122 -2.4972 0.9688
-0.2284 7.5086 -2.4971 0.9688
-0.8304 7.4669 -2.4973 0.9688
-0.9803 7.4493 -2.4975 0.9688
-1.1298 7.4288 -2.4978 0.9688
-1.8703 7.2836 -2.4997 0.9688
-2.1616 7.2035 -2.5000 0.9688
-2.3058 7.1584 -2.4999 0.9688
-2.4490 7.1103 -2.4998 0.9688
-2.5912 7.0594 -2.4997 0.9688
-3.0112 6.8897 -2.4994 0.9688
-3.1489 6.8276 -2.4993 0.9688
-3.2852 6.7627 -2.4992 0.9688
-3.4203 6.6951 -2.4991 0.9688
-3.6861 6.5518 -2.4989 0.9688
-3.8168 6.4762 -2.4988 0.9688
-3.9460 6.3980 -2.4987 0.9688
-4.0735 6.3172 -2.4986 0.9688
-4.1994 6.2339 -2.4985 0.9688
-4.3236 6.1481 -2.4984 0.9688
-4.4461 6.0598 -2.4983 0.9688
-4.9174 5.6826 -2.4980 0.9688
-5.1413 5.4802 -2.4978 0.9688
-5.5639 5.0493 -2.4975 0.9688
-5.6640 4.9363 -2.4974 0.9688
-5.9505 4.5859 -2.4972 0.9688
-6.0413 4.4654 -2.4972 0.9688
-6.1296 4.3430 -2.4971 0.9688
-6.2154 4.2189 -2.4970 0.9688
-6.2987 4.0932 -2.4970 0.9688
-6.3795 3.9657 -2.4969 0.9688
-6.6063 3.5741 -2.4968 0.9688
-6.6766 3.4406 -2.4967 0.9688
-6.8092 3.1696 -2.4966 0.9688
-6.9307 2.8935 -2.4965 0.9688
-6.9873 2.7536 -2.4965 0.9688
-7.0411 2.6127 -2.4964 0.9688
-7.0921 2.4707 -2.4964 0.9688
-7.1401 2.3278 -2.4964 0.9688
-7.1854 2.1838 -2.4963 0.9688
-7.2277 2.0390 -2.4963 0.9688
-7.3371 1.6000 -2.4962 0.9688
-7.3677 1.4523 -2.4962 0.9688
-7.3953 1.3040 -2.4962 0.9688
-7.4200 1.1553 -2.4962 0.9688
-7.4603 0.8563 -2.4961 0.9688
-7.4759 0.7063 -2.4961 0.9688
-7.4886 0.5560 -2.4961 0.9688
-7.4982 0.4055 -2.4961 0.9688
-7.5048 0.2548 -2.4961 0.9688
-7.5084 0.1040 -2.4961 0.9688
-7.5090 -0.0468 -2.4961 0.9688
-7.5065 -0.1976 -2.4961 0.9688
-7.4925 -0.4989 -2.4961 0.9688
-7.4810 -0.6493 -2.4961 0.9688
-7.4490 -0.9492 -2.4961 0.9688
-7.4285 -1.0987 -2.4961 0.9688
-7.3784 -1.3961 -2.4962 0.9688
-7.2429 -1.9839 -2.4962 0.9688
-7.1575 -2.2732 -2.4963 0.9688
-7.1105 -2.4165 -2.4963 0.9688
-7.0606 -2.5589 -2.4964 0.9688
-7.0079 -2.7002 -2.4964 0.9688
-6.9524 -2.8405 -2.4964 0.9688
-6.8940 -2.9796 -2.4965 0.9688
-6.8329 -3.1175 -2.4965 0.9688
-6.3295 -4.0448 -2.4969 0.9688
-6.2471 -4.1713 -2.4969 0.9688
-6.0748 -4.4190 -2.4971 0.9688
-5.9850 -4.5402 -2.4971 0.9688
-5.7982 -4.7772 -2.4973 0.9688
-5.7012 -4.8928 -2.4973 0.9688
-5.5004 -5.1181 -2.4975 0.9688
-5.0725 -5.5437 -2.4978 0.9688
-4.8461 -5.7433 -2.4979 0.9688
-4.4919 -6.0254 -2.4982 0.9688
-4.3701 -6.1146 -2.4983 0.9688
-4.2466 -6.2013 -2.4983 0.9688
-4.1213 -6.2856 -2.4984 0.9688
-3.9944 -6.3673 -2.4985 0.9688
-3.7357 -6.5231 -2.4987 0.9688
-3.6041 -6.5970 -2.4988 0.9688
-3.4710 -6.6684 -2.4989 0.9688
-3.3365 -6.7370 -2.4990 0.9688
-3.2006 -6.8029 -2.4991 0.9688
-3.0635 -6.8661 -2.4992 0.9688
-2.6447 -7.0389 -2.4995 0.9688
-2.5029 -7.0909 -2.4996 0.9688
-2.3601 -7.1401 -2.4997 0.9688
-1.9261 -7.2701 -2.5000 0.9688
-1.1877 -7.4282 -2.5005 0.9688
-0.5878 -7.5008 -2.5010 0.9688
0.0161 -7.5251 -2.5014 0.9688
0.1672 -7.5236 -2.5015 0.9688
0.4693 -7.5114 -2.5017 0.9688
0.6201 -7.5008 -2.5018 0.9688
0.7707 -7.4872 -2.5019 0.9688
1.3693 -7.4024 -2.5024 0.9688
1.5178 -7.3737 -2.5025 0.9688
1.8128 -7.3075 -2.5027 0.9688
1.9593 -7.2699 -2.5028 0.9688
2.1050 -7.2294 -2.5029 0.9688
2.3939 -7.1396 -2.5031 0.9688
2.5369 -7.0904 -2.5032 0.9688
2.6789 -7.0383 -2.5033 0.9688
2.9596 -6.9256 -2.5035 0.9688
3.0982 -6.8650 -2.5036 0.9688
3.5064 -6.6667 -2.5039 0.9687
4.0308 -6.3648 -2.5043 0.9687
4.2835 -6.1982 -2.5044 0.9687
4.4073 -6.1112 -2.5045 0.9687
4.5293 -6.0216 -2.5046 0.9687
4.6494 -5.9296 -2.5047 0.9687
4.7678 -5.8353 -2.5048 0.9687
6.0929 3.4609 -2.5058 0.9707
5.9488 3.7026 -2.5057 0.9707
5.8731 3.8213 -2.5057 0.9707
5.7950 3.9384 -2.5056 0.9707
5.7146 4.0539 -2.5056 0.9707
5.2788 4.6058 -2.5053 0.9707
5.0892 4.8138 -2.5051 0.9707
4.9914 4.9150 -2.5051 0.9707
4.5803 5.2991 -2.5048 0.9707
4.3635 5.4785 -2.5046 0.9707
4.2525 5.5648 -2.5045 0.9707
4.1397 5.6489 -2.5045 0.9707
4.0253 5.7307 -2.5044 0.9707
3.6725 5.9621 -2.5041 0.9707
3.4299 6.1044 -2.5040 0.9707
3.0557 6.2992 -2.5037 0.9707
2.8000 6.4164 -2.5035 0.9707
2.6705 6.4711 -2.5034 0.9707
2.5399 6.5232 -2.5033 0.9707
2.2757 6.6194 -2.5031 0.9707
2.1422 6.6636 -2.5030 0.9707
1.8727 6.7437 -2.5029 0.9707
1.6003 6.8129 -2.5027 0.9707
1.4631 6.8434 -2.5026 0.9707
1.3253 6.8712 -2.5025 0.9707
1.0482 6.9183 -2.5023 0.9707
0.4895 6.9790 -2.5019 0.9707
0.2088 6.9925 -2.5017 0.9707
0.0683 6.9949 -2.5016 0.9707
-0.2127 6.9915 -2.5014 0.9707
-0.6333 6.9652 -2.5011 0.9707
-1.3281 6.8652 -2.5006 0.9707
-1.6027 6.8058 -2.5004 0.9707
-1.8745 6.7354 -2.5002 0.9707
-2.1434 6.6542 -2.5000 0.9707
-2.4087 6.5622 -2.4998 0.9707
-2.5399 6.5123 -2.4997 0.9707
-2.6701 6.4597 -2.4996 0.9707
-2.9271 6.3468 -2.4994 0.9707
-3.0539 6.2865 -2.4993 0.9707
-3.1794 6.2237 -2.4992 0.9707
-3.3037 6.1583 -2.4991 0.9707
-3.4266 6.0905 -2.4991 0.9707
-3.7868 5.8725 -2.4988 0.9708
-4.1331 5.6332 -2.4985 0.9708
-4.3557 5.4624 -2.4984 0.9708
-4.4644 5.3736 -2.4983 0.9708
-4.5713 5.2827 -2.4982 0.9708
-4.6763 5.1896 -2.4982 0.9708
-4.7795 5.0945 -2.4981 0.9708
-4.8807 4.9973 -2.4980 0.9708
-4.9800 4.8982 -2.4979 0.9708
-5.1724 4.6940 -2.4978 0.9708
-5.5318 4.2633 -2.4975 0.9708
-5.7781 3.9221 -2.4974 0.9708
-5.9307 3.6867 -2.4972 0.9708
-6.0737 3.4454 -2.4971 0.9708
-6.1416 3.3227 -2.4971 0.9708
-6.3302 2.9466 -2.4969 0.9708
-6.4432 2.6899 -2.4969 0.9708
-6.4958 2.5599 -2.4968 0.9708
-6.5458 2.4289 -2.4968 0.9708
-6.5932 2.2969 -2.4968 0.9708
-6.6379 2.1640 -2.4967 0.9708
-6.6800 2.0302 -2.4967 0.9708
-6.7193 1.8956 -2.4967 0.9708
-6.7899 1.6242 -2.4966 0.9708
-6.8210 1.4875 -2.4966 0.9708
-6.8752 1.2123 -2.4965 0.9708
-6.9182 0.9352 -2.4965 0.9708
-6.9356 0.7961 -2.4965 0.9708
-6.9501 0.6566 -2.4965 0.9708
-6.9619 0.5169 -2.4965 0.9708
-6.9708 0.3770 -2.4965 0.9708
-6.9803 0.0967 -2.4965 0.9708
-6.9786 -0.1837 -2.4965 0.9708
-6.9735 -0.3238 -2.4965 0.9708
-6.9549 -0.6036 -2.4965 0.9708
-6.9414 -0.7432 -2.4965 0.9708
-6.9251 -0.8825 -2.4965 0.9708
-6.9060 -1.0214 -2.4965 0.9708
-6.8841 -1.1599 -2.4965 0.9708
-6.8595 -1.2979 -2.4965 0.9708
-6.8321 -1.4355 -2.4965 0.9708
-6.7690 -1.7087 -2.4966 0.9708
-6.7334 -1.8443 -2.4966 0.9708
-6.6951 -1.9792 -2.4966 0.9708
-6.6541 -2.1133 -2.4967 0.9708
-6.5150 -2.5103 -2.4968 0.9708
-6.4633 -2.6407 -2.4968 0.9708
-6.3523 -2.8982 -2.4969 0.9708
-6.2929 -3.0252 -2.4969 0.9708
-6.1665 -3.2756 -2.4970 0.9708
-6.0996 -3.3989 -2.4971 0.9708
-6.0302 -3.5208 -2.4971 0.9708
-5.9584 -3.6413 -2.4971 0.9708
-5.8842 -3.7603 -2.4972 0.9708
-5.7287 -3.9937 -2.4973 0.9708
-5.6474 -4.1081 -2.4974 0.9708
-5.2077 -4.6542 -2.4977 0.9708
-4.8179 -5.0577 -2.4979 0.9708
-4.7155 -5.1536 -2.4980 0.9708
-4.6112 -5.2474 -2.4981 0.9708
-4.5050 -5.3391 -2.4982 0.9708
-4.3970 -5.4287 -2.4982 0.9708
-4.2872 -5.5161 -2.4983 0.9708
-4.1757 -5.6012 -2.4984 0.9708
-3.9476 -5.7648 -2.4986 0.9708
-3.8312 -5.8431 -2.4986 0.9708
-3.7132 -5.9191 -2.4987 0.9708
-3.5937 -5.9927 -2.4988 0.9708
-3.1016 -6.2626 -2.4992 0.9707
-2.9752 -6.3239 -2.4993 0.9707
-2.5893 -6.4923 -2.4995 0.9707
-2.4585 -6.5432 -2.4996 0.9707
-2.3267 -6.5915 -2.4997 0.9707
-1.9257 -6.7205 -2.5000 0.9707
-1.5177 -6.8250 -2.5003 0.9707
-1.2424 -6.8810 -2.5005 0.9707
-0.9652 -6.9259 -2.5007 0.9707
-0.8259 -6.9442 -2.5008 0.9707
-0.2659 -6.9892 -2.5012 0.9707
-0.1255 -6.9934 -2.5013 0.9707
0.0150 -6.9948 -2.5014 0.9707
0.1555 -6.9934 -2.5015 0.9707
0.5764 -6.9721 -2.5018 0.9707
0.8560 -6.9439 -2.5020 0.9707
0.9953 -6.9256 -2.5021 0.9707
1.1343 -6.9045 -2.5022 0.9707
1.4108 -6.8539 -2.5024 0.9707
1.5482 -6.8245 -2.5025 0.9707
1.6850 -6.7923 -2.5026 0.9707
1.8212 -6.7573 -2.5027 0.9707
1.9566 -6.7196 -2.5028 0.9707
2.0912 -6.6792 -2.5029 0.9707
2.3580 -6.5904 -2.5031 0.9707
2.4900 -6.5419 -2.5032 0.9707
2.8797 -6.3808 -2.5034 0.9707
3.3830 -6.1300 -2.5038 0.9707
3.5056 -6.0610 -2.5039 0.9707
3.7465 -5.9158 -2.5041 0.9707
3.9813 -5.7609 -2.5042 0.9707
4.2097 -5.5968 -2.5044 0.9707
4.3214 -5.5113 -2.5045 0.9707
4.4314 -5.4235 -2.5046 0.9707
5.4072 3.6748 -2.5054 0.9724
5.3321 3.7825 -2.5053 0.9724
5.2550 3.8888 -2.5052 0.9724
5.0109 4.1979 -2.5051 0.9724
4.9255 4.2976 -2.5050 0.9724
4.8380 4.3955 -2.5050 0.9724
4.7487 4.4917 -2.5049 0.9724
4.2738 4.9445 -2.5046 0.9724
4.1735 5.0292 -2.5045 0.9724
4.0716 5.1119 -2.5044 0.9724
3.8627 5.2710 -2.5043 0.9724
3.7560 5.3473 -2.5042 0.9724
3.6477 5.4215 -2.5041 0.9724
3.3143 5.6308 -2.5039 0.9724
2.8513 5.8779 -2.5035 0.9724
2.6128 5.9872 -2.5034 0.9724
1.8736 6.2566 -2.5029 0.9724
1.6207 6.3264 -2.5027 0.9724
1.4933 6.3574 -2.5026 0.9724
1.3652 6.3859 -2.5025 0.9724
1.2367 6.4118 -2.5024 0.9724
1.1076 6.4351 -2.5023 0.9724
0.7180 6.4894 -2.5020 0.9724
0.5875 6.5022 -2.5019 0.9724
0.1948 6.5251 -2.5017 0.9724
0.0637 6.5275 -2.5016 0.9724
-0.1985 6.5243 -2.5014 0.9724
-0.4603 6.5105 -2.5012 0.9724
-0.5909 6.4997 -2.5011 0.9724
-0.7213 6.4863 -2.5010 0.9724
-0.8515 6.4703 -2.5009 0.9724
-1.2394 6.4065 -2.5006 0.9724
-1.6228 6.3196 -2.5004 0.9724
-1.8751 6.2489 -2.5002 0.9724
-2.0002 6.2097 -2.5001 0.9724
-2.2478 6.1240 -2.4999 0.9724
-2.6123 5.9768 -2.4996 0.9724
-2.7317 5.9229 -2.4996 0.9724
-2.8500 5.8667 -2.4995 0.9724
-3.4233 5.5505 -2.4991 0.9725
-3.5339 5.4804 -2.4990 0.9725
-3.6432 5.4082 -2.4989 0.9725
-3.9619 5.1785 -2.4987 0.9725
-4.0650 5.0977 -2.4986 0.9725
-4.5550 4.6638 -2.4982 0.9725
-4.6476 4.5712 -2.4982 0.9725
-4.7383 4.4769 -2.4981 0.9725
-4.9140 4.2828 -2.4980 0.9725
-5.2414 3.8742 -2.4977 0.9725
-5.3180 3.7680 -2.4977 0.9725
-5.6028 3.3288 -2.4975 0.9725
-5.9078 2.7500 -2.4972 0.9725
-5.9618 2.6308 -2.4972 0.9725
-6.0133 2.5105 -2.4972 0.9725
-6.2343 1.8948 -2.4970 0.9725
-6.2710 1.7692 -2.4970 0.9725
-6.3926 1.2601 -2.4969 0.9725
-6.4165 1.1315 -2.4969 0.9725
-6.4567 0.8728 -2.4968 0.9725
-6.5058 0.3518 -2.4968 0.9725
-6.5116 0.2211 -2.4968 0.9725
-6.5131 -0.1715 -2.4968 0.9725
-6.5009 -0.4329 -2.4968 0.9725
-6.4909 -0.5634 -2.4968 0.9725
-6.4783 -0.6936 -2.4968 0.9725
-6.4631 -0.8236 -2.4968 0.9725
-6.3763 -1.3397 -2.4969 0.9725
-6.3482 -1.4675 -2.4969 0.9725
-6.3175 -1.5947 -2.4969 0.9725
-6.2842 -1.7213 -2.4969 0.9725
-6.2102 -1.9723 -2.4970 0.9725
-6.1694 -2.0967 -2.4970 0.9725
-6.0803 -2.3428 -2.4971 0.9725
-5.9815 -2.5852 -2.4971 0.9725
-5.9285 -2.7048 -2.4972 0.9725
-5.8730 -2.8234 -2.4972 0.9725
-5.7551 -3.0571 -2.4973 0.9725
-5.6926 -3.1721 -2.4973 0.9725
-5.6279 -3.2859 -2.4974 0.9725
-5.5608 -3.3983 -2.4974 0.9725
-5.4916 -3.5094 -2.4975 0.9725
-5.4201 -3.6190 -2.4975 0.9725
-5.3464 -3.7272 -2.4976 0.9725
-5.1126 -4.0427 -2.4977 0.9725
-5.0305 -4.1447 -2.4978 0.9725
-4.9463 -4.2450 -2.4979 0.9725
-4.5901 -4.6287 -2.4981 0.9725
-4.4008 -4.8096 -2.4983 0.9725
-4.2043 -4.9827 -2.4984 0.9725
-4.1035 -5.0663 -2.4985 0.9725
-4.0010 -5.1479 -2.4985 0.9725
-3.6841 -5.3800 -2.4988 0.9725
-3.3537 -5.5926 -2.4990 0.9725
-2.8944 -5.8445 -2.4993 0.9724
-2.7766 -5.9016 -2.4994 0.9724
-2.6576 -5.9564 -2.4995 0.9724
-2.2943 -6.1062 -2.4997 0.9724
-2.1713 -6.1513 -2.4998 0.9724
-1.7971 -6.2716 -2.5001 0.9724
-1.6708 -6.3066 -2.5002 0.9724
-1.4163 -6.3691 -2.5004 0.9724
-1.1594 -6.4213 -2.5006 0.9724
-0.2482 -6.5221 -2.5012 0.9724
-0.1171 -6.5260 -2.5013 0.9724
0.0140 -6.5273 -2.5014 0.9724
0.1451 -6.5260 -2.5015 0.9724
0.2761 -6.5220 -2.5016 0.9724
0.4071 -6.5154 -2.5017 0.9724
1.0584 -6.4429 -2.5021 0.9724
1.1877 -6.4206 -2.5022 0.9724
1.4447 -6.3682 -2.5024 0.9724
1.5723 -6.3381 -2.5025 0.9724
1.8258 -6.2703 -2.5027 0.9724
2.0763 -6.1924 -2.5029 0.9724
2.4457 -6.0568 -2.5031 0.9724
2.5669 -6.0066 -2.5032 0.9724
2.9243 -5.8417 -2.5035 0.9724
3.2711 -5.6556 -2.5037 0.9724
3.3841 -5.5889 -2.5038 0.9724
3.7149 -5.3755 -2.5040 0.9724
3.8223 -5.3000 -2.5041 0.9724
4.0323 -5.1425 -2.5043 0.9724
5.2607 3.1295 -2.5052 0.9739
5.1967 3.2345 -2.5052 0.9739
4.9922 3.5414 -2.5051 0.9739
4.7695 3.8353 -2.5049 0.9739
4.4459 4.2054 -2.5047 0.9739
4.3605 4.2937 -2.5046 0.9739
4.1843 4.4652 -2.5045 0.9739
4.0937 4.5482 -2.5044 0.9739
4.0014 4.6294 -2.5044 0.9739
3.9075 4.7087 -2.5043 0.9739
3.8121 4.7861 -2.5042 0.9739
3.5166 5.0065 -2.5040 0.9739
3.4152 5.0760 -2.5039 0.9739
3.1031 5.2720 -2.5037 0.9739
2.9965 5.3331 -2.5036 0.9739
2.8887 5.3920 -2.5036 0.9739
2.5585 5.5557 -2.5033 0.9739
2.4463 5.6058 -2.5033 0.9739
2.2191 5.6991 -2.5031 0.9739
1.9883 5.7833 -2.5029 0.9739
1.7543 5.8581 -2.5028 0.9739
1.6362 5.8919 -2.5027 0.9739
1.2783 5.9792 -2.5024 0.9739
1.0371 6.0253 -2.5022 0.9739
0.9158 6.0447 -2.5022 0.9739
0.7942 6.0616 -2.5021 0.9739
0.1824 6.1096 -2.5016 0.9739
0.0597 6.1119 -2.5016 0.9739
-0.0631 6.1116 -2.5015 0.9739
-0.1858 6.1089 -2.5014 0.9739
-0.4310 6.0961 -2.5012 0.9739
-0.6754 6.0734 -2.5010 0.9739
-0.7972 6.0584 -2.5009 0.9739
-0.9187 6.0410 -2.5009 0.9739
-1.0398 6.0211 -2.5008 0.9739
-1.1605 5.9988 -2.5007 0.9739
-1.5195 5.9174 -2.5004 0.9739
-1.8729 5.8146 -2.5002 0.9739
-1.9893 5.7756 -2.5001 0.9739
-2.2195 5.6907 -2.4999 0.9739
-2.3332 5.6448 -2.4998 0.9739
-2.4461 5.5966 -2.4998 0.9739
-2.5579 5.5461 -2.4997 0.9739
-2.8870 5.3815 -2.4994 0.9740
-3.1006 5.2609 -2.4993 0.9740
-3.2055 5.1974 -2.4992 0.9740
-3.3092 5.1318 -2.4991 0.9740
-3.5124 4.9945 -2.4990 0.9740
-3.6119 4.9228 -2.4989 0.9740
-3.7099 4.8491 -2.4988 0.9740
-3.8065 4.7735 -2.4988 0.9740
-3.9949 4.6165 -2.4986 0.9740
-4.0867 4.5352 -2.4986 0.9740
-4.1768 4.4521 -2.4985 0.9740
-4.3520 4.2806 -2.4984 0.9740
-4.4370 4.1922 -2.4983 0.9740
-4.9082 3.6279 -2.4980 0.9740
-4.9800 3.5285 -2.4979 0.9740
-5.1174 3.3255 -2.4978 0.9740
-5.1831 3.2220 -2.4978 0.9740
-5.2467 3.1172 -2.4977 0.9740
-5.3674 2.9038 -2.4976 0.9740
-5.5323 2.5752 -2.4975 0.9740
-5.5828 2.4635 -2.4975 0.9740
-5.6311 2.3509 -2.4974 0.9740
-5.6771 2.2373 -2.4974 0.9740
-5.8013 1.8913 -2.4973 0.9740
-5.8381 1.7743 -2.4973 0.9740
-5.9045 1.5384 -2.4972 0.9740
-5.9614 1.3000 -2.4972 0.9740
-6.0087 1.0596 -2.4972 0.9740
-6.0287 0.9386 -2.4971 0.9740
-6.0463 0.8174 -2.4971 0.9740
-6.0845 0.4518 -2.4971 0.9740
-6.0924 0.3295 -2.4971 0.9740
-6.0977 0.2070 -2.4971 0.9740
-6.1011 -0.0380 -2.4971 0.9740
-6.0947 -0.2830 -2.4971 0.9740
-6.0784 -0.5276 -2.4971 0.9740
-6.0666 -0.6495 -2.4971 0.9740
-6.0524 -0.7713 -2.4971 0.9740
-6.0357 -0.8927 -2.4971 0.9740
-6.0165 -1.0137 -2.4971 0.9740
-5.9950 -1.1343 -2.4971 0.9740
-5.9711 -1.2545 -2.4972 0.9740
-5.9447 -1.3742 -2.4972 0.9740
-5.8513 -1.7298 -2.4972 0.9740
-5.7772 -1.9634 -2.4973 0.9740
-5.6938 -2.1939 -2.4974 0.9740
-5.6487 -2.3079 -2.4974 0.9740
-5.6013 -2.4209 -2.4974 0.9740
-5.4456 -2.7539 -2.4975 0.9740
-5.3893 -2.8628 -2.4976 0.9740
-5.2073 -3.1823 -2.4977 0.9740
-5.1424 -3.2863 -2.4977 0.9740
-5.0065 -3.4903 -2.4978 0.9740
-4.7106 -3.8812 -2.4980 0.9740
-4.6319 -3.9751 -2.4981 0.9740
-4.5512 -4.0674 -2.4982 0.9740
-4.3844 -4.2471 -2.4983 0.9740
-4.2983 -4.3344 -2.4983 0.9740
-4.2105 -4.4200 -2.4984 0.9740
-4.0298 -4.5857 -2.4985 0.9740
-3.9369 -4.6659 -2.4986 0.9740
-3.8426 -4.7441 -2.4987 0.9740
-3.7466 -4.8205 -2.4987 0.9740
-3.6491 -4.8949 -2.4988 0.9740
-3.5502 -4.9673 -2.4989 0.9740
-3.4498 -5.0378 -2.4989 0.9740
-3.3480 -5.1062 -2.4990 0.9740
-3.2449 -5.1726 -2.4991 0.9740
-2.5999 -5.5262 -2.4995 0.9739
-1.9171 -5.7998 -2.5000 0.9739
-1.8003 -5.8373 -2.5001 0.9739
-1.6827 -5.8725 -2.5002 0.9739
-1.4456 -5.9357 -2.5004 0.9739
-1.0856 -6.0126 -2.5006 0.9739
-0.9647 -6.0334 -2.5007 0.9739
-0.7217 -6.0677 -2.5009 0.9739
-0.5997 -6.0812 -2.5010 0.9739
0.1358 -6.1105 -2.5015 0.9739
0.2585 -6.1067 -2.5016 0.9739
0.3811 -6.1005 -2.5017 0.9739
0.6259 -6.0807 -2.5018 0.9739
0.7479 -6.0671 -2.5019 0.9739
0.9910 -6.0326 -2.5021 0.9739
1.1120 -6.0117 -2.5022 0.9739
1.2326 -5.9884 -2.5023 0.9739
1.3527 -5.9626 -2.5024 0.9739
1.4722 -5.9344 -2.5024 0.9739
1.7095 -5.8709 -2.5026 0.9739
2.0601 -5.7579 -2.5029 0.9739
2.1754 -5.7156 -2.5029 0.9739
2.2899 -5.6709 -2.5030 0.9739
2.5159 -5.5747 -2.5032 0.9739
2.6275 -5.5232 -2.5033 0.9739
2.7380 -5.4695 -2.5034 0.9739
2.8473 -5.4136 -2.5034 0.9739
3.1685 -5.2328 -2.5037 0.9739
3.2731 -5.1683 -2.5037 0.9739
3.4782 -5.0329 -2.5039 0.9739
3.5787 -4.9622 -2.5040 0.9739
3.6777 -4.8895 -2.5040 0.9739
4.9980 2.8389 -2.5051 0.9752
4.9398 2.9387 -2.5050 0.9752
4.6877 3.3254 -2.5048 0.9752
4.5502 3.5108 -2.5047 0.9752
4.2534 3.8644 -2.5045 0.9752
4.0946 4.0319 -2.5044 0.9752
4.0127 4.1133 -2.5044 0.9752
3.9292 4.1929 -2.5043 0.9752
3.8441 4.2709 -2.5042 0.9752
3.7574 4.3471 -2.5042 0.9752
3.6693 4.4216 -2.5041 0.9752
3.5796 4.4943 -2.5041 0.9752
3.4886 4.5652 -2.5040 0.9752
3.1106 4.8299 -2.5037 0.9752
3.0129 4.8913 -2.5037 0.9752
2.8139 5.0080 -2.5035 0.9752
2.4026 5.2171 -2.5032 0.9752
2.2972 5.2642 -2.5031 0.9753
1.9759 5.3924 -2.5029 0.9753
1.7576 5.4671 -2.5028 0.9753
1.6474 5.5011 -2.5027 0.9753
1.5365 5.5329 -2.5026 0.9753
1.4250 5.5625 -2.5025 0.9753
1.2004 5.6149 -2.5024 0.9753
0.8600 5.6764 -2.5021 0.9753
0.6313 5.7060 -2.5020 0.9753
0.5166 5.7174 -2.5019 0.9753
0.1713 5.7375 -2.5016 0.9753
0.0560 5.7396 -2.5015 0.9753
-0.0593 5.7394 -2.5015 0.9753
-0.1745 5.7368 -2.5014 0.9753
-0.2897 5.7320 -2.5013 0.9753
-0.4047 5.7249 -2.5012 0.9753
-0.7487 5.6895 -2.5010 0.9753
-0.8628 5.6732 -2.5009 0.9753
-1.0899 5.6336 -2.5007 0.9753
-1.3151 5.5849 -2.5006 0.9753
-1.4270 5.5572 -2.5005 0.9753
-1.5383 5.5272 -2.5004 0.9753
-1.7589 5.4606 -2.5002 0.9753
-2.1912 5.3012 -2.4999 0.9753
-2.4022 5.2086 -2.4998 0.9753
-3.0105 4.8811 -2.4993 0.9753
