ply
format ascii 1.0
element vertex 1540
property float32 x
property float32 y
property float32 z
property float32 I
end_header
-30.5225 11.2743 2.0177 0.8777
-30.6962 9.9551 2.0011 0.8787
-32.9715 9.9648 2.1359 0.8711
-58.5722 7.8125 3.6643 0.7891
-51.1160 -13.0265 3.2710 0.8094
-94.2669 -30.1825 6.1378 0.6725
-90.2684 -32.9599 5.9590 0.6804
-90.2225 -37.1197 6.0497 0.6764
-36.2244 -16.6369 2.4719 0.8524
-36.2656 -17.5474 2.4983 0.8509
-35.8716 -18.2560 2.4959 0.8510
-30.2157 -17.7486 2.1730 0.8690
-60.5746 -37.2397 4.4093 0.7520
-60.1876 -38.6910 4.4369 0.7507
-59.3892 -39.8882 4.4363 0.7507
-28.8183 -21.9885 2.2478 0.8648
-27.8857 -22.1783 2.2095 0.8669
-27.0535 -22.4191 2.1788 0.8687
-25.9581 -22.4071 2.1264 0.8716
-23.5376 -22.0304 1.9992 0.8788
-22.7018 -22.1212 1.9656 0.8807
-19.9084 -21.8905 1.8349 0.8882
-19.1107 -21.8817 1.8015 0.8901
-17.5976 -21.8650 1.7404 0.8936
-15.5058 -21.8420 1.6610 0.8982
-14.2111 -21.8278 1.6151 0.9009
-10.6991 -21.7891 1.5053 0.9073
-8.5927 -21.7660 1.4511 0.9105
-8.0886 -21.7604 1.4396 0.9112
-7.5747 -21.7048 1.4255 0.9120
-7.0866 -21.6994 1.4155 0.9126
41.5406 -38.8522 2.2428 0.7964
43.2318 -38.8339 2.2914 0.7924
44.9987 -38.8146 2.3432 0.7883
46.8231 -38.7736 2.3971 0.7840
51.9506 -37.9814 2.5375 0.7729
53.4467 -37.4494 2.5733 0.7701
56.7864 -38.1101 2.6967 0.7605
58.0762 -37.3039 2.7217 0.7586
41.3430 8.9595 1.6680 0.8442
83.9494 52.0859 3.8956 0.6734
73.4706 51.9707 3.5485 0.6975
67.4506 51.9045 3.3560 0.7113
64.6768 51.8740 3.2692 0.7176
62.0419 51.8450 3.1881 0.7235
59.5335 51.8174 3.1121 0.7291
56.7308 53.5365 3.0758 0.7318
56.6562 60.3278 3.2633 0.7180
9.8894 11.4176 0.5956 0.9413
8.7635 10.5387 0.5404 0.9466
8.5833 10.7548 0.5426 0.9464
9.1403 12.4483 0.6090 0.9400
8.7916 13.0422 0.6202 0.9390
8.4544 13.1031 0.6149 0.9395
6.3069 10.6956 0.4896 0.9515
34.5501 61.3811 2.7774 0.7543
5.4164 10.5985 0.4693 0.9535
5.1879 10.6760 0.4680 0.9536
5.1020 11.0596 0.4803 0.9524
5.1007 12.3383 0.5264 0.9480
22.4811 61.2484 2.5726 0.7701
18.3601 61.2030 2.5196 0.7743
15.6998 61.1738 2.4903 0.7766
14.3916 61.1594 2.4774 0.7776
10.9766 63.6504 2.5468 0.7722
10.8879 71.7209 2.8604 0.7480
0.4941 16.4713 0.6498 0.9362
-0.1686 16.4640 0.6492 0.9362
-0.5058 16.6603 0.6572 0.9355
-0.8412 16.6566 0.6576 0.9354
-1.1772 16.6529 0.6583 0.9354
-1.8519 16.6455 0.6604 0.9352
-2.5320 16.6380 0.6636 0.9348
-2.8748 16.6342 0.6656 0.9347
-4.5731 16.4155 0.6719 0.9341
-5.2905 16.4076 0.6798 0.9333
-6.0994 16.5987 0.6973 0.9317
-6.4795 16.5945 0.7025 0.9312
-6.8655 16.5903 0.7080 0.9306
-8.3753 16.3737 0.7252 0.9290
-8.8461 16.4685 0.7371 0.9279
-9.2190 16.3644 0.7406 0.9276
-10.1007 16.3547 0.7580 0.9259
-13.0364 16.3224 0.8237 0.9198
-15.3166 16.2973 0.8819 0.9144
-16.5861 16.2833 0.9165 0.9112
-20.2667 16.2428 1.0241 0.9013
-22.9385 16.2134 1.1076 0.8936
-23.9300 16.2025 1.1395 0.8908
-24.9806 16.1910 1.1738 0.8877
-26.0971 16.1787 1.2107 0.8843
-27.2865 16.1656 1.2506 0.8808
-39.9273 21.5341 1.7888 0.8339
-43.9922 21.4895 1.9306 0.8220
-48.3844 22.4413 2.1031 0.8077
-49.8750 21.9248 2.1483 0.8040
-52.6553 21.8943 2.2486 0.7959
-32.1487 11.1455 1.3417 0.8727
-32.3673 10.4971 1.3417 0.8727
-32.8993 9.9430 1.3552 0.8715
-37.3828 9.6758 1.5226 0.8568
-92.1856 -33.6600 3.8697 0.6751
-92.2705 -35.8100 3.9027 0.6729
-92.2469 -37.9526 3.9332 0.6708
-37.2299 -16.2002 1.6010 0.8500
-32.8485 -15.8940 1.4389 0.8641
-31.1475 -18.2959 1.4244 0.8654
-35.6348 -21.9074 1.6494 0.8458
-34.1028 -21.9226 1.5986 0.8502
-31.8937 -22.3648 1.5360 0.8556
-28.8182 -21.9885 1.4293 0.8649
-26.4419 -21.9123 1.3541 0.8716
-25.3713 -21.9006 1.3216 0.8744
-24.4068 -21.9399 1.2941 0.8769
-23.4295 -21.9292 1.2654 0.8794
-22.4423 -21.8683 1.2356 0.8821
-19.1106 -21.8816 1.1456 0.8902
-16.8783 -21.8571 1.0889 0.8953
-16.1816 -21.8494 1.0721 0.8969
-14.2111 -21.8277 1.0270 0.9010
-12.9842 -21.8142 1.0010 0.9034
-11.2516 -21.7952 0.9672 0.9065
-10.1576 -21.7831 0.9477 0.9083
-9.6266 -21.7773 0.9389 0.9091
-8.5927 -21.7659 0.9227 0.9106
53.0371 -38.7756 1.1098 0.7689
57.9121 -38.8656 1.1781 0.7565
55.6687 -35.7575 1.1176 0.7674
60.8604 -35.7195 1.1920 0.7540
85.5789 -7.5738 1.4512 0.7091
99.2939 3.2184 1.6781 0.6720
80.2357 52.0452 1.6155 0.6821
73.4709 51.9708 1.5202 0.6977
70.3768 51.9368 1.4775 0.7047
67.4508 51.9046 1.4377 0.7114
64.6770 51.8741 1.4005 0.7177
62.0421 51.8451 1.3658 0.7236
57.1411 51.7912 1.3027 0.7345
56.7301 53.5359 1.3176 0.7319
56.7062 55.7114 1.3428 0.7276
10.2796 10.5139 0.2484 0.9429
9.8565 10.4952 0.2432 0.9440
9.4507 10.4776 0.2383 0.9451
9.2548 10.6849 0.2388 0.9450
9.1822 11.5052 0.2486 0.9428
9.1769 11.9853 0.2550 0.9414
9.1713 12.4906 0.2618 0.9399
9.1655 13.0238 0.2690 0.9383
9.0633 13.4452 0.2739 0.9372
39.6411 61.4372 1.2351 0.7464
37.9014 61.4181 1.2191 0.7492
6.3025 10.6883 0.2096 0.9516
6.0144 10.6851 0.2071 0.9521
5.7329 10.6820 0.2048 0.9527
5.7316 11.7947 0.2215 0.9489
5.5109 12.6065 0.2324 0.9464
5.3926 13.0446 0.2384 0.9451
23.8955 61.2640 1.1108 0.7687
22.4811 61.2485 1.1021 0.7703
19.7149 61.2181 1.0864 0.7731
18.3601 61.2032 1.0794 0.7744
15.6998 61.1739 1.0668 0.7767
14.3916 61.1595 1.0613 0.7777
13.0963 61.1452 1.0563 0.7787
11.8128 61.1311 1.0517 0.7795
0.4941 16.4713 0.2784 0.9362
0.1636 16.5676 0.2799 0.9359
-0.1685 16.4640 0.2781 0.9363
-0.5109 16.8302 0.2844 0.9349
-1.8708 16.8153 0.2858 0.9346
-2.5578 16.8077 0.2872 0.9342
-2.9041 16.8039 0.2881 0.9341
-3.5246 16.4271 0.2838 0.9350
-4.9597 16.5113 0.2912 0.9334
-5.2906 16.4076 0.2912 0.9334
-5.7246 16.6029 0.2967 0.9322
-6.0994 16.5988 0.2987 0.9317
-6.4795 16.5946 0.3009 0.9312
-8.3754 16.3737 0.3107 0.9291
-9.2190 16.3644 0.3173 0.9276
-10.1556 16.4435 0.3265 0.9256
-10.6150 16.4385 0.3305 0.9247
-11.0862 16.4333 0.3348 0.9238
-12.0675 16.4225 0.3442 0.9217
-12.5795 16.4168 0.3494 0.9206
-14.1376 16.3103 0.3646 0.9173
-14.7166 16.3039 0.3710 0.9159
-18.0593 16.3566 0.4116 0.9071
-18.6951 16.2602 0.4185 0.9056
-19.4625 16.2517 0.4283 0.9035
-21.2262 16.3217 0.4523 0.8984
-22.9386 16.2135 0.4745 0.8937
-26.7529 16.5853 0.5317 0.8817
-28.5574 16.1516 0.5542 0.8770
-41.7447 22.5144 0.8012 0.8272
-45.9946 22.4677 0.8647 0.8148
-49.8752 21.9250 0.9203 0.8042
-54.7873 21.4990 0.9942 0.7902
-54.7734 20.2321 0.9863 0.7917
-35.1521 11.4003 0.6242 0.8626
-37.9182 9.8144 0.6616 0.8550
-54.6937 12.9886 0.9496 0.7986
-54.6632 10.6793 0.9408 0.8003
-91.6959 -35.5870 1.6615 0.6747
-34.8316 -17.7267 0.6602 0.8553
-39.2016 -21.9787 0.7592 0.8354
-34.1027 -21.9226 0.6848 0.8503
-32.6160 -21.9062 0.6637 0.8545
-28.8181 -21.9884 0.6123 0.8650
-26.7475 -22.1656 0.5868 0.8703
-19.9083 -21.8904 0.4998 0.8884
-19.1106 -21.8816 0.4907 0.8903
-15.5057 -21.8419 0.4525 0.8984
-13.5897 -21.8209 0.4342 0.9023
-11.2515 -21.7951 0.4143 0.9065
-10.1576 -21.7831 0.4060 0.9083
-9.6266 -21.7773 0.4022 0.9091
-7.1029 -21.7495 0.3865 0.9125
41.3919 -35.7035 -0.3078 0.8036
43.0994 -35.6901 -0.3151 0.7994
44.8905 -35.6761 -0.3228 0.7950
48.7561 -35.6458 -0.3400 0.7854
53.0642 -35.6121 -0.3598 0.7744
60.5772 -35.5533 -0.3955 0.7551
28.8960 -11.8762 -0.1759 0.8825
28.8936 -11.2015 -0.1745 0.8834
32.2301 -11.7550 -0.1932 0.8718
86.2231 -7.6309 -0.4873 0.7073
95.7528 5.0329 -0.5399 0.6814
95.6889 10.8446 -0.5422 0.6803
95.6674 12.7956 -0.5434 0.6797
95.6241 16.7284 -0.5466 0.6782
41.3331 8.9573 -0.2381 0.8444
83.9499 52.0863 -0.5562 0.6736
80.2359 52.0454 -0.5384 0.6821
70.3770 51.9369 -0.4924 0.7048
67.4510 51.9048 -0.4792 0.7115
62.0423 51.8453 -0.4552 0.7237
57.1412 51.7913 -0.4342 0.7346
56.7055 55.7107 -0.4476 0.7276
56.6806 57.9720 -0.4565 0.7230
56.6547 60.3263 -0.4659 0.7182
34.9742 38.7747 -0.2940 0.8115
9.2737 10.7068 -0.0797 0.9449
51.1941 61.5644 -0.4508 0.7259
47.1043 61.5194 -0.4362 0.7335
45.1554 61.4980 -0.4296 0.7370
6.5978 10.6915 -0.0707 0.9510
6.0497 11.2723 -0.0720 0.9501
6.0436 11.8258 -0.0748 0.9483
6.0370 12.4233 -0.0778 0.9462
6.0299 13.0710 -0.0810 0.9440
26.7955 61.2960 -0.3766 0.7652
22.4811 61.2486 -0.3673 0.7703
21.0881 61.2332 -0.3646 0.7718
18.3601 61.2033 -0.3598 0.7745
17.0222 61.1885 -0.3576 0.7757
0.4941 16.4713 -0.0928 0.9362
0.1636 16.5677 -0.0933 0.9359
-0.1686 16.4640 -0.0927 0.9363
-0.5119 16.8603 -0.0950 0.9348
-0.8539 16.9065 -0.0953 0.9345
-1.1949 16.9028 -0.0954 0.9345
-1.5367 16.8990 -0.0955 0.9344
-1.8797 16.8952 -0.0957 0.9343
-2.2240 16.8914 -0.0959 0.9341
-2.5700 16.8876 -0.0962 0.9340
-3.5247 16.4271 -0.0946 0.9350
-3.8944 16.5230 -0.0956 0.9343
-4.2203 16.4194 -0.0955 0.9344
-4.5731 16.4156 -0.0959 0.9341
-5.2906 16.4077 -0.0971 0.9334
-6.1909 16.8478 -0.1011 0.9307
-6.5767 16.8435 -0.1018 0.9302
-7.3666 16.8349 -0.1035 0.9291
-7.7716 16.8304 -0.1044 0.9285
-8.3754 16.3737 -0.1035 0.9291
-9.2190 16.3645 -0.1058 0.9276
-10.1556 16.4435 -0.1088 0.9256
-12.4339 17.6544 -0.1216 0.9172
-12.9006 16.8358 -0.1194 0.9187
-13.2344 16.5703 -0.1194 0.9187
-13.6458 16.3980 -0.1201 0.9182
-14.1376 16.3104 -0.1215 0.9173
-18.7610 18.4185 -0.1480 0.9002
-18.7529 17.6841 -0.1451 0.9020
-18.2345 16.5153 -0.1385 0.9063
-18.6952 16.2602 -0.1395 0.9056
-19.4625 16.2518 -0.1428 0.9035
-20.5746 16.4895 -0.1484 0.8999
-23.7597 18.2698 -0.1687 0.8870
-23.7514 17.5148 -0.1662 0.8887
-28.5575 16.1517 -0.1847 0.8770
-41.7449 22.5144 -0.2670 0.8272
-45.9948 22.4677 -0.2882 0.8148
-48.3848 22.4415 -0.3003 0.8079
-36.4070 11.8072 -0.2155 0.8580
-36.3982 11.0004 -0.2141 0.8589
-36.3894 10.2038 -0.2128 0.8597
-90.2296 10.1927 -0.5112 0.6954
-93.7926 -17.9600 -0.5377 0.6825
-91.0310 -19.3366 -0.5240 0.6892
-88.7022 -20.7147 -0.5128 0.6946
-51.1037 -13.0234 -0.2969 0.8098
-87.3742 -26.0504 -0.5133 0.6944
-86.7336 -27.7705 -0.5127 0.6947
-86.4791 -29.6193 -0.5147 0.6937
-86.7045 -31.6586 -0.5197 0.6913
-39.0333 -16.0592 -0.2376 0.8446
-36.0849 -17.4600 -0.2257 0.8518
-36.0642 -18.3540 -0.2278 0.8506
-41.1591 -22.0001 -0.2628 0.8297
-39.2015 -21.9786 -0.2530 0.8355
-37.3829 -21.9586 -0.2441 0.8408
-35.6352 -21.9076 -0.2355 0.8459
-34.1026 -21.9225 -0.2283 0.8503
-32.6160 -21.9062 -0.2212 0.8546
-31.8838 -23.3282 -0.2224 0.8538
-27.8855 -22.1781 -0.2006 0.8672
-27.0532 -22.4189 -0.1978 0.8689
-25.9579 -22.4069 -0.1931 0.8718
-24.5193 -22.0411 -0.1856 0.8764
-21.1670 -22.3542 -0.1733 0.8841
-17.8005 -22.1171 -0.1598 0.8926
-18.2867 -24.6920 -0.1730 0.8843
-18.2752 -25.7432 -0.1777 0.8814
-13.5897 -21.8208 -0.1447 0.9023
-12.5190 -22.0290 -0.1427 0.9036
-13.2883 -24.5179 -0.1570 0.8944
-12.6353 -25.7323 -0.1614 0.8917
-10.2748 -22.0344 -0.1369 0.9073
-9.1051 -21.7715 -0.1329 0.9099
-8.1219 -21.8500 -0.1312 0.9110
39.7610 -35.7161 -1.5050 0.8075
44.8904 -35.6760 -1.6146 0.7950
55.2819 -35.5091 -1.8501 0.7688
57.9122 -35.5740 -1.9138 0.7619
78.5783 -44.0180 -2.5361 0.6974
81.1108 -39.2099 -2.5368 0.6973
28.8933 -11.2014 -0.8726 0.8834
32.2298 -11.7549 -0.9660 0.8717
84.1519 -28.7881 -2.5043 0.7005
81.0043 -25.9037 -2.3947 0.7115
81.9526 -22.6176 -2.3939 0.7116
77.5528 -18.0813 -2.2423 0.7271
83.1435 -15.8895 -2.3835 0.7127
83.4463 -14.2142 -2.3835 0.7127
83.7149 -12.5331 -2.3835 0.7127
84.1146 -10.8683 -2.3882 0.7122
84.8089 -7.5057 -2.3974 0.7113
85.5635 -2.3940 -2.4102 0.7100
85.8709 1.0553 -2.4181 0.7092
85.9641 2.7863 -2.4218 0.7088
85.9994 7.9983 -2.4320 0.7078
85.9297 9.7385 -2.4351 0.7075
85.6697 13.2172 -2.4408 0.7069
85.2887 16.6946 -2.4471 0.7063
41.3274 8.9561 -1.1907 0.8443
84.8105 20.1744 -2.4547 0.7055
30.1173 9.7794 -0.8916 0.8810
26.8329 9.3135 -0.7998 0.8926
80.6680 35.4962 -2.4816 0.7028
78.6899 40.4549 -2.4914 0.7018
74.7858 48.5100 -2.5100 0.7000
72.0729 53.1885 -2.5222 0.6988
71.0974 54.7108 -2.5261 0.6984
69.9678 56.1175 -2.5255 0.6984
30.1082 26.2059 -1.1239 0.8524
29.2779 26.5367 -1.1126 0.8537
35.0216 35.8195 -1.4106 0.8184
7.5366 10.7092 -0.3687 0.9489
6.3172 10.7128 -0.3503 0.9515
6.3618 11.3022 -0.3652 0.9494
6.3494 12.4242 -0.3929 0.9457
26.7956 61.2961 -1.8837 0.7651
23.8956 61.2643 -1.8516 0.7686
19.7150 61.2183 -1.8110 0.7731
18.3602 61.2034 -1.7992 0.7744
14.3917 61.1597 -1.7692 0.7777
13.0964 61.1455 -1.7608 0.7786
11.8128 61.1313 -1.7532 0.7795
11.5579 88.0304 -2.5000 0.7010
9.7824 88.2197 -2.4993 0.7010
4.4411 88.5730 -2.4972 0.7013
0.1636 16.5677 -0.4665 0.9358
-0.1686 16.4640 -0.4636 0.9362
-0.5119 16.8603 -0.4750 0.9347
-1.1949 16.9028 -0.4771 0.9344
-1.5367 16.8990 -0.4778 0.9344
-3.2199 16.6305 -0.4770 0.9345
-3.8944 16.5231 -0.4780 0.9343
-4.2203 16.4195 -0.4774 0.9344
-4.5731 16.4156 -0.4798 0.9341
-4.9597 16.5113 -0.4854 0.9333
-5.2906 16.4077 -0.4854 0.9333
-6.1909 16.8478 -0.5054 0.9307
-6.9685 16.8393 -0.5132 0.9297
-7.3666 16.8349 -0.5174 0.9291
-8.3754 16.3738 -0.5179 0.9290
-9.2190 16.3645 -0.5289 0.9276
-10.1556 16.4436 -0.5442 0.9256
-10.7180 16.5980 -0.5563 0.9240
-13.7052 20.3154 -0.6900 0.9066
-13.7643 18.7317 -0.6545 0.9112
-13.2344 16.5703 -0.5971 0.9186
-13.6460 16.3982 -0.6007 0.9182
-14.7167 16.3040 -0.6184 0.9159
-17.1853 17.5641 -0.6919 0.9063
-18.7612 18.4187 -0.7403 0.9001
-18.7531 17.6844 -0.7258 0.9020
-18.6952 16.2603 -0.6977 0.9056
-23.2870 16.4598 -0.8030 0.8922
-23.9302 16.2027 -0.8138 0.8908
-26.8106 16.6210 -0.8882 0.8814
-28.0325 16.6076 -0.9175 0.8778
-40.9358 22.0780 -1.3096 0.8302
-42.8726 22.0213 -1.3571 0.8246
-44.9938 21.9788 -1.4100 0.8184
-43.4285 20.1427 -1.3480 0.8257
-48.3134 20.0889 -1.4733 0.8111
-54.5017 20.1317 -1.6360 0.7926
-37.6528 11.3796 -1.1076 0.8544
-54.6642 10.6795 -1.5683 0.8002
-59.6360 10.4104 -1.7046 0.7849
-81.3094 12.5143 -2.3165 0.7195
-58.4840 7.8007 -1.6614 0.7897
-81.7361 9.2333 -2.3162 0.7195
-85.2505 6.1712 -2.4068 0.7103
-87.4801 4.5664 -2.4666 0.7043
-87.5576 2.8062 -2.4667 0.7043
-87.5999 1.0449 -2.4668 0.7043
-87.5802 -2.4790 -2.4671 0.7043
-87.1221 -9.5117 -2.4677 0.7042
-86.4131 -14.7518 -2.4684 0.7041
-85.5729 -16.3860 -2.4533 0.7056
-84.4732 -17.9436 -2.4316 0.7078
-43.7134 -10.2084 -1.2640 0.8356
-37.0815 -10.2484 -1.0833 0.8573
-37.0277 -11.0397 -1.0880 0.8567
-82.9442 -28.4086 -2.4687 0.7041
-82.4349 -30.0997 -2.4711 0.7039
-52.8075 -20.4945 -1.5950 0.7972
-37.3487 -16.2519 -1.1469 0.8496
-35.6354 -21.9078 -1.1779 0.8459
-34.1025 -21.9224 -1.1415 0.8502
-31.8842 -23.3285 -1.1124 0.8538
-25.9578 -22.4068 -0.9656 0.8718
-24.5192 -22.0410 -0.9284 0.8764
-19.9082 -21.8903 -0.8332 0.8883
-19.1105 -21.8815 -0.8180 0.8902
-18.3409 -21.8730 -0.8038 0.8921
-17.8004 -22.1171 -0.7994 0.8926
-18.2980 -23.6956 -0.8430 0.8871
-18.2755 -25.7436 -0.8890 0.8813
-15.0206 -22.0865 -0.7521 0.8986
-12.5190 -22.0290 -0.7135 0.9036
-13.2886 -24.5184 -0.7853 0.8944
-12.6739 -25.8109 -0.8097 0.8913
-9.6662 -21.8670 -0.6732 0.9088
-9.1051 -21.7714 -0.6645 0.9099
-8.5927 -21.7658 -0.6589 0.9106
-8.1219 -21.8500 -0.6564 0.9109
-7.6797 -22.0058 -0.6563 0.9110
-8.2791 -25.3510 -0.7509 0.8988
34.0607 -31.8565 -2.3651 0.8296
35.3202 -30.4662 -2.3655 0.8296
36.5227 -29.0259 -2.3659 0.8296
37.1017 -28.2875 -2.3661 0.8296
38.2147 -26.7765 -2.3664 0.8295
38.7480 -26.0043 -2.3666 0.8295
39.2656 -25.2213 -2.3667 0.8295
39.7673 -24.4281 -2.3669 0.8295
40.2528 -23.6247 -2.3670 0.8295
21.6414 -11.5576 -1.2442 0.9064
27.3174 -11.8751 -1.5106 0.8875
28.9442 -11.8961 -1.5870 0.8822
28.8931 -11.2013 -1.5716 0.8833
48.1357 -12.2484 -2.5190 0.8196
48.8419 -9.3342 -2.5218 0.8194
49.0198 -8.3500 -2.5218 0.8194
49.1777 -7.3625 -2.5218 0.8194
49.3153 -6.3719 -2.5218 0.8194
49.5306 -4.3835 -2.5217 0.8194
49.6651 -2.3881 -2.5216 0.8194
49.7020 -1.3888 -2.5216 0.8194
49.6911 1.6106 -2.5214 0.8194
49.6469 2.6095 -2.5213 0.8195
49.5823 3.6073 -2.5212 0.8195
49.3930 5.5978 -2.5210 0.8195
45.9757 8.0429 -2.3670 0.8295
41.2381 8.9367 -2.1399 0.8445
45.3988 10.7987 -2.3666 0.8295
30.1243 9.1162 -1.5962 0.8816
30.1170 9.7793 -1.6059 0.8809
26.8331 9.3136 -1.4405 0.8925
43.6124 17.1321 -2.3763 0.8289
42.3110 20.6873 -2.3885 0.8281
41.9406 21.5618 -2.3916 0.8279
40.2677 24.9839 -2.4033 0.8271
38.8252 27.4636 -2.4118 0.8266
38.3095 28.2718 -2.4146 0.8264
37.7764 29.0694 -2.4174 0.8262
30.1268 26.2220 -2.0255 0.8522
29.2775 26.5364 -2.0039 0.8536
29.3100 27.6597 -2.0438 0.8509
33.5720 34.3370 -2.4354 0.8250
32.2258 35.7276 -2.4401 0.8247
9.3008 10.7381 -0.7204 0.9447
30.8196 37.0628 -2.4446 0.8244
29.3543 38.3375 -2.4487 0.8242
7.5314 10.7018 -0.6637 0.9489
7.1981 10.6782 -0.6531 0.9497
6.6670 10.8037 -0.6438 0.9504
6.9682 12.9837 -0.7473 0.9427
22.1129 43.2691 -2.4643 0.8231
21.2500 43.7292 -2.4657 0.8231
20.3769 44.1707 -2.4670 0.8230
19.4941 44.5937 -2.4682 0.8229
18.6023 44.9982 -2.4694 0.8228
17.7013 45.3829 -2.4704 0.8228
16.7918 45.7482 -2.4714 0.8227
14.9493 46.4199 -2.4732 0.8226
14.0171 46.7259 -2.4740 0.8225
12.1332 47.2767 -2.4753 0.8224
11.1824 47.5216 -2.4758 0.8224
10.2266 47.7466 -2.4764 0.8224
9.2657 47.9500 -2.4767 0.8223
8.3005 48.1326 -2.4770 0.8223
7.3315 48.2941 -2.4773 0.8223
5.3841 48.5547 -2.4775 0.8223
3.4270 48.7300 -2.4774 0.8223
0.1636 16.5677 -0.8403 0.9358
-0.5119 16.8603 -0.8554 0.9347
-0.8539 16.9066 -0.8585 0.9344
-1.1949 16.9028 -0.8594 0.9344
-1.8797 16.8953 -0.8621 0.9342
-2.5700 16.8877 -0.8663 0.9339
-2.9180 16.8839 -0.8689 0.9337
-4.2203 16.4195 -0.8598 0.9344
-4.5731 16.4156 -0.8642 0.9340
-7.3667 16.8349 -0.9319 0.9290
-7.7717 16.8305 -0.9401 0.9284
-8.1702 16.7975 -0.9473 0.9279
-8.3754 16.3738 -0.9327 0.9290
-8.8462 16.4686 -0.9481 0.9279
-12.1822 17.2971 -1.0729 0.9188
-12.2670 16.6940 -1.0506 0.9204
-12.9010 16.8363 -1.0757 0.9186
-13.2344 16.5704 -1.0755 0.9186
-13.6462 16.3984 -1.0819 0.9181
-15.5493 16.5449 -1.1515 0.9131
-17.1855 17.5644 -1.2462 0.9063
-17.2098 16.2290 -1.1996 0.9096
-18.6953 16.2603 -1.2566 0.9055
-9.1791 7.0582 -0.5872 0.9547
-9.1387 6.7391 -0.5758 0.9555
-9.2078 5.9680 -0.5565 0.9570
-9.2995 5.7652 -0.5549 0.9571
-9.5533 5.6598 -0.5631 0.9565
-9.9830 5.6462 -0.5816 0.9551
-11.5111 5.6230 -0.6497 0.9500
-43.5672 15.1042 -2.3385 0.8314
-43.7992 14.2046 -2.3351 0.8316
-38.9074 11.7588 -2.0613 0.8498
-44.9196 9.7175 -2.3308 0.8319
-45.4237 6.9912 -2.3308 0.8319
-48.8142 3.5336 -2.4821 0.8220
-48.8763 2.5513 -2.4821 0.8220
-48.9417 0.5838 -2.4822 0.8220
-48.8924 -2.3687 -2.4824 0.8220
-48.5519 -6.2912 -2.4829 0.8219
-48.4180 -7.2667 -2.4830 0.8219
-48.0917 -9.2089 -2.4832 0.8219
-46.6865 -9.9171 -2.4205 0.8260
-43.8100 -14.0271 -2.3329 0.8317
-28.2677 -9.6817 -1.5153 0.8872
-26.6677 -9.7372 -1.4398 0.8925
-38.5704 -17.7144 -2.1525 0.8437
-41.0250 -20.8787 -2.3345 0.8316
-39.0105 -21.8715 -2.2681 0.8360
-37.2008 -21.8516 -2.1880 0.8413
-35.5139 -21.8330 -2.1142 0.8462
-32.7744 -22.0126 -2.0022 0.8537
-27.6303 -21.9751 -1.7904 0.8681
-26.5027 -21.9627 -1.7456 0.8712
-23.4899 -21.9857 -1.6317 0.8791
-22.7016 -22.1210 -1.6075 0.8808
-18.3409 -21.8730 -1.4476 0.8920
-17.8004 -22.1171 -1.4398 0.8925
-17.1535 -22.2135 -1.4233 0.8937
-14.2110 -21.8276 -1.3209 0.9009
-13.5897 -21.8207 -1.3037 0.9022
-13.0718 -21.9615 -1.2961 0.9027
-10.2748 -22.0343 -1.2330 0.9072
-9.1051 -21.7714 -1.1968 0.9098
-8.1219 -21.8500 -1.1822 0.9109
-7.6797 -22.0057 -1.1820 0.9109
23.5097 -21.9883 -2.3602 0.8789
25.2064 -20.0324 -2.3608 0.8789
25.6055 -19.5225 -2.3609 0.8788
25.9943 -19.0045 -2.3610 0.8788
26.3725 -18.4788 -2.3611 0.8788
26.7399 -17.9455 -2.3612 0.8788
27.7769 -16.3025 -2.3615 0.8788
21.4949 -11.4793 -1.7867 0.9069
29.0012 -14.0195 -2.3619 0.8788
29.2780 -13.4338 -2.3619 0.8788
28.9078 -12.5664 -2.3112 0.8812
28.8928 -11.2011 -2.2721 0.8831
30.2657 -11.0385 -2.3621 0.8788
32.6174 -10.4305 -2.5109 0.8717
33.0714 -9.1272 -2.5155 0.8714
33.2486 -8.4603 -2.5155 0.8714
33.6987 -6.4401 -2.5156 0.8714
33.9304 -5.0798 -2.5156 0.8714
34.1742 -3.0245 -2.5155 0.8714
34.2278 -2.3366 -2.5155 0.8714
34.2930 -0.9582 -2.5154 0.8715
34.2563 1.8006 -2.5152 0.8715
34.2122 2.4891 -2.5151 0.8715
34.1543 3.1765 -2.5151 0.8715
33.9967 4.5471 -2.5149 0.8715
33.8972 5.2297 -2.5148 0.8715
33.6569 6.5881 -2.5146 0.8715
32.0000 8.2950 -2.4239 0.8758
31.0016 8.7051 -2.3610 0.8788
30.6234 9.9438 -2.3608 0.8789
28.9731 10.0564 -2.2487 0.8843
29.4620 12.9641 -2.3601 0.8789
28.9131 14.1366 -2.3598 0.8789
28.6355 14.7216 -2.3608 0.8789
28.3586 15.3080 -2.3629 0.8788
28.0694 15.8890 -2.3650 0.8787
26.7917 18.1543 -2.3729 0.8783
26.0819 19.2480 -2.3768 0.8781
25.3257 20.3123 -2.3804 0.8779
24.9309 20.8333 -2.3822 0.8778
24.1082 21.8510 -2.3857 0.8777
23.6807 22.3473 -2.3874 0.8776
23.2426 22.8349 -2.3891 0.8775
9.3007 10.7379 -1.0416 0.9446
8.9213 10.7285 -1.0231 0.9456
8.5559 10.7205 -1.0057 0.9465
19.8953 25.9838 -2.3995 0.8770
7.5314 10.7019 -0.9595 0.9489
7.2117 10.6983 -0.9460 0.9496
15.5363 28.9485 -2.4089 0.8765
14.3710 29.5732 -2.4108 0.8765
13.7782 29.8669 -2.4117 0.8764
13.1792 30.1480 -2.4125 0.8764
12.5743 30.4166 -2.4133 0.8763
11.3477 30.9160 -2.4147 0.8763
9.4697 31.5671 -2.4165 0.8762
8.1956 31.9338 -2.4173 0.8761
7.5528 32.0970 -2.4177 0.8761
6.2576 32.3831 -2.4183 0.8761
5.6055 32.5051 -2.4185 0.8761
4.9510 32.6132 -2.4187 0.8761
4.2943 32.7076 -2.4188 0.8761
0.4941 16.4714 -1.2083 0.9360
-0.1686 16.4641 -1.2072 0.9361
-0.5119 16.8604 -1.2368 0.9346
-1.5367 16.8991 -1.2442 0.9342
-2.2240 16.8915 -1.2492 0.9340
-2.9180 16.8839 -1.2563 0.9336
-3.5247 16.4272 -1.2319 0.9348
-4.2203 16.4195 -1.2430 0.9343
-6.5573 16.7938 -1.3219 0.9302
-6.9479 16.7896 -1.3323 0.9297
-8.0631 16.5773 -1.3516 0.9287
-9.2191 16.3645 -1.3772 0.9274
-10.7181 16.5981 -1.4487 0.9238
-13.7052 20.3155 -1.7968 0.9064
-12.1824 17.2974 -1.5513 0.9186
-12.3457 16.8011 -1.5287 0.9198
-13.1949 16.5208 -1.5503 0.9187
-14.7168 16.3041 -1.6104 0.9157
-15.4437 16.4326 -1.6535 0.9135
-17.1858 17.5646 -1.8018 0.9061
-17.3487 17.0320 -1.7826 0.9071
-18.5818 16.1616 -1.8057 0.9059
-19.3445 16.1532 -1.8479 0.9039
-8.8354 7.0811 -0.8302 0.9556
-8.8415 5.9864 -0.7829 0.9581
-9.0300 5.5981 -0.7790 0.9583
-9.4110 5.5755 -0.8020 0.9571
-9.8202 5.5541 -0.8272 0.9558
-10.2770 5.5427 -0.8561 0.9542
-11.3095 5.5245 -0.9229 0.9508
-29.1757 12.8255 -2.3368 0.8800
-16.9339 7.0412 -1.3447 0.9291
-16.8958 6.6300 -1.3308 0.9298
-16.8938 6.2402 -1.3205 0.9303
-30.5039 9.2190 -2.3365 0.8800
-23.0610 6.4664 -1.7561 0.9084
-33.4270 5.8352 -2.4880 0.8728
-33.5377 5.1618 -2.4880 0.8728
-33.6348 4.4863 -2.4880 0.8728
-33.7185 3.8090 -2.4880 0.8728
-33.8878 1.7689 -2.4881 0.8728
-33.9171 1.0870 -2.4882 0.8728
-33.9229 -0.9602 -2.4883 0.8727
-33.8975 -1.6423 -2.4884 0.8727
-33.8059 -3.0042 -2.4885 0.8727
-33.7396 -3.6836 -2.4886 0.8727
-33.6598 -4.3616 -2.4886 0.8727
-33.4596 -5.7120 -2.4888 0.8727
-32.3371 -10.3538 -2.4896 0.8727
-26.2692 -10.8078 -2.0828 0.8923
-25.7982 -11.2258 -2.0629 0.8933
-28.7141 -13.8936 -2.3389 0.8799
-28.4308 -14.4692 -2.3390 0.8799
-26.8441 -17.2565 -2.3399 0.8799
-26.1324 -18.3248 -2.3402 0.8798
-25.7607 -18.8481 -2.3404 0.8798
-24.9860 -19.8720 -2.3408 0.8798
-24.1707 -20.8642 -2.3412 0.8798
-23.7483 -21.3479 -2.3414 0.8798
-22.4420 -21.8680 -2.2975 0.8819
-20.6884 -21.8487 -2.2062 0.8863
-19.1104 -21.8814 -2.1301 0.8900
-18.2562 -21.7720 -2.0833 0.8923
-17.6380 -21.9152 -2.0627 0.8933
-17.3197 -22.4287 -2.0778 0.8926
-15.5368 -21.8857 -1.9680 0.8979
-13.0140 -21.8644 -1.8656 0.9030
-13.2891 -24.5193 -2.0449 0.8942
-11.3116 -21.9114 -1.8081 0.9058
-8.2796 -25.3524 -1.9555 0.8986
17.9355 -16.7748 -2.3576 0.9060
18.2700 -16.4114 -2.3578 0.9060
18.5972 -16.0414 -2.3579 0.9060
19.2288 -15.2818 -2.3581 0.9060
20.1176 -14.0961 -2.3583 0.9060
20.3977 -13.6892 -2.3584 0.9060
20.6696 -13.2767 -2.3585 0.9060
21.4345 -12.0072 -2.3587 0.9060
21.9012 -11.1361 -2.3588 0.9060
23.4688 -10.7683 -2.4790 0.9014
24.2015 -9.9468 -2.5121 0.9002
24.5827 -8.9658 -2.5121 0.9002
24.9240 -7.9702 -2.5122 0.9002
25.5991 -5.4280 -2.5123 0.9002
25.7032 -4.9121 -2.5123 0.9002
25.9525 -3.3533 -2.5123 0.9002
26.0660 -2.3068 -2.5122 0.9002
26.1069 -1.7822 -2.5122 0.9002
26.1660 -0.2047 -2.5121 0.9002
26.1522 0.8477 -2.5121 0.9002
26.1293 1.3734 -2.5120 0.9002
26.0959 1.8986 -2.5120 0.9002
26.0519 2.4229 -2.5119 0.9002
25.7702 4.5082 -2.5116 0.9002
25.5666 5.5405 -2.5115 0.9002
25.4491 6.0534 -2.5114 0.9002
25.3213 6.5637 -2.5113 0.9002
25.0351 7.5761 -2.5111 0.9002
23.0354 8.5182 -2.3579 0.9060
22.8584 8.9794 -2.3578 0.9060
22.2722 10.3399 -2.3574 0.9060
22.0587 10.7852 -2.3573 0.9060
21.8362 11.2261 -2.3572 0.9060
21.3648 12.0938 -2.3569 0.9061
19.7568 14.5801 -2.3573 0.9060
18.8745 15.7724 -2.3614 0.9059
17.9185 16.9096 -2.3653 0.9057
16.5350 18.3317 -2.3701 0.9056
9.3006 10.7378 -1.3638 0.9445
15.7991 18.9996 -2.3723 0.9055
15.0356 19.6369 -2.3744 0.9054
7.8606 10.7055 -1.2751 0.9480
7.9073 12.8136 -1.4455 0.9413
12.5914 21.3532 -2.3799 0.9052
12.1635 21.6094 -2.3807 0.9052
11.7302 21.8566 -2.3814 0.9051
9.9471 22.7545 -2.3842 0.9050
9.4899 22.9556 -2.3847 0.9050
9.0283 23.1471 -2.3853 0.9050
7.1444 23.8156 -2.3871 0.9049
6.6650 23.9582 -2.3874 0.9049
6.1827 24.0906 -2.3878 0.9049
4.7201 24.4268 -2.3885 0.9049
4.2283 24.5186 -2.3886 0.9049
3.7345 24.6000 -2.3888 0.9049
3.2392 24.6711 -2.3889 0.9048
2.7424 24.7319 -2.3889 0.9048
1.7457 24.8221 -2.3889 0.9048
0.4941 16.4714 -1.5820 0.9359
0.1626 16.4678 -1.5811 0.9360
-0.4997 16.4605 -1.5810 0.9360
-0.8311 16.4568 -1.5819 0.9359
-1.1631 16.4532 -1.5835 0.9359
-1.4958 16.4495 -1.5858 0.9358
-2.5016 16.4385 -1.5963 0.9354
-3.5247 16.4272 -1.6130 0.9347
-3.8709 16.4234 -1.6199 0.9344
-5.6560 16.4038 -1.6658 0.9327
-6.0262 16.3997 -1.6774 0.9322
-7.5649 16.3828 -1.7324 0.9301
-7.9663 16.3784 -1.7485 0.9294
-8.7928 16.3693 -1.7839 0.9281
-10.0395 16.2555 -1.8343 0.9261
-12.1826 17.2977 -2.0312 0.9185
-12.4755 16.2811 -1.9692 0.9209
-13.5452 16.2771 -2.0330 0.9184
-14.0519 16.2114 -2.0597 0.9174
-15.3633 16.3470 -2.1537 0.9138
-17.2099 16.2291 -2.2710 0.9093
-17.6764 16.0097 -2.2896 0.9086
-18.4708 16.0651 -2.3502 0.9063
-8.4732 6.5154 -1.0262 0.9580
-8.5316 6.0303 -1.0030 0.9589
-8.6766 5.6236 -0.9927 0.9593
-8.9147 5.5266 -1.0070 0.9587
-9.7112 5.4925 -1.0711 0.9562
-10.1345 5.4659 -1.1055 0.9548
-10.5736 5.4311 -1.1412 0.9534
-11.0935 5.4190 -1.1853 0.9516
-15.9113 5.5162 -1.6168 0.9346
-16.8375 5.4606 -1.6994 0.9313
-25.3624 5.4867 -2.4912 0.9010
-25.4675 4.9755 -2.4912 0.9010
-25.5624 4.4623 -2.4912 0.9010
-25.8388 2.3937 -2.4913 0.9010
-25.9146 1.3527 -2.4913 0.9010
-25.9368 0.8313 -2.4913 0.9010
-25.9500 -0.2124 -2.4914 0.9010
-25.9409 -0.7343 -2.4915 0.9010
-25.9214 -1.2558 -2.4915 0.9010
-25.8914 -1.7769 -2.4915 0.9010
-25.7389 -3.3352 -2.4917 0.9010
-25.3905 -5.3934 -2.4920 0.9009
-25.2778 -5.9031 -2.4921 0.9009
-25.0217 -6.9154 -2.4923 0.9009
-24.7252 -7.9166 -2.4924 0.9009
-24.5620 -8.4125 -2.4925 0.9009
-24.3889 -8.9052 -2.4927 0.9009
-23.8107 -10.3610 -2.4930 0.9009
-23.5987 -10.8383 -2.4931 0.9009
-23.3638 -11.3048 -2.4918 0.9010
-22.9195 -11.6644 -2.4690 0.9018
-19.0990 -15.1899 -2.3428 0.9066
-18.7908 -15.5720 -2.3430 0.9066
-18.4751 -15.9477 -2.3431 0.9066
-16.4277 -18.0632 -2.3441 0.9065
-16.0623 -18.3913 -2.3442 0.9065
-15.6903 -18.7119 -2.3444 0.9065
-14.9273 -19.3307 -2.3448 0.9065
-14.1401 -19.9183 -2.3451 0.9065
-13.7377 -20.2002 -2.3453 0.9065
-13.3297 -20.4740 -2.3455 0.9065
-12.4976 -20.9967 -2.3458 0.9065
-11.6450 -21.4857 -2.3462 0.9065
-11.2114 -21.7173 -2.3464 0.9065
-9.5820 -21.6766 -2.2753 0.9092
-9.0630 -21.6708 -2.2551 0.9099
-8.1072 -21.8103 -2.2339 0.9107
-7.6096 -21.8049 -2.2172 0.9114
14.7560 -13.2549 -2.3561 0.9232
15.0201 -12.9559 -2.3562 0.9232
15.2781 -12.6517 -2.3563 0.9232
15.7756 -12.0278 -2.3564 0.9232
18.1879 -10.6746 -2.5051 0.9186
18.4334 -10.3261 -2.5098 0.9184
18.6378 -9.9535 -2.5098 0.9184
18.8346 -9.5768 -2.5099 0.9184
19.2052 -8.8120 -2.5100 0.9184
19.7025 -7.6382 -2.5101 0.9184
19.8523 -7.2406 -2.5101 0.9184
19.9942 -6.8399 -2.5102 0.9184
20.3707 -5.6220 -2.5102 0.9184
20.5805 -4.7983 -2.5102 0.9184
20.7569 -3.9668 -2.5103 0.9184
20.9583 -2.7080 -2.5102 0.9184
21.0084 -2.2859 -2.5102 0.9184
21.0831 -1.4392 -2.5102 0.9184
21.1076 -1.0149 -2.5102 0.9184
21.1309 -0.1653 -2.5101 0.9184
21.1297 0.2597 -2.5101 0.9184
21.0746 1.5333 -2.5100 0.9184
20.9951 2.3794 -2.5099 0.9184
20.8816 3.2217 -2.5098 0.9184
20.8121 3.6408 -2.5097 0.9184
20.7342 4.0586 -2.5097 0.9184
20.6479 4.4746 -2.5096 0.9184
20.0914 6.5239 -2.5092 0.9184
19.9555 6.9264 -2.5092 0.9184
19.6471 7.7179 -2.5074 0.9185
17.8166 8.7111 -2.3558 0.9232
17.6371 9.0673 -2.3557 0.9232
16.8484 10.4535 -2.3553 0.9232
16.6340 10.7897 -2.3552 0.9232
16.4129 11.1215 -2.3550 0.9232
16.1851 11.4488 -2.3549 0.9232
15.9508 11.7714 -2.3548 0.9233
15.7100 12.0892 -2.3547 0.9233
15.4629 12.4020 -2.3546 0.9233
14.4132 13.6016 -2.3541 0.9233
13.8531 14.1687 -2.3538 0.9233
9.2347 9.8331 -1.6024 0.9471
9.0228 10.0033 -1.6002 0.9472
8.9118 10.7171 -1.6557 0.9454
8.5500 10.7131 -1.6282 0.9463
8.2373 11.2186 -1.6533 0.9455
8.5339 12.6598 -1.8136 0.9404
8.4686 13.1250 -1.8554 0.9390
10.4463 16.9279 -2.3629 0.9230
8.3451 18.0895 -2.3664 0.9229
7.9813 18.2575 -2.3669 0.9229
6.8696 18.7160 -2.3682 0.9228
5.7311 19.1045 -2.3693 0.9228
4.9593 19.3239 -2.3698 0.9228
4.5701 19.4216 -2.3700 0.9228
3.7860 19.5927 -2.3704 0.9228
3.3914 19.6660 -2.3705 0.9228
2.5980 19.7880 -2.3707 0.9228
2.1996 19.8366 -2.3708 0.9228
1.8002 19.8770 -2.3708 0.9228
1.4001 19.9090 -2.3708 0.9228
0.9994 19.9327 -2.3707 0.9228
0.4941 16.4714 -1.9575 0.9358
0.1626 16.4678 -1.9562 0.9358
-0.1686 16.4641 -1.9558 0.9358
-1.1631 16.4532 -1.9593 0.9357
-1.4959 16.4496 -1.9620 0.9356
-2.4942 16.3892 -1.9692 0.9354
-2.8317 16.3849 -1.9751 0.9352
-3.1716 16.3811 -1.9820 0.9350
-3.5247 16.4272 -1.9957 0.9346
-3.8709 16.4234 -2.0043 0.9343
-4.2203 16.4196 -2.0138 0.9340
-4.5731 16.4157 -2.0242 0.9337
-5.2906 16.4078 -2.0478 0.9329
-5.6388 16.3540 -2.0549 0.9327
-6.3824 16.3458 -2.0844 0.9318
-6.7626 16.3416 -2.1008 0.9312
-7.1489 16.3374 -2.1183 0.9307
-7.9422 16.3287 -2.1569 0.9295
-8.7928 16.3693 -2.2072 0.9279
-10.0395 16.2556 -2.2695 0.9259
-11.7236 15.9545 -2.3518 0.9233
-12.6478 15.1986 -2.3487 0.9234
-12.9451 14.9345 -2.3477 0.9235
-13.2367 14.6644 -2.3466 0.9235
-13.5226 14.3885 -2.3455 0.9235
-7.3507 6.9317 -1.2002 0.9601
-7.3860 6.6896 -1.1837 0.9607
-7.4353 6.4668 -1.1705 0.9611
-7.6003 6.0913 -1.1570 0.9615
-7.7074 5.9265 -1.1549 0.9616
-8.1831 5.5406 -1.1739 0.9610
-8.4431 5.4723 -1.1952 0.9603
-8.7609 5.4313 -1.2244 0.9593
-9.1282 5.4079 -1.2603 0.9582
-9.5954 5.4270 -1.3095 0.9566
-9.9777 5.3813 -1.3466 0.9554
-10.4565 5.3709 -1.3964 0.9538
-14.7796 6.4971 -1.9178 0.9370
-14.9429 5.8637 -1.9068 0.9374
-15.7877 5.4734 -1.9849 0.9349
-17.0215 5.5203 -2.1256 0.9305
-18.1621 5.4890 -2.2538 0.9264
-20.2102 5.6670 -2.4933 0.9189
-20.5148 4.4380 -2.4932 0.9189
-20.5999 4.0245 -2.4932 0.9189
-20.6766 3.6094 -2.4932 0.9189
-20.8051 2.7750 -2.4932 0.9189
-20.8568 2.3561 -2.4933 0.9189
-20.9350 1.5154 -2.4933 0.9189
-20.9613 1.0942 -2.4933 0.9189
-20.9793 0.6724 -2.4933 0.9189
-20.9888 0.2503 -2.4934 0.9189
-20.9899 -0.1718 -2.4934 0.9189
-20.8682 -2.2783 -2.4936 0.9189
-20.8186 -2.6976 -2.4936 0.9189
-20.7606 -3.1158 -2.4937 0.9189
-20.6194 -3.9484 -2.4938 0.9189
-20.5364 -4.3623 -2.4939 0.9189
-20.4450 -4.7745 -2.4939 0.9189
-20.2376 -5.5932 -2.4941 0.9189
-19.7252 -7.2023 -2.4944 0.9189
-19.5771 -7.5978 -2.4945 0.9189
-19.4210 -7.9903 -2.4946 0.9189
-19.0854 -8.7655 -2.4948 0.9189
-18.9060 -9.1479 -2.4949 0.9189
-18.3223 -10.2725 -2.4952 0.9189
-17.6393 -11.3392 -2.4909 0.9190
-16.3961 -11.4974 -2.3788 0.9225
-15.9242 -11.6511 -2.3438 0.9236
-15.6874 -11.9696 -2.3439 0.9236
-15.4443 -12.2833 -2.3441 0.9236
-14.9395 -12.8958 -2.3443 0.9236
-14.6779 -13.1943 -2.3444 0.9236
-13.8579 -14.0577 -2.3448 0.9236
-13.2828 -14.6053 -2.3451 0.9236
-12.9872 -14.8703 -2.3452 0.9236
-12.3802 -15.3824 -2.3455 0.9235
-11.4322 -16.1039 -2.3459 0.9235
-11.1067 -16.3315 -2.3461 0.9235
-10.1036 -16.9747 -2.3465 0.9235
-9.4140 -17.3696 -2.3468 0.9235
-7.9898 -18.0746 -2.3474 0.9235
-7.2575 -18.3838 -2.3477 0.9235
-6.8868 -18.5273 -2.3479 0.9235
-6.5132 -18.6633 -2.3481 0.9235
13.2189 -10.9464 -2.4318 0.9330
13.7494 -10.9271 -2.4884 0.9315
15.4457 -8.6524 -2.5085 0.9310
15.7817 -8.0245 -2.5086 0.9310
16.0921 -7.3837 -2.5086 0.9310
16.2376 -7.0586 -2.5087 0.9310
16.5087 -6.4001 -2.5087 0.9310
16.7531 -5.7312 -2.5088 0.9310
16.9703 -5.0529 -2.5088 0.9310
17.0685 -4.7106 -2.5088 0.9310
17.1599 -4.3664 -2.5089 0.9310
17.3217 -3.6729 -2.5089 0.9310
17.3921 -3.3238 -2.5089 0.9310
17.4554 -2.9733 -2.5089 0.9310
17.6028 -1.9154 -2.5089 0.9310
17.6377 -1.5610 -2.5088 0.9310
17.6860 -0.8504 -2.5088 0.9310
17.7046 0.2176 -2.5087 0.9310
17.6811 0.9293 -2.5087 0.9310
17.6586 1.2847 -2.5086 0.9310
17.4971 2.6995 -2.5085 0.9310
17.4389 3.0507 -2.5084 0.9310
17.3737 3.4008 -2.5084 0.9310
17.3014 3.7494 -2.5083 0.9310
17.2221 4.0965 -2.5083 0.9310
17.0426 4.7855 -2.5082 0.9310
16.9425 5.1271 -2.5081 0.9310
16.7217 5.8040 -2.5080 0.9310
16.4738 6.4714 -2.5078 0.9310
16.1993 7.1282 -2.5076 0.9310
15.8769 7.7628 -2.5041 0.9311
14.8484 8.0152 -2.3908 0.9341
14.4611 8.1859 -2.3545 0.9351
14.2930 8.4747 -2.3544 0.9351
14.1192 8.7601 -2.3543 0.9351
13.9396 9.0420 -2.3542 0.9351
13.1657 10.1313 -2.3538 0.9351
12.9587 10.3935 -2.3537 0.9351
12.7466 10.6516 -2.3536 0.9351
12.3068 11.1546 -2.3534 0.9351
12.0794 11.3993 -2.3533 0.9351
9.3178 9.9217 -1.9285 0.9465
8.9118 10.7171 -1.9749 0.9452
8.5672 10.7347 -1.9460 0.9460
8.8529 12.0570 -2.1194 0.9414
8.8348 12.5538 -2.1751 0.9399
9.2786 13.7646 -2.3520 0.9351
8.4334 14.3019 -2.3525 0.9351
7.5605 14.7940 -2.3540 0.9351
7.2629 14.9459 -2.3545 0.9351
6.9622 15.0918 -2.3549 0.9351
6.0424 15.4918 -2.3561 0.9350
5.4161 15.7265 -2.3567 0.9350
5.0993 15.8342 -2.3570 0.9350
4.4594 16.0299 -2.3575 0.9350
3.8118 16.1991 -2.3579 0.9350
3.4855 16.2736 -2.3581 0.9350
2.1669 16.5039 -2.3585 0.9350
1.8345 16.5444 -2.3585 0.9350
1.5015 16.5780 -2.3585 0.9350
0.8336 16.6246 -2.3585 0.9350
0.4941 16.4715 -2.3349 0.9356
-0.1686 16.4642 -2.3329 0.9356
-0.4997 16.4605 -2.3334 0.9356
-0.8311 16.4569 -2.3347 0.9356
-1.1631 16.4532 -2.3371 0.9355
-1.4958 16.4496 -2.3403 0.9354
-2.1715 16.4925 -2.3570 0.9350
-2.5024 16.4435 -2.3567 0.9350
-2.8322 16.3876 -2.3564 0.9350
-3.1607 16.3250 -2.3560 0.9350
-3.8134 16.1795 -2.3553 0.9350
-4.1373 16.0967 -2.3549 0.9351
-4.4594 16.0073 -2.3544 0.9351
-5.0974 15.8087 -2.3535 0.9351
-6.3455 15.3338 -2.3513 0.9352
-6.9534 15.0585 -2.3501 0.9352
-7.2529 14.9115 -2.3495 0.9352
-7.5492 14.7585 -2.3488 0.9352
-8.1317 14.4345 -2.3474 0.9353
-8.4178 14.2636 -2.3467 0.9353
-8.7002 14.0870 -2.3460 0.9353
-9.7979 13.3337 -2.3445 0.9353
-10.5829 12.7172 -2.3442 0.9353
-11.0849 12.2805 -2.3440 0.9353
-11.5690 11.8240 -2.3439 0.9354
-7.1901 7.0588 -1.4276 0.9601
-7.2023 6.5233 -1.3768 0.9615
-7.1085 6.1827 -1.3349 0.9627
-7.1636 5.9818 -1.3223 0.9630
-7.2370 5.8001 -1.3141 0.9632
-7.3312 5.6372 -1.3103 0.9633
-7.4835 5.5185 -1.3175 0.9631
-7.7178 5.4551 -1.3391 0.9625
-9.0978 5.3899 -1.4983 0.9582
-16.2579 6.7601 -2.4948 0.9313
-15.3245 5.6605 -2.3147 0.9361
-15.7932 5.4753 -2.3684 0.9347
-16.9525 4.7536 -2.4946 0.9313
-17.0446 4.4117 -2.4946 0.9313
-17.1298 4.0680 -2.4946 0.9313
-17.2081 3.7226 -2.4946 0.9313
-17.3439 3.0276 -2.4946 0.9313
-17.4517 2.3277 -2.4946 0.9313
-17.4950 1.9763 -2.4946 0.9313
-17.5313 1.6241 -2.4946 0.9313
-17.5826 0.9178 -2.4947 0.9313
-17.6064 -0.1441 -2.4947 0.9313
-17.5664 -1.2056 -2.4948 0.9313
-17.5388 -1.5586 -2.4949 0.9313
-17.4625 -2.2627 -2.4949 0.9313
-17.4138 -2.6135 -2.4950 0.9313
-17.2255 -3.6590 -2.4951 0.9313
-17.1488 -4.0048 -2.4952 0.9313
-16.9747 -4.6914 -2.4953 0.9313
-16.6622 -5.7069 -2.4955 0.9313
-16.5446 -6.0410 -2.4956 0.9313
-16.4202 -6.3727 -2.4956 0.9313
-16.2892 -6.7018 -2.4957 0.9313
-16.1517 -7.0282 -2.4958 0.9313
-15.8570 -7.6725 -2.4960 0.9313
-15.7001 -7.9902 -2.4960 0.9313
-15.5367 -8.3046 -2.4961 0.9313
-15.3671 -8.6157 -2.4962 0.9313
-15.1913 -8.9233 -2.4963 0.9313
-15.0093 -9.2274 -2.4964 0.9313
-14.8213 -9.5277 -2.4965 0.9313
-14.6273 -9.8243 -2.4966 0.9313
-14.4273 -10.1168 -2.4967 0.9313
-14.2215 -10.4054 -2.4968 0.9313
-14.0100 -10.6897 -2.4969 0.9313
-13.7915 -10.9688 -2.4968 0.9313
-13.5447 -11.2245 -2.4925 0.9314
-12.6720 -11.3912 -2.4143 0.9335
-11.3825 -12.0209 -2.3456 0.9353
-10.8910 -12.4701 -2.3459 0.9353
-10.6385 -12.6873 -2.3460 0.9353
-10.3817 -12.8993 -2.3461 0.9353
-9.8556 -13.3077 -2.3463 0.9353
-9.5865 -13.5039 -2.3465 0.9353
-9.3134 -13.6947 -2.3466 0.9353
-9.0366 -13.8799 -2.3467 0.9353
-8.4721 -14.2336 -2.3470 0.9353
-8.1845 -14.4019 -2.3471 0.9353
-7.8937 -14.5644 -2.3472 0.9353
-7.3024 -14.8716 -2.3475 0.9353
-7.0022 -15.0163 -2.3476 0.9353
-6.6992 -15.1549 -2.3477 0.9353
-6.3934 -15.2875 -2.3479 0.9352
-6.0850 -15.4138 -2.3480 0.9352
-5.7741 -15.5339 -2.3481 0.9352
11.1138 -10.3946 -2.5069 0.9402
11.3209 -10.1692 -2.5069 0.9402
11.7213 -9.7063 -2.5071 0.9402
11.9144 -9.4688 -2.5071 0.9402
12.1027 -9.2275 -2.5072 0.9402
12.2861 -8.9824 -2.5072 0.9402
12.4645 -8.7337 -2.5073 0.9402
12.6379 -8.4815 -2.5073 0.9402
12.9692 -7.9667 -2.5074 0.9402
13.4267 -7.1705 -2.5076 0.9402
13.5684 -6.8991 -2.5076 0.9402
13.8352 -6.3481 -2.5077 0.9402
14.0796 -5.7867 -2.5077 0.9402
14.1933 -5.5025 -2.5078 0.9402
14.5900 -4.3442 -2.5078 0.9402
14.6745 -4.0499 -2.5078 0.9402
14.8921 -3.1577 -2.5079 0.9402
14.9526 -2.8576 -2.5079 0.9402
15.0554 -2.2540 -2.5079 0.9402
15.0977 -1.9507 -2.5079 0.9402
15.1638 -1.3420 -2.5078 0.9402
15.1877 -1.0368 -2.5078 0.9402
15.2054 -0.7311 -2.5078 0.9402
15.2223 -0.1191 -2.5078 0.9402
15.2214 0.1871 -2.5078 0.9402
15.2013 0.7990 -2.5077 0.9402
15.1249 1.7141 -2.5076 0.9402
15.0871 2.0179 -2.5076 0.9402
14.9933 2.6229 -2.5075 0.9402
14.9372 2.9238 -2.5074 0.9402
14.8070 3.5220 -2.5074 0.9402
14.6528 4.1145 -2.5072 0.9402
14.3770 4.9902 -2.5071 0.9402
14.0489 5.8476 -2.5069 0.9402
13.9281 6.1288 -2.5068 0.9402
13.6696 6.6835 -2.5067 0.9402
13.5320 6.9569 -2.5066 0.9402
13.2405 7.4950 -2.5064 0.9402
12.2846 7.9685 -2.4122 0.9424
11.4939 8.4823 -2.3533 0.9437
11.1427 8.9370 -2.3531 0.9437
10.7735 9.3771 -2.3529 0.9437
10.5823 9.5915 -2.3528 0.9437
10.3868 9.8020 -2.3527 0.9437
9.9835 10.2109 -2.3526 0.9438
9.7757 10.4092 -2.3525 0.9438
9.0227 10.0032 -2.2192 0.9469
8.9839 10.8037 -2.3147 0.9446
8.3150 11.3244 -2.3144 0.9446
7.9791 11.8367 -2.3516 0.9438
7.7391 11.9943 -2.3515 0.9438
7.4959 12.1469 -2.3514 0.9438
6.7489 12.5751 -2.3511 0.9438
6.2372 12.8351 -2.3509 0.9438
5.9775 12.9573 -2.3508 0.9438
5.7154 13.0743 -2.3507 0.9438
4.9159 13.3932 -2.3503 0.9438
4.6454 13.4887 -2.3502 0.9438
4.3729 13.5787 -2.3501 0.9438
4.0988 13.6632 -2.3500 0.9438
3.8230 13.7422 -2.3499 0.9438
2.4238 14.0549 -2.3496 0.9438
1.2866 14.2053 -2.3497 0.9438
1.0006 14.2282 -2.3497 0.9438
0.4276 14.2564 -2.3496 0.9438
0.1408 14.2617 -2.3496 0.9438
-0.1460 14.2610 -2.3495 0.9438
-0.4327 14.2545 -2.3493 0.9438
-1.0055 14.2237 -2.3490 0.9438
-1.5764 14.1694 -2.3487 0.9438
-1.8609 14.1334 -2.3484 0.9438
-2.4272 14.0441 -2.3479 0.9439
-2.7088 13.9907 -2.3476 0.9439
-2.9892 13.9316 -2.3473 0.9439
-3.2684 13.8670 -2.3470 0.9439
-4.3714 13.5570 -2.3466 0.9439
-4.6430 13.4658 -2.3465 0.9439
-4.9126 13.3692 -2.3464 0.9439
-5.9701 12.9290 -2.3460 0.9439
-6.7381 12.5440 -2.3457 0.9439
-7.4814 12.1135 -2.3455 0.9439
-7.9618 11.8020 -2.3453 0.9439
-8.4294 11.4715 -2.3451 0.9439
-8.6581 11.2992 -2.3451 0.9439
-9.1049 10.9412 -2.3449 0.9439
-9.5369 10.5656 -2.3448 0.9439
-9.7472 10.3713 -2.3447 0.9439
-7.1004 7.2569 -1.6725 0.9597
-7.0510 6.6491 -1.5966 0.9615
-7.0513 6.3865 -1.5673 0.9622
-7.1489 6.2178 -1.5608 0.9623
-7.1796 5.7541 -1.5157 0.9634
-7.3858 5.4465 -1.5118 0.9635
-8.5344 5.7785 -1.6979 0.9591
-8.3116 5.3871 -1.6317 0.9606
-10.0145 5.4012 -1.8744 0.9549
-13.9886 5.8165 -2.4957 0.9404
-14.1026 5.5340 -2.4957 0.9404
-14.2109 5.2492 -2.4957 0.9404
-14.3134 4.9623 -2.4957 0.9404
-14.5012 4.3826 -2.4956 0.9404
-14.5863 4.0901 -2.4956 0.9404
-14.8063 3.2031 -2.4956 0.9404
-14.8677 2.9046 -2.4956 0.9404
-14.9725 2.3044 -2.4956 0.9404
-15.0158 2.0028 -2.4956 0.9404
-15.0531 1.7005 -2.4956 0.9404
-15.1414 0.4853 -2.4957 0.9404
-15.1482 0.1807 -2.4957 0.9404
-15.1489 -0.1240 -2.4957 0.9404
-15.1435 -0.4286 -2.4957 0.9404
-15.1320 -0.7331 -2.4958 0.9404
-15.1143 -1.0373 -2.4958 0.9404
-15.0906 -1.3411 -2.4958 0.9404
-15.0608 -1.6443 -2.4958 0.9404
-15.0249 -1.9469 -2.4959 0.9404
-14.9349 -2.5496 -2.4960 0.9404
-14.6828 -3.7418 -2.4961 0.9404
-14.6049 -4.0364 -2.4962 0.9404
-14.2346 -5.1975 -2.4964 0.9404
-14.1276 -5.4829 -2.4965 0.9404
-13.8964 -6.0469 -2.4966 0.9404
-13.7723 -6.3253 -2.4967 0.9404
-13.6428 -6.6012 -2.4968 0.9404
-13.5076 -6.8744 -2.4968 0.9404
-13.3671 -7.1449 -2.4969 0.9404
-12.7513 -8.1970 -2.4972 0.9404
-12.5843 -8.4521 -2.4973 0.9404
-12.2351 -8.9519 -2.4975 0.9404
-11.8660 -9.4374 -2.4977 0.9404
-11.4778 -9.9077 -2.4979 0.9404
-11.0709 -10.3620 -2.4981 0.9404
-10.1819 -11.1956 -2.4930 0.9405
-9.8878 -11.3215 -2.4763 0.9409
-9.4935 -11.3218 -2.4341 0.9419
-9.1125 -11.3223 -2.3943 0.9428
-8.4781 -11.4477 -2.3468 0.9439
-8.2466 -11.6164 -2.3469 0.9439
-8.0116 -11.7805 -2.3470 0.9439
-7.7735 -11.9397 -2.3471 0.9439
-5.7624 -13.0357 -2.3480 0.9439
-4.6971 -13.4592 -2.3484 0.9438
-4.4257 -13.5517 -2.3485 0.9438
9.7383 -9.1081 -2.5062 0.9472
9.9197 -8.9106 -2.5063 0.9472
10.0971 -8.7095 -2.5064 0.9472
10.2704 -8.5048 -2.5064 0.9472
10.4397 -8.2968 -2.5065 0.9472
10.6046 -8.0853 -2.5065 0.9472
11.0735 -7.4315 -2.5067 0.9472
11.2209 -7.2075 -2.5067 0.9472
11.3637 -6.9805 -2.5067 0.9472
11.6356 -6.5180 -2.5068 0.9472
12.1224 -5.5622 -2.5069 0.9472
12.2319 -5.3173 -2.5070 0.9472
12.3365 -5.0703 -2.5070 0.9472
12.4361 -4.8212 -2.5070 0.9472
12.6201 -4.3173 -2.5070 0.9472
12.7044 -4.0626 -2.5071 0.9472
12.9265 -3.2892 -2.5071 0.9472
13.0483 -2.7668 -2.5071 0.9472
13.2601 -1.4428 -2.5071 0.9472
13.2864 -1.1759 -2.5071 0.9472
13.3228 -0.6406 -2.5071 0.9472
13.3376 -0.1043 -2.5070 0.9472
13.3369 0.1639 -2.5070 0.9472
13.3193 0.7001 -2.5070 0.9472
13.3024 0.9678 -2.5069 0.9472
13.2801 1.2351 -2.5069 0.9472
13.2194 1.7681 -2.5068 0.9472
13.1372 2.2982 -2.5068 0.9472
13.0337 2.8246 -2.5067 0.9472
12.9092 3.3463 -2.5066 0.9472
12.7637 3.8626 -2.5065 0.9472
12.6831 4.1184 -2.5065 0.9472
12.5068 4.6249 -2.5064 0.9472
12.4109 4.8753 -2.5063 0.9472
12.3101 5.1238 -2.5062 0.9472
12.2043 5.3702 -2.5062 0.9472
11.9778 5.8564 -2.5061 0.9472
11.8573 6.0959 -2.5060 0.9472
11.7320 6.3330 -2.5059 0.9472
11.6020 6.5675 -2.5059 0.9472
11.4672 6.7993 -2.5058 0.9472
11.3279 7.0283 -2.5057 0.9472
11.0354 7.4777 -2.5056 0.9472
10.6949 7.8926 -2.4984 0.9473
10.3046 7.9296 -2.4440 0.9485
9.6043 8.0258 -2.3526 0.9503
9.4407 8.2171 -2.3525 0.9503
9.2732 8.4050 -2.3524 0.9503
8.9271 8.7705 -2.3522 0.9503
8.3811 9.2918 -2.3520 0.9503
8.0000 9.6206 -2.3518 0.9503
7.8046 9.7792 -2.3517 0.9504
7.4045 10.0843 -2.3515 0.9504
7.1999 10.2308 -2.3514 0.9504
6.9924 10.3731 -2.3514 0.9504
6.1352 10.8997 -2.3510 0.9504
5.9145 11.0205 -2.3509 0.9504
5.4661 11.2485 -2.3507 0.9504
5.0090 11.4582 -2.3505 0.9504
4.0713 11.8217 -2.3501 0.9504
3.8325 11.9006 -2.3500 0.9504
3.3506 12.0441 -2.3498 0.9504
3.1076 12.1085 -2.3497 0.9504
2.8633 12.1681 -2.3496 0.9504
2.6179 12.2226 -2.3495 0.9504
2.3715 12.2723 -2.3494 0.9504
1.3773 12.4210 -2.3490 0.9504
1.1272 12.4457 -2.3489 0.9504
0.8766 12.4653 -2.3488 0.9504
0.6257 12.4799 -2.3487 0.9504
0.3746 12.4894 -2.3486 0.9504
-0.3791 12.4877 -2.3483 0.9504
-0.6301 12.4770 -2.3482 0.9504
-1.8792 12.3481 -2.3477 0.9504
-2.1270 12.3073 -2.3476 0.9504
-2.6200 12.2109 -2.3474 0.9504
-3.1087 12.0947 -2.3472 0.9504
-3.5923 11.9589 -2.3470 0.9504
-3.8319 11.8838 -2.3469 0.9504
-5.6846 11.1132 -2.3463 0.9505
-6.1265 10.8749 -2.3461 0.9505
-6.3437 10.7492 -2.3460 0.9505
-6.7704 10.4847 -2.3459 0.9505
-7.3896 10.0564 -2.3457 0.9505
-7.7876 9.7505 -2.3455 0.9505
-8.3607 9.2625 -2.3453 0.9505
-8.5451 9.0922 -2.3453 0.9505
-7.0122 7.1668 -1.8846 0.9600
-6.9625 6.5657 -1.7988 0.9618
-6.9864 6.0765 -1.7404 0.9630
-7.0290 5.8695 -1.7212 0.9634
-7.1641 5.5087 -1.6986 0.9639
-7.3367 5.4103 -1.7134 0.9636
-8.1330 5.5067 -1.8461 0.9608
-8.3041 5.3822 -1.8600 0.9605
-9.0810 5.3800 -1.9839 0.9580
-9.6931 5.4823 -2.0931 0.9557
-11.6907 6.3052 -2.4966 0.9474
-12.1590 5.3450 -2.4965 0.9474
-12.4589 4.6020 -2.4964 0.9474
-12.5488 4.3505 -2.4964 0.9474
-12.6337 4.0972 -2.4964 0.9474
-12.7135 3.8423 -2.4964 0.9474
-12.7881 3.5858 -2.4964 0.9474
-12.8576 3.3279 -2.4964 0.9474
-12.9810 2.8082 -2.4964 0.9474
-13.1267 2.0203 -2.4964 0.9474
-13.1647 1.7559 -2.4964 0.9474
-13.2247 1.2251 -2.4964 0.9474
-13.2634 0.6923 -2.4964 0.9474
-13.2747 0.4255 -2.4964 0.9474
-13.2765 -0.3758 -2.4965 0.9474
-13.2301 -1.1757 -2.4965 0.9474
-13.0935 -2.2352 -2.4967 0.9474
-13.0461 -2.4981 -2.4967 0.9474
-12.9934 -2.7600 -2.4967 0.9474
-12.8724 -3.2804 -2.4968 0.9474
-12.8040 -3.5387 -2.4969 0.9474
-12.4792 -4.5566 -2.4971 0.9474
-12.3854 -4.8067 -2.4971 0.9474
-12.2865 -5.0550 -2.4972 0.9474
-11.8417 -6.0266 -2.4974 0.9474
-11.7184 -6.2636 -2.4975 0.9474
-11.5904 -6.4982 -2.4976 0.9474
-11.3203 -6.9595 -2.4977 0.9474
-11.1784 -7.1859 -2.4978 0.9474
-11.0319 -7.4095 -2.4979 0.9473
-10.8810 -7.6301 -2.4979 0.9473
-10.7257 -7.8476 -2.4980 0.9473
-10.5660 -8.0620 -2.4981 0.9473
-10.4021 -8.2731 -2.4982 0.9473
-9.8853 -8.8862 -2.4984 0.9473
-9.7049 -9.0835 -2.4985 0.9473
-9.5206 -9.2771 -2.4986 0.9473
-9.3325 -9.4671 -2.4987 0.9473
-9.1405 -9.6532 -2.4988 0.9473
-8.9449 -9.8354 -2.4989 0.9473
-8.7456 -10.0137 -2.4990 0.9473
-8.3364 -10.3581 -2.4991 0.9473
-8.1268 -10.5240 -2.4992 0.9473
-7.9138 -10.6857 -2.4993 0.9473
-7.6970 -10.8423 -2.4992 0.9473
-7.4703 -10.9845 -2.4969 0.9474
-7.2412 -11.1223 -2.4946 0.9474
-7.0098 -11.2556 -2.4923 0.9475
-6.7078 -11.2695 -2.4650 0.9480
-6.1081 -11.2699 -2.4094 0.9492
-5.8179 -11.2698 -2.3839 0.9497
-4.5877 -11.6209 -2.3483 0.9504
-4.3532 -11.7113 -2.3484 0.9504
-4.1170 -11.7970 -2.3485 0.9504
8.6576 -8.0974 -2.5057 0.9527
8.8189 -7.9218 -2.5058 0.9527
8.9766 -7.7430 -2.5058 0.9527
9.2811 -7.3760 -2.5059 0.9527
9.8445 -6.6067 -2.5061 0.9527
9.9755 -6.4075 -2.5061 0.9527
10.1025 -6.2057 -2.5062 0.9527
10.2254 -6.0014 -2.5062 0.9527
10.3441 -5.7946 -2.5062 0.9527
10.4587 -5.5855 -2.5063 0.9527
10.5691 -5.3741 -2.5063 0.9527
10.9672 -4.5075 -2.5064 0.9527
11.2192 -3.8380 -2.5065 0.9527
11.4304 -3.1546 -2.5065 0.9527
11.4916 -2.9241 -2.5065 0.9527
11.5481 -2.6924 -2.5065 0.9527
11.5999 -2.4596 -2.5065 0.9527
11.6895 -1.9912 -2.5065 0.9527
11.7271 -1.7557 -2.5065 0.9527
11.7600 -1.5195 -2.5065 0.9527
11.8116 -1.0453 -2.5065 0.9527
11.8302 -0.8076 -2.5065 0.9527
11.8440 -0.5695 -2.5065 0.9527
11.8530 -0.3312 -2.5065 0.9527
11.8571 -0.0928 -2.5064 0.9527
11.8565 0.1457 -2.5064 0.9527
11.8511 0.3841 -2.5064 0.9527
11.8409 0.6224 -2.5064 0.9527
11.8259 0.8604 -2.5064 0.9527
11.8061 1.0980 -2.5063 0.9527
11.7815 1.3352 -2.5063 0.9527
11.7521 1.5718 -2.5063 0.9527
11.7180 1.8079 -2.5062 0.9527
11.6791 2.0431 -2.5062 0.9527
11.6355 2.2775 -2.5062 0.9527
11.5341 2.7435 -2.5061 0.9527
11.4764 2.9749 -2.5061 0.9527
11.4141 3.2050 -2.5060 0.9527
11.3471 3.4339 -2.5060 0.9527
11.2756 3.6613 -2.5059 0.9527
11.0337 4.3343 -2.5058 0.9527
10.9440 4.5552 -2.5057 0.9527
10.8500 4.7743 -2.5057 0.9527
10.7516 4.9914 -2.5056 0.9527
10.6488 5.2065 -2.5056 0.9527
10.4303 5.6303 -2.5055 0.9527
10.3147 5.8388 -2.5054 0.9527
10.1949 6.0449 -2.5053 0.9527
10.0710 6.2485 -2.5053 0.9527
9.9431 6.4496 -2.5052 0.9527
9.8111 6.6481 -2.5051 0.9527
9.6752 6.8439 -2.5051 0.9527
9.5353 7.0369 -2.5050 0.9527
9.2441 7.4142 -2.5049 0.9527
8.9188 7.7628 -2.4994 0.9528
8.0442 7.9031 -2.3837 0.9549
7.4516 8.2613 -2.3517 0.9555
7.2837 8.4092 -2.3516 0.9555
6.9392 8.6947 -2.3515 0.9555
6.7627 8.8322 -2.3514 0.9555
6.4016 9.0964 -2.3512 0.9555
6.2171 9.2230 -2.3511 0.9555
6.0302 9.3458 -2.3510 0.9555
5.4551 9.6914 -2.3508 0.9556
5.2589 9.7987 -2.3507 0.9556
5.0606 9.9022 -2.3506 0.9556
4.8602 10.0016 -2.3505 0.9556
4.4538 10.1882 -2.3504 0.9556
4.2478 10.2753 -2.3503 0.9556
2.9793 10.7095 -2.3497 0.9556
2.7632 10.7668 -2.3496 0.9556
2.5460 10.8198 -2.3496 0.9556
2.3278 10.8684 -2.3495 0.9556
1.4428 8.3663 -1.7946 0.9659
1.4467 11.0186 -2.3491 0.9556
1.0023 11.0670 -2.3489 0.9556
0.7795 11.0846 -2.3488 0.9556
0.5564 11.0975 -2.3487 0.9556
-0.3371 11.1047 -2.3484 0.9556
-1.2282 11.0400 -2.3480 0.9556
-1.6711 10.9809 -2.3479 0.9556
-1.8915 10.9447 -2.3478 0.9556
-2.1112 10.9040 -2.3477 0.9556
-2.5478 10.8096 -2.3475 0.9556
-2.7645 10.7558 -2.3474 0.9556
-3.4077 10.5684 -2.3472 0.9556
-3.8297 10.4221 -2.3470 0.9556
-4.2454 10.2590 -2.3469 0.9556
-4.4507 10.1712 -2.3468 0.9556
-4.6542 10.0793 -2.3467 0.9556
