ply
format ascii 1.0
element vertex 1586
property float32 x
property float32 y
property float32 z
property float32 I
end_header
7.2092 8.4537 -2.3485 0.9556
6.6874 8.8725 -2.3485 0.9556
6.5080 9.0050 -2.3485 0.9556
6.1414 9.2591 -2.3486 0.9556
5.7649 9.4983 -2.3486 0.9556
5.3790 9.7222 -2.3486 0.9556
4.9845 9.9304 -2.3487 0.9556
4.3779 10.2126 -2.3487 0.9556
3.7553 10.4579 -2.3488 0.9556
3.1192 10.6652 -2.3488 0.9556
2.9045 10.7257 -2.3489 0.9556
2.4716 10.8339 -2.3489 0.9556
1.8151 10.9633 -2.3490 0.9556
1.3736 11.0275 -2.3490 0.9556
1.1520 11.0529 -2.3490 0.9556
0.9299 11.0739 -2.3490 0.9556
0.7074 11.0905 -2.3491 0.9556
-0.1845 11.1119 -2.3491 0.9556
-0.6304 11.0957 -2.3492 0.9556
-0.8530 11.0809 -2.3492 0.9556
-1.5185 11.0098 -2.3493 0.9556
-1.9592 10.9401 -2.3493 0.9556
-2.3968 10.8529 -2.3494 0.9556
-3.0458 10.6892 -2.3494 0.9556
-3.2598 10.6260 -2.3494 0.9556
-3.4725 10.5586 -2.3495 0.9556
-3.8936 10.4108 -2.3495 0.9556
-4.9174 9.9687 -2.3496 0.9556
-5.5087 9.6549 -2.3497 0.9556
-5.7014 9.5425 -2.3497 0.9556
-5.8919 9.4262 -2.3497 0.9556
-6.0800 9.3061 -2.3497 0.9556
-6.2656 9.1822 -2.3498 0.9556
-6.6292 8.9235 -2.3498 0.9556
-6.9822 8.6503 -2.3498 0.9556
-7.1545 8.5085 -2.3498 0.9556
-7.4904 8.2146 -2.3499 0.9556
-7.8255 7.9188 -2.3533 0.9555
-8.9549 7.7130 -2.4982 0.9528
-9.2730 7.3598 -2.5025 0.9528
-9.6994 6.7884 -2.5025 0.9528
-9.8338 6.5924 -2.5025 0.9528
-9.3125 5.7150 -2.3096 0.9563
-10.2129 5.9887 -2.5026 0.9527
-10.3311 5.7825 -2.5026 0.9527
-10.4452 5.5740 -2.5026 0.9527
-10.5550 5.3632 -2.5026 0.9527
-10.6606 5.1503 -2.5026 0.9527
-10.7619 4.9352 -2.5026 0.9527
-10.9515 4.4993 -2.5027 0.9527
-11.0396 4.2787 -2.5027 0.9527
-11.1233 4.0562 -2.5027 0.9527
-11.3475 3.3793 -2.5027 0.9527
-11.4740 2.9211 -2.5027 0.9527
-11.5304 2.6902 -2.5028 0.9527
-11.6292 2.2253 -2.5028 0.9527
-11.6715 1.9914 -2.5028 0.9527
-11.7092 1.7567 -2.5028 0.9527
-11.7703 1.2853 -2.5028 0.9527
-11.7938 1.0487 -2.5028 0.9527
-11.8125 0.8118 -2.5028 0.9527
-11.8356 0.3370 -2.5028 0.9527
-11.8400 0.0993 -2.5028 0.9527
-11.8396 -0.1384 -2.5028 0.9527
-11.8099 -0.8508 -2.5028 0.9527
-11.7904 -1.0877 -2.5028 0.9527
-11.7373 -1.5601 -2.5028 0.9527
-11.7036 -1.7954 -2.5028 0.9527
-11.5743 -2.4966 -2.5028 0.9527
-11.5219 -2.7284 -2.5028 0.9527
-11.4030 -3.1887 -2.5028 0.9527
-11.2658 -3.6438 -2.5028 0.9527
-11.1904 -3.8692 -2.5028 0.9527
-11.1105 -4.0931 -2.5028 0.9527
-10.8439 -4.7544 -2.5028 0.9527
-10.7462 -4.9711 -2.5028 0.9527
-10.5380 -5.3984 -2.5028 0.9527
-9.6777 -6.8210 -2.5027 0.9527
-9.3961 -7.2039 -2.5027 0.9527
-9.2495 -7.3911 -2.5027 0.9527
-9.0993 -7.5752 -2.5027 0.9527
-8.9453 -7.7563 -2.5027 0.9527
-7.4055 -9.2371 -2.5026 0.9527
-6.8360 -9.6659 -2.5025 0.9528
-6.6406 -9.8011 -2.5025 0.9528
-6.4424 -9.9323 -2.5025 0.9528
-6.2417 -10.0596 -2.5025 0.9528
-6.0385 -10.1828 -2.5024 0.9528
-5.8328 -10.3019 -2.5024 0.9528
-5.4145 -10.5276 -2.5024 0.9528
-5.2017 -10.6334 -2.5022 0.9528
-4.9841 -10.7290 -2.5007 0.9528
-4.7649 -10.8204 -2.4992 0.9528
-4.5442 -10.9078 -2.4978 0.9528
-4.0984 -11.0698 -2.4951 0.9529
-3.8601 -11.1060 -2.4853 0.9531
-3.6146 -11.1143 -2.4705 0.9533
-3.3719 -11.1223 -2.4567 0.9536
-3.1317 -11.1301 -2.4440 0.9538
-2.8939 -11.1376 -2.4324 0.9540
-2.6581 -11.1449 -2.4219 0.9542
-2.4243 -11.1519 -2.4124 0.9544
-1.7322 -11.1718 -2.3897 0.9548
-1.5041 -11.1779 -2.3841 0.9549
-1.2769 -11.1839 -2.3794 0.9550
-0.5993 -11.2008 -2.3710 0.9552
-0.3742 -11.2060 -2.3700 0.9552
-0.1491 -11.2111 -2.3700 0.9552
0.0760 -11.2160 -2.3709 0.9552
0.5271 -11.2254 -2.3754 0.9551
0.7535 -11.2298 -2.3791 0.9550
1.2088 -11.2382 -2.3892 0.9548
1.6686 -11.2460 -2.4032 0.9546
1.9007 -11.2496 -2.4117 0.9544
2.3702 -11.2565 -2.4316 0.9541
2.6079 -11.2598 -2.4431 0.9538
2.8480 -11.2629 -2.4557 0.9536
3.0907 -11.2658 -2.4694 0.9534
3.8032 -11.1769 -2.4956 0.9529
4.0289 -11.1041 -2.4969 0.9529
4.2533 -11.0270 -2.4983 0.9528
4.4764 -10.9457 -2.4997 0.9528
5.1305 -10.6636 -2.5014 0.9528
6.1730 -10.0954 -2.5013 0.9528
6.3744 -9.9693 -2.5013 0.9528
6.7693 -9.7053 -2.5012 0.9528
7.1533 -9.4256 -2.5012 0.9528
9.5192 4.7541 -2.5007 0.9572
9.4219 4.9442 -2.5007 0.9572
9.1073 5.5024 -2.5008 0.9572
8.9951 5.6841 -2.5008 0.9572
8.7597 6.0406 -2.5008 0.9572
8.5102 6.3874 -2.5008 0.9572
8.3803 6.5570 -2.5008 0.9572
8.1104 6.8882 -2.5008 0.9572
7.9706 7.0496 -2.5008 0.9572
7.8213 7.2025 -2.4989 0.9573
7.6677 7.3509 -2.4964 0.9573
7.5114 7.4962 -2.4940 0.9573
6.9973 7.5677 -2.4224 0.9585
6.1738 7.8578 -2.3486 0.9598
6.0149 7.9802 -2.3486 0.9598
5.8535 8.0994 -2.3486 0.9598
5.5238 8.3279 -2.3486 0.9598
5.1851 8.5430 -2.3487 0.9598
5.0126 8.6454 -2.3487 0.9598
4.1211 9.1045 -2.3488 0.9598
3.7524 9.2627 -2.3488 0.9598
3.3776 9.4060 -2.3488 0.9598
2.9974 9.5342 -2.3489 0.9598
2.6123 9.6469 -2.3489 0.9598
2.4182 9.6975 -2.3489 0.9598
2.2230 9.7441 -2.3489 0.9598
1.8301 9.8257 -2.3490 0.9598
1.6325 9.8605 -2.3490 0.9598
1.4343 9.8914 -2.3490 0.9598
1.0361 9.9411 -2.3490 0.9598
0.8363 9.9600 -2.3491 0.9598
0.4359 9.9857 -2.3491 0.9598
0.2353 9.9925 -2.3491 0.9598
-0.3666 9.9888 -2.3492 0.9598
-0.5670 9.9795 -2.3492 0.9598
-0.7672 9.9662 -2.3492 0.9598
-1.3657 9.9022 -2.3493 0.9598
-1.7621 9.8396 -2.3493 0.9598
-2.1557 9.7611 -2.3494 0.9598
-2.5458 9.6668 -2.3494 0.9598
-2.9318 9.5570 -2.3494 0.9598
-3.6891 9.2913 -2.3495 0.9598
-3.8749 9.2155 -2.3495 0.9598
-4.0592 9.1359 -2.3495 0.9598
-4.2418 9.0526 -2.3496 0.9598
-5.2991 8.4778 -2.3497 0.9598
-5.6352 8.2584 -2.3497 0.9598
-5.7999 8.1436 -2.3497 0.9598
-6.1222 7.9044 -2.3498 0.9598
-6.6228 7.8762 -2.4185 0.9586
-6.8960 7.8746 -2.4601 0.9579
-7.1533 7.8449 -2.4951 0.9573
-7.4770 7.5662 -2.5000 0.9572
-7.7819 7.2667 -2.5023 0.9572
-7.9262 7.1090 -2.5023 0.9572
-8.2053 6.7852 -2.5024 0.9572
-8.3399 6.6192 -2.5024 0.9572
-8.5990 6.2792 -2.5024 0.9572
-8.7233 6.1054 -2.5024 0.9572
-8.9615 5.7503 -2.5025 0.9572
-9.2915 5.2006 -2.5025 0.9572
-9.4929 4.8235 -2.5025 0.9572
-9.5878 4.6320 -2.5025 0.9572
-9.7661 4.2434 -2.5026 0.9572
-9.9287 3.8480 -2.5026 0.9572
-10.0752 3.4464 -2.5026 0.9572
-10.3193 2.6272 -2.5026 0.9572
-10.4589 2.0013 -2.5027 0.9572
-10.5858 1.1559 -2.5027 0.9572
-10.6069 0.9432 -2.5027 0.9572
-10.6237 0.7300 -2.5027 0.9572
-10.6362 0.5167 -2.5027 0.9572
-10.6481 -0.1245 -2.5027 0.9572
-10.6435 -0.3382 -2.5027 0.9572
-10.6346 -0.5518 -2.5027 0.9572
-10.6213 -0.7652 -2.5027 0.9572
-10.6038 -0.9782 -2.5027 0.9572
-10.5257 -1.6147 -2.5027 0.9572
-10.4095 -2.2453 -2.5027 0.9572
-10.3623 -2.4538 -2.5027 0.9572
-10.3109 -2.6613 -2.5027 0.9572
-10.2554 -2.8678 -2.5027 0.9572
-10.1320 -3.2771 -2.5027 0.9572
-10.0642 -3.4798 -2.5027 0.9572
-9.9923 -3.6811 -2.5027 0.9572
-9.8365 -4.0793 -2.5027 0.9572
-9.7526 -4.2759 -2.5027 0.9572
-9.6648 -4.4708 -2.5027 0.9572
-9.3781 -5.0444 -2.5027 0.9572
-8.9431 -5.7803 -2.5026 0.9572
-8.8252 -5.9587 -2.5026 0.9572
-8.7038 -6.1346 -2.5026 0.9572
-8.5789 -6.3080 -2.5026 0.9572
-8.4505 -6.4789 -2.5026 0.9572
-8.1836 -6.8129 -2.5026 0.9572
-7.9034 -7.1358 -2.5026 0.9572
-7.7586 -7.2930 -2.5026 0.9572
-7.3054 -7.7467 -2.5025 0.9572
-7.1484 -7.8917 -2.5025 0.9572
-6.6603 -8.3075 -2.5025 0.9572
-6.4922 -8.4395 -2.5025 0.9572
-6.3214 -8.5681 -2.5024 0.9572
-5.7942 -8.9329 -2.5024 0.9572
-5.2459 -9.2653 -2.5024 0.9572
-5.0588 -9.3686 -2.5023 0.9572
-4.4856 -9.6559 -2.5023 0.9572
-4.2909 -9.7440 -2.5023 0.9572
-3.4953 -10.0565 -2.5022 0.9572
-3.2927 -10.1246 -2.5022 0.9572
-2.6773 -10.3042 -2.5021 0.9572
-2.2615 -10.4032 -2.5021 0.9572
-1.6312 -10.5202 -2.5020 0.9572
-1.2076 -10.5770 -2.5020 0.9572
-0.7820 -10.6168 -2.5020 0.9572
-0.5688 -10.6303 -2.5019 0.9572
-0.3553 -10.6395 -2.5019 0.9572
0.2858 -10.6413 -2.5019 0.9572
0.4993 -10.6333 -2.5018 0.9572
0.9257 -10.6045 -2.5018 0.9572
1.3506 -10.5587 -2.5017 0.9572
1.5623 -10.5293 -2.5017 0.9572
1.7733 -10.4958 -2.5017 0.9572
1.9837 -10.4579 -2.5017 0.9572
2.1932 -10.4160 -2.5017 0.9572
2.4018 -10.3697 -2.5016 0.9572
2.6095 -10.3193 -2.5016 0.9572
3.0215 -10.2061 -2.5016 0.9572
3.4287 -10.0764 -2.5015 0.9572
3.6303 -10.0055 -2.5015 0.9572
4.4210 -9.6818 -2.5014 0.9572
4.6144 -9.5910 -2.5014 0.9572
4.8060 -9.4963 -2.5014 0.9572
5.3687 -9.1896 -2.5013 0.9572
5.5521 -9.0800 -2.5013 0.9572
8.6411 4.3155 -2.5008 0.9609
8.5527 4.4881 -2.5008 0.9609
8.4609 4.6589 -2.5008 0.9609
8.1652 5.1597 -2.5008 0.9609
8.0600 5.3226 -2.5009 0.9609
7.9516 5.4833 -2.5009 0.9609
7.8399 5.6419 -2.5009 0.9609
7.7251 5.7981 -2.5009 0.9609
6.5577 7.0922 -2.5010 0.9609
6.4097 7.2176 -2.4993 0.9609
4.8614 7.6587 -2.3487 0.9632
4.7067 7.7548 -2.3487 0.9632
4.5501 7.8478 -2.3487 0.9632
4.3917 7.9376 -2.3488 0.9632
4.0696 8.1075 -2.3488 0.9632
3.4062 8.4081 -2.3488 0.9632
3.0660 8.5381 -2.3489 0.9632
2.5466 8.7073 -2.3489 0.9632
2.0179 8.8450 -2.3490 0.9632
1.8399 8.8838 -2.3490 0.9632
1.4819 8.9506 -2.3490 0.9632
1.3019 8.9786 -2.3490 0.9632
1.1214 9.0030 -2.3491 0.9632
0.9405 9.0238 -2.3491 0.9632
0.7592 9.0409 -2.3491 0.9632
0.2136 9.0704 -2.3491 0.9632
-1.2397 8.9884 -2.3493 0.9632
-1.5995 8.9315 -2.3493 0.9632
-1.7785 8.8977 -2.3493 0.9632
-1.9568 8.8602 -2.3493 0.9632
-2.3109 8.7747 -2.3494 0.9632
-2.4866 8.7266 -2.3494 0.9632
-2.8349 8.6199 -2.3494 0.9632
-3.1786 8.4993 -2.3495 0.9632
-3.5173 8.3649 -2.3495 0.9632
-4.4972 7.8820 -2.3496 0.9632
-4.6856 7.8422 -2.3653 0.9630
-4.9015 7.8417 -2.3944 0.9625
-5.1228 7.8410 -2.4251 0.9620
-5.3498 7.8402 -2.4575 0.9615
-5.5830 7.8391 -2.4918 0.9610
-6.0651 7.5141 -2.5002 0.9609
-6.2196 7.3966 -2.5022 0.9609
-6.5115 7.1411 -2.5022 0.9609
-6.6536 7.0090 -2.5022 0.9609
-7.3227 6.3071 -2.5023 0.9609
-7.5700 6.0082 -2.5023 0.9609
-7.8052 5.6995 -2.5024 0.9609
-7.9181 5.5418 -2.5024 0.9609
-8.1342 5.2195 -2.5024 0.9609
-8.2374 5.0552 -2.5024 0.9609
-8.3373 4.8888 -2.5024 0.9609
-8.4338 4.7205 -2.5024 0.9609
-8.5269 4.5503 -2.5024 0.9609
-8.7027 4.2044 -2.5025 0.9609
-8.7854 4.0288 -2.5025 0.9609
-8.8645 3.8517 -2.5025 0.9609
-8.9401 3.6730 -2.5025 0.9609
-9.0121 3.4928 -2.5025 0.9609
-9.1451 3.1283 -2.5025 0.9609
-9.2061 2.9441 -2.5025 0.9609
-9.2633 2.7587 -2.5025 0.9609
-9.3169 2.5722 -2.5025 0.9609
-9.3667 2.3846 -2.5026 0.9609
-9.4127 2.1961 -2.5026 0.9609
-9.4933 1.8166 -2.5026 0.9608
-9.5855 1.2419 -2.5026 0.9608
-9.6085 1.0492 -2.5026 0.9608
-9.6277 0.8561 -2.5026 0.9608
-9.6654 0.0811 -2.5026 0.9608
-9.6651 -0.1130 -2.5026 0.9608
-9.6608 -0.3070 -2.5026 0.9608
-9.6528 -0.5008 -2.5026 0.9608
-9.6249 -0.8879 -2.5026 0.9608
-9.5815 -1.2735 -2.5026 0.9608
-9.5540 -1.4656 -2.5026 0.9608
-9.4875 -1.8479 -2.5026 0.9608
-9.4056 -2.2273 -2.5026 0.9608
-9.3590 -2.4156 -2.5026 0.9608
-9.2545 -2.7893 -2.5026 0.9608
-9.1966 -2.9746 -2.5026 0.9608
-9.1351 -3.1586 -2.5026 0.9608
-9.0698 -3.3413 -2.5026 0.9608
-9.0009 -3.5227 -2.5026 0.9608
-8.8522 -3.8811 -2.5026 0.9608
-8.6893 -4.2333 -2.5026 0.9608
-8.6025 -4.4069 -2.5026 0.9608
-8.4186 -4.7486 -2.5026 0.9608
-8.3216 -4.9167 -2.5026 0.9608
-8.2212 -5.0827 -2.5026 0.9609
-8.0105 -5.4085 -2.5026 0.9609
-7.9003 -5.5682 -2.5025 0.9609
-7.7869 -5.7257 -2.5025 0.9609
-7.3024 -6.3318 -2.5025 0.9609
-7.1738 -6.4771 -2.5025 0.9609
-7.0423 -6.6197 -2.5025 0.9609
-6.4885 -7.1632 -2.5024 0.9609
-6.3434 -7.2920 -2.5024 0.9609
-6.1957 -7.4178 -2.5024 0.9609
-5.8929 -7.6604 -2.5024 0.9609
-5.2593 -8.1083 -2.5023 0.9609
-4.9295 -8.3128 -2.5023 0.9609
-4.7616 -8.4100 -2.5023 0.9609
-4.2467 -8.6812 -2.5022 0.9609
-4.0716 -8.7646 -2.5022 0.9609
-3.5366 -8.9936 -2.5022 0.9609
-3.1727 -9.1282 -2.5022 0.9609
-2.9888 -9.1900 -2.5021 0.9609
-2.6175 -9.3025 -2.5021 0.9609
-2.4302 -9.3531 -2.5021 0.9609
-2.2419 -9.3999 -2.5021 0.9609
-1.8628 -9.4822 -2.5020 0.9609
-1.2886 -9.5769 -2.5020 0.9609
-0.9032 -9.6208 -2.5019 0.9609
-0.7099 -9.6369 -2.5019 0.9609
0.0654 -9.6625 -2.5019 0.9609
0.4532 -9.6520 -2.5018 0.9609
0.6469 -9.6408 -2.5018 0.9609
0.8403 -9.6258 -2.5018 0.9609
1.2260 -9.5842 -2.5017 0.9609
1.4181 -9.5576 -2.5017 0.9609
1.6097 -9.5271 -2.5017 0.9609
1.8006 -9.4928 -2.5017 0.9609
1.9908 -9.4547 -2.5017 0.9609
2.1801 -9.4128 -2.5017 0.9609
2.3686 -9.3670 -2.5016 0.9609
2.5562 -9.3175 -2.5016 0.9609
2.7427 -9.2643 -2.5016 0.9609
3.2953 -9.0822 -2.5015 0.9609
3.4769 -9.0142 -2.5015 0.9609
3.6571 -8.9425 -2.5015 0.9609
4.1886 -8.7060 -2.5014 0.9609
4.5346 -8.5307 -2.5014 0.9609
4.7049 -8.4379 -2.5014 0.9609
5.0398 -8.2421 -2.5014 0.9609
5.3665 -8.0331 -2.5013 0.9609
5.6845 -7.8111 -2.5013 0.9609
7.9034 3.9471 -2.5009 0.9639
7.7386 4.2611 -2.5009 0.9639
7.6515 4.4156 -2.5009 0.9639
7.5614 4.5684 -2.5009 0.9639
7.4682 4.7192 -2.5009 0.9639
7.3719 4.8682 -2.5009 0.9639
7.1706 5.1602 -2.5009 0.9639
7.0656 5.3031 -2.5010 0.9639
6.6175 5.8529 -2.5010 0.9639
6.4987 5.9846 -2.5010 0.9639
6.2533 6.2407 -2.5010 0.9639
6.1268 6.3650 -2.5010 0.9639
5.9978 6.4867 -2.5010 0.9639
5.7327 6.7223 -2.5011 0.9639
5.3177 7.0553 -2.5011 0.9639
4.4141 7.6133 -2.4913 0.9641
3.8347 7.6396 -2.4199 0.9651
3.2850 7.6631 -2.3603 0.9659
3.1154 7.6902 -2.3489 0.9661
2.8042 7.8091 -2.3489 0.9661
2.6469 7.8639 -2.3489 0.9661
2.3291 7.9639 -2.3490 0.9661
2.0076 8.0511 -2.3490 0.9661
1.3554 8.1864 -2.3490 0.9661
1.1908 8.2120 -2.3491 0.9661
0.5282 8.2812 -2.3491 0.9661
0.3619 8.2902 -2.3491 0.9661
0.0287 8.2827 -2.3448 0.9662
-0.1378 8.2971 -2.3492 0.9661
-0.4707 8.2850 -2.3492 0.9661
-0.6369 8.2740 -2.3492 0.9661
-0.8029 8.2596 -2.3493 0.9661
-1.1338 8.2208 -2.3493 0.9661
-1.2986 8.1965 -2.3493 0.9661
-1.4629 8.1688 -2.3493 0.9661
-1.9520 8.0661 -2.3494 0.9661
-2.2742 7.9813 -2.3494 0.9661
-2.4340 7.9341 -2.3494 0.9661
-2.5928 7.8837 -2.3494 0.9661
-2.7505 7.8301 -2.3494 0.9661
-2.9185 7.8036 -2.3586 0.9660
-3.0987 7.8042 -2.3771 0.9657
-3.2817 7.8047 -2.3968 0.9654
-3.4678 7.8050 -2.4178 0.9651
-4.5266 7.5762 -2.4984 0.9640
-4.6807 7.4885 -2.5000 0.9640
-4.8332 7.3978 -2.5016 0.9639
-4.9817 7.3006 -2.5021 0.9639
-5.2708 7.0948 -2.5021 0.9639
-5.4121 6.9876 -2.5021 0.9639
-5.6883 6.7649 -2.5021 0.9639
-6.5801 5.9017 -2.5022 0.9639
-6.6972 5.7684 -2.5022 0.9639
-6.8117 5.6328 -2.5023 0.9639
-6.9234 5.4950 -2.5023 0.9639
-7.0324 5.3549 -2.5023 0.9639
-7.1385 5.2127 -2.5023 0.9639
-7.3421 4.9220 -2.5023 0.9639
-7.4394 4.7737 -2.5023 0.9639
-7.6251 4.4712 -2.5024 0.9639
-7.7985 4.1616 -2.5024 0.9639
-7.8805 4.0042 -2.5024 0.9639
-7.9593 3.8452 -2.5024 0.9639
-8.1073 3.5227 -2.5024 0.9639
-8.2423 3.1944 -2.5024 0.9639
-8.3047 3.0283 -2.5024 0.9639
-8.3639 2.8610 -2.5025 0.9639
-8.5665 2.1809 -2.5025 0.9639
-8.6472 1.8353 -2.5025 0.9639
-8.6823 1.6614 -2.5025 0.9639
-8.7140 1.4867 -2.5025 0.9639
-8.7421 1.3115 -2.5025 0.9639
-8.8192 0.6061 -2.5025 0.9639
-8.8296 0.4289 -2.5025 0.9639
-8.8394 -0.1033 -2.5025 0.9639
-8.8282 -0.4581 -2.5026 0.9639
-8.8172 -0.6352 -2.5026 0.9639
-8.8027 -0.8121 -2.5026 0.9639
-8.7378 -1.3404 -2.5026 0.9639
-8.6413 -1.8639 -2.5026 0.9639
-8.6022 -2.0370 -2.5026 0.9639
-8.4110 -2.7204 -2.5025 0.9639
-8.3547 -2.8887 -2.5025 0.9639
-7.9470 -3.8717 -2.5025 0.9639
-7.7851 -4.1875 -2.5025 0.9639
-7.6107 -4.4967 -2.5025 0.9639
-7.4241 -4.7985 -2.5025 0.9639
-7.3262 -4.9465 -2.5025 0.9639
-7.2254 -5.0926 -2.5025 0.9639
-7.1217 -5.2366 -2.5025 0.9639
-6.9057 -5.5182 -2.5025 0.9639
-6.5610 -5.9238 -2.5024 0.9639
-6.4408 -6.0543 -2.5024 0.9639
-5.5291 -6.8965 -2.5023 0.9639
-5.3895 -7.0061 -2.5023 0.9639
-4.6602 -7.5107 -2.5023 0.9639
-4.5085 -7.6027 -2.5023 0.9639
-3.8840 -7.9397 -2.5022 0.9639
-3.5621 -8.0891 -2.5022 0.9639
-2.9017 -8.3486 -2.5021 0.9639
-2.7335 -8.4051 -2.5021 0.9639
-2.5643 -8.4582 -2.5021 0.9639
-1.7037 -8.6723 -2.5020 0.9639
-1.5293 -8.7047 -2.5020 0.9639
-1.3542 -8.7336 -2.5020 0.9639
-1.1786 -8.7590 -2.5020 0.9639
-1.0025 -8.7808 -2.5019 0.9639
-0.6492 -8.8139 -2.5019 0.9639
-0.4722 -8.8251 -2.5019 0.9639
-0.2949 -8.8327 -2.5019 0.9639
0.4145 -8.8277 -2.5018 0.9639
0.7685 -8.8038 -2.5018 0.9639
0.9451 -8.7866 -2.5018 0.9639
1.6468 -8.6822 -2.5017 0.9639
2.1664 -8.5671 -2.5016 0.9639
2.3379 -8.5219 -2.5016 0.9639
2.5085 -8.4732 -2.5016 0.9639
3.0139 -8.3067 -2.5016 0.9639
3.3448 -8.1789 -2.5015 0.9639
3.5083 -8.1100 -2.5015 0.9639
3.6704 -8.0379 -2.5015 0.9639
3.9900 -7.8840 -2.5015 0.9639
4.1474 -7.8023 -2.5014 0.9639
4.4572 -7.6294 -2.5014 0.9639
4.6095 -7.5383 -2.5014 0.9639
7.2744 3.6329 -2.5010 0.9665
6.9596 4.2048 -2.5010 0.9665
6.8738 4.3437 -2.5010 0.9665
6.7852 4.4808 -2.5010 0.9665
6.5033 4.8811 -2.5010 0.9665
6.4040 5.0107 -2.5010 0.9665
6.3022 5.1382 -2.5010 0.9665
6.1978 5.2637 -2.5010 0.9665
6.0909 5.3871 -2.5010 0.9665
5.9815 5.5083 -2.5011 0.9665
5.7556 5.7440 -2.5011 0.9665
5.5205 5.9704 -2.5011 0.9665
5.0239 6.3941 -2.5011 0.9665
4.6299 6.6850 -2.5012 0.9665
4.4948 6.7766 -2.5012 0.9665
4.3579 6.8655 -2.5012 0.9665
4.0789 7.0350 -2.5012 0.9665
3.4979 7.3323 -2.4987 0.9666
3.3487 7.3979 -2.4977 0.9666
3.1982 7.4607 -2.4967 0.9666
2.8940 7.5775 -2.4949 0.9666
2.4090 7.6624 -2.4705 0.9669
2.2428 7.6686 -2.4575 0.9671
1.9151 7.6802 -2.4346 0.9674
1.5929 7.6910 -2.4158 0.9677
1.2750 7.7010 -2.4009 0.9679
1.1173 7.7056 -2.3949 0.9679
0.9604 7.7101 -2.3898 0.9680
0.6481 7.7185 -2.3824 0.9681
0.3372 7.7262 -2.3787 0.9682
0.1820 7.7299 -2.3782 0.9682
0.0268 7.7333 -2.3786 0.9682
-0.2840 7.7397 -2.3822 0.9681
-0.4399 7.7426 -2.3853 0.9681
-0.5963 7.7454 -2.3894 0.9680
-1.0693 7.7528 -2.4072 0.9678
-1.2287 7.7549 -2.4150 0.9677
-1.7139 7.7604 -2.4445 0.9673
-1.8784 7.7620 -2.4563 0.9671
-2.2124 7.7645 -2.4833 0.9668
-2.3785 7.7532 -2.4944 0.9666
-2.6897 7.6569 -2.4962 0.9666
-2.8440 7.6043 -2.4972 0.9666
-3.1495 7.4903 -2.4992 0.9666
-3.4508 7.3645 -2.5015 0.9665
-3.7443 7.2213 -2.5019 0.9665
-3.8885 7.1448 -2.5020 0.9665
-4.0312 7.0653 -2.5020 0.9665
-4.3116 6.8979 -2.5020 0.9665
-4.5850 6.7193 -2.5020 0.9665
-4.7190 6.6260 -2.5020 0.9665
-4.9812 6.4313 -2.5021 0.9665
-5.2354 6.2262 -2.5021 0.9665
-5.6008 5.8999 -2.5021 0.9665
-5.8332 5.6704 -2.5022 0.9665
-6.0561 5.4317 -2.5022 0.9665
-6.1640 5.3091 -2.5022 0.9665
-6.3722 5.0575 -2.5022 0.9665
-6.4724 4.9285 -2.5022 0.9665
-6.5701 4.7977 -2.5023 0.9665
-7.0179 4.1152 -2.5023 0.9665
-7.2530 3.6854 -2.5023 0.9665
-7.3951 3.3913 -2.5024 0.9665
-7.4618 3.2422 -2.5024 0.9665
-7.5254 3.0917 -2.5024 0.9665
-7.6434 2.7872 -2.5024 0.9665
-7.7974 2.3221 -2.5024 0.9665
-7.9231 1.8486 -2.5024 0.9665
-7.9586 1.6892 -2.5024 0.9665
-7.9910 1.5291 -2.5024 0.9665
-8.0459 1.2071 -2.5025 0.9665
-8.0686 1.0454 -2.5025 0.9665
-8.0879 0.8832 -2.5025 0.9665
-8.1169 0.5578 -2.5025 0.9665
-8.1328 0.2315 -2.5025 0.9665
-8.1320 -0.2584 -2.5025 0.9665
-8.1151 -0.5846 -2.5025 0.9665
-8.1017 -0.7474 -2.5025 0.9665
-8.0851 -0.9099 -2.5025 0.9665
-8.0420 -1.2337 -2.5025 0.9665
-7.9860 -1.5555 -2.5025 0.9665
-7.7412 -2.5038 -2.5025 0.9665
-7.6345 -2.8125 -2.5025 0.9665
-7.3842 -3.4158 -2.5025 0.9665
-7.2411 -3.7095 -2.5025 0.9665
-7.0864 -3.9971 -2.5024 0.9665
-7.0047 -4.1386 -2.5024 0.9665
-6.9202 -4.2784 -2.5024 0.9665
-6.7428 -4.5527 -2.5024 0.9665
-6.6501 -4.6871 -2.5024 0.9665
-6.5546 -4.8196 -2.5024 0.9665
-6.3558 -5.0788 -2.5024 0.9665
-6.1468 -5.3298 -2.5024 0.9665
-5.5817 -5.9188 -2.5023 0.9665
-5.4617 -6.0296 -2.5023 0.9665
-5.0888 -6.3474 -2.5023 0.9665
-4.8299 -6.5465 -2.5023 0.9665
-4.6975 -6.6421 -2.5023 0.9665
-4.5632 -6.7350 -2.5022 0.9665
-4.4271 -6.8252 -2.5022 0.9665
-3.4273 -7.3778 -2.5022 0.9665
-3.2785 -7.4451 -2.5021 0.9665
-3.1284 -7.5093 -2.5021 0.9665
-2.8244 -7.6288 -2.5021 0.9665
-2.2033 -7.8306 -2.5020 0.9665
-1.4075 -8.0117 -2.5020 0.9665
-1.0848 -8.0617 -2.5019 0.9665
-0.9227 -8.0817 -2.5019 0.9665
-0.7603 -8.0986 -2.5019 0.9665
-0.5976 -8.1122 -2.5019 0.9665
-0.4346 -8.1225 -2.5019 0.9665
-0.1082 -8.1333 -2.5018 0.9665
0.0551 -8.1338 -2.5018 0.9665
0.3815 -8.1249 -2.5018 0.9665
0.8699 -8.0871 -2.5018 0.9665
1.0320 -8.0679 -2.5017 0.9665
1.3550 -8.0199 -2.5017 0.9665
1.8352 -7.9236 -2.5017 0.9665
1.9939 -7.8852 -2.5016 0.9665
2.6199 -7.6996 -2.5016 0.9665
2.7740 -7.6454 -2.5016 0.9665
3.2290 -7.4645 -2.5015 0.9665
3.3782 -7.3981 -2.5015 0.9665
3.9607 -7.1031 -2.5014 0.9665
4.2425 -6.9383 -2.5014 0.9665
4.7853 -6.5755 -2.5014 0.9665
4.9163 -6.4780 -2.5013 0.9665
6.6624 3.4961 -2.5010 0.9688
6.5167 3.7608 -2.5010 0.9688
6.4399 3.8908 -2.5010 0.9688
6.3605 4.0193 -2.5010 0.9688
6.1941 4.2714 -2.5011 0.9688
6.1071 4.3949 -2.5011 0.9688
6.0177 4.5166 -2.5011 0.9688
5.9258 4.6365 -2.5011 0.9688
5.7350 4.8707 -2.5011 0.9688
5.6361 4.9848 -2.5011 0.9688
5.5349 5.0970 -2.5011 0.9688
5.3259 5.3151 -2.5011 0.9688
5.2181 5.4210 -2.5011 0.9688
4.9963 5.6261 -2.5011 0.9688
4.7665 5.8221 -2.5012 0.9688
4.2842 6.1858 -2.5012 0.9688
3.9042 6.4326 -2.5012 0.9688
3.6428 6.5841 -2.5013 0.9688
3.5100 6.6560 -2.5013 0.9688
2.9648 6.9162 -2.5013 0.9688
2.8254 6.9744 -2.5013 0.9688
2.6848 7.0297 -2.5013 0.9688
2.5432 7.0822 -2.5014 0.9688
2.2569 7.1787 -2.5014 0.9688
2.1122 7.2222 -2.5013 0.9688
1.5248 7.3622 -2.4992 0.9688
1.3765 7.3902 -2.4988 0.9688
1.2277 7.4153 -2.4984 0.9688
1.0784 7.4375 -2.4981 0.9688
0.9288 7.4569 -2.4979 0.9688
0.6287 7.4870 -2.4975 0.9688
0.4782 7.4978 -2.4974 0.9688
-0.2755 7.5085 -2.4976 0.9688
-0.5768 7.4927 -2.4980 0.9688
-0.8773 7.4653 -2.4986 0.9688
-1.0271 7.4473 -2.4990 0.9688
-1.7701 7.3145 -2.5016 0.9688
-1.9167 7.2781 -2.5018 0.9688
-2.2074 7.1954 -2.5018 0.9688
-2.3514 7.1497 -2.5018 0.9688
-2.4944 7.1011 -2.5018 0.9688
-2.6365 7.0496 -2.5018 0.9688
-3.0561 6.8782 -2.5019 0.9688
-3.1935 6.8156 -2.5019 0.9688
-3.7301 6.5376 -2.5020 0.9688
-3.8606 6.4614 -2.5020 0.9688
-3.9895 6.3826 -2.5020 0.9688
-4.2425 6.2174 -2.5020 0.9688
-4.6091 5.9509 -2.5020 0.9688
-4.7277 5.8572 -2.5021 0.9688
-4.8443 5.7611 -2.5021 0.9688
-4.9590 5.6628 -2.5021 0.9688
-5.0717 5.5621 -2.5021 0.9688
-5.2910 5.3541 -2.5021 0.9688
-5.5017 5.1375 -2.5021 0.9688
-5.7035 4.9125 -2.5022 0.9688
-5.8010 4.7970 -2.5022 0.9688
-5.9889 4.5604 -2.5022 0.9688
-6.0793 4.4393 -2.5022 0.9688
-6.4159 3.9374 -2.5023 0.9688
-6.6413 3.5441 -2.5023 0.9688
-6.7112 3.4101 -2.5023 0.9688
-6.8427 3.1379 -2.5023 0.9688
-6.9043 3.0000 -2.5023 0.9688
-6.9632 2.8608 -2.5023 0.9688
-7.0192 2.7204 -2.5023 0.9688
-7.1703 2.2930 -2.5023 0.9688
-7.2566 2.0034 -2.5024 0.9688
-7.4209 1.2661 -2.5024 0.9688
-7.4837 0.8172 -2.5024 0.9688
-7.4986 0.6668 -2.5024 0.9688
-7.5193 0.3653 -2.5024 0.9688
-7.5252 0.2142 -2.5024 0.9688
-7.5181 -0.3901 -2.5024 0.9688
-7.5088 -0.5409 -2.5024 0.9688
-7.4964 -0.6916 -2.5024 0.9688
-7.4810 -0.8419 -2.5024 0.9688
-7.4412 -1.1415 -2.5024 0.9688
-7.3894 -1.4393 -2.5024 0.9688
-7.3590 -1.5873 -2.5024 0.9688
-7.2894 -1.8814 -2.5024 0.9688
-7.0104 -2.7437 -2.5024 0.9688
-6.8946 -3.0229 -2.5024 0.9688
-6.7677 -3.2972 -2.5024 0.9688
-6.7002 -3.4323 -2.5024 0.9688
-6.6299 -3.5662 -2.5024 0.9688
-6.3224 -4.0864 -2.5024 0.9688
-6.2391 -4.2125 -2.5024 0.9688
-5.9742 -4.5804 -2.5023 0.9688
-5.8810 -4.6994 -2.5023 0.9688
-5.7855 -4.8165 -2.5023 0.9688
-5.6876 -4.9316 -2.5023 0.9688
-5.5874 -5.0448 -2.5023 0.9688
-5.4850 -5.1559 -2.5023 0.9688
-5.2736 -5.3719 -2.5023 0.9688
-5.1647 -5.4767 -2.5023 0.9688
-5.0537 -5.5792 -2.5023 0.9688
-4.9407 -5.6795 -2.5023 0.9688
-4.5898 -5.9665 -2.5022 0.9688
-4.3466 -6.1459 -2.5022 0.9688
-4.2223 -6.2319 -2.5022 0.9688
-4.0964 -6.3154 -2.5022 0.9688
-3.9687 -6.3963 -2.5022 0.9688
-3.8395 -6.4746 -2.5022 0.9688
-3.7088 -6.5504 -2.5022 0.9688
-3.5765 -6.6235 -2.5022 0.9688
-3.4428 -6.6939 -2.5021 0.9688
-2.8947 -6.9484 -2.5021 0.9688
-2.3280 -7.1580 -2.5020 0.9688
-2.0387 -7.2456 -2.5020 0.9688
-1.5989 -7.3551 -2.5020 0.9688
-1.1533 -7.4379 -2.5019 0.9688
-1.0037 -7.4595 -2.5019 0.9688
-0.7035 -7.4937 -2.5019 0.9688
-0.5529 -7.5062 -2.5019 0.9688
0.0510 -7.5262 -2.5018 0.9688
0.2020 -7.5237 -2.5018 0.9688
0.3530 -7.5180 -2.5018 0.9688
0.5039 -7.5094 -2.5018 0.9688
0.6545 -7.4977 -2.5018 0.9688
0.9549 -7.4653 -2.5017 0.9688
1.1046 -7.4446 -2.5017 0.9688
1.5507 -7.3645 -2.5017 0.9688
1.6982 -7.3318 -2.5017 0.9688
1.8450 -7.2962 -2.5016 0.9688
2.2808 -7.1718 -2.5016 0.9688
2.4243 -7.1246 -2.5016 0.9688
2.5668 -7.0744 -2.5016 0.9688
2.7083 -7.0214 -2.5016 0.9688
2.8486 -6.9656 -2.5015 0.9688
2.9879 -6.9070 -2.5015 0.9688
3.1259 -6.8456 -2.5015 0.9688
3.3981 -6.7145 -2.5015 0.9688
3.5322 -6.6449 -2.5015 0.9688
3.7961 -6.4977 -2.5015 0.9688
3.9257 -6.4201 -2.5014 0.9688
4.0538 -6.3400 -2.5014 0.9688
4.3050 -6.1721 -2.5014 0.9688
4.4280 -6.0844 -2.5014 0.9688
4.5492 -5.9943 -2.5014 0.9688
6.2570 3.1248 -2.5011 0.9707
6.1265 3.3735 -2.5011 0.9707
6.0576 3.4958 -2.5011 0.9707
5.9862 3.6167 -2.5011 0.9707
5.9124 3.7361 -2.5011 0.9707
5.5083 4.3098 -2.5011 0.9707
5.4207 4.4196 -2.5011 0.9707
5.0488 4.8402 -2.5012 0.9707
4.8505 5.0390 -2.5012 0.9707
4.5384 5.3219 -2.5012 0.9707
4.3212 5.4998 -2.5012 0.9707
3.6291 5.9793 -2.5013 0.9707
3.3862 6.1202 -2.5013 0.9707
3.1378 6.2513 -2.5013 0.9707
2.4956 6.5344 -2.5014 0.9707
2.0978 6.6728 -2.5014 0.9707
1.2809 6.8768 -2.5015 0.9707
1.1426 6.9011 -2.5015 0.9707
1.0038 6.9227 -2.5015 0.9707
0.8646 6.9415 -2.5015 0.9707
0.7251 6.9575 -2.5015 0.9707
0.4453 6.9811 -2.5016 0.9707
0.1647 6.9934 -2.5016 0.9707
-0.2565 6.9907 -2.5016 0.9707
-0.6769 6.9627 -2.5017 0.9707
-1.3712 6.8600 -2.5017 0.9707
-1.5086 6.8312 -2.5017 0.9707
-1.7817 6.7652 -2.5018 0.9707
-1.9171 6.7281 -2.5018 0.9707
-2.3186 6.6006 -2.5018 0.9707
-2.5817 6.5023 -2.5018 0.9707
-2.7118 6.4492 -2.5019 0.9707
-2.8407 6.3935 -2.5019 0.9707
-2.9685 6.3352 -2.5019 0.9707
-3.0951 6.2744 -2.5019 0.9707
-3.3445 6.1451 -2.5019 0.9707
-3.7083 5.9328 -2.5020 0.9707
-4.1724 5.6163 -2.5020 0.9707
-4.5029 5.3551 -2.5020 0.9707
-4.7143 5.1701 -2.5021 0.9707
-4.8171 5.0744 -2.5021 0.9707
-5.0170 4.8770 -2.5021 0.9707
-5.2087 4.6717 -2.5021 0.9707
-5.3015 4.5663 -2.5021 0.9707
-5.3921 4.4589 -2.5021 0.9707
-5.5668 4.2389 -2.5022 0.9707
-5.6508 4.1264 -2.5022 0.9707
-5.7325 4.0121 -2.5022 0.9707
-5.8119 3.8962 -2.5022 0.9707
-6.0359 3.5394 -2.5022 0.9707
-6.1058 3.4175 -2.5022 0.9707
-6.1732 3.2943 -2.5022 0.9707
-6.2381 3.1697 -2.5022 0.9707
-6.4176 2.7885 -2.5023 0.9707
-6.6207 2.2647 -2.5023 0.9707
-6.7063 1.9972 -2.5023 0.9707
-6.7811 1.7264 -2.5023 0.9707
-6.8144 1.5899 -2.5023 0.9707
-6.8728 1.3151 -2.5023 0.9707
-6.8978 1.1769 -2.5023 0.9707
-6.9200 1.0382 -2.5023 0.9707
-6.9561 0.7596 -2.5024 0.9707
-6.9893 0.3395 -2.5024 0.9707
-6.9947 0.1991 -2.5024 0.9707
-6.9940 -0.2222 -2.5024 0.9707
-6.9882 -0.3626 -2.5024 0.9707
-6.9537 -0.7825 -2.5024 0.9707
-6.9366 -0.9220 -2.5024 0.9707
-6.8685 -1.3378 -2.5024 0.9707
-6.8403 -1.4754 -2.5024 0.9707
-6.8093 -1.6124 -2.5024 0.9707
-6.7755 -1.7488 -2.5024 0.9707
-6.7390 -1.8845 -2.5024 0.9707
-6.6580 -2.1534 -2.5024 0.9707
-6.6134 -2.2867 -2.5024 0.9707
-6.4086 -2.8098 -2.5024 0.9707
-6.2906 -3.0647 -2.5024 0.9707
-6.2278 -3.1904 -2.5023 0.9707
-6.1625 -3.3148 -2.5023 0.9707
-6.0245 -3.5594 -2.5023 0.9707
-5.9518 -3.6797 -2.5023 0.9707
-5.8767 -3.7984 -2.5023 0.9707
-5.7195 -4.0312 -2.5023 0.9707
-5.5531 -4.2575 -2.5023 0.9707
-5.3777 -4.4770 -2.5023 0.9707
-5.2867 -4.5840 -2.5023 0.9707
-5.1936 -4.6892 -2.5023 0.9707
-5.0984 -4.7925 -2.5023 0.9707
-5.0012 -4.8938 -2.5023 0.9707
-4.8007 -5.0906 -2.5022 0.9707
-4.6975 -5.1859 -2.5022 0.9707
-4.4855 -5.3703 -2.5022 0.9707
-4.2663 -5.5460 -2.5022 0.9707
-4.0402 -5.7127 -2.5022 0.9707
-3.9247 -5.7926 -2.5022 0.9707
-3.8076 -5.8702 -2.5022 0.9707
-3.5689 -6.0183 -2.5021 0.9707
-3.4473 -6.0887 -2.5021 0.9707
-3.2001 -6.2221 -2.5021 0.9707
-3.0746 -6.2851 -2.5021 0.9707
-2.6907 -6.4586 -2.5021 0.9707
-2.5605 -6.5113 -2.5021 0.9707
-2.4292 -6.5614 -2.5020 0.9707
-1.8950 -6.7350 -2.5020 0.9707
-1.7595 -6.7716 -2.5020 0.9707
-1.6232 -6.8055 -2.5020 0.9707
-1.4862 -6.8367 -2.5020 0.9707
-1.0720 -6.9137 -2.5019 0.9707
-0.9330 -6.9337 -2.5019 0.9707
-0.3738 -6.9861 -2.5019 0.9707
-0.2335 -6.9922 -2.5018 0.9707
0.0474 -6.9958 -2.5018 0.9707
0.1878 -6.9934 -2.5018 0.9707
0.3282 -6.9882 -2.5018 0.9707
0.6084 -6.9693 -2.5018 0.9707
0.8876 -6.9392 -2.5017 0.9707
1.1655 -6.8979 -2.5017 0.9707
1.4414 -6.8455 -2.5017 0.9707
1.5785 -6.8152 -2.5017 0.9707
1.7150 -6.7821 -2.5017 0.9707
1.8508 -6.7462 -2.5016 0.9707
1.9858 -6.7077 -2.5016 0.9707
2.2534 -6.6225 -2.5016 0.9707
2.3859 -6.5759 -2.5016 0.9707
2.5174 -6.5266 -2.5016 0.9707
2.6479 -6.4748 -2.5016 0.9707
3.0328 -6.3035 -2.5015 0.9707
3.4066 -6.1095 -2.5015 0.9707
3.5286 -6.0398 -2.5015 0.9707
3.6491 -5.9677 -2.5015 0.9707
3.8856 -5.8164 -2.5014 0.9707
4.0016 -5.7372 -2.5014 0.9707
4.1159 -5.6557 -2.5014 0.9707
4.2286 -5.5719 -2.5014 0.9707
5.8389 2.9160 -2.5011 0.9724
5.7792 3.0327 -2.5011 0.9724
5.6528 3.2622 -2.5011 0.9724
5.5862 3.3750 -2.5011 0.9724
5.5174 3.4865 -2.5011 0.9724
5.2200 3.9179 -2.5011 0.9724
5.1403 4.0219 -2.5012 0.9724
4.8889 4.3240 -2.5012 0.9724
4.6198 4.6105 -2.5012 0.9724
4.5264 4.7023 -2.5012 0.9724
4.3340 4.8802 -2.5012 0.9724
4.0324 5.1323 -2.5012 0.9724
3.9286 5.2122 -2.5013 0.9724
3.8232 5.2901 -2.5013 0.9724
3.7162 5.3658 -2.5013 0.9724
3.6078 5.4393 -2.5013 0.9724
3.4979 5.5106 -2.5013 0.9724
3.3866 5.5798 -2.5013 0.9724
3.1599 5.7112 -2.5013 0.9724
2.8104 5.8912 -2.5013 0.9724
2.6916 5.9464 -2.5014 0.9724
2.3289 6.0977 -2.5014 0.9724
2.0823 6.1864 -2.5014 0.9724
1.9577 6.2269 -2.5014 0.9724
1.5793 6.3336 -2.5015 0.9724
1.4519 6.3640 -2.5015 0.9724
1.3238 6.3919 -2.5015 0.9724
1.1953 6.4172 -2.5015 0.9724
1.0662 6.4400 -2.5015 0.9724
0.9367 6.4601 -2.5015 0.9724
0.8069 6.4776 -2.5015 0.9724
0.6767 6.4925 -2.5015 0.9724
0.4155 6.5146 -2.5016 0.9724
0.2847 6.5216 -2.5016 0.9724
0.1537 6.5260 -2.5016 0.9724
-0.1084 6.5270 -2.5016 0.9724
-0.3703 6.5175 -2.5016 0.9724
-0.6316 6.4974 -2.5017 0.9724
-0.7619 6.4834 -2.5017 0.9724
-1.0216 6.4477 -2.5017 0.9724
-1.1508 6.4259 -2.5017 0.9724
-1.2796 6.4016 -2.5017 0.9724
-1.4078 6.3746 -2.5017 0.9724
-1.5355 6.3451 -2.5018 0.9724
-1.7890 6.2784 -2.5018 0.9724
-1.9147 6.2413 -2.5018 0.9724
-2.2869 6.1148 -2.5018 0.9724
-2.4092 6.0677 -2.5018 0.9724
-2.6508 5.9662 -2.5019 0.9724
-3.0052 5.7959 -2.5019 0.9724
-3.1209 5.7344 -2.5019 0.9724
-3.5709 5.4657 -2.5020 0.9724
-3.6799 5.3929 -2.5020 0.9724
-4.4951 4.7352 -2.5021 0.9724
-4.5893 4.6441 -2.5021 0.9724
-4.7721 4.4561 -2.5021 0.9724
-5.0317 4.1609 -2.5021 0.9724
-5.1947 3.9556 -2.5021 0.9724
-5.3493 3.7439 -2.5022 0.9724
-5.4953 3.5262 -2.5022 0.9724
-5.5650 3.4152 -2.5022 0.9724
-5.7606 3.0741 -2.5022 0.9724
-5.8211 2.9578 -2.5022 0.9724
-5.8793 2.8404 -2.5022 0.9724
-5.9352 2.7218 -2.5022 0.9724
-6.0883 2.3596 -2.5022 0.9724
-6.1781 2.1134 -2.5023 0.9724
-6.2193 1.9889 -2.5023 0.9724
-6.2942 1.7377 -2.5023 0.9724
-6.3589 1.4837 -2.5023 0.9724
-6.4133 1.2272 -2.5023 0.9724
-6.4367 1.0982 -2.5023 0.9724
-6.4756 0.8390 -2.5023 0.9724
-6.4911 0.7088 -2.5023 0.9724
-6.5041 0.5784 -2.5023 0.9724
-6.5271 0.1858 -2.5023 0.9724
-6.5293 -0.0763 -2.5023 0.9724
-6.5265 -0.2074 -2.5023 0.9724
-6.5210 -0.3383 -2.5023 0.9724
-6.4543 -0.9901 -2.5023 0.9724
-6.4331 -1.1195 -2.5023 0.9724
-6.4093 -1.2484 -2.5023 0.9724
-6.3830 -1.3768 -2.5023 0.9724
-6.3541 -1.5046 -2.5023 0.9724
-6.3226 -1.6319 -2.5023 0.9724
-6.2520 -1.8844 -2.5023 0.9724
-6.2129 -2.0095 -2.5023 0.9724
-6.1713 -2.1338 -2.5023 0.9724
-6.0807 -2.3798 -2.5023 0.9724
-5.8115 -2.9771 -2.5023 0.9724
-5.4839 -3.5445 -2.5023 0.9724
-5.4116 -3.6538 -2.5023 0.9724
-5.3372 -3.7617 -2.5023 0.9724
-5.0182 -4.1777 -2.5022 0.9724
-4.8464 -4.3757 -2.5022 0.9724
-4.7576 -4.4721 -2.5022 0.9724
-4.5742 -4.6595 -2.5022 0.9724
-4.3835 -4.8393 -2.5022 0.9724
-4.1857 -5.0113 -2.5022 0.9724
-4.0842 -5.0943 -2.5022 0.9724
-3.9811 -5.1752 -2.5022 0.9724
-3.8764 -5.2541 -2.5022 0.9724
-3.4424 -5.5480 -2.5021 0.9724
-3.3303 -5.6160 -2.5021 0.9724
-3.2169 -5.6817 -2.5021 0.9724
-2.9862 -5.8062 -2.5021 0.9724
-2.6313 -5.9753 -2.5021 0.9724
-2.1435 -6.1671 -2.5020 0.9724
-2.0193 -6.2088 -2.5020 0.9724
-1.7684 -6.2848 -2.5020 0.9724
-1.6419 -6.3190 -2.5020 0.9724
-1.5147 -6.3507 -2.5020 0.9724
-1.1297 -6.4302 -2.5019 0.9724
-1.0004 -6.4516 -2.5019 0.9724
-0.4796 -6.5109 -2.5019 0.9724
-0.2179 -6.5248 -2.5018 0.9724
0.3062 -6.5212 -2.5018 0.9724
0.4371 -6.5137 -2.5018 0.9724
0.5677 -6.5035 -2.5018 0.9724
0.8283 -6.4754 -2.5017 0.9724
0.9581 -6.4575 -2.5017 0.9724
1.0876 -6.4369 -2.5017 0.9724
1.2166 -6.4138 -2.5017 0.9724
1.3451 -6.3880 -2.5017 0.9724
1.6004 -6.3288 -2.5017 0.9724
1.7271 -6.2954 -2.5016 0.9724
1.9784 -6.2209 -2.5016 0.9724
2.2265 -6.1364 -2.5016 0.9724
2.4709 -6.0421 -2.5016 0.9724
2.5917 -5.9912 -2.5016 0.9724
2.7115 -5.9379 -2.5015 0.9724
2.8301 -5.8823 -2.5015 0.9724
2.9476 -5.8243 -2.5015 0.9724
3.2928 -5.6362 -2.5015 0.9724
3.4052 -5.5689 -2.5015 0.9724
3.6260 -5.4277 -2.5015 0.9724
3.7342 -5.3538 -2.5014 0.9724
3.8409 -5.2778 -2.5014 0.9724
5.4673 2.7304 -2.5011 0.9739
5.4114 2.8396 -2.5011 0.9739
5.3533 2.9477 -2.5012 0.9739
5.2307 3.1602 -2.5012 0.9739
5.1662 3.2646 -2.5012 0.9739
5.0996 3.3676 -2.5012 0.9739
4.8131 3.7659 -2.5012 0.9739
4.6581 3.9561 -2.5012 0.9739
4.4955 4.1399 -2.5012 0.9739
4.4115 4.2293 -2.5012 0.9739
4.3258 4.3170 -2.5012 0.9739
4.2382 4.4030 -2.5012 0.9739
3.7757 4.8056 -2.5013 0.9739
3.5798 4.9533 -2.5013 0.9739
3.1710 5.2246 -2.5013 0.9739
2.9588 5.3477 -2.5013 0.9739
2.4080 5.6174 -2.5014 0.9739
2.2948 5.6646 -2.5014 0.9739
2.1806 5.7096 -2.5014 0.9739
2.0656 5.7522 -2.5014 0.9739
1.8330 5.8305 -2.5014 0.9739
1.7156 5.8662 -2.5015 0.9739
1.5975 5.8995 -2.5015 0.9739
1.2396 5.9850 -2.5015 0.9739
1.1192 6.0087 -2.5015 0.9739
0.6336 6.0792 -2.5015 0.9739
0.3891 6.0998 -2.5016 0.9739
0.2665 6.1064 -2.5016 0.9739
0.0212 6.1123 -2.5016 0.9739
-0.2242 6.1082 -2.5016 0.9739
-0.4692 6.0944 -2.5017 0.9739
-0.7134 6.0707 -2.5017 0.9739
-0.8351 6.0552 -2.5017 0.9739
-1.1981 5.9940 -2.5017 0.9739
-1.3182 5.9688 -2.5017 0.9739
-1.4378 5.9412 -2.5017 0.9739
-1.7928 5.8439 -2.5018 0.9739
-2.0259 5.7673 -2.5018 0.9739
-2.1413 5.7255 -2.5018 0.9739
-2.2558 5.6814 -2.5018 0.9739
-2.3694 5.6350 -2.5018 0.9739
-2.4821 5.5863 -2.5019 0.9739
-2.7043 5.4822 -2.5019 0.9739
-2.8138 5.4269 -2.5019 0.9739
-2.9222 5.3693 -2.5019 0.9739
-3.1354 5.2477 -2.5019 0.9739
-3.2401 5.1837 -2.5019 0.9739
-3.3436 5.1177 -2.5019 0.9739
-3.4456 5.0496 -2.5020 0.9739
-3.5463 4.9794 -2.5020 0.9739
-3.7434 4.8331 -2.5020 0.9739
-4.1191 4.5173 -2.5020 0.9739
-4.2971 4.3484 -2.5020 0.9739
-4.6321 3.9897 -2.5021 0.9739
-4.7113 3.8959 -2.5021 0.9739
-4.8639 3.7037 -2.5021 0.9739
-5.3349 2.9860 -2.5022 0.9739
-5.3937 2.8783 -2.5022 0.9739
-5.4504 2.7695 -2.5022 0.9739
-5.5049 2.6595 -2.5022 0.9739
-5.5572 2.5485 -2.5022 0.9739
-5.7438 2.0945 -2.5022 0.9739
-5.8233 1.8623 -2.5022 0.9739
-5.8934 1.6270 -2.5022 0.9739
-5.9249 1.5084 -2.5022 0.9739
-5.9539 1.3892 -2.5022 0.9739
-5.9806 1.2694 -2.5023 0.9739
-6.0268 1.0283 -2.5023 0.9739
-6.0462 0.9071 -2.5023 0.9739
-6.0995 0.4192 -2.5023 0.9739
-6.1115 0.1740 -2.5023 0.9739
-6.1109 -0.1942 -2.5023 0.9739
-6.1057 -0.3168 -2.5023 0.9739
-6.0756 -0.6837 -2.5023 0.9739
-6.0607 -0.8056 -2.5023 0.9739
-5.9765 -1.2891 -2.5023 0.9739
-5.9200 -1.5280 -2.5023 0.9739
-5.8881 -1.6465 -2.5023 0.9739
-5.8538 -1.7644 -2.5023 0.9739
-5.8172 -1.8815 -2.5023 0.9739
-5.5994 -2.4550 -2.5023 0.9739
-5.5490 -2.5669 -2.5023 0.9739
-5.4963 -2.6777 -2.5023 0.9739
-5.4415 -2.7875 -2.5023 0.9739
-5.3844 -2.8962 -2.5023 0.9739
-5.2638 -3.1100 -2.5023 0.9739
-4.8519 -3.7199 -2.5022 0.9739
-4.7762 -3.8166 -2.5022 0.9739
-4.6986 -3.9117 -2.5022 0.9739
-4.6192 -4.0052 -2.5022 0.9739
-4.3697 -4.2759 -2.5022 0.9739
-4.1945 -4.4478 -2.5022 0.9739
-4.1044 -4.5311 -2.5022 0.9739
-4.0126 -4.6126 -2.5022 0.9739
-3.8241 -4.7699 -2.5021 0.9739
-3.6296 -4.9195 -2.5021 0.9739
-3.5301 -4.9914 -2.5021 0.9739
-3.4292 -5.0612 -2.5021 0.9739
-3.2232 -5.1948 -2.5021 0.9739
-3.1183 -5.2584 -2.5021 0.9739
-2.7961 -5.4365 -2.5021 0.9739
-2.6864 -5.4915 -2.5020 0.9739
-2.5756 -5.5443 -2.5020 0.9739
-2.4638 -5.5949 -2.5020 0.9739
-2.2372 -5.6892 -2.5020 0.9739
-2.0070 -5.7744 -2.5020 0.9739
-1.8907 -5.8135 -2.5020 0.9739
-1.6558 -5.8846 -2.5020 0.9739
-1.1784 -5.9984 -2.5019 0.9739
-1.0577 -6.0208 -2.5019 0.9739
-0.2040 -6.1094 -2.5018 0.9739
-0.0813 -6.1123 -2.5018 0.9739
0.0414 -6.1126 -2.5018 0.9739
0.2867 -6.1060 -2.5018 0.9739
0.4092 -6.0990 -2.5018 0.9739
0.5316 -6.0895 -2.5018 0.9739
0.8971 -6.0464 -2.5017 0.9739
1.0183 -6.0271 -2.5017 0.9739
1.6171 -5.8946 -2.5016 0.9739
1.8524 -5.8249 -2.5016 0.9739
1.9690 -5.7865 -2.5016 0.9739
2.0847 -5.7458 -2.5016 0.9739
2.1996 -5.7027 -2.5016 0.9739
2.3136 -5.6574 -2.5016 0.9739
2.5388 -5.5599 -2.5016 0.9739
2.6499 -5.5078 -2.5015 0.9739
2.8689 -5.3969 -2.5015 0.9739
2.9766 -5.3383 -2.5015 0.9739
3.2925 -5.1493 -2.5015 0.9739
3.3952 -5.0822 -2.5015 0.9739
3.4965 -5.0130 -2.5015 0.9739
3.6949 -4.8686 -2.5014 0.9739
5.1344 2.5642 -2.5012 0.9753
5.0819 2.6667 -2.5012 0.9753
5.0273 2.7682 -2.5012 0.9753
4.9707 2.8686 -2.5012 0.9753
4.3744 3.7152 -2.5012 0.9753
4.2990 3.8023 -2.5012 0.9753
4.2218 3.8878 -2.5012 0.9753
3.9802 4.1349 -2.5013 0.9753
3.8110 4.2913 -2.5013 0.9753
3.7241 4.3670 -2.5013 0.9753
3.5458 4.5130 -2.5013 0.9753
3.2678 4.7183 -2.5013 0.9753
3.0758 4.8457 -2.5013 0.9753
2.9779 4.9064 -2.5013 0.9753
2.8788 4.9653 -2.5014 0.9753
2.6772 5.0769 -2.5014 0.9753
2.5748 5.1296 -2.5014 0.9753
2.4713 5.1803 -2.5014 0.9753
2.1550 5.3197 -2.5014 0.9753
2.0478 5.3619 -2.5014 0.9753
1.9398 5.4019 -2.5014 0.9753
1.8310 5.4398 -2.5014 0.9753
1.7214 5.4755 -2.5015 0.9753
1.6112 5.5090 -2.5015 0.9753
1.5003 5.5402 -2.5015 0.9753
1.3887 5.5692 -2.5015 0.9753
1.2767 5.5960 -2.5015 0.9753
1.1641 5.6205 -2.5015 0.9753
1.0510 5.6428 -2.5015 0.9753
0.9375 5.6628 -2.5015 0.9753
0.8237 5.6805 -2.5015 0.9753
0.7095 5.6959 -2.5015 0.9753
0.5950 5.7090 -2.5016 0.9753
0.3654 5.7283 -2.5016 0.9753
0.2503 5.7346 -2.5016 0.9753
0.1351 5.7384 -2.5016 0.9753
0.0199 5.7400 -2.5016 0.9753
-0.2105 5.7362 -2.5016 0.9753
-0.3256 5.7309 -2.5016 0.9753
-0.5554 5.7133 -2.5017 0.9753
-0.6700 5.7010 -2.5017 0.9753
-1.0119 5.6504 -2.5017 0.9753
-1.1251 5.6290 -2.5017 0.9753
-1.4619 5.5511 -2.5018 0.9753
-1.5731 5.5207 -2.5018 0.9753
-1.6836 5.4880 -2.5018 0.9753
-2.0109 5.3768 -2.5018 0.9753
-2.4357 5.1983 -2.5019 0.9753
-2.7442 5.0423 -2.5019 0.9753
-2.8449 4.9862 -2.5019 0.9753
-2.9444 4.9281 -2.5019 0.9753
-3.2358 4.7420 -2.5019 0.9753
-3.4235 4.6083 -2.5020 0.9753
-3.5154 4.5387 -2.5020 0.9753
-3.7822 4.3189 -2.5020 0.9753
-3.8682 4.2422 -2.5020 0.9753
-4.1960 3.9183 -2.5020 0.9753
-4.2739 3.8332 -2.5021 0.9753
-4.3500 3.7467 -2.5021 0.9753
-4.4969 3.5691 -2.5021 0.9753
-4.6366 3.3857 -2.5021 0.9753
-4.8933 3.0029 -2.5021 0.9753
-5.0652 2.7030 -2.5021 0.9753
-5.1184 2.6008 -2.5022 0.9753
-5.3106 2.1818 -2.5022 0.9753
-5.4324 1.8583 -2.5022 0.9753
-5.5026 1.6387 -2.5022 0.9753
-5.5639 1.4165 -2.5022 0.9753
-5.5913 1.3045 -2.5022 0.9753
-5.6163 1.1920 -2.5022 0.9753
-5.6392 1.0791 -2.5022 0.9753
-5.6597 0.9656 -2.5022 0.9753
-5.6779 0.8518 -2.5022 0.9753
-5.7076 0.6232 -2.5022 0.9753
-5.7189 0.5085 -2.5022 0.9753
-5.7280 0.3936 -2.5022 0.9753
-5.7347 0.2786 -2.5022 0.9753
-5.7411 -0.0671 -2.5023 0.9753
-5.7267 -0.4125 -2.5023 0.9753
-5.7173 -0.5274 -2.5023 0.9753
-5.7055 -0.6421 -2.5023 0.9753
-5.6915 -0.7565 -2.5023 0.9753
-5.6751 -0.8706 -2.5023 0.9753
-5.6125 -1.2106 -2.5023 0.9753
-5.5870 -1.3230 -2.5023 0.9753
-5.4973 -1.6569 -2.5023 0.9753
-5.4263 -1.8762 -2.5023 0.9753
-5.3466 -2.0925 -2.5022 0.9753
-5.3035 -2.1994 -2.5022 0.9753
-5.1100 -2.6177 -2.5022 0.9753
-5.0564 -2.7198 -2.5022 0.9753
-5.0008 -2.8207 -2.5022 0.9753
-4.6929 -3.3076 -2.5022 0.9753
-4.5563 -3.4933 -2.5022 0.9753
-4.4124 -3.6734 -2.5022 0.9753
-4.3378 -3.7612 -2.5022 0.9753
-4.2614 -3.8475 -2.5022 0.9753
-4.1833 -3.9323 -2.5022 0.9753
-3.9390 -4.1769 -2.5021 0.9753
-3.7681 -4.3316 -2.5021 0.9753
-3.6804 -4.4064 -2.5021 0.9753
-3.5006 -4.5505 -2.5021 0.9753
-3.4085 -4.6199 -2.5021 0.9753
-3.1242 -4.8166 -2.5021 0.9753
-3.0269 -4.8784 -2.5021 0.9753
-2.9283 -4.9381 -2.5021 0.9753
-2.7277 -5.0516 -2.5020 0.9753
-2.3137 -5.2541 -2.5020 0.9753
-2.2078 -5.2994 -2.5020 0.9753
-2.1009 -5.3427 -2.5020 0.9753
-1.9932 -5.3838 -2.5020 0.9753
-1.7755 -5.4594 -2.5020 0.9753
-1.2195 -5.6097 -2.5019 0.9753
-1.1066 -5.6330 -2.5019 0.9753
-0.8796 -5.6729 -2.5019 0.9753
-0.7655 -5.6894 -2.5019 0.9753
-0.5366 -5.7155 -2.5018 0.9753
-0.4217 -5.7250 -2.5018 0.9753
-0.3067 -5.7324 -2.5018 0.9753
0.0389 -5.7403 -2.5018 0.9753
0.1541 -5.7384 -2.5018 0.9753
0.6139 -5.7074 -2.5017 0.9753
0.7283 -5.6939 -2.5017 0.9753
1.0697 -5.6397 -2.5017 0.9753
1.1827 -5.6170 -2.5017 0.9753
1.2952 -5.5921 -2.5017 0.9753
1.5186 -5.5356 -2.5017 0.9753
1.7396 -5.4701 -2.5016 0.9753
2.0657 -5.3554 -2.5016 0.9753
2.1727 -5.3129 -2.5016 0.9753
2.2789 -5.2682 -2.5016 0.9753
2.3842 -5.2213 -2.5016 0.9753
2.4886 -5.1724 -2.5016 0.9753
2.5919 -5.1214 -2.5015 0.9753
2.7953 -5.0132 -2.5015 0.9753
2.8954 -4.9560 -2.5015 0.9753
2.9943 -4.8969 -2.5015 0.9753
3.0920 -4.8358 -2.5015 0.9753
3.1884 -4.7727 -2.5015 0.9753
4.7334 2.6064 -2.5012 0.9765
4.6250 2.7943 -2.5012 0.9765
4.4484 3.0676 -2.5012 0.9765
4.3860 3.1563 -2.5012 0.9765
4.3217 3.2437 -2.5012 0.9765
4.2557 3.3298 -2.5013 0.9765
4.1881 3.4146 -2.5013 0.9765
4.1187 3.4980 -2.5013 0.9765
3.8248 3.8171 -2.5013 0.9765
3.5882 4.0404 -2.5013 0.9765
3.5064 4.1117 -2.5013 0.9765
3.4231 4.1812 -2.5013 0.9765
3.2526 4.3153 -2.5013 0.9765
3.1653 4.3797 -2.5013 0.9765
3.0767 4.4424 -2.5013 0.9765
2.9870 4.5033 -2.5014 0.9765
2.8960 4.5623 -2.5014 0.9765
2.7105 4.6749 -2.5014 0.9765
2.6161 4.7284 -2.5014 0.9765
2.4242 4.8296 -2.5014 0.9765
2.3268 4.8774 -2.5014 0.9765
2.0290 5.0086 -2.5014 0.9765
1.9281 5.0484 -2.5014 0.9765
1.7239 5.1217 -2.5015 0.9765
1.6208 5.1553 -2.5015 0.9765
1.4125 5.2163 -2.5015 0.9765
1.3075 5.2436 -2.5015 0.9765
1.0960 5.2919 -2.5015 0.9765
0.8827 5.3317 -2.5015 0.9765
0.6680 5.3628 -2.5016 0.9765
0.4522 5.3854 -2.5016 0.9765
0.0188 5.4044 -2.5016 0.9765
-0.1982 5.4008 -2.5016 0.9765
-0.3066 5.3958 -2.5016 0.9765
-0.4148 5.3886 -2.5017 0.9765
-0.5229 5.3792 -2.5017 0.9765
-0.6308 5.3676 -2.5017 0.9765
-0.7384 5.3539 -2.5017 0.9765
-0.8458 5.3380 -2.5017 0.9765
-1.1655 5.2775 -2.5017 0.9765
-1.2712 5.2530 -2.5017 0.9765
-1.3764 5.2265 -2.5018 0.9765
-1.4811 5.1978 -2.5018 0.9765
-1.5851 5.1671 -2.5018 0.9765
-1.6885 5.1342 -2.5018 0.9765
-1.9945 5.0233 -2.5018 0.9765
-2.1946 4.9393 -2.5018 0.9765
-2.2933 4.8943 -2.5018 0.9765
-2.3911 4.8473 -2.5019 0.9765
-2.4879 4.7983 -2.5019 0.9765
-2.6785 4.6946 -2.5019 0.9765
-2.7723 4.6399 -2.5019 0.9765
-2.8648 4.5833 -2.5019 0.9765
-2.9563 4.5249 -2.5019 0.9765
-3.1356 4.4026 -2.5019 0.9765
-3.2233 4.3388 -2.5019 0.9765
-3.3098 4.2733 -2.5020 0.9765
-3.3949 4.2060 -2.5020 0.9765
-3.4787 4.1370 -2.5020 0.9765
-3.5610 4.0663 -2.5020 0.9765
-3.6419 3.9941 -2.5020 0.9765
-3.7214 3.9202 -2.5020 0.9765
-3.7994 3.8447 -2.5020 0.9765
-3.9506 3.6891 -2.5020 0.9765
-4.0956 3.5276 -2.5020 0.9765
-4.2339 3.3604 -2.5021 0.9765
-4.3005 3.2747 -2.5021 0.9765
-4.3654 3.1877 -2.5021 0.9765
-4.6071 2.8273 -2.5021 0.9765
-4.6629 2.7343 -2.5021 0.9765
-4.7689 2.5449 -2.5021 0.9765
-4.8191 2.4487 -2.5021 0.9765
-4.9135 2.2533 -2.5021 0.9765
-4.9578 2.1542 -2.5021 0.9765
-5.1487 1.6466 -2.5022 0.9765
-5.1808 1.5429 -2.5022 0.9765
-5.2385 1.3337 -2.5022 0.9765
-5.2643 1.2283 -2.5022 0.9765
-5.2879 1.1223 -2.5022 0.9765
-5.3093 1.0160 -2.5022 0.9765
-5.3287 0.9092 -2.5022 0.9765
-5.3609 0.6946 -2.5022 0.9765
-5.4055 0.0453 -2.5022 0.9765
-5.4053 -0.0632 -2.5022 0.9765
-5.4030 -0.1717 -2.5022 0.9765
-5.3985 -0.2801 -2.5022 0.9765
-5.3432 -0.8197 -2.5022 0.9765
-5.3257 -0.9267 -2.5022 0.9765
-5.2842 -1.1398 -2.5022 0.9765
-5.2060 -1.4558 -2.5022 0.9765
-5.1434 -1.6636 -2.5022 0.9765
-5.1089 -1.7665 -2.5022 0.9765
-4.8596 -2.3676 -2.5022 0.9765
-4.7083 -2.6558 -2.5022 0.9765
-4.4801 -3.0249 -2.5022 0.9765
-4.4184 -3.1142 -2.5022 0.9765
-4.3550 -3.2022 -2.5022 0.9765
-4.2230 -3.3745 -2.5022 0.9765
-4.1544 -3.4585 -2.5022 0.9765
-3.8635 -3.7806 -2.5021 0.9765
-3.7868 -3.8574 -2.5021 0.9765
-3.6289 -4.0062 -2.5021 0.9765
-3.5478 -4.0783 -2.5021 0.9765
-3.3812 -4.2174 -2.5021 0.9765
-3.1212 -4.4132 -2.5021 0.9765
-2.9415 -4.5349 -2.5021 0.9765
-2.6632 -4.7037 -2.5020 0.9765
-2.2773 -4.9021 -2.5020 0.9765
-2.0786 -4.9895 -2.5020 0.9765
-1.7745 -5.1055 -2.5020 0.9765
-1.6717 -5.1401 -2.5019 0.9765
-1.5682 -5.1726 -2.5019 0.9765
-1.4640 -5.2030 -2.5019 0.9765
-1.2540 -5.2576 -2.5019 0.9765
-1.0419 -5.3036 -2.5019 0.9765
-0.7208 -5.3567 -2.5019 0.9765
-0.6131 -5.3700 -2.5019 0.9765
-0.5052 -5.3812 -2.5018 0.9765
-0.2888 -5.3971 -2.5018 0.9765
-0.1804 -5.4018 -2.5018 0.9765
-0.0719 -5.4043 -2.5018 0.9765
0.0366 -5.4046 -2.5018 0.9765
0.4700 -5.3842 -2.5017 0.9765
0.5780 -5.3737 -2.5017 0.9765
0.7932 -5.3461 -2.5017 0.9765
0.9004 -5.3291 -2.5017 0.9765
1.0072 -5.3099 -2.5017 0.9765
1.2195 -5.2651 -2.5017 0.9765
1.3249 -5.2396 -2.5017 0.9765
1.4298 -5.2119 -2.5017 0.9765
1.5342 -5.1821 -2.5016 0.9765
1.7409 -5.1163 -2.5016 0.9765
1.8433 -5.0803 -2.5016 0.9765
2.2448 -4.9160 -2.5016 0.9765
2.3430 -4.8700 -2.5016 0.9765
2.7261 -4.6662 -2.5015 0.9765
2.9112 -4.5530 -2.5015 0.9765
3.0020 -4.4936 -2.5015 0.9765
3.0916 -4.4325 -2.5015 0.9765
3.1799 -4.3695 -2.5015 0.9765
3.2670 -4.3048 -2.5015 0.9765
4.5619 2.2783 -2.5012 0.9775
4.5152 2.3694 -2.5012 0.9775
4.4667 2.4596 -2.5012 0.9775
4.3106 2.7239 -2.5013 0.9775
4.2551 2.8099 -2.5013 0.9775
4.1389 2.9785 -2.5013 0.9775
3.9521 3.2222 -2.5013 0.9775
3.8866 3.3009 -2.5013 0.9775
3.6094 3.6021 -2.5013 0.9775
3.5363 3.6738 -2.5013 0.9775
3.3860 3.8128 -2.5013 0.9775
3.2303 3.9457 -2.5013 0.9775
3.0693 4.0722 -2.5014 0.9775
2.9870 4.1330 -2.5014 0.9775
2.9034 4.1921 -2.5014 0.9775
2.7328 4.3053 -2.5014 0.9775
2.3787 4.5107 -2.5014 0.9775
2.0092 4.6870 -2.5014 0.9775
1.9147 4.7264 -2.5014 0.9775
1.7235 4.7995 -2.5015 0.9775
1.6268 4.8332 -2.5015 0.9775
1.4315 4.8946 -2.5015 0.9775
1.0343 4.9937 -2.5015 0.9775
0.9338 5.0135 -2.5015 0.9775
0.6304 5.0607 -2.5016 0.9775
0.5287 5.0723 -2.5016 0.9775
0.4267 5.0819 -2.5016 0.9775
0.2224 5.0950 -2.5016 0.9775
0.1201 5.0985 -2.5016 0.9775
-0.0847 5.0992 -2.5016 0.9775
-0.1870 5.0965 -2.5016 0.9775
-0.2893 5.0918 -2.5017 0.9775
-0.5952 5.0652 -2.5017 0.9775
-0.6968 5.0522 -2.5017 0.9775
-1.0999 4.9801 -2.5017 0.9775
-1.3976 4.9050 -2.5018 0.9775
-1.4958 4.8759 -2.5018 0.9775
-1.7866 4.7771 -2.5018 0.9775
-1.9769 4.7016 -2.5018 0.9775
-2.1641 4.6185 -2.5018 0.9775
-2.2564 4.5741 -2.5018 0.9775
-2.3477 4.5279 -2.5019 0.9775
-2.4382 4.4799 -2.5019 0.9775
-2.6160 4.3785 -2.5019 0.9775
-2.7034 4.3251 -2.5019 0.9775
-2.8749 4.2131 -2.5019 0.9775
-2.9589 4.1546 -2.5019 0.9775
-3.0417 4.0943 -2.5019 0.9775
-3.1233 4.0325 -2.5019 0.9775
-3.2826 3.9039 -2.5020 0.9775
-3.4367 3.7690 -2.5020 0.9775
-3.5853 3.6280 -2.5020 0.9775
-3.6574 3.5554 -2.5020 0.9775
-3.7280 3.4812 -2.5020 0.9775
-3.7972 3.4057 -2.5020 0.9775
-3.9308 3.2505 -2.5020 0.9775
-3.9953 3.1710 -2.5020 0.9775
-4.1194 3.0081 -2.5020 0.9775
-4.1790 2.9248 -2.5021 0.9775
-4.2930 2.7547 -2.5021 0.9775
-4.3475 2.6680 -2.5021 0.9775
-4.4511 2.4913 -2.5021 0.9775
-4.5475 2.3107 -2.5021 0.9775
-4.6366 2.1263 -2.5021 0.9775
-4.6784 2.0328 -2.5021 0.9775
-4.7182 1.9385 -2.5021 0.9775
-4.8264 1.6510 -2.5021 0.9775
-4.9170 1.3575 -2.5022 0.9775
-4.9433 1.2585 -2.5022 0.9775
-5.0101 0.9587 -2.5022 0.9775
-5.0588 0.6554 -2.5022 0.9775
-5.0709 0.5537 -2.5022 0.9775
-5.0950 0.2475 -2.5022 0.9775
-5.0990 0.1452 -2.5022 0.9775
-5.0942 -0.2643 -2.5022 0.9775
-5.0879 -0.3665 -2.5022 0.9775
-4.9864 -1.0756 -2.5022 0.9775
-4.9638 -1.1754 -2.5022 0.9775
-4.9126 -1.3737 -2.5022 0.9775
-4.8840 -1.4721 -2.5022 0.9775
-4.8210 -1.6669 -2.5022 0.9775
-4.7502 -1.8591 -2.5022 0.9775
-4.6718 -2.0483 -2.5022 0.9775
-4.6297 -2.1416 -2.5022 0.9775
-4.5400 -2.3257 -2.5022 0.9775
-4.4430 -2.5061 -2.5022 0.9775
-4.3917 -2.5948 -2.5022 0.9775
-4.2276 -2.8544 -2.5022 0.9775
-4.1096 -3.0218 -2.5021 0.9775
-3.9202 -3.2636 -2.5021 0.9775
-3.8539 -3.3417 -2.5021 0.9775
-3.7861 -3.4183 -2.5021 0.9775
-3.7167 -3.4937 -2.5021 0.9775
-3.6458 -3.5675 -2.5021 0.9775
-3.3478 -3.8485 -2.5021 0.9775
-3.0283 -4.1046 -2.5021 0.9775
-2.6893 -4.3342 -2.5020 0.9775
-2.6017 -4.3873 -2.5020 0.9775
-2.4235 -4.4882 -2.5020 0.9775
-2.2414 -4.5818 -2.5020 0.9775
-1.9615 -4.7084 -2.5020 0.9775
-1.4798 -4.8811 -2.5019 0.9775
-1.3815 -4.9098 -2.5019 0.9775
-1.2827 -4.9366 -2.5019 0.9775
-1.1833 -4.9613 -2.5019 0.9775
-1.0835 -4.9841 -2.5019 0.9775
-0.6802 -5.0548 -2.5019 0.9775
-0.5786 -5.0674 -2.5018 0.9775
-0.4767 -5.0780 -2.5018 0.9775
-0.2725 -5.0930 -2.5018 0.9775
-0.0678 -5.0998 -2.5018 0.9775
0.3415 -5.0887 -2.5018 0.9775
