ply
format ascii 1.0
element vertex 1572
property float32 x
property float32 y
property float32 z
property float32 I
end_header
-7.0689 -12.5317 -2.3703 0.9433
-6.5561 -12.8007 -2.3693 0.9434
-6.0331 -13.0485 -2.3682 0.9434
-5.2311 -13.3797 -2.3666 0.9434
-4.9597 -13.4792 -2.3661 0.9434
-4.6863 -13.5731 -2.3655 0.9435
-2.9485 -13.7198 -2.3118 0.9447
-2.7293 -14.0728 -2.3615 0.9435
-0.7248 -14.2909 -2.3573 0.9436
-0.4370 -14.2989 -2.3567 0.9437
-0.1491 -14.3010 -2.3561 0.9437
0.1388 -14.2973 -2.3554 0.9437
0.4264 -14.2879 -2.3548 0.9437
0.7136 -14.2726 -2.3542 0.9437
1.8571 -14.1539 -2.3517 0.9438
2.1410 -14.1099 -2.3511 0.9438
2.4239 -14.0601 -2.3504 0.9438
2.7057 -14.0048 -2.3498 0.9438
3.8191 -13.7271 -2.3473 0.9439
4.0935 -13.6438 -2.3467 0.9439
4.3661 -13.5551 -2.3460 0.9439
4.6368 -13.4609 -2.3454 0.9439
4.9054 -13.3613 -2.3448 0.9439
5.4363 -13.1462 -2.3436 0.9440
5.6983 -13.0307 -2.3430 0.9440
5.9578 -12.9101 -2.3423 0.9440
6.2148 -12.7843 -2.3417 0.9440
6.4692 -12.6534 -2.3411 0.9440
6.7208 -12.5174 -2.3405 0.9440
6.9696 -12.3765 -2.3400 0.9440
7.7335 -11.9795 -2.3490 0.9438
8.1234 -12.0444 -2.3933 0.9428
8.5284 -12.1116 -2.4403 0.9417
9.4201 -11.7957 -2.4868 0.9406
10.1077 -11.1980 -2.4851 0.9407
10.3287 -10.9899 -2.4846 0.9407
10.7578 -10.5606 -2.4835 0.9407
10.9658 -10.3398 -2.4829 0.9407
11.5625 -9.6531 -2.4814 0.9408
11.9367 -9.1763 -2.4804 0.9408
12.1166 -8.9325 -2.4799 0.9408
12.4615 -8.4344 -2.4789 0.9408
12.7862 -7.9232 -2.4780 0.9408
13.5061 -6.5930 -2.4759 0.9409
13.6339 -6.3189 -2.4755 0.9409
13.8730 -5.7634 -2.4748 0.9409
13.9842 -5.4822 -2.4745 0.9409
14.0898 -5.1989 -2.4741 0.9409
14.1896 -4.9137 -2.4738 0.9409
14.2838 -4.6265 -2.4735 0.9409
14.7806 -2.5730 -2.4716 0.9410
14.8280 -2.2748 -2.4713 0.9410
14.8695 -1.9757 -2.4711 0.9410
14.9583 -1.0746 -2.4706 0.9410
14.9929 0.1318 -2.4700 0.9410
14.9742 0.7350 -2.4698 0.9410
14.9559 1.0362 -2.4697 0.9410
14.8651 1.9366 -2.4696 0.9410
14.8229 2.2354 -2.4695 0.9410
14.7748 2.5332 -2.4695 0.9410
14.7208 2.8301 -2.4695 0.9410
14.4462 4.0049 -2.4696 0.9410
14.3630 4.2949 -2.4697 0.9410
14.2741 4.5833 -2.4698 0.9410
13.9733 5.4369 -2.4701 0.9410
13.7156 5.9829 -2.4651 0.9411
-6.3980 10.7996 -2.3594 0.9502
-6.6155 10.6710 -2.3599 0.9502
-6.1176 9.4384 -2.1141 0.9553
-7.0426 10.4007 -2.3609 0.9502
-7.2521 10.2591 -2.3614 0.9502
-7.4586 10.1132 -2.3619 0.9501
-7.2053 9.3689 -2.2215 0.9530
-7.8629 9.8090 -2.3629 0.9501
-7.1352 8.5430 -2.0921 0.9557
-8.2547 9.4885 -2.3639 0.9501
-8.9981 8.8009 -2.3658 0.9501
-9.3486 8.4349 -2.3667 0.9500
-9.5182 8.2466 -2.3671 0.9500
-9.8460 7.8598 -2.3680 0.9500
-10.4156 7.6491 -2.4289 0.9488
-11.2688 7.2716 -2.5208 0.9469
-11.4280 7.0527 -2.5241 0.9468
-11.5694 6.8223 -2.5245 0.9468
-11.7062 6.5891 -2.5249 0.9468
-11.8382 6.3531 -2.5253 0.9468
-12.2052 5.6296 -2.5264 0.9468
-12.5277 4.8848 -2.5274 0.9467
-12.6250 4.6322 -2.5277 0.9467
-12.9625 3.6036 -2.5288 0.9467
-13.0337 3.3423 -2.5291 0.9467
-13.2154 2.5504 -2.5298 0.9467
-13.3095 2.0169 -2.5302 0.9467
-13.3819 1.4799 -2.5306 0.9467
-13.4493 0.6698 -2.5311 0.9467
-13.4608 0.3990 -2.5312 0.9467
-13.4515 -0.6849 -2.5316 0.9467
-13.4354 -0.9555 -2.5317 0.9467
-13.4137 -1.2257 -2.5318 0.9467
-13.3540 -1.7646 -2.5318 0.9467
-13.2724 -2.3006 -2.5319 0.9467
-13.2234 -2.5672 -2.5319 0.9467
-13.0441 -3.3604 -2.5318 0.9467
-12.9736 -3.6222 -2.5318 0.9467
-12.8977 -3.8825 -2.5317 0.9467
-12.7303 -4.3981 -2.5316 0.9467
-12.5420 -4.9065 -2.5314 0.9467
-12.3332 -5.4067 -2.5311 0.9467
-11.7238 -6.6162 -2.5303 0.9467
-11.5873 -6.8503 -2.5301 0.9467
-11.4462 -7.0815 -2.5299 0.9467
-10.6717 -8.1916 -2.5287 0.9467
-10.3311 -8.6125 -2.5281 0.9467
-9.9737 -9.0191 -2.5275 0.9467
-9.7890 -9.2169 -2.5272 0.9467
-9.6003 -9.4108 -2.5269 0.9468
-9.4077 -9.6008 -2.5265 0.9468
-8.6001 -10.3204 -2.5251 0.9468
-8.1753 -10.6548 -2.5243 0.9468
-7.7223 -10.9502 -2.5185 0.9469
-7.4912 -11.0898 -2.5155 0.9470
-7.1660 -11.0829 -2.4807 0.9477
-6.8459 -11.0703 -2.4465 0.9484
-6.2324 -11.0487 -2.3843 0.9497
-5.7403 -11.2078 -2.3669 0.9500
-5.2826 -11.4254 -2.3660 0.9501
-5.0506 -11.5272 -2.3655 0.9501
-4.3433 -11.8039 -2.3641 0.9501
-3.8631 -11.9642 -2.3631 0.9501
-3.6208 -12.0370 -2.3626 0.9501
-2.8860 -12.2258 -2.3611 0.9502
-2.6388 -12.2787 -2.3606 0.9502
-2.1416 -12.3696 -2.3596 0.9502
-1.8918 -12.4074 -2.3591 0.9502
-0.3828 -12.5279 -2.3559 0.9503
-0.1306 -12.5302 -2.3553 0.9503
0.3736 -12.5195 -2.3542 0.9503
0.6253 -12.5065 -2.3537 0.9503
1.1276 -12.4654 -2.3526 0.9503
2.1244 -12.3228 -2.3504 0.9504
2.3714 -12.2747 -2.3498 0.9504
3.3477 -12.0329 -2.3476 0.9504
3.5884 -11.9603 -2.3471 0.9504
3.8275 -11.8829 -2.3465 0.9505
4.0649 -11.8007 -2.3460 0.9505
4.3006 -11.7138 -2.3454 0.9505
4.7663 -11.5260 -2.3444 0.9505
5.0511 -11.5507 -2.3696 0.9500
5.3465 -11.5854 -2.3983 0.9494
6.4972 -11.5376 -2.4888 0.9475
6.7340 -11.4144 -2.4910 0.9475
7.4100 -10.9866 -2.4908 0.9475
8.4674 -10.1759 -2.4882 0.9475
9.4375 -9.2646 -2.4858 0.9476
9.6203 -9.0710 -2.4853 0.9476
9.7990 -8.8740 -2.4848 0.9476
9.9738 -8.6733 -2.4844 0.9476
10.1445 -8.4693 -2.4839 0.9476
10.4734 -8.0514 -2.4831 0.9477
10.6315 -7.8376 -2.4826 0.9477
10.9346 -7.4009 -2.4818 0.9477
11.2200 -6.9527 -2.4810 0.9477
11.3559 -6.7244 -2.4806 0.9477
11.7358 -6.0243 -2.4795 0.9477
11.9654 -5.5455 -2.4788 0.9477
12.0729 -5.3029 -2.4785 0.9477
12.5370 -4.0607 -2.4770 0.9478
12.8177 -3.0381 -2.4760 0.9478
12.9272 -2.5194 -2.4755 0.9478
13.1100 -1.2075 -2.4746 0.9478
13.1309 -0.9433 -2.4745 0.9478
13.1465 -0.6788 -2.4743 0.9478
13.1561 0.3805 -2.4739 0.9478
13.1453 0.6452 -2.4738 0.9478
13.0815 1.4372 -2.4736 0.9478
13.0497 1.7001 -2.4736 0.9478
12.9231 2.4845 -2.4735 0.9478
12.8705 2.7440 -2.4735 0.9478
12.6819 3.5158 -2.4736 0.9478
12.4477 4.2750 -2.4738 0.9478
12.2665 4.7729 -2.4740 0.9478
-5.6866 9.5989 -2.3583 0.9554
-6.0706 9.3659 -2.3593 0.9554
-6.2591 9.2436 -2.3597 0.9554
-6.4451 9.1175 -2.3602 0.9554
-6.9875 8.7169 -2.3615 0.9554
-7.3353 8.4317 -2.3624 0.9553
-7.8349 7.9780 -2.3636 0.9553
-8.0093 7.8337 -2.3682 0.9552
-8.3087 7.8057 -2.4098 0.9545
-9.4642 7.2481 -2.5198 0.9524
-9.6097 7.0572 -2.5202 0.9524
-9.7512 6.8634 -2.5206 0.9524
-10.3989 5.8533 -2.5224 0.9524
-10.5160 5.6436 -2.5227 0.9524
-10.6288 5.4315 -2.5231 0.9524
-10.7373 5.2171 -2.5234 0.9524
-10.8415 5.0006 -2.5237 0.9524
-10.9412 4.7820 -2.5240 0.9524
-11.0366 4.5613 -2.5243 0.9523
-11.1274 4.3388 -2.5246 0.9523
-11.2954 3.8883 -2.5251 0.9523
-11.3725 3.6606 -2.5254 0.9523
-11.5760 2.9685 -2.5261 0.9523
-11.6881 2.5007 -2.5265 0.9523
-11.7811 2.0286 -2.5269 0.9523
-11.8203 1.7912 -2.5271 0.9523
-11.8548 1.5531 -2.5273 0.9523
-11.8844 1.3143 -2.5274 0.9523
-11.9092 1.0749 -2.5276 0.9523
-11.9290 0.8351 -2.5277 0.9523
-11.9440 0.5949 -2.5279 0.9523
-11.9594 0.1137 -2.5281 0.9523
-11.9457 -0.6082 -2.5283 0.9523
-11.9313 -0.8486 -2.5284 0.9523
-11.9121 -1.0885 -2.5285 0.9523
-11.8590 -1.5671 -2.5285 0.9523
-11.8252 -1.8054 -2.5286 0.9523
-11.6947 -2.5157 -2.5286 0.9523
-11.5212 -3.2167 -2.5285 0.9523
-11.2240 -4.1324 -2.5282 0.9523
-11.0477 -4.5804 -2.5280 0.9523
-10.9528 -4.8015 -2.5279 0.9523
-10.8534 -5.0207 -2.5278 0.9523
-10.7496 -5.2379 -2.5276 0.9523
-10.6414 -5.4528 -2.5275 0.9523
-10.5288 -5.6655 -2.5273 0.9523
-10.2909 -6.0838 -2.5270 0.9523
-10.1657 -6.2892 -2.5268 0.9523
-10.0362 -6.4921 -2.5266 0.9523
-9.7652 -6.8895 -2.5262 0.9523
-9.3291 -7.4642 -2.5255 0.9523
-9.0193 -7.8319 -2.5250 0.9523
-8.8589 -8.0110 -2.5247 0.9523
-8.3564 -8.5280 -2.5238 0.9524
-8.0045 -8.8552 -2.5232 0.9524
-7.6396 -9.1678 -2.5225 0.9524
-7.0696 -9.6080 -2.5215 0.9524
-6.2702 -10.1394 -2.5200 0.9524
-6.0639 -10.2619 -2.5196 0.9524
-5.8553 -10.3802 -2.5192 0.9524
-5.2099 -10.6975 -2.5152 0.9525
-4.9894 -10.7912 -2.5131 0.9526
-4.7674 -10.8806 -2.5110 0.9526
-4.2885 -10.9688 -2.4895 0.9530
-4.0355 -10.9675 -2.4703 0.9533
-3.3012 -10.9745 -2.4225 0.9542
-2.5932 -10.9852 -2.3859 0.9549
-2.3620 -10.9907 -2.3763 0.9551
-2.1326 -10.9960 -2.3677 0.9552
-1.9054 -11.0053 -2.3609 0.9554
-1.6815 -11.0280 -2.3580 0.9554
-1.0124 -11.1028 -2.3566 0.9554
-0.7885 -11.1186 -2.3562 0.9555
-0.5645 -11.1300 -2.3557 0.9555
-0.3403 -11.1368 -2.3552 0.9555
-0.1161 -11.1391 -2.3547 0.9555
0.1081 -11.1369 -2.3542 0.9555
0.3321 -11.1302 -2.3537 0.9555
0.7809 -11.1238 -2.3572 0.9554
1.6968 -11.1819 -2.3907 0.9548
1.9308 -11.1996 -2.4023 0.9546
3.3886 -11.2943 -2.4925 0.9529
3.6167 -11.2284 -2.4936 0.9529
4.0693 -11.0838 -2.4958 0.9529
4.2937 -11.0053 -2.4971 0.9529
4.7321 -10.8213 -2.4965 0.9529
4.9479 -10.7217 -2.4960 0.9529
5.3732 -10.5096 -2.4950 0.9529
5.5825 -10.3973 -2.4945 0.9529
5.9940 -10.1602 -2.4936 0.9529
6.7865 -9.6379 -2.4916 0.9530
6.9778 -9.4976 -2.4912 0.9530
7.1662 -9.3534 -2.4907 0.9530
8.0623 -8.5784 -2.4885 0.9530
8.7201 -7.8969 -2.4868 0.9530
8.8758 -7.7185 -2.4864 0.9530
9.1763 -7.3527 -2.4856 0.9531
9.4619 -6.9754 -2.4848 0.9531
9.5989 -6.7825 -2.4844 0.9531
9.7320 -6.5870 -2.4841 0.9531
9.8612 -6.3889 -2.4837 0.9531
10.2245 -5.7798 -2.4827 0.9531
10.4461 -5.3622 -2.4820 0.9531
10.8383 -4.5026 -2.4808 0.9532
11.0083 -4.0619 -2.4803 0.9532
11.2300 -3.3892 -2.4795 0.9532
11.2948 -3.1622 -2.4793 0.9532
11.5506 -2.0107 -2.4783 0.9532
11.6486 -1.3098 -2.4778 0.9532
11.6719 -1.0750 -2.4777 0.9532
11.7045 -0.6044 -2.4774 0.9532
11.7137 -0.3687 -2.4773 0.9532
11.7183 -0.1328 -2.4772 0.9532
11.7181 0.1030 -2.4771 0.9532
11.7133 0.3388 -2.4770 0.9532
11.7037 0.5745 -2.4769 0.9532
11.6187 1.5137 -2.4767 0.9532
11.5858 1.7472 -2.4767 0.9532
11.5482 1.9800 -2.4767 0.9532
11.4592 2.4431 -2.4767 0.9532
11.3518 2.9024 -2.4767 0.9532
11.2913 3.1303 -2.4768 0.9532
11.2262 3.3570 -2.4768 0.9532
10.7423 4.6859 -2.4773 0.9532
-5.1127 8.6301 -2.3575 0.9596
-5.2863 8.5270 -2.3579 0.9596
-5.4578 8.4204 -2.3583 0.9596
-5.7942 8.1967 -2.3591 0.9596
-6.8498 7.8737 -2.4528 0.9580
-7.1172 7.8560 -2.4914 0.9574
-7.3246 7.7650 -2.5087 0.9571
-7.6473 7.4797 -2.5141 0.9570
-7.8030 7.3306 -2.5162 0.9570
-7.9501 7.1731 -2.5166 0.9570
-8.0941 7.0127 -2.5170 0.9569
-8.2348 6.8494 -2.5173 0.9569
-8.3722 6.6833 -2.5177 0.9569
-9.0074 5.8123 -2.5194 0.9569
-9.1237 5.6306 -2.5197 0.9569
-9.4503 5.0717 -2.5207 0.9569
-9.6490 4.6883 -2.5213 0.9569
-9.8320 4.2972 -2.5218 0.9569
-10.0765 3.6972 -2.5226 0.9569
-10.1498 3.4940 -2.5228 0.9569
-10.2840 3.0832 -2.5233 0.9568
-10.3449 2.8759 -2.5235 0.9568
-10.4015 2.6673 -2.5237 0.9568
-10.5021 2.2469 -2.5241 0.9568
-10.5459 2.0353 -2.5243 0.9568
-10.5854 1.8227 -2.5244 0.9568
-10.6207 1.6094 -2.5246 0.9568
-10.6781 1.1809 -2.5249 0.9568
-10.7003 0.9658 -2.5250 0.9568
-10.7405 0.3184 -2.5254 0.9568
-10.7452 0.1022 -2.5255 0.9568
-10.7454 -0.1141 -2.5256 0.9568
-10.7025 -0.9780 -2.5258 0.9568
-10.6808 -1.1932 -2.5259 0.9568
-10.6548 -1.4079 -2.5259 0.9568
-10.5072 -2.2602 -2.5259 0.9568
-10.4595 -2.4712 -2.5259 0.9568
-10.3513 -2.8901 -2.5258 0.9568
-10.2908 -3.0977 -2.5258 0.9568
-10.0073 -3.9149 -2.5255 0.9568
-9.9261 -4.1153 -2.5254 0.9568
-9.8409 -4.3141 -2.5253 0.9568
-9.7516 -4.5111 -2.5252 0.9568
-9.5612 -4.8993 -2.5249 0.9568
-9.2465 -5.4664 -2.5245 0.9568
-9.0178 -5.8333 -2.5242 0.9568
-8.8979 -6.0131 -2.5240 0.9568
-8.5168 -6.5375 -2.5234 0.9568
-8.2454 -6.8738 -2.5229 0.9568
-8.1046 -7.0376 -2.5227 0.9569
-7.8133 -7.3566 -2.5222 0.9569
-7.6628 -7.5116 -2.5219 0.9569
-7.1932 -7.9577 -2.5211 0.9569
-7.0308 -8.0999 -2.5208 0.9569
-6.8655 -8.2388 -2.5205 0.9569
-6.5268 -8.5063 -2.5199 0.9569
-6.3535 -8.6348 -2.5195 0.9569
-6.1776 -8.7598 -2.5192 0.9569
-5.2627 -9.3297 -2.5175 0.9569
-4.4927 -9.7169 -2.5160 0.9570
-4.0967 -9.8867 -2.5152 0.9570
-3.6944 -10.0403 -2.5144 0.9570
-3.4910 -10.1110 -2.5140 0.9570
-3.2862 -10.1775 -2.5136 0.9570
-2.8730 -10.2981 -2.5127 0.9570
-2.6648 -10.3521 -2.5123 0.9570
-2.0342 -10.4886 -2.5110 0.9570
-1.6096 -10.5564 -2.5097 0.9571
-1.3964 -10.5834 -2.5089 0.9571
-0.9688 -10.6253 -2.5076 0.9571
-0.5402 -10.6510 -2.5065 0.9571
-0.3257 -10.6581 -2.5061 0.9571
0.1035 -10.6602 -2.5055 0.9571
0.3180 -10.6552 -2.5053 0.9571
0.7464 -10.6326 -2.5051 0.9571
1.3859 -10.5622 -2.5036 0.9572
1.5979 -10.5302 -2.5032 0.9572
2.4377 -10.3598 -2.5013 0.9572
2.8516 -10.2495 -2.5004 0.9572
4.0610 -9.8204 -2.4976 0.9573
5.0225 -9.3543 -2.4953 0.9573
5.5749 -9.0294 -2.4940 0.9573
5.7545 -8.9138 -2.4936 0.9573
5.9317 -8.7947 -2.4931 0.9573
6.6153 -8.2836 -2.4915 0.9574
6.7795 -8.1474 -2.4911 0.9574
6.9410 -8.0080 -2.4906 0.9574
7.0996 -7.8655 -2.4902 0.9574
7.4080 -7.5710 -2.4895 0.9574
7.9881 -6.9465 -2.4880 0.9574
8.2588 -6.6176 -2.4872 0.9574
8.6395 -6.1046 -2.4862 0.9575
9.0978 -5.3873 -2.4849 0.9575
9.2032 -5.2025 -2.4846 0.9575
9.3049 -5.0156 -2.4843 0.9575
9.5874 -4.4435 -2.4835 0.9575
9.6738 -4.2491 -2.4832 0.9575
9.8350 -3.8556 -2.4827 0.9575
9.9096 -3.6565 -2.4825 0.9575
9.9803 -3.4560 -2.4823 0.9575
10.0469 -3.2542 -2.4820 0.9575
10.1680 -2.8467 -2.4816 0.9575
10.2224 -2.6413 -2.4814 0.9575
10.3188 -2.2275 -2.4810 0.9576
10.3609 -2.0192 -2.4809 0.9576
10.4324 -1.6004 -2.4805 0.9576
10.4618 -1.3901 -2.4804 0.9576
10.5376 -0.5441 -2.4799 0.9576
10.5501 -0.1196 -2.4797 0.9576
10.5500 0.0928 -2.4796 0.9576
10.5073 0.9408 -2.4793 0.9576
10.4861 1.1520 -2.4793 0.9576
10.4606 1.3628 -2.4793 0.9576
10.3592 1.9915 -2.4792 0.9576
10.2708 2.4068 -2.4793 0.9576
10.2204 2.6131 -2.4793 0.9576
10.1072 3.0223 -2.4794 0.9576
9.8325 3.8258 -2.4796 0.9576
9.7539 4.0230 -2.4797 0.9576
-4.7089 7.9486 -2.3921 0.9625
-4.9220 7.9394 -2.4186 0.9621
-5.1397 7.9297 -2.4467 0.9617
-5.3626 7.9196 -2.4764 0.9613
-5.5820 7.8966 -2.5038 0.9608
-5.9054 7.6788 -2.5081 0.9608
-6.0641 7.5650 -2.5103 0.9607
-6.5178 7.1944 -2.5135 0.9607
-6.6622 7.0627 -2.5139 0.9607
-6.9430 6.7909 -2.5146 0.9607
-7.0792 6.6507 -2.5149 0.9607
-7.2126 6.5078 -2.5153 0.9607
-7.3431 6.3621 -2.5156 0.9607
-7.5952 6.0631 -2.5163 0.9606
-7.7167 5.9097 -2.5166 0.9606
-8.1710 5.2726 -2.5178 0.9606
-8.2764 5.1077 -2.5181 0.9606
-8.5724 4.6005 -2.5190 0.9606
-8.6642 4.4275 -2.5192 0.9606
-8.9182 3.8978 -2.5200 0.9606
-8.9957 3.7179 -2.5202 0.9606
-9.0696 3.5364 -2.5205 0.9606
-9.1397 3.3535 -2.5207 0.9606
-9.2062 3.1691 -2.5209 0.9606
-9.2689 2.9835 -2.5211 0.9606
-9.3278 2.7965 -2.5213 0.9606
-9.3829 2.6084 -2.5215 0.9606
-9.5252 2.0380 -2.5221 0.9606
-9.5649 1.8459 -2.5222 0.9605
-9.6007 1.6532 -2.5224 0.9605
-9.6606 1.2656 -2.5227 0.9605
-9.6846 1.0710 -2.5228 0.9605
-9.7046 0.8759 -2.5229 0.9605
-9.7410 0.2887 -2.5232 0.9605
-9.7454 -0.1035 -2.5234 0.9605
-9.7416 -0.2996 -2.5235 0.9605
-9.7064 -0.8870 -2.5236 0.9605
-9.6631 -1.2769 -2.5237 0.9605
-9.6355 -1.4711 -2.5237 0.9605
-9.6040 -1.6647 -2.5237 0.9605
-9.4388 -2.4317 -2.5237 0.9605
-9.3879 -2.6211 -2.5236 0.9605
-9.2121 -3.1826 -2.5235 0.9605
-8.7597 -4.2683 -2.5230 0.9605
-8.6716 -4.4435 -2.5228 0.9605
-8.4849 -4.7884 -2.5226 0.9605
-8.2844 -5.1253 -2.5223 0.9605
-8.1790 -5.2907 -2.5221 0.9606
-8.0703 -5.4539 -2.5220 0.9606
-7.7248 -5.9296 -2.5214 0.9606
-7.3511 -6.3834 -2.5208 0.9606
-7.2205 -6.5295 -2.5206 0.9606
-7.0870 -6.6728 -2.5203 0.9606
-6.6695 -7.0862 -2.5196 0.9606
-6.2278 -7.4735 -2.5188 0.9606
-5.6040 -7.9465 -2.5177 0.9606
-5.4423 -8.0567 -2.5173 0.9606
-4.7743 -8.4639 -2.5161 0.9606
-3.1674 -9.1740 -2.5129 0.9607
-2.9817 -9.2345 -2.5125 0.9607
-2.7949 -9.2912 -2.5121 0.9607
-2.4179 -9.3933 -2.5114 0.9607
-2.2281 -9.4386 -2.5110 0.9607
-2.0374 -9.4800 -2.5106 0.9607
-1.8458 -9.5176 -2.5102 0.9607
-1.4609 -9.5811 -2.5094 0.9607
-1.2676 -9.6070 -2.5090 0.9608
-1.0738 -9.6290 -2.5086 0.9608
-0.6852 -9.6612 -2.5077 0.9608
0.2887 -9.6731 -2.5057 0.9608
0.8714 -9.6332 -2.5044 0.9608
1.0649 -9.6120 -2.5040 0.9608
1.6421 -9.5254 -2.5027 0.9608
2.0235 -9.4484 -2.5018 0.9609
2.4012 -9.3561 -2.5010 0.9609
2.5886 -9.3043 -2.5005 0.9609
2.7748 -9.2487 -2.5001 0.9609
3.1437 -9.1265 -2.4993 0.9609
3.6869 -8.9157 -2.4980 0.9609
4.2161 -8.6727 -2.4968 0.9609
4.8967 -8.3001 -2.4952 0.9610
5.5448 -7.8745 -2.4936 0.9610
5.8554 -7.6427 -2.4928 0.9610
6.4473 -7.1428 -2.4914 0.9610
6.7276 -6.8756 -2.4906 0.9610
6.9969 -6.5974 -2.4900 0.9610
7.1273 -6.4544 -2.4896 0.9610
7.5008 -6.0102 -2.4886 0.9611
7.9559 -5.3848 -2.4874 0.9611
8.0617 -5.2230 -2.4871 0.9611
8.2635 -4.8932 -2.4865 0.9611
8.3593 -4.7254 -2.4863 0.9611
8.4518 -4.5557 -2.4860 0.9611
8.5409 -4.3843 -2.4857 0.9611
8.7087 -4.0362 -2.4852 0.9611
9.0017 -3.3215 -2.4843 0.9611
9.0660 -3.1394 -2.4841 0.9611
9.1266 -2.9561 -2.4839 0.9611
9.2862 -2.3994 -2.4833 0.9611
9.3319 -2.2119 -2.4832 0.9611
9.3739 -2.0235 -2.4830 0.9612
9.4121 -1.8343 -2.4828 0.9612
9.4772 -1.4539 -2.4825 0.9612
9.5270 -1.0712 -2.4823 0.9612
9.5615 -0.6869 -2.4820 0.9612
9.5807 -0.3016 -2.4818 0.9612
9.5845 -0.1087 -2.4818 0.9612
9.5844 0.0843 -2.4817 0.9612
9.5728 0.4699 -2.4815 0.9612
9.5457 0.8547 -2.4815 0.9612
9.5265 1.0466 -2.4814 0.9612
9.4764 1.4291 -2.4814 0.9612
9.4112 1.8093 -2.4814 0.9612
9.3729 1.9983 -2.4814 0.9612
9.3309 2.1866 -2.4814 0.9612
9.2355 2.5604 -2.4814 0.9612
9.1253 2.9301 -2.4815 0.9612
9.0647 3.1132 -2.4816 0.9612
8.8611 3.6548 -2.4818 0.9612
8.7861 3.8326 -2.4819 0.9612
-4.3560 7.7022 -2.5050 0.9639
-4.6689 7.5312 -2.5085 0.9638
-4.8220 7.4394 -2.5097 0.9638
-4.9714 7.3419 -2.5101 0.9638
-5.1189 7.2414 -2.5105 0.9638
-5.2643 7.1379 -2.5108 0.9638
-5.4077 7.0315 -2.5112 0.9638
-5.5489 6.9222 -2.5115 0.9638
-6.0909 6.4571 -2.5129 0.9638
-6.2204 6.3340 -2.5132 0.9638
-6.3474 6.2084 -2.5135 0.9638
-6.4719 6.0801 -2.5138 0.9638
-6.5938 5.9494 -2.5142 0.9638
-6.7130 5.8162 -2.5145 0.9637
-6.9433 5.5427 -2.5151 0.9637
-7.0543 5.4025 -2.5154 0.9637
-7.2676 5.1154 -2.5160 0.9637
-7.3699 4.9686 -2.5162 0.9637
-7.7489 4.3617 -2.5173 0.9637
-7.8359 4.2052 -2.5175 0.9637
-8.0003 3.8873 -2.5180 0.9637
-8.0777 3.7258 -2.5183 0.9637
-8.1518 3.5628 -2.5185 0.9637
-8.2225 3.3983 -2.5187 0.9637
-8.4147 2.8967 -2.5193 0.9637
-8.5257 2.5561 -2.5197 0.9637
-8.5760 2.3841 -2.5199 0.9637
-8.7060 1.8627 -2.5204 0.9637
-8.8040 1.3341 -2.5208 0.9637
-8.8295 1.1567 -2.5209 0.9637
-8.8514 0.9789 -2.5210 0.9637
-8.8697 0.8005 -2.5211 0.9637
-8.8954 0.4430 -2.5213 0.9637
-8.9066 0.0847 -2.5215 0.9636
-8.8962 -0.4529 -2.5217 0.9636
-8.8855 -0.6319 -2.5218 0.9636
-8.8711 -0.8106 -2.5218 0.9636
-8.8063 -1.3445 -2.5219 0.9636
-8.7451 -1.6978 -2.5219 0.9636
-8.4193 -2.9087 -2.5217 0.9636
-8.3589 -3.0775 -2.5216 0.9636
-8.2950 -3.2450 -2.5215 0.9636
-8.2278 -3.4112 -2.5215 0.9636
-8.1572 -3.5759 -2.5214 0.9637
-8.0060 -3.9010 -2.5212 0.9637
-7.5718 -4.6845 -2.5206 0.9637
-7.1687 -5.2769 -2.5199 0.9637
-6.7192 -5.8346 -2.5192 0.9637
-6.0964 -6.4773 -2.5181 0.9637
-5.9642 -6.5981 -2.5179 0.9637
-5.8297 -6.7161 -2.5176 0.9637
-5.5536 -6.9439 -2.5171 0.9637
-5.4121 -7.0535 -2.5169 0.9637
-4.9750 -7.3649 -2.5161 0.9637
-4.6735 -7.5574 -2.5155 0.9637
-4.0487 -7.9050 -2.5143 0.9638
-3.8883 -7.9838 -2.5140 0.9638
-3.7264 -8.0595 -2.5137 0.9638
-3.5630 -8.1318 -2.5133 0.9638
-3.3981 -8.2008 -2.5130 0.9638
-3.2320 -8.2664 -2.5127 0.9638
-3.0645 -8.3287 -2.5123 0.9638
-2.8959 -8.3875 -2.5120 0.9638
-2.5553 -8.4949 -2.5113 0.9638
-2.0372 -8.6300 -2.5102 0.9638
-1.8628 -8.6680 -2.5099 0.9638
-1.5121 -8.7334 -2.5092 0.9638
-1.3358 -8.7608 -2.5088 0.9638
-1.1590 -8.7846 -2.5084 0.9638
-0.9819 -8.8048 -2.5080 0.9638
-0.6266 -8.8346 -2.5073 0.9639
-0.0923 -8.8522 -2.5061 0.9639
0.0859 -8.8509 -2.5058 0.9639
0.4419 -8.8376 -2.5050 0.9639
0.9739 -8.7907 -2.5038 0.9639
1.1505 -8.7680 -2.5034 0.9639
1.3265 -8.7417 -2.5030 0.9639
1.6767 -8.6785 -2.5023 0.9639
2.0239 -8.6013 -2.5015 0.9639
2.1963 -8.5575 -2.5011 0.9639
2.5381 -8.4596 -2.5003 0.9639
2.7074 -8.4055 -2.4999 0.9640
3.0425 -8.2872 -2.4992 0.9640
3.3725 -8.1555 -2.4984 0.9640
3.6969 -8.0108 -2.4976 0.9640
4.0150 -7.8531 -2.4969 0.9640
4.1717 -7.7696 -2.4965 0.9640
4.3265 -7.6829 -2.4961 0.9640
4.9275 -7.3059 -2.4947 0.9640
5.0728 -7.2042 -2.4943 0.9640
5.2161 -7.0997 -2.4940 0.9640
5.3572 -6.9923 -2.4936 0.9640
5.4960 -6.8821 -2.4933 0.9640
5.6327 -6.7692 -2.4930 0.9641
5.7670 -6.6536 -2.4926 0.9641
5.8989 -6.5353 -2.4923 0.9641
6.0284 -6.4144 -2.4920 0.9641
6.1555 -6.2909 -2.4916 0.9641
6.5214 -5.9058 -2.4907 0.9641
6.7522 -5.6372 -2.4901 0.9641
6.8634 -5.4995 -2.4898 0.9641
7.0776 -5.2176 -2.4892 0.9641
7.2802 -4.9275 -2.4887 0.9641
7.5619 -4.4778 -2.4879 0.9641
7.7344 -4.1690 -2.4874 0.9641
7.8160 -4.0121 -2.4871 0.9641
7.8944 -3.8537 -2.4869 0.9641
8.0416 -3.5322 -2.4865 0.9641
8.1759 -3.2052 -2.4860 0.9642
8.4046 -2.5365 -2.4853 0.9642
8.6141 -1.6788 -2.4845 0.9642
8.6457 -1.5050 -2.4843 0.9642
8.6984 -1.1558 -2.4841 0.9642
8.7194 -0.9804 -2.4840 0.9642
8.7370 -0.8047 -2.4839 0.9642
8.7721 0.0771 -2.4834 0.9642
8.7686 0.2536 -2.4834 0.9642
8.7615 0.4301 -2.4833 0.9642
8.7509 0.6063 -2.4833 0.9642
8.7192 0.9579 -2.4832 0.9642
8.6980 1.1332 -2.4832 0.9642
8.6734 1.3080 -2.4831 0.9642
8.6137 1.6560 -2.4831 0.9642
8.5402 2.0013 -2.4832 0.9642
8.4041 2.5131 -2.4832 0.9642
8.2377 3.0158 -2.4834 0.9642
8.1755 3.1811 -2.4835 0.9642
8.1101 3.3451 -2.4835 0.9642
-4.0143 7.0980 -2.5081 0.9664
-4.1569 7.0167 -2.5085 0.9664
-4.2978 6.9326 -2.5088 0.9664
-4.4371 6.8456 -2.5092 0.9664
-4.7102 6.6632 -2.5098 0.9664
-4.8440 6.5680 -2.5101 0.9664
-5.1057 6.3693 -2.5108 0.9664
-5.2335 6.2661 -2.5111 0.9664
-5.3592 6.1603 -2.5114 0.9664
-5.4828 6.0519 -2.5117 0.9664
-5.7232 5.8278 -2.5123 0.9664
-5.8401 5.7121 -2.5126 0.9664
-6.2834 5.2263 -2.5138 0.9664
-6.5894 4.8392 -2.5146 0.9664
-6.6862 4.7061 -2.5149 0.9664
-6.7803 4.5710 -2.5151 0.9664
-7.1287 4.0126 -2.5161 0.9663
-7.2086 3.8686 -2.5163 0.9663
-7.3598 3.5760 -2.5168 0.9663
-7.4990 3.2775 -2.5172 0.9663
-7.7406 2.6646 -2.5180 0.9663
-7.8427 2.3513 -2.5183 0.9663
-7.8889 2.1931 -2.5185 0.9663
-8.0416 1.5520 -2.5191 0.9663
-8.1419 0.9004 -2.5195 0.9663
-8.1587 0.7364 -2.5196 0.9663
-8.1722 0.5721 -2.5197 0.9663
-8.1926 0.0779 -2.5200 0.9663
-8.1234 -1.0734 -2.5203 0.9663
-8.0439 -1.5617 -2.5203 0.9663
-7.9349 -2.0442 -2.5203 0.9663
-7.8460 -2.3618 -2.5202 0.9663
-7.7967 -2.5192 -2.5202 0.9663
-7.7443 -2.6755 -2.5201 0.9663
-7.5682 -3.1377 -2.5199 0.9663
-7.5033 -3.2893 -2.5199 0.9663
-7.4353 -3.4395 -2.5198 0.9663
-7.3643 -3.5883 -2.5197 0.9663
-7.2903 -3.7357 -2.5196 0.9663
-7.2133 -3.8815 -2.5195 0.9663
-7.0506 -4.1682 -2.5192 0.9663
-6.9650 -4.3090 -2.5191 0.9663
-6.7852 -4.5853 -2.5188 0.9663
-6.6911 -4.7207 -2.5187 0.9663
-6.5944 -4.8541 -2.5185 0.9663
-6.3928 -5.1149 -2.5182 0.9663
-6.2882 -5.2421 -2.5180 0.9663
-5.9591 -5.6108 -2.5175 0.9663
-5.6082 -5.9587 -2.5169 0.9663
-5.4867 -6.0698 -2.5166 0.9663
-5.2371 -6.2846 -2.5162 0.9663
-5.1090 -6.3881 -2.5160 0.9663
-4.8469 -6.5873 -2.5155 0.9664
-4.7129 -6.6828 -2.5152 0.9664
-4.5770 -6.7756 -2.5150 0.9664
-4.4392 -6.8656 -2.5147 0.9664
-3.8710 -7.1973 -2.5136 0.9664
-3.7250 -7.2729 -2.5133 0.9664
-3.5775 -7.3456 -2.5130 0.9664
-2.8197 -7.6632 -2.5115 0.9664
-2.6646 -7.7174 -2.5112 0.9664
-2.5084 -7.7685 -2.5109 0.9664
-2.3512 -7.8164 -2.5106 0.9664
-2.1932 -7.8612 -2.5103 0.9664
-2.0343 -7.9027 -2.5099 0.9664
-1.7141 -7.9761 -2.5093 0.9664
-1.5530 -8.0079 -2.5089 0.9664
-1.2292 -8.0617 -2.5083 0.9664
-0.9035 -8.1024 -2.5076 0.9665
-0.4128 -8.1388 -2.5065 0.9665
0.0791 -8.1455 -2.5055 0.9665
0.8963 -8.0905 -2.5037 0.9665
1.0588 -8.0697 -2.5033 0.9665
1.2208 -8.0456 -2.5030 0.9665
1.3823 -8.0183 -2.5026 0.9665
1.7034 -7.9538 -2.5019 0.9665
1.8629 -7.9168 -2.5016 0.9665
2.0215 -7.8766 -2.5012 0.9665
2.3362 -7.7866 -2.5005 0.9666
2.4921 -7.7370 -2.5001 0.9666
2.9532 -7.5693 -2.4991 0.9666
3.1045 -7.5072 -2.4987 0.9666
3.2545 -7.4422 -2.4984 0.9666
3.6961 -7.2292 -2.4973 0.9666
3.9829 -7.0727 -2.4966 0.9666
4.1239 -6.9902 -2.4963 0.9666
4.2632 -6.9049 -2.4960 0.9666
4.5364 -6.7259 -2.4953 0.9666
4.6702 -6.6324 -2.4950 0.9666
4.8021 -6.5362 -2.4947 0.9666
4.9320 -6.4374 -2.4943 0.9666
5.0600 -6.3361 -2.4940 0.9666
5.3095 -6.1258 -2.4934 0.9666
5.4311 -6.0169 -2.4931 0.9666
5.5504 -5.9057 -2.4928 0.9667
5.7822 -5.6762 -2.4922 0.9667
5.8945 -5.5580 -2.4919 0.9667
6.3196 -5.0637 -2.4908 0.9667
6.4195 -4.9350 -2.4905 0.9667
6.5169 -4.8043 -2.4903 0.9667
6.8794 -4.2629 -2.4893 0.9667
6.9631 -4.1232 -2.4890 0.9667
7.0440 -3.9819 -2.4888 0.9667
7.2695 -3.5486 -2.4881 0.9667
7.3388 -3.4013 -2.4879 0.9667
7.4686 -3.1027 -2.4875 0.9667
7.6917 -2.4913 -2.4868 0.9667
7.7847 -2.1795 -2.4865 0.9667
7.9329 -1.5460 -2.4859 0.9667
7.9620 -1.3860 -2.4858 0.9667
7.9879 -1.2254 -2.4856 0.9667
8.0106 -1.0644 -2.4855 0.9667
8.0462 -0.7411 -2.4853 0.9667
8.0754 -0.2542 -2.4851 0.9668
8.0787 -0.0916 -2.4850 0.9668
8.0787 0.0710 -2.4849 0.9668
8.0592 0.5583 -2.4848 0.9668
8.0462 0.7204 -2.4847 0.9668
8.0300 0.8822 -2.4847 0.9668
8.0105 1.0436 -2.4847 0.9668
7.9619 1.3651 -2.4847 0.9668
7.9328 1.5251 -2.4847 0.9668
7.8265 2.0010 -2.4847 0.9668
7.7847 2.1581 -2.4847 0.9668
7.7398 2.3144 -2.4848 0.9668
7.6918 2.4697 -2.4848 0.9668
7.5865 2.7774 -2.4849 0.9668
7.4057 3.2304 -2.4851 0.9668
-3.9760 6.4135 -2.5083 0.9687
-4.1048 6.3330 -2.5086 0.9687
-4.4811 6.0760 -2.5096 0.9687
-4.7232 5.8921 -2.5102 0.9687
-5.0718 5.5983 -2.5110 0.9687
-5.1841 5.4957 -2.5113 0.9687
-5.2942 5.3909 -2.5116 0.9687
-5.4022 5.2838 -2.5119 0.9686
-5.6117 5.0633 -2.5124 0.9686
-5.7130 4.9498 -2.5127 0.9686
-5.9088 4.7169 -2.5132 0.9686
-6.0032 4.5974 -2.5134 0.9686
-6.1845 4.3530 -2.5139 0.9686
-6.2715 4.2280 -2.5142 0.9686
-6.3559 4.1013 -2.5144 0.9686
-6.4377 3.9730 -2.5146 0.9686
-6.5169 3.8429 -2.5148 0.9686
-6.7387 3.4436 -2.5155 0.9686
-6.8071 3.3075 -2.5157 0.9686
-6.8729 3.1701 -2.5159 0.9686
-6.9358 3.0314 -2.5161 0.9686
-6.9959 2.8914 -2.5163 0.9686
-7.1592 2.4645 -2.5168 0.9686
-7.2962 2.0283 -2.5173 0.9686
-7.3360 1.8812 -2.5174 0.9686
-7.3727 1.7333 -2.5175 0.9686
-7.4065 1.5846 -2.5177 0.9686
-7.4650 1.2854 -2.5179 0.9686
-7.4897 1.1350 -2.5180 0.9686
-7.5114 0.9841 -2.5181 0.9686
-7.5579 0.5291 -2.5184 0.9686
-7.5673 0.3769 -2.5185 0.9686
-7.5464 -0.6896 -2.5189 0.9686
-7.4667 -1.2943 -2.5190 0.9686
-7.4391 -1.4443 -2.5190 0.9686
-7.3749 -1.7425 -2.5190 0.9686
-7.2987 -2.0378 -2.5189 0.9686
-7.2106 -2.3298 -2.5188 0.9686
-7.1621 -2.4744 -2.5188 0.9686
-7.0564 -2.7605 -2.5187 0.9686
-6.9992 -2.9019 -2.5186 0.9686
-6.9392 -3.0420 -2.5185 0.9686
-6.8764 -3.1810 -2.5185 0.9686
-6.8108 -3.3186 -2.5184 0.9686
-6.7423 -3.4549 -2.5183 0.9686
-6.5973 -3.7231 -2.5181 0.9686
-6.5207 -3.8550 -2.5180 0.9686
-6.4415 -3.9852 -2.5179 0.9686
-6.1883 -4.3660 -2.5175 0.9686
-6.0989 -4.4894 -2.5173 0.9686
-6.0069 -4.6109 -2.5172 0.9686
-5.9126 -4.7306 -2.5170 0.9686
-5.6152 -5.0778 -2.5165 0.9686
-5.5115 -5.1894 -2.5163 0.9686
-5.1871 -5.5113 -2.5158 0.9686
-4.8439 -5.8128 -2.5152 0.9686
-4.4831 -6.0929 -2.5145 0.9686
-4.2335 -6.2672 -2.5140 0.9686
-3.9771 -6.4312 -2.5135 0.9686
-3.8465 -6.5093 -2.5133 0.9686
-3.5807 -6.6575 -2.5128 0.9686
-3.3092 -6.7948 -2.5122 0.9686
-3.1714 -6.8592 -2.5120 0.9686
-2.8922 -6.9798 -2.5114 0.9687
-2.7508 -7.0358 -2.5111 0.9687
-2.1751 -7.2309 -2.5100 0.9687
-1.4368 -7.4083 -2.5085 0.9687
-1.2872 -7.4348 -2.5081 0.9687
-0.8359 -7.4961 -2.5072 0.9687
-0.0786 -7.5373 -2.5056 0.9687
0.0731 -7.5364 -2.5053 0.9687
0.2248 -7.5324 -2.5049 0.9687
0.3763 -7.5254 -2.5046 0.9687
0.5276 -7.5153 -2.5043 0.9687
0.8294 -7.4860 -2.5036 0.9688
0.9797 -7.4668 -2.5033 0.9688
1.2791 -7.4193 -2.5026 0.9688
1.8706 -7.2886 -2.5013 0.9688
2.1618 -7.2055 -2.5006 0.9688
2.3061 -7.1596 -2.5003 0.9688
2.5917 -7.0591 -2.4996 0.9688
2.8729 -6.9473 -2.4990 0.9688
3.0117 -6.8872 -2.4987 0.9688
3.5540 -6.6193 -2.4974 0.9688
3.6860 -6.5456 -2.4971 0.9688
3.8166 -6.4693 -2.4968 0.9688
4.1984 -6.2249 -2.4958 0.9688
4.4445 -6.0494 -2.4952 0.9689
4.9143 -5.6698 -2.4941 0.9689
5.0268 -5.5691 -2.4938 0.9689
5.1373 -5.4662 -2.4935 0.9689
5.3519 -5.2539 -2.4930 0.9689
5.4560 -5.1445 -2.4927 0.9689
5.5578 -5.0331 -2.4924 0.9689
5.6574 -4.9197 -2.4922 0.9689
5.7547 -4.8044 -2.4919 0.9689
5.8496 -4.6871 -2.4917 0.9689
5.9422 -4.5680 -2.4914 0.9689
6.0323 -4.4471 -2.4912 0.9689
6.1200 -4.3244 -2.4909 0.9689
6.2052 -4.1999 -2.4907 0.9689
6.2879 -4.0738 -2.4905 0.9689
6.3680 -3.9461 -2.4902 0.9689
6.5205 -3.6860 -2.4898 0.9689
6.5928 -3.5537 -2.4896 0.9689
6.6625 -3.4200 -2.4894 0.9689
6.7294 -3.2850 -2.4892 0.9689
6.7936 -3.1487 -2.4890 0.9689
6.9138 -2.8723 -2.4886 0.9689
7.1205 -2.3063 -2.4880 0.9689
7.2812 -1.7258 -2.4874 0.9690
7.3141 -1.5788 -2.4872 0.9690
7.3440 -1.4313 -2.4871 0.9690
7.3950 -1.1345 -2.4869 0.9690
7.4340 -0.8359 -2.4867 0.9690
7.4491 -0.6861 -2.4866 0.9690
7.4701 -0.3857 -2.4864 0.9690
7.4792 0.0657 -2.4862 0.9690
7.4702 0.3667 -2.4861 0.9690
7.4611 0.5169 -2.4861 0.9690
7.4491 0.6670 -2.4860 0.9690
7.4341 0.8167 -2.4860 0.9690
7.3951 1.1152 -2.4860 0.9690
7.3442 1.4119 -2.4860 0.9690
7.3143 1.5594 -2.4860 0.9690
7.1655 2.1427 -2.4861 0.9690
7.0737 2.4294 -2.4861 0.9690
7.0235 2.5713 -2.4862 0.9690
6.9705 2.7122 -2.4862 0.9690
6.9147 2.8520 -2.4863 0.9690
6.8561 2.9907 -2.4864 0.9690
-3.5741 6.0330 -2.5076 0.9707
-3.6952 5.9606 -2.5079 0.9706
-3.8149 5.8857 -2.5082 0.9706
-3.9330 5.8083 -2.5085 0.9706
-4.0496 5.7287 -2.5088 0.9706
-4.2778 5.5623 -2.5093 0.9706
-4.6071 5.2958 -2.5101 0.9706
-4.7133 5.2025 -2.5104 0.9706
-4.8175 5.1071 -2.5107 0.9706
-4.9198 5.0097 -2.5109 0.9706
-5.1185 4.8086 -2.5114 0.9706
-5.2147 4.7051 -2.5117 0.9706
-5.4009 4.4923 -2.5122 0.9706
-5.6637 4.1594 -2.5129 0.9706
-5.7468 4.0449 -2.5131 0.9706
-5.8275 3.9288 -2.5133 0.9706
-5.9059 3.8110 -2.5135 0.9706
-6.0555 3.5709 -2.5140 0.9706
-6.1267 3.4486 -2.5142 0.9706
-6.1953 3.3248 -2.5144 0.9706
-6.6041 2.4231 -2.5156 0.9706
-6.7395 2.0205 -2.5161 0.9706
-6.8161 1.7479 -2.5163 0.9706
-6.8502 1.6104 -2.5165 0.9705
-6.8816 1.4723 -2.5166 0.9705
-6.9588 1.0545 -2.5169 0.9705
-6.9789 0.9143 -2.5170 0.9705
-6.9961 0.7737 -2.5171 0.9705
-7.0106 0.6328 -2.5172 0.9705
-7.0308 0.3501 -2.5174 0.9705
-7.0368 -0.2164 -2.5176 0.9705
-7.0312 -0.3580 -2.5177 0.9705
-7.0113 -0.6407 -2.5177 0.9705
-6.9800 -0.9223 -2.5178 0.9705
-6.9600 -1.0626 -2.5178 0.9705
-6.9372 -1.2025 -2.5178 0.9705
-6.7812 -1.8933 -2.5177 0.9705
-6.7416 -2.0293 -2.5177 0.9705
-6.6993 -2.1646 -2.5177 0.9705
-6.6543 -2.2989 -2.5176 0.9705
-6.6065 -2.4324 -2.5176 0.9705
-6.5030 -2.6961 -2.5175 0.9705
-6.3889 -2.9555 -2.5173 0.9705
-6.3279 -3.0834 -2.5172 0.9705
-6.2644 -3.2100 -2.5172 0.9705
-6.1297 -3.4592 -2.5170 0.9705
-5.9850 -3.7027 -2.5168 0.9705
-5.8306 -3.9402 -2.5165 0.9705
-5.6667 -4.1712 -2.5163 0.9706
-5.5813 -4.2842 -2.5161 0.9706
-5.4037 -4.5048 -2.5158 0.9706
-5.3116 -4.6124 -2.5157 0.9706
-5.2174 -4.7180 -2.5155 0.9706
-5.1211 -4.8218 -2.5153 0.9706
-5.0226 -4.9235 -2.5152 0.9706
-4.9222 -5.0232 -2.5150 0.9706
-4.8198 -5.1209 -2.5148 0.9706
-4.7154 -5.2165 -2.5146 0.9706
-4.6091 -5.3099 -2.5144 0.9706
-4.5009 -5.4012 -2.5142 0.9706
-4.3910 -5.4903 -2.5140 0.9706
-4.2792 -5.5771 -2.5138 0.9706
-4.1658 -5.6616 -2.5136 0.9706
-4.0506 -5.7438 -2.5134 0.9706
-3.6957 -5.9761 -2.5127 0.9706
-3.5743 -6.0488 -2.5125 0.9706
-3.4515 -6.1189 -2.5123 0.9706
-3.3274 -6.1865 -2.5120 0.9706
-2.9471 -6.3741 -2.5113 0.9706
-2.8180 -6.4315 -2.5110 0.9706
-2.1565 -6.6785 -2.5097 0.9706
-1.8855 -6.7584 -2.5092 0.9706
-1.6117 -6.8273 -2.5086 0.9706
-1.0569 -6.9316 -2.5074 0.9707
-0.9171 -6.9506 -2.5072 0.9707
-0.7769 -6.9669 -2.5069 0.9707
-0.6365 -6.9803 -2.5066 0.9707
-0.3550 -6.9986 -2.5060 0.9707
0.0680 -7.0047 -2.5050 0.9707
0.3497 -6.9946 -2.5044 0.9707
0.4904 -6.9853 -2.5041 0.9707
0.6308 -6.9731 -2.5038 0.9707
0.7709 -6.9581 -2.5035 0.9707
0.9106 -6.9404 -2.5032 0.9707
1.0500 -6.9198 -2.5029 0.9707
1.1889 -6.8964 -2.5026 0.9707
1.4651 -6.8413 -2.5020 0.9707
1.6023 -6.8096 -2.5017 0.9707
1.7388 -6.7751 -2.5014 0.9707
2.1437 -6.6554 -2.5004 0.9707
2.2769 -6.6101 -2.5001 0.9707
2.5405 -6.5115 -2.4995 0.9707
2.6707 -6.4583 -2.4992 0.9707
2.7998 -6.4025 -2.4989 0.9708
2.9277 -6.3441 -2.4986 0.9708
3.3040 -6.1537 -2.4977 0.9708
3.5482 -6.0143 -2.4972 0.9708
3.6680 -5.9410 -2.4969 0.9708
3.7864 -5.8653 -2.4966 0.9708
3.9033 -5.7872 -2.4963 0.9708
4.0185 -5.7069 -2.4960 0.9708
4.2440 -5.5393 -2.4955 0.9708
4.6737 -5.1779 -2.4944 0.9708
4.9761 -4.8849 -2.4936 0.9708
5.0729 -4.7833 -2.4934 0.9708
5.3507 -4.4671 -2.4926 0.9708
5.4390 -4.3581 -2.4924 0.9708
5.6905 -4.0209 -2.4917 0.9708
5.7698 -3.9052 -2.4915 0.9708
5.8467 -3.7880 -2.4913 0.9708
5.9213 -3.6692 -2.4911 0.9708
6.1952 -3.1802 -2.4903 0.9709
6.3173 -2.9279 -2.4899 0.9709
6.4291 -2.6709 -2.4896 0.9709
6.4811 -2.5408 -2.4894 0.9709
6.5305 -2.4097 -2.4893 0.9709
6.6214 -2.1447 -2.4890 0.9709
6.7709 -1.6049 -2.4884 0.9709
6.8545 -1.1932 -2.4881 0.9709
6.9132 -0.7773 -2.4878 0.9709
6.9384 -0.4984 -2.4876 0.9709
6.9468 -0.3587 -2.4875 0.9709
6.9524 -0.2188 -2.4875 0.9709
6.9553 -0.0788 -2.4874 0.9709
6.9553 0.0611 -2.4874 0.9709
6.9525 0.2011 -2.4873 0.9709
6.9469 0.3410 -2.4873 0.9709
6.9385 0.4807 -2.4872 0.9709
6.9134 0.7595 -2.4872 0.9709
6.8967 0.8985 -2.4871 0.9709
6.8771 1.0371 -2.4871 0.9709
6.7382 1.7228 -2.4871 0.9709
6.7022 1.8581 -2.4872 0.9709
6.3758 2.7812 -2.4875 0.9709
-3.3348 5.6290 -2.5073 0.9724
-3.4477 5.5614 -2.5075 0.9724
-3.5594 5.4915 -2.5078 0.9724
-3.6696 5.4193 -2.5081 0.9724
-3.8855 5.2683 -2.5086 0.9723
-3.9911 5.1896 -2.5089 0.9723
-4.0952 5.1088 -2.5091 0.9723
-4.1976 5.0258 -2.5094 0.9723
-4.3973 4.8538 -2.5099 0.9723
-4.9528 4.2912 -2.5113 0.9723
-5.0386 4.1910 -2.5115 0.9723
-5.1224 4.0891 -2.5117 0.9723
-5.2041 3.9855 -2.5120 0.9723
-5.2837 3.8803 -2.5122 0.9723
-5.3612 3.7735 -2.5124 0.9723
-5.4365 3.6651 -2.5126 0.9723
-5.7794 3.1016 -2.5136 0.9723
-5.9004 2.8669 -2.5139 0.9723
-6.0118 2.6275 -2.5143 0.9723
-6.0638 2.5062 -2.5144 0.9723
-6.1606 2.2604 -2.5147 0.9723
-6.2051 2.1361 -2.5149 0.9723
-6.2868 1.8848 -2.5151 0.9723
-6.3582 1.6305 -2.5154 0.9723
-6.4459 1.2440 -2.5157 0.9723
-6.4912 0.9837 -2.5160 0.9723
-6.5100 0.8529 -2.5160 0.9723
-6.5502 0.4585 -2.5163 0.9723
-6.5637 0.1946 -2.5164 0.9723
-6.5586 -0.3339 -2.5166 0.9723
-6.5108 -0.8603 -2.5167 0.9723
-6.4206 -1.3812 -2.5168 0.9723
-6.2885 -1.8930 -2.5167 0.9723
-6.2490 -2.0191 -2.5166 0.9723
-6.2071 -2.1444 -2.5166 0.9723
-6.1155 -2.3924 -2.5165 0.9723
-6.0660 -2.5149 -2.5164 0.9723
-6.0140 -2.6364 -2.5164 0.9723
-5.7818 -3.1112 -2.5161 0.9723
-5.7178 -3.2268 -2.5160 0.9723
-5.5829 -3.4539 -2.5158 0.9723
-5.5120 -3.5655 -2.5157 0.9723
-5.3635 -3.7840 -2.5154 0.9723
-5.2860 -3.8910 -2.5153 0.9723
-5.2064 -3.9964 -2.5152 0.9723
-5.0408 -4.2022 -2.5149 0.9723
-4.9549 -4.3026 -2.5148 0.9723
-4.7772 -4.4979 -2.5145 0.9723
-4.6854 -4.5929 -2.5143 0.9723
-4.5917 -4.6860 -2.5142 0.9723
-4.4962 -4.7771 -2.5140 0.9723
-4.2997 -4.9535 -2.5136 0.9723
-3.9920 -5.2027 -2.5131 0.9723
-3.7788 -5.3583 -2.5127 0.9723
-3.5595 -5.5051 -2.5123 0.9723
-2.9871 -5.8323 -2.5112 0.9723
-2.7495 -5.9467 -2.5107 0.9723
-2.3850 -6.1000 -2.5100 0.9723
-2.2615 -6.1462 -2.5097 0.9723
-2.1371 -6.1898 -2.5095 0.9723
-2.0119 -6.2310 -2.5092 0.9723
-1.8859 -6.2696 -2.5090 0.9723
-1.5037 -6.3700 -2.5082 0.9724
-1.3751 -6.3983 -2.5079 0.9724
-1.1162 -6.4470 -2.5074 0.9724
-0.9861 -6.4675 -2.5071 0.9724
-0.8557 -6.4853 -2.5068 0.9724
-0.7249 -6.5005 -2.5066 0.9724
-0.5939 -6.5131 -2.5063 0.9724
-0.4626 -6.5230 -2.5060 0.9724
-0.3312 -6.5302 -2.5057 0.9724
-0.1997 -6.5348 -2.5054 0.9724
0.1949 -6.5327 -2.5046 0.9724
0.5886 -6.5069 -2.5037 0.9724
0.7193 -6.4929 -2.5034 0.9724
0.9798 -6.4572 -2.5029 0.9724
1.4952 -6.3546 -2.5017 0.9724
1.7493 -6.2879 -2.5011 0.9724
2.0005 -6.2109 -2.5006 0.9724
2.1249 -6.1687 -2.5003 0.9724
2.2483 -6.1240 -2.5000 0.9724
2.3709 -6.0768 -2.4997 0.9724
2.7323 -5.9207 -2.4989 0.9725
2.8506 -5.8638 -2.4986 0.9725
3.3115 -5.6131 -2.4975 0.9725
3.6430 -5.4014 -2.4967 0.9725
4.1651 -5.0055 -2.4954 0.9725
4.3623 -4.8328 -2.4949 0.9725
4.5523 -4.6525 -2.4944 0.9725
4.6446 -4.5595 -2.4942 0.9725
4.8234 -4.3681 -2.4937 0.9725
4.9099 -4.2697 -2.4935 0.9725
4.9944 -4.1697 -2.4933 0.9725
5.1573 -3.9646 -2.4929 0.9725
5.3117 -3.7532 -2.4924 0.9725
5.4576 -3.5359 -2.4920 0.9725
5.5272 -3.4251 -2.4918 0.9725
5.5946 -3.3129 -2.4916 0.9725
5.6597 -3.1994 -2.4915 0.9725
5.7225 -3.0846 -2.4913 0.9725
5.8970 -2.7331 -2.4908 0.9725
5.9504 -2.6137 -2.4906 0.9725
6.0014 -2.4932 -2.4904 0.9725
6.0962 -2.2494 -2.4901 0.9725
6.1399 -2.1262 -2.4900 0.9726
6.1811 -2.0020 -2.4899 0.9726
6.2560 -1.7515 -2.4896 0.9726
6.3494 -1.3706 -2.4892 0.9726
6.3988 -1.1139 -2.4890 0.9726
6.4197 -0.9848 -2.4889 0.9726
6.4380 -0.8554 -2.4888 0.9726
6.4668 -0.5956 -2.4887 0.9726
6.4851 -0.3349 -2.4885 0.9726
6.4853 0.3183 -2.4883 0.9726
6.4774 0.4487 -2.4882 0.9726
6.3500 1.3539 -2.4881 0.9726
6.3215 1.4814 -2.4881 0.9726
6.2569 1.7346 -2.4882 0.9726
6.2208 1.8602 -2.4882 0.9726
-3.0151 5.3312 -2.5067 0.9739
-3.1221 5.2700 -2.5070 0.9739
-3.2278 5.2066 -2.5072 0.9739
-3.4354 5.0735 -2.5077 0.9739
-3.8338 4.7827 -2.5087 0.9739
-3.9296 4.7050 -2.5089 0.9739
-4.0239 4.6254 -2.5092 0.9739
-4.4703 4.1996 -2.5103 0.9738
-4.5543 4.1092 -2.5105 0.9738
-4.7167 3.9232 -2.5109 0.9738
-4.7951 3.8278 -2.5111 0.9738
-5.0891 3.4309 -2.5119 0.9738
-5.1575 3.3280 -2.5121 0.9738
-5.2238 3.2238 -2.5123 0.9738
-5.2880 3.1183 -2.5125 0.9738
-5.3500 3.0114 -2.5127 0.9738
-5.4099 2.9033 -2.5128 0.9738
-5.4676 2.7940 -2.5130 0.9738
-5.5231 2.6836 -2.5132 0.9738
-5.5764 2.5721 -2.5133 0.9738
-5.7665 2.1158 -2.5139 0.9738
-5.8082 1.9994 -2.5141 0.9738
-5.8476 1.8822 -2.5142 0.9738
-5.8846 1.7642 -2.5143 0.9738
-5.9514 1.5262 -2.5146 0.9738
-5.9812 1.4062 -2.5147 0.9738
-6.0334 1.1644 -2.5149 0.9738
-6.0559 1.0428 -2.5150 0.9738
-6.0758 0.9207 -2.5151 0.9738
-6.0934 0.7983 -2.5152 0.9738
-6.1084 0.6755 -2.5153 0.9738
-6.1310 0.4292 -2.5154 0.9738
-6.1438 -0.1889 -2.5157 0.9738
-6.0567 -1.0499 -2.5158 0.9738
-5.9823 -1.4134 -2.5158 0.9738
-5.9205 -1.6530 -2.5158 0.9738
-5.8860 -1.7718 -2.5158 0.9738
-5.8098 -2.0072 -2.5157 0.9738
-5.7681 -2.1237 -2.5156 0.9738
-5.6777 -2.3540 -2.5155 0.9738
-5.6291 -2.4677 -2.5155 0.9738
-5.5249 -2.6921 -2.5154 0.9738
-5.4118 -2.9121 -2.5152 0.9738
-5.3519 -3.0203 -2.5151 0.9738
-5.2256 -3.2330 -2.5149 0.9738
-5.1593 -3.3373 -2.5148 0.9738
-5.0909 -3.4403 -2.5147 0.9738
-5.0204 -3.5420 -2.5146 0.9738
-4.5557 -4.1197 -2.5138 0.9738
-4.3857 -4.2992 -2.5136 0.9738
-4.0248 -4.6368 -2.5129 0.9738
-3.9304 -4.7165 -2.5127 0.9738
-3.7368 -4.8702 -2.5124 0.9738
-3.3321 -5.1534 -2.5116 0.9738
-3.2274 -5.2189 -2.5114 0.9738
-3.1215 -5.2824 -2.5112 0.9738
-3.0143 -5.3438 -2.5110 0.9738
-2.6857 -5.5145 -2.5104 0.9738
-2.3474 -5.6650 -2.5097 0.9738
-2.2327 -5.7106 -2.5095 0.9738
-2.1171 -5.7538 -2.5093 0.9738
-1.8835 -5.8333 -2.5088 0.9739
-1.7656 -5.8694 -2.5085 0.9739
-1.5276 -5.9346 -2.5081 0.9739
-1.4078 -5.9635 -2.5078 0.9739
-1.2873 -5.9901 -2.5076 0.9739
-0.6787 -6.0860 -2.5063 0.9739
-0.5560 -6.0978 -2.5060 0.9739
-0.3101 -6.1139 -2.5055 0.9739
-0.1870 -6.1183 -2.5052 0.9739
-0.0638 -6.1202 -2.5050 0.9739
0.1825 -6.1165 -2.5044 0.9739
0.5511 -6.0924 -2.5036 0.9739
0.6735 -6.0794 -2.5034 0.9739
0.7956 -6.0640 -2.5031 0.9739
1.1597 -6.0029 -2.5023 0.9739
1.2802 -5.9778 -2.5020 0.9739
1.4001 -5.9501 -2.5018 0.9739
1.6380 -5.8877 -2.5012 0.9739
1.7560 -5.8529 -2.5009 0.9739
1.8732 -5.8158 -2.5007 0.9739
1.9897 -5.7763 -2.5004 0.9739
2.3339 -5.6439 -2.4996 0.9739
2.4467 -5.5952 -2.4994 0.9740
2.7790 -5.4356 -2.4986 0.9740
2.8876 -5.3781 -2.4983 0.9740
3.1010 -5.2564 -2.4978 0.9740
3.4115 -5.0582 -2.4971 0.9740
3.5123 -4.9880 -2.4968 0.9740
3.6117 -4.9159 -2.4966 0.9740
3.8058 -4.7656 -2.4961 0.9740
3.9006 -4.6876 -2.4959 0.9740
4.1752 -4.4425 -2.4952 0.9740
4.5173 -4.0909 -2.4943 0.9740
4.6775 -3.9051 -2.4939 0.9740
4.8301 -3.7131 -2.4935 0.9740
4.9035 -3.6148 -2.4933 0.9740
5.0442 -3.4141 -2.4929 0.9740
5.1115 -3.3116 -2.4927 0.9740
5.1767 -3.2079 -2.4925 0.9740
5.2399 -3.1028 -2.4923 0.9740
5.3597 -2.8890 -2.4920 0.9740
5.5733 -2.4480 -2.4913 0.9740
5.6211 -2.3352 -2.4912 0.9740
5.6666 -2.2215 -2.4911 0.9740
5.7508 -1.9914 -2.4908 0.9740
5.7894 -1.8752 -2.4906 0.9740
5.8257 -1.7582 -2.4905 0.9740
5.8911 -1.5222 -2.4903 0.9740
5.9715 -1.1638 -2.4900 0.9740
5.9935 -1.0433 -2.4899 0.9740
6.0818 -0.0689 -2.4893 0.9741
6.0794 0.1758 -2.4892 0.9741
6.0672 0.4203 -2.4891 0.9741
6.0575 0.5424 -2.4891 0.9741
5.9941 1.0277 -2.4890 0.9741
5.9212 1.3876 -2.4890 0.9741
5.8921 1.5065 -2.4891 0.9741
5.8606 1.6247 -2.4891 0.9741
5.7113 2.0909 -2.4892 0.9741
5.6682 2.2054 -2.4893 0.9741
5.5751 2.4319 -2.4894 0.9741
-2.8312 5.0060 -2.5064 0.9752
-2.9316 4.9485 -2.5067 0.9752
-3.2258 4.7639 -2.5074 0.9752
-3.3213 4.6985 -2.5076 0.9752
-3.4155 4.6311 -2.5078 0.9752
-3.5083 4.5618 -2.5081 0.9752
-3.8652 4.2664 -2.5090 0.9752
-4.1167 4.0264 -2.5096 0.9752
-4.1972 3.9431 -2.5098 0.9752
-4.5739 3.5029 -2.5108 0.9752
-4.6438 3.4104 -2.5110 0.9752
-4.7119 3.3165 -2.5112 0.9752
-4.9045 3.0267 -2.5117 0.9752
-5.0792 2.7258 -2.5122 0.9752
-5.1854 2.5195 -2.5125 0.9752
-5.2354 2.4148 -2.5127 0.9752
-5.2832 2.3091 -2.5128 0.9752
-5.3289 2.2024 -2.5130 0.9752
-5.3724 2.0948 -2.5131 0.9752
-5.4138 1.9864 -2.5132 0.9752
-5.4530 1.8771 -2.5134 0.9752
-5.5246 1.6563 -2.5136 0.9751
-5.6152 1.3201 -2.5139 0.9751
-5.6853 0.9790 -2.5142 0.9751
-5.7041 0.8644 -2.5143 0.9751
-5.7205 0.7495 -2.5144 0.9751
-5.7346 0.6342 -2.5145 0.9751
-5.7464 0.5187 -2.5145 0.9751
-5.7629 0.2870 -2.5147 0.9751
-5.7676 0.1710 -2.5147 0.9751
-5.7700 0.0549 -2.5148 0.9751
-5.7700 -0.0613 -2.5148 0.9751
-5.7467 -0.5251 -2.5150 0.9751
-5.7350 -0.6407 -2.5150 0.9751
-5.7211 -0.7560 -2.5150 0.9751
-5.7047 -0.8710 -2.5150 0.9751
-5.6860 -0.9856 -2.5150 0.9751
-5.6650 -1.0998 -2.5150 0.9751
-5.6417 -1.2136 -2.5150 0.9751
-5.5883 -1.4396 -2.5150 0.9751
-5.5257 -1.6633 -2.5149 0.9751
-5.4542 -1.8843 -2.5149 0.9751
-5.4150 -1.9937 -2.5148 0.9751
-5.3302 -2.2099 -2.5147 0.9751
-5.0806 -2.7338 -2.5144 0.9751
-5.0244 -2.8354 -2.5143 0.9751
-4.9662 -2.9359 -2.5143 0.9751
-4.9059 -3.0351 -2.5142 0.9751
-4.8436 -3.1331 -2.5141 0.9751
-4.7794 -3.2299 -2.5140 0.9751
-4.4297 -3.6929 -2.5134 0.9751
-4.1982 -3.9528 -2.5130 0.9752
-4.0352 -4.1181 -2.5127 0.9752
-3.7787 -4.3533 -2.5123 0.9752
-3.6901 -4.4281 -2.5121 0.9752
-3.6000 -4.5012 -2.5119 0.9752
-3.4155 -4.6418 -2.5116 0.9752
-3.3211 -4.7093 -2.5114 0.9752
-3.2254 -4.7748 -2.5112 0.9752
-3.0302 -4.9000 -2.5109 0.9752
-2.9308 -4.9597 -2.5107 0.9752
-2.4167 -5.2269 -2.5097 0.9752
-2.3108 -5.2740 -2.5095 0.9752
-2.0964 -5.3619 -2.5090 0.9752
-1.9879 -5.4025 -2.5088 0.9752
-1.7685 -5.4772 -2.5084 0.9752
-1.5464 -5.5429 -2.5079 0.9752
-1.3218 -5.5996 -2.5075 0.9752
-1.2088 -5.6245 -2.5072 0.9752
-1.0952 -5.6472 -2.5070 0.9752
-0.9813 -5.6676 -2.5068 0.9752
-0.7523 -5.7013 -2.5063 0.9752
-0.6373 -5.7148 -2.5060 0.9752
-0.5221 -5.7259 -2.5058 0.9752
-0.4067 -5.7347 -2.5056 0.9752
-0.2912 -5.7412 -2.5053 0.9752
-0.1756 -5.7453 -2.5051 0.9752
-0.0599 -5.7471 -2.5048 0.9752
0.4023 -5.7310 -2.5038 0.9752
0.5175 -5.7211 -2.5036 0.9752
0.8615 -5.6778 -2.5028 0.9753
1.0891 -5.6374 -2.5023 0.9753
1.2022 -5.6137 -2.5020 0.9753
1.5383 -5.5293 -2.5013 0.9753
1.7592 -5.4618 -2.5008 0.9753
1.8686 -5.4247 -2.5005 0.9753
1.9772 -5.3855 -2.5003 0.9753
2.0850 -5.3441 -2.5000 0.9753
2.2979 -5.2548 -2.4995 0.9753
2.8128 -4.9949 -2.4983 0.9753
2.9125 -4.9369 -2.4981 0.9753
3.1082 -4.8148 -2.4976 0.9753
3.2042 -4.7508 -2.4974 0.9753
3.2988 -4.6849 -2.4972 0.9753
3.3922 -4.6171 -2.4969 0.9753
3.4841 -4.5475 -2.4967 0.9753
3.5746 -4.4761 -2.4965 0.9753
3.6636 -4.4028 -2.4963 0.9753
4.0857 -4.0108 -2.4952 0.9753
4.1652 -3.9274 -2.4950 0.9753
4.4661 -3.5786 -2.4942 0.9753
4.6058 -3.3954 -2.4938 0.9753
4.6729 -3.3019 -2.4936 0.9753
4.7381 -3.2069 -2.4935 0.9753
4.9219 -2.9145 -2.4929 0.9753
4.9793 -2.8147 -2.4928 0.9754
5.0346 -2.7138 -2.4926 0.9754
5.0879 -2.6117 -2.4925 0.9754
5.1391 -2.5087 -2.4923 0.9754
5.1882 -2.4046 -2.4922 0.9754
5.2802 -2.1936 -2.4919 0.9754
5.3230 -2.0868 -2.4917 0.9754
5.5614 -1.3182 -2.4909 0.9754
5.5866 -1.2059 -2.4908 0.9754
5.6095 -1.0932 -2.4907 0.9754
5.6486 -0.8666 -2.4905 0.9754
5.6785 -0.6385 -2.4904 0.9754
5.7062 -0.2946 -2.4902 0.9754
5.7110 0.1652 -2.4900 0.9754
5.7064 0.2801 -2.4900 0.9754
5.6996 0.3949 -2.4899 0.9754
5.6789 0.6239 -2.4899 0.9754
5.6309 0.9655 -2.4898 0.9754
5.6103 1.0786 -2.4898 0.9754
5.5055 1.5263 -2.4899 0.9754
5.4035 1.8558 -2.4900 0.9754
5.3246 2.0718 -2.4901 0.9754
-2.7599 4.6587 -2.5064 0.9764
-2.8533 4.6026 -2.5066 0.9764
-3.0368 4.4848 -2.5071 0.9764
-3.1267 4.4232 -2.5073 0.9764
-3.3888 4.2275 -2.5080 0.9764
-3.4735 4.1588 -2.5082 0.9764
-3.6386 4.0163 -2.5086 0.9764
-3.7979 3.8673 -2.5090 0.9764
-3.9511 3.7119 -2.5094 0.9764
-4.0253 3.6319 -2.5096 0.9764
-4.0979 3.5504 -2.5098 0.9764
-4.1688 3.4675 -2.5099 0.9764
-4.3056 3.2974 -2.5103 0.9764
-4.3714 3.2103 -2.5105 0.9764
-4.4977 3.0322 -2.5108 0.9764
-4.5581 2.9413 -2.5110 0.9764
-4.6167 2.8491 -2.5112 0.9764
-4.7282 2.6614 -2.5115 0.9764
-4.7811 2.5658 -2.5116 0.9764
-4.8320 2.4692 -2.5118 0.9764
-4.8810 2.3716 -2.5119 0.9764
-4.9280 2.2730 -2.5121 0.9764
-5.0959 1.8698 -2.5126 0.9764
-5.1328 1.7669 -2.5127 0.9764
-5.1675 1.6633 -2.5128 0.9764
-5.2002 1.5591 -2.5129 0.9764
-5.2307 1.4541 -2.5130 0.9764
-5.2592 1.3487 -2.5131 0.9764
-5.3316 1.0289 -2.5134 0.9764
-5.3514 0.9215 -2.5135 0.9763
-5.3845 0.7054 -2.5137 0.9763
-5.4088 0.4882 -2.5138 0.9763
-5.4288 0.1609 -2.5140 0.9763
-5.4310 0.0517 -2.5140 0.9763
-5.4289 -0.1670 -2.5141 0.9763
-5.4179 -0.3853 -2.5142 0.9763
-5.3981 -0.6030 -2.5142 0.9763
-5.3849 -0.7115 -2.5143 0.9763
-5.3695 -0.8198 -2.5143 0.9763
-5.3322 -1.0352 -2.5143 0.9763
-5.3103 -1.1423 -2.5143 0.9763
-5.2862 -1.2489 -2.5143 0.9763
-5.1685 -1.6700 -2.5142 0.9763
-5.1337 -1.7736 -2.5141 0.9763
-5.0969 -1.8766 -2.5141 0.9763
-5.0171 -2.0800 -2.5140 0.9763
-4.9741 -2.1806 -2.5140 0.9763
-4.8821 -2.3789 -2.5138 0.9763
-4.8331 -2.4766 -2.5138 0.9763
-4.7292 -2.6689 -2.5136 0.9763
-4.4987 -3.0402 -2.5133 0.9764
-4.3723 -3.2185 -2.5131 0.9764
-4.0986 -3.5590 -2.5126 0.9764
-4.0260 -3.6406 -2.5125 0.9764
-3.7983 -3.8763 -2.5121 0.9764
-3.7194 -3.9517 -2.5120 0.9764
-3.6389 -4.0256 -2.5118 0.9764
-3.5569 -4.0977 -2.5117 0.9764
-3.4735 -4.1683 -2.5115 0.9764
-3.3025 -4.3041 -2.5112 0.9764
-3.2150 -4.3694 -2.5111 0.9764
-3.1262 -4.4330 -2.5109 0.9764
-2.9449 -4.5546 -2.5105 0.9764
-2.8525 -4.6126 -2.5104 0.9764
-2.6641 -4.7229 -2.5100 0.9764
-2.5684 -4.7753 -2.5098 0.9764
-2.4716 -4.8256 -2.5096 0.9764
-2.3737 -4.8740 -2.5094 0.9764
-2.1754 -4.9648 -2.5091 0.9764
-2.0748 -5.0072 -2.5089 0.9764
-1.9735 -5.0475 -2.5087 0.9764
-1.8713 -5.0858 -2.5085 0.9764
-1.7685 -5.1220 -2.5082 0.9764
-1.4558 -5.2181 -2.5076 0.9764
-1.3504 -5.2459 -2.5074 0.9764
-1.2444 -5.2715 -2.5072 0.9764
-1.1380 -5.2950 -2.5070 0.9764
-1.0311 -5.3164 -2.5067 0.9764
-0.9238 -5.3356 -2.5065 0.9764
-0.8162 -5.3526 -2.5063 0.9764
-0.7082 -5.3675 -2.5061 0.9764
-0.6000 -5.3802 -2.5058 0.9764
-0.3829 -5.3989 -2.5054 0.9764
-0.2742 -5.4051 -2.5051 0.9764
-0.0564 -5.4107 -2.5047 0.9764
0.0525 -5.4102 -2.5044 0.9764
0.1613 -5.4076 -2.5042 0.9764
0.2701 -5.4027 -2.5040 0.9764
0.3788 -5.3957 -2.5037 0.9764
0.5955 -5.3750 -2.5033 0.9764
0.7035 -5.3615 -2.5030 0.9764
0.8111 -5.3457 -2.5028 0.9764
0.9185 -5.3278 -2.5025 0.9765
1.0254 -5.3077 -2.5023 0.9765
1.2379 -5.2612 -2.5018 0.9765
1.4484 -5.2061 -2.5013 0.9765
1.5527 -5.1754 -2.5011 0.9765
1.6564 -5.1426 -2.5009 0.9765
1.7594 -5.1077 -2.5006 0.9765
1.8617 -5.0708 -2.5004 0.9765
2.0638 -4.9908 -2.4999 0.9765
2.1637 -4.9479 -2.4997 0.9765
2.2626 -4.9029 -2.4995 0.9765
2.4576 -4.8070 -2.4990 0.9765
2.6486 -4.7033 -2.4986 0.9765
2.7425 -4.6486 -2.4983 0.9765
2.9268 -4.5337 -2.4979 0.9765
3.0172 -4.4735 -2.4977 0.9765
3.1063 -4.4115 -2.4975 0.9765
3.1942 -4.3477 -2.4972 0.9765
3.2808 -4.2821 -2.4970 0.9765
3.3660 -4.2149 -2.4968 0.9765
3.4499 -4.1460 -2.4966 0.9765
3.6133 -4.0031 -2.4962 0.9765
3.6929 -3.9293 -2.4960 0.9765
4.0674 -3.5370 -2.4950 0.9765
4.2725 -3.2844 -2.4945 0.9765
4.3374 -3.1975 -2.4943 0.9765
4.4619 -3.0200 -2.4940 0.9765
4.5215 -2.9294 -2.4938 0.9765
4.5792 -2.8376 -2.4936 0.9765
4.6351 -2.7447 -2.4935 0.9765
4.6891 -2.6507 -2.4933 0.9765
4.7413 -2.5556 -2.4932 0.9765
4.7914 -2.4596 -2.4930 0.9765
4.8397 -2.3625 -2.4929 0.9765
4.8860 -2.2645 -2.4928 0.9765
5.0129 -1.9652 -2.4924 0.9765
5.0875 -1.7617 -2.4921 0.9765
5.1217 -1.6589 -2.4920 0.9765
5.1538 -1.5554 -2.4919 0.9766
5.1838 -1.4513 -2.4918 0.9766
5.2376 -1.2415 -2.4916 0.9766
5.2613 -1.1357 -2.4915 0.9766
5.2829 -1.0296 -2.4914 0.9766
5.3024 -0.9230 -2.4913 0.9766
5.3197 -0.8161 -2.4912 0.9766
5.3349 -0.7088 -2.4912 0.9766
5.3741 -0.2775 -2.4909 0.9766
