ply
format ascii 1.0
element vertex 1551
property float32 x
property float32 y
property float32 z
property float32 I
end_header
82.1506 -25.6719 11.2079 0.7067
81.7998 -21.9899 11.0302 0.7106
86.3200 -21.3513 11.5794 0.6986
87.1064 -19.6938 11.6294 0.6975
86.9281 -17.8220 11.5553 0.6991
86.7519 -15.9732 11.4868 0.7006
48.9954 -5.9917 6.4278 0.8195
31.3557 4.4201 4.1235 0.8801
39.5930 12.2955 5.3987 0.8460
38.1902 13.5683 5.2777 0.8492
81.1185 36.4106 11.5786 0.6986
80.8153 38.2474 11.6429 0.6972
21.1203 16.5103 3.4909 0.8975
40.2730 35.6007 6.9997 0.8051
20.4012 33.6588 5.1253 0.8532
0.6731 31.3773 4.0869 0.8811
-3.9152 14.6933 1.9801 0.9405
-34.2305 56.8121 8.6372 0.7653
-19.9573 30.2933 4.7239 0.8639
-33.3650 46.4596 7.4485 0.7940
-32.7197 38.5843 6.5878 0.8154
-32.3044 36.5756 6.3546 0.8213
-9.0600 9.4614 1.7059 0.9485
-9.4414 9.4704 1.7414 0.9475
-31.3586 29.0187 5.5637 0.8417
-31.8802 27.2029 5.4574 0.8445
-32.8389 26.8976 5.5277 0.8426
-34.0518 26.7639 5.6400 0.8397
-35.2620 26.5844 5.7506 0.8368
-41.4328 26.2930 6.3901 0.8204
-42.7904 25.9611 6.5175 0.8172
-50.2681 27.7933 7.4798 0.7932
-49.0123 25.8247 7.2142 0.7997
-50.3442 25.2449 7.3339 0.7968
-51.4011 24.4926 7.4145 0.7948
-52.0873 23.5448 7.4438 0.7941
-56.7373 20.3261 7.8482 0.7842
-59.4869 18.6454 8.1180 0.7777
-60.5142 17.6376 8.2081 0.7755
-26.6375 7.1853 3.5927 0.8947
-26.5697 6.5962 3.5650 0.8954
-26.3942 4.8832 3.4954 0.8974
-89.4686 14.6964 11.8068 0.6937
-89.8662 12.9095 11.8226 0.6933
-90.7677 11.1790 11.9092 0.6915
-53.2547 4.3915 6.9584 0.8061
-92.8375 2.0314 12.0923 0.6876
-3.3420 -18.1945 1.9864 0.9283
-2.9567 -18.1458 1.9742 0.9287
-2.2001 -18.0547 1.9531 0.9294
-1.4598 -17.9842 1.9375 0.9300
-1.0937 -17.9493 1.9310 0.9302
-0.7300 -17.9147 1.9253 0.9304
-0.0082 -17.8459 1.9163 0.9307
0.7080 -17.7777 1.9105 0.9309
1.4940 -18.6182 2.0057 0.9276
1.8683 -18.5826 2.0055 0.9276
2.2427 -18.5469 2.0061 0.9276
2.9925 -18.4725 2.0095 0.9275
3.3689 -18.4366 2.0125 0.9274
4.1260 -18.3645 2.0212 0.9271
4.5073 -18.3282 2.0268 0.9269
5.2770 -18.2549 2.0405 0.9264
5.6733 -18.2410 2.0513 0.9260
6.0662 -18.2035 2.0604 0.9257
7.2683 -18.0890 2.0934 0.9246
7.6782 -18.0500 2.1063 0.9241
8.5301 -18.0038 2.1393 0.9230
8.9580 -17.9631 2.1555 0.9224
10.2837 -17.8368 2.2109 0.9205
11.2084 -17.7487 2.2541 0.9190
13.8332 -20.0676 2.6173 0.9066
14.3752 -19.9808 2.6431 0.9057
15.5716 -19.9020 2.7135 0.9033
16.1807 -19.8440 2.7495 0.9021
16.8064 -19.7844 2.7875 0.9008
17.4211 -19.6904 2.8232 0.8996
18.7955 -19.5944 2.9156 0.8965
19.5009 -19.5272 2.9634 0.8949
20.9507 -19.3541 3.0628 0.8916
82.1493 -25.6714 9.2420 0.7073
81.7985 -21.9895 9.0955 0.7112
81.9715 -18.5329 9.0244 0.7131
86.7505 -15.9729 9.4720 0.7013
92.9824 -15.1917 10.1170 0.6845
31.3674 4.4217 3.4016 0.8803
39.6150 12.3024 4.4543 0.8463
38.1780 13.5639 4.3507 0.8496
20.6159 16.1159 2.8099 0.9001
20.0165 16.9888 2.8192 0.8998
19.7144 17.4272 2.8255 0.8996
20.4078 33.6696 4.2278 0.8535
-3.8922 14.6071 1.6233 0.9410
-33.9509 53.8643 6.8371 0.7740
-33.3510 46.4402 6.1396 0.7945
-32.3051 39.6882 5.4951 0.8139
-8.8817 9.6571 1.4089 0.9486
-9.4036 9.4324 1.4302 0.9478
-31.8803 27.2030 4.5003 0.8448
-33.0731 27.0894 4.5907 0.8420
-36.9653 26.7186 4.8977 0.8324
-39.8701 26.4419 5.1373 0.8249
-42.7476 25.9352 5.3691 0.8178
-44.5053 25.7904 5.5235 0.8131
-46.2967 25.5976 5.6807 0.8083
-49.0128 25.8250 5.9490 0.8002
-52.0878 23.5450 6.1382 0.7946
-55.8868 21.3004 6.4223 0.7861
-56.7379 20.3263 6.4718 0.7847
-58.3113 19.5746 6.6050 0.7808
-59.4879 18.6458 6.6944 0.7782
-60.5149 17.6379 6.7686 0.7760
-26.5891 6.6010 2.9419 0.8956
-83.9878 19.0644 9.2482 0.7072
-26.4557 5.4476 2.9005 0.8970
-91.6254 13.1622 9.9399 0.6891
-91.2720 11.2411 9.8750 0.6908
-91.0053 9.3526 9.8238 0.6921
-4.1150 -18.2371 1.5826 0.9277
-3.7232 -18.1998 1.5726 0.9281
-3.3362 -18.1629 1.5633 0.9285
-2.9536 -18.1264 1.5547 0.9289
-2.2001 -18.0547 1.5397 0.9296
-1.8285 -18.0193 1.5332 0.9299
-0.7300 -17.9146 1.5178 0.9306
-0.3683 -17.8802 1.5139 0.9307
0.7080 -17.7776 1.5061 0.9311
1.4940 -18.6182 1.5811 0.9278
1.8683 -18.5825 1.5810 0.9278
3.3004 -20.3731 1.7471 0.9205
4.1006 -20.1389 1.7398 0.9208
4.5158 -20.0994 1.7439 0.9206
5.7755 -19.9794 1.7606 0.9199
6.2013 -19.9388 1.7676 0.9196
7.0642 -19.8566 1.7841 0.9189
7.5021 -19.8149 1.7936 0.9185
7.9449 -19.7727 1.8039 0.9180
9.3067 -19.6430 1.8400 0.9164
10.1829 -20.4195 1.9316 0.9125
10.5904 -20.2075 1.9313 0.9125
10.9936 -19.9875 1.9310 0.9125
11.3922 -19.7594 1.9308 0.9125
11.7514 -19.4659 1.9248 0.9128
14.9780 -19.9585 2.1124 0.9047
15.5716 -19.9019 2.1392 0.9035
16.1807 -19.8439 2.1675 0.9023
16.8064 -19.7843 2.1975 0.9010
21.7676 -19.3112 2.4633 0.8898
23.4250 -19.1533 2.5615 0.8856
24.3050 -19.0695 2.6152 0.8834
25.1817 -18.9509 2.6679 0.8812
26.1825 -18.8907 2.7331 0.8784
27.1871 -18.7950 2.7979 0.8757
87.4610 -31.2483 7.8622 0.6888
83.0043 -24.1155 7.3171 0.7068
83.8549 -20.7416 7.3125 0.7070
84.5904 -19.1250 7.3416 0.7060
96.5756 -15.7788 8.2838 0.6751
39.6271 12.3061 3.5126 0.8466
38.2266 23.0546 3.7790 0.8359
12.7838 9.1890 1.3327 0.9388
23.5903 17.6877 2.4960 0.8884
20.8386 16.2900 2.2391 0.8993
20.5367 16.7309 2.2424 0.8991
19.6219 18.0620 2.2576 0.8985
20.4144 33.6805 3.3340 0.8538
0.6736 31.3981 2.6585 0.8816
-3.8847 14.5788 1.2772 0.9412
-19.8565 30.1403 3.0554 0.8651
-32.8249 42.0275 4.5143 0.8073
-32.4123 39.8199 4.3464 0.8137
-32.4114 38.2207 4.2422 0.8178
-8.8719 9.6464 1.1094 0.9487
-9.0346 9.4348 1.1058 0.9489
-31.7146 30.5562 3.7281 0.8380
-31.5885 29.2314 3.6433 0.8413
-31.8804 27.2031 3.5477 0.8452
-33.2116 27.2028 3.6342 0.8417
-34.3154 26.9711 3.6948 0.8393
-38.3831 26.5836 3.9524 0.8291
-40.0862 26.5853 4.0719 0.8244
-44.7409 25.9269 4.3774 0.8125
-51.3250 24.4563 4.8128 0.7959
-53.2666 22.7979 4.9048 0.7925
-56.7386 20.3265 5.1020 0.7851
-57.9604 19.4568 5.1756 0.7824
-60.5157 17.6381 5.3360 0.7764
-26.6381 7.1855 2.3356 0.8952
-26.5876 6.6007 2.3190 0.8959
-84.4581 19.1712 7.3315 0.7063
-26.4517 5.4468 2.2862 0.8973
-26.3921 4.8828 2.2721 0.8979
-88.7989 14.5864 7.6178 0.6968
-91.6266 13.1624 7.8361 0.6896
-91.2734 11.2413 7.7844 0.6913
-1.8955 -18.6802 1.1643 0.9275
-1.5187 -18.7105 1.1641 0.9275
-1.1415 -18.7332 1.1638 0.9275
-0.3863 -18.7557 1.1633 0.9276
1.1190 -18.6466 1.1584 0.9279
1.5439 -15.3556 0.9570 0.9400
2.8864 -20.4125 1.2784 0.9207
3.4991 -19.1492 1.2071 0.9250
3.9042 -19.1745 1.2134 0.9246
4.3049 -19.1607 1.2178 0.9243
4.7055 -19.1341 1.2219 0.9241
5.1113 -19.1163 1.2271 0.9238
5.9358 -19.0852 1.2394 0.9230
7.6332 -18.9970 1.2695 0.9212
8.0707 -18.9726 1.2785 0.9207
8.5179 -18.9553 1.2886 0.9201
8.9638 -18.9191 1.2982 0.9195
10.3940 -20.8428 1.4443 0.9109
10.7288 -20.4714 1.4332 0.9115
12.2620 -19.4172 1.4241 0.9121
13.3156 -19.3168 1.4549 0.9103
16.7971 -18.9851 1.5719 0.9034
18.2103 -19.7659 1.6666 0.8979
23.6025 -20.1047 1.9226 0.8832
27.1425 -18.7641 2.0462 0.8761
83.8535 -20.7412 5.3565 0.7074
48.8663 -5.9759 3.0527 0.8209
39.6392 12.3099 2.5738 0.8468
13.0836 9.0106 0.9852 0.9383
12.7653 9.1757 0.9749 0.9389
21.0653 16.4672 1.6580 0.8984
20.7604 16.9131 1.6605 0.8982
20.4543 17.3604 1.6636 0.8981
19.8188 18.2433 1.6704 0.8977
19.5257 18.7134 1.6771 0.8973
4.5658 22.2218 1.4068 0.9131
0.6738 31.4085 1.9481 0.8817
-34.1670 56.7068 4.1054 0.7670
-33.9532 53.8679 3.9485 0.7748
-33.0212 44.0801 3.4153 0.8019
-31.9724 30.8046 2.7531 0.8370
-31.6091 29.2505 2.6706 0.8415
-31.4686 27.9658 2.6106 0.8447
-33.2328 27.2202 2.6638 0.8418
-42.7908 25.9613 3.1036 0.8183
-49.0138 25.8255 3.4355 0.8009
-50.3405 25.2429 3.4921 0.7980
-51.3973 24.4907 3.5305 0.7960
-52.0889 23.5455 3.5447 0.7953
-56.7392 20.3268 3.7374 0.7854
-89.2155 24.0653 5.7300 0.6905
-84.6742 19.2202 5.3843 0.7061
-85.4868 15.8159 5.3911 0.7058
-91.9908 15.1108 5.7808 0.6882
-91.6279 13.1626 5.7402 0.6901
-46.5097 4.7798 2.8993 0.8291
-4.1368 -22.5214 0.9029 0.9124
-3.7039 -22.7313 0.9081 0.9119
-3.2531 -22.8541 0.9102 0.9117
-0.9222 -22.6321 0.8932 0.9133
-0.0104 -22.5452 0.8890 0.9137
0.4427 -22.5021 0.8875 0.9138
0.8945 -22.4590 0.8863 0.9140
2.8864 -20.4125 0.8129 0.9208
3.3004 -20.3731 0.8138 0.9207
3.2947 -18.0307 0.7227 0.9293
4.4080 -17.9246 0.7278 0.9288
7.9431 -17.6760 0.7641 0.9254
8.3641 -17.6533 0.7703 0.9248
8.7925 -17.6313 0.7769 0.9242
10.7287 -20.4713 0.9113 0.9116
11.2333 -20.4233 0.9191 0.9109
14.3393 -23.7527 1.0940 0.8949
15.5983 -23.6328 1.1165 0.8928
17.6027 -22.4979 1.1264 0.8919
17.4121 -20.4973 1.0605 0.8979
18.2102 -19.7659 1.0597 0.8980
20.9766 -20.1757 1.1476 0.8900
21.8400 -20.1756 1.1724 0.8878
22.6415 -20.0866 1.1935 0.8859
23.6316 -20.1295 1.2240 0.8831
84.5732 -28.3100 3.5167 0.6998
82.1452 -25.6702 3.3935 0.7086
81.9685 -23.8146 3.3658 0.7106
81.7945 -21.9884 3.3397 0.7124
83.8522 -20.7409 3.4060 0.7077
92.9802 -15.1914 3.7149 0.6858
48.8420 -5.9729 1.9402 0.8212
31.4022 4.4266 1.2505 0.8808
41.8808 10.2803 1.7004 0.8414
40.7500 11.7608 1.6724 0.8438
37.7722 11.7301 1.5596 0.8536
37.2333 13.2282 1.5581 0.8537
37.0825 21.3585 1.6874 0.8426
37.1062 22.3789 1.7086 0.8407
37.1301 23.4254 1.7311 0.8388
19.3295 15.1104 0.9674 0.9065
18.8423 15.3505 0.9583 0.9073
19.8028 18.2286 1.0613 0.8979
19.7423 18.9210 1.0783 0.8963
4.9949 7.8784 0.3678 0.9633
4.7742 7.8767 0.3632 0.9638
4.3504 7.8762 0.3548 0.9646
3.9475 7.8806 0.3475 0.9653
3.7602 7.9001 0.3450 0.9656
3.4413 8.0501 0.3452 0.9656
2.9519 8.2510 0.3455 0.9655
2.7862 8.3115 0.3457 0.9655
2.6191 8.3686 0.3458 0.9655
2.4509 8.4225 0.3459 0.9655
2.1113 8.5199 0.3461 0.9655
1.7678 8.6038 0.3463 0.9654
1.5948 8.6405 0.3465 0.9654
1.4210 8.6738 0.3466 0.9654
1.2988 9.0689 0.3612 0.9640
0.6740 31.4188 1.2392 0.8818
-33.9329 53.8357 2.5093 0.7751
-33.4805 48.6590 2.3290 0.7894
-33.0572 46.0310 2.2346 0.7970
-32.7562 43.7264 2.1543 0.8036
-32.2522 38.0330 1.9663 0.8190
-32.1730 36.4268 1.9164 0.8232
-8.8524 9.6252 0.5156 0.9490
-9.0095 9.4086 0.5136 0.9492
-31.4061 30.2589 1.7196 0.8398
-31.3110 27.8258 1.6517 0.8456
-31.5500 26.9212 1.6354 0.8470
-32.6627 26.7532 1.6648 0.8445
-35.0394 26.4166 1.7303 0.8389
-41.4334 26.2933 1.9350 0.8217
-42.6683 25.8870 1.9679 0.8189
-44.5026 25.7887 2.0281 0.8139
-23.8814 13.2041 1.0760 0.8965
-49.0098 25.8233 2.1844 0.8011
-50.0381 25.0914 2.2072 0.7993
-51.0886 24.3437 2.2315 0.7973
-52.1629 23.5790 2.2572 0.7952
-53.2628 22.7962 2.2845 0.7930
-54.3900 21.9939 2.3134 0.7907
-57.8605 19.4233 2.4066 0.7832
-59.1165 18.5294 2.4429 0.7804
-60.5170 17.6385 2.4855 0.7770
-29.7126 7.3764 1.2072 0.8847
-83.2772 17.1479 3.3526 0.7115
-93.1330 15.2983 3.7216 0.6854
-63.7235 -3.7419 2.5170 0.7745
-4.3244 -19.1650 0.3319 0.9244
-4.1368 -22.5214 0.3868 0.9125
-3.7039 -22.7313 0.3890 0.9120
-3.2531 -22.8541 0.3899 0.9118
-2.7794 -22.8089 0.3881 0.9122
-2.3099 -22.7642 0.3865 0.9125
-1.3817 -22.6758 0.3837 0.9131
-0.9222 -22.6320 0.3826 0.9134
-0.4652 -22.5885 0.3816 0.9136
1.1190 -18.6465 0.3155 0.9280
2.8864 -20.4125 0.3482 0.9208
3.3004 -20.3730 0.3486 0.9208
3.2947 -18.0306 0.3096 0.9293
4.1321 -20.2938 0.3498 0.9205
4.0351 -17.9601 0.3109 0.9290
4.9710 -20.2139 0.3516 0.9201
5.8199 -20.1330 0.3540 0.9196
5.5413 -17.8166 0.3152 0.9281
6.3124 -17.7432 0.3181 0.9274
7.0992 -17.6682 0.3216 0.9267
7.9051 -17.5914 0.3258 0.9257
10.7287 -20.4713 0.3904 0.9117
16.3552 -23.7263 0.4868 0.8911
17.5040 -21.4669 0.4679 0.8951
17.5440 -19.8293 0.4472 0.8995
20.5908 -21.4660 0.5025 0.8878
22.2630 -18.9638 0.4940 0.8896
24.8689 -18.7155 0.5258 0.8829
71.1282 -51.3189 1.4816 0.7041
70.9092 -49.0209 1.4562 0.7083
70.6976 -46.7997 1.4322 0.7124
70.1016 -40.5430 1.3679 0.7233
69.9144 -38.5777 1.3488 0.7265
69.7322 -36.6657 1.3308 0.7297
69.3818 -32.9874 1.2977 0.7354
69.0479 -29.4821 1.2682 0.7406
68.7283 -26.1273 1.2420 0.7452
68.5733 -24.5001 1.2300 0.7473
68.4212 -22.9033 1.2188 0.7493
67.9803 -18.2748 1.1891 0.7546
67.8379 -16.7798 1.1804 0.7561
67.6975 -15.3056 1.1724 0.7576
86.1630 -17.6652 1.4857 0.7034
89.1963 -16.4233 1.5320 0.6957
92.9796 -15.1913 1.5914 0.6860
31.4138 4.4282 0.5359 0.8808
37.4171 14.1482 0.6757 0.8521
39.1165 21.4932 0.7539 0.8365
23.9286 15.0966 0.4779 0.8930
23.5975 15.5606 0.4775 0.8931
12.8305 9.6202 0.2709 0.9379
19.5659 15.2951 0.4195 0.9054
19.0704 15.5364 0.4155 0.9063
18.9960 16.1228 0.4209 0.9051
19.4677 17.2092 0.4389 0.9013
19.5446 17.9908 0.4487 0.8992
23.1796 27.1887 0.6035 0.8668
20.7802 27.5877 0.5834 0.8709
3.8675 8.1256 0.1520 0.9646
3.6681 8.1240 0.1506 0.9650
3.2799 8.1211 0.1479 0.9656
3.0907 8.1196 0.1468 0.9658
2.9044 8.1182 0.1456 0.9661
2.7209 8.1167 0.1446 0.9663
2.5399 8.1153 0.1436 0.9666
2.3612 8.1140 0.1427 0.9668
1.8372 8.1099 0.1405 0.9673
1.4963 8.1073 0.1393 0.9676
-34.2365 56.8221 1.1206 0.7669
-33.9554 53.8715 1.0757 0.7751
-32.7542 41.9369 0.8989 0.8083
-32.4716 38.2917 0.8481 0.8180
-32.3916 36.6744 0.8265 0.8222
-8.8427 9.6147 0.2207 0.9491
-9.2565 9.2849 0.2215 0.9489
-31.8859 29.5067 0.7338 0.8405
-33.1446 27.1480 0.7237 0.8425
-34.3895 27.0294 0.7389 0.8395
-36.6587 26.4970 0.7640 0.8345
-38.5505 26.6995 0.7921 0.8289
-40.0440 26.5573 0.8117 0.8251
-43.2670 26.2503 0.8549 0.8167
-23.8815 13.2041 0.4610 0.8966
-49.0103 25.8236 0.9358 0.8012
-50.0386 25.0916 0.9456 0.7994
-51.0892 24.3439 0.9560 0.7974
-53.2633 22.7964 0.9787 0.7931
-54.3905 21.9941 0.9910 0.7908
-57.9569 19.4557 1.0327 0.7830
-60.5121 17.6370 1.0647 0.7771
-29.7052 7.3746 0.5170 0.8848
-84.6773 19.2209 1.4667 0.7065
-86.0028 0.1501 1.4527 0.7089
-4.7036 -22.9922 -0.1321 0.9104
-4.1368 -22.5213 -0.1289 0.9125
-3.2531 -22.8540 -0.1300 0.9118
-2.7794 -22.8089 -0.1294 0.9122
-2.3099 -22.7642 -0.1288 0.9125
-1.3817 -22.6758 -0.1279 0.9131
-0.0104 -22.5451 -0.1269 0.9138
0.4427 -22.5020 -0.1267 0.9139
1.1190 -18.6465 -0.1052 0.9280
1.4940 -18.6181 -0.1052 0.9280
2.2427 -18.5467 -0.1052 0.9280
3.3004 -20.3730 -0.1162 0.9208
3.7155 -20.3334 -0.1164 0.9206
4.5505 -20.2539 -0.1169 0.9203
6.2490 -20.0921 -0.1185 0.9193
8.0059 -19.9247 -0.1209 0.9177
8.4574 -19.8817 -0.1216 0.9172
9.3783 -19.7940 -0.1233 0.9161
11.7467 -20.3743 -0.1324 0.9102
14.4338 -23.9093 -0.1572 0.8943
15.7012 -23.7886 -0.1605 0.8922
16.3552 -23.7263 -0.1622 0.8911
17.5454 -23.3797 -0.1646 0.8897
17.6017 -22.4966 -0.1608 0.8920
17.5035 -21.4663 -0.1559 0.8951
17.4111 -20.4962 -0.1514 0.8980
17.5439 -19.8292 -0.1491 0.8995
18.2102 -19.7658 -0.1513 0.8981
20.5907 -21.4660 -0.1675 0.8878
21.3635 -21.3923 -0.1702 0.8861
22.9894 -21.2374 -0.1762 0.8823
23.8467 -21.1558 -0.1795 0.8803
24.7368 -21.0709 -0.1829 0.8781
25.6625 -20.9828 -0.1866 0.8758
70.8429 -48.9751 -0.4849 0.7086
70.4915 -44.6486 -0.4698 0.7162
69.5536 -34.8028 -0.4379 0.7326
68.9878 -29.4564 -0.4223 0.7408
68.7747 -27.7421 -0.4175 0.7433
68.7066 -26.1190 -0.4138 0.7453
68.5057 -24.4759 -0.4096 0.7475
67.3508 -18.1056 -0.3927 0.7566
67.8368 -16.7795 -0.3934 0.7561
67.0737 -15.1646 -0.3872 0.7595
74.2826 -13.6772 -0.4252 0.7392
87.2646 -12.4594 -0.4963 0.7029
48.8561 -5.9746 -0.2771 0.8213
85.4888 -1.7974 -0.4814 0.7103
46.6484 2.7793 -0.2631 0.8295
37.0188 12.3185 -0.2197 0.8555
36.7966 13.0731 -0.2199 0.8554
37.6200 14.2249 -0.2264 0.8514
37.3899 21.5356 -0.2429 0.8415
37.5503 22.6468 -0.2469 0.8391
12.7105 9.1363 -0.0881 0.9393
19.1116 15.5699 -0.1388 0.9061
19.6438 16.6726 -0.1451 0.9021
19.4520 17.1952 -0.1462 0.9014
19.1542 17.6315 -0.1466 0.9011
19.7557 18.9339 -0.1541 0.8963
23.4835 27.5452 -0.2035 0.8652
22.5565 27.5631 -0.2005 0.8672
21.5794 28.6488 -0.2019 0.8663
4.9408 8.1516 -0.0537 0.9626
3.8169 9.4507 -0.0574 0.9600
2.9627 9.4665 -0.0558 0.9611
2.5483 9.4633 -0.0552 0.9616
2.3447 9.4618 -0.0549 0.9618
2.1431 9.4602 -0.0546 0.9619
1.5831 8.5775 -0.0491 0.9657
-31.1912 65.9789 -0.4109 0.7468
-34.1116 54.1192 -0.3602 0.7742
-33.4715 44.6813 -0.3143 0.7999
-32.7543 41.9369 -0.2996 0.8083
-31.9587 30.7914 -0.2499 0.8373
-32.1384 29.7404 -0.2465 0.8393
-31.7100 28.1803 -0.2388 0.8439
-33.1447 27.1480 -0.2412 0.8425
-34.3157 26.9714 -0.2457 0.8398
-36.6588 26.4971 -0.2547 0.8345
-40.3090 26.7330 -0.2723 0.8241
-43.2671 26.2503 -0.2849 0.8167
-23.8815 13.2042 -0.1536 0.8966
-51.3111 27.0359 -0.3265 0.7929
-52.3127 23.6467 -0.3232 0.7948
-55.7352 21.2426 -0.3358 0.7877
-56.8495 20.3663 -0.3400 0.7854
-58.1532 19.5216 -0.3454 0.7824
-84.6788 19.2212 -0.4889 0.7066
-83.5443 17.2029 -0.4802 0.7109
-90.9644 13.0673 -0.5174 0.6924
-55.6083 5.7149 -0.3147 0.7996
-86.5993 0.1512 -0.4876 0.7072
-3.4689 -15.3735 -0.4438 0.9389
-3.1083 -15.1938 -0.4367 0.9398
-2.7821 -15.1463 -0.4336 0.9402
-2.4661 -15.1346 -0.4318 0.9405
-2.1374 -15.0163 -0.4271 0.9411
-1.8258 -14.9829 -0.4250 0.9414
-1.5247 -15.0259 -0.4253 0.9414
-1.2106 -14.9141 -0.4213 0.9419
-0.9200 -15.0987 -0.4259 0.9413
-0.6097 -14.9614 -0.4216 0.9418
-0.3085 -14.9766 -0.4218 0.9418
0.8945 -22.4589 -0.6329 0.9140
2.0951 -14.8168 -0.4214 0.9419
2.3823 -14.7056 -0.4195 0.9421
2.6830 -14.6831 -0.4203 0.9420
3.3040 -14.7059 -0.4244 0.9415
3.8514 -14.4044 -0.4198 0.9421
5.8199 -20.1330 -0.5901 0.9196
6.2490 -20.0921 -0.5925 0.9192
7.5598 -19.9672 -0.6012 0.9181
8.4574 -19.8817 -0.6084 0.9172
8.9147 -19.8381 -0.6124 0.9166
9.6221 -19.2948 -0.6071 0.9173
9.8246 -18.7462 -0.5960 0.9188
10.3871 -18.0162 -0.5856 0.9202
10.9359 -17.3173 -0.5767 0.9213
11.0535 -16.7470 -0.5650 0.9228
11.7425 -17.0348 -0.5826 0.9205
11.5077 -15.9952 -0.5548 0.9242
11.7164 -15.6124 -0.5496 0.9249
12.1964 -14.9576 -0.5434 0.9257
13.6483 -15.4262 -0.5800 0.9209
14.9176 -15.5517 -0.6068 0.9174
16.2027 -15.5841 -0.6330 0.9140
17.4944 -16.1612 -0.6706 0.9091
18.6134 -16.5130 -0.7006 0.9052
22.5827 -17.7182 -0.8082 0.8915
24.9325 -18.7634 -0.8786 0.8826
28.5818 -20.6218 -0.9924 0.8685
71.9476 -45.5709 -2.3981 0.7112
69.9113 -38.5759 -2.2483 0.7265
69.3794 -32.9863 -2.1631 0.7353
68.8116 -29.3812 -2.1068 0.7413
80.3097 -32.3951 -2.4384 0.7071
66.4298 -19.3001 -1.9479 0.7582
66.2888 -17.8201 -1.9328 0.7598
66.1499 -16.3623 -1.9188 0.7613
66.0130 -14.9248 -1.9057 0.7628
69.0879 -14.1644 -1.9858 0.7541
80.2726 -13.1152 -2.2903 0.7222
48.8632 -5.9755 -1.3861 0.8212
58.7898 -5.9909 -1.6640 0.7894
88.3035 -7.2057 -2.4947 0.7015
51.8516 -3.1819 -1.4628 0.8123
52.1733 1.0042 -1.4694 0.8115
51.8994 2.0447 -1.4625 0.8123
47.0766 2.8049 -1.3279 0.8280
47.1670 3.7645 -1.3323 0.8275
41.1907 11.8879 -1.2072 0.8424
38.8444 12.0630 -1.1453 0.8498
37.4822 13.3167 -1.1200 0.8528
37.4338 14.1545 -1.1269 0.8520
50.2663 20.1725 -1.5251 0.8051
49.8765 23.6051 -1.5538 0.8019
49.8670 24.8413 -1.5687 0.8002
49.5545 25.9437 -1.5750 0.7995
38.8392 21.3408 -1.2478 0.8375
13.0296 8.9734 -0.4455 0.9387
12.6923 9.1233 -0.4401 0.9394
19.1660 14.9825 -0.6850 0.9072
18.8253 15.9779 -0.6953 0.9059
20.3737 19.5263 -0.7946 0.8932
42.6780 42.5838 -1.6976 0.7856
37.3934 42.1132 -1.5858 0.7982
23.4835 27.5452 -1.0193 0.8652
21.6299 27.5440 -0.9861 0.8692
21.5788 28.6480 -1.0099 0.8663
3.3880 9.4698 -0.2832 0.9606
3.1739 9.4682 -0.2812 0.9608
2.9627 9.4665 -0.2793 0.9611
2.3447 9.4618 -0.2745 0.9617
1.5831 8.5775 -0.2456 0.9657
0.6747 31.4498 -0.8858 0.8817
-8.4345 37.6925 -1.0876 0.8568
-29.9692 90.1904 -2.6761 0.6837
-29.3146 82.6234 -2.4686 0.7041
-28.6231 75.7962 -2.2814 0.7231
-27.1043 60.4546 -1.8655 0.7671
-26.7817 56.6516 -1.7645 0.7782
-26.4071 53.0671 -1.6690 0.7888
-24.7898 36.0284 -1.2314 0.8395
-33.4716 44.6814 -1.5720 0.7998
-32.1431 41.1544 -1.4704 0.8114
-6.5865 8.0918 -0.2938 0.9591
-32.5744 36.8813 -1.3856 0.8213
-9.2000 9.2283 -0.3669 0.9492
-31.9595 30.7920 -1.2497 0.8373
-32.1385 29.7404 -1.2330 0.8393
-31.7107 28.1809 -1.1946 0.8439
-31.6160 26.9775 -1.1703 0.8468
-39.7516 26.3633 -1.3431 0.8262
-41.3099 26.2149 -1.3776 0.8222
-45.1895 26.1868 -1.4706 0.8114
-23.8816 13.2042 -0.7684 0.8966
-51.1658 25.6568 -1.6117 0.7953
-53.2645 22.7969 -1.6314 0.7931
-55.5483 21.1714 -1.6739 0.7883
-56.7364 20.3257 -1.6970 0.7857
-57.9582 19.4561 -1.7215 0.7830
-61.8452 19.3846 -1.8250 0.7716
-75.8355 22.1033 -2.2242 0.7290
-77.5137 20.9088 -2.2606 0.7252
-29.6904 7.3709 -0.8614 0.8848
-82.0991 18.6357 -2.3705 0.7140
-82.0663 15.1831 -2.3500 0.7161
-81.9988 13.4694 -2.3399 0.7171
-81.7642 10.0701 -2.3197 0.7192
-56.5866 3.5211 -1.5964 0.7970
-81.4145 3.4223 -2.2945 0.7218
-81.4665 1.7826 -2.2945 0.7218
-86.1789 -10.3085 -2.4439 0.7066
-3.4045 -15.0880 -0.7844 0.9399
-3.1032 -15.1687 -0.7852 0.9399
-2.4350 -14.9438 -0.7679 0.9412
-2.1200 -14.8935 -0.7629 0.9415
-1.8031 -14.7969 -0.7560 0.9420
-1.5018 -14.8000 -0.7544 0.9422
-0.9023 -14.8077 -0.7524 0.9423
-0.0067 -14.5675 -0.7388 0.9433
0.8846 -14.7405 -0.7489 0.9426
1.1747 -14.6393 -0.7448 0.9429
1.7602 -14.5567 -0.7436 0.9430
2.0789 -14.7025 -0.7530 0.9423
2.9018 -14.2515 -0.7376 0.9434
3.2360 -14.4033 -0.7487 0.9426
3.7995 -14.2103 -0.7460 0.9428
4.1566 -14.3790 -0.7591 0.9418
6.2434 -18.7354 -1.0015 0.9240
7.4794 -18.6144 -1.0174 0.9228
9.6093 -18.3354 -1.0498 0.9204
9.9881 -18.1594 -1.0511 0.9203
10.2619 -17.7990 -1.0419 0.9210
10.5083 -17.4068 -1.0312 0.9218
11.3670 -16.4899 -1.0157 0.9229
12.0588 -14.7889 -0.9677 0.9264
13.1299 -14.8402 -1.0049 0.9237
18.2201 -16.1641 -1.2352 0.9071
19.5571 -16.6588 -1.3029 0.9022
25.0800 -18.8745 -1.5919 0.8819
28.8154 -20.7903 -1.8020 0.8673
42.1478 -26.6960 -2.5302 0.8189
42.6826 -25.8456 -2.5305 0.8189
44.6456 -22.3395 -2.5318 0.8188
45.0914 -21.4386 -2.5321 0.8188
45.5186 -20.5286 -2.5323 0.8187
45.9274 -19.6101 -2.5326 0.8187
47.6863 -14.9018 -2.5337 0.8187
49.0821 -9.0372 -2.5310 0.8188
48.1096 -7.8603 -2.4722 0.8226
46.7844 -3.8177 -2.3805 0.8286
46.9012 -1.9313 -2.3806 0.8286
46.9408 -0.0417 -2.3806 0.8286
40.4017 4.0446 -2.0592 0.8499
31.9182 3.8457 -1.6304 0.8792
35.7699 6.5204 -1.8439 0.8645
34.1766 6.9436 -1.7686 0.8696
32.4662 7.9693 -1.6954 0.8747
27.5579 9.7908 -1.4832 0.8895
24.9959 10.6203 -1.3773 0.8969
23.5105 11.1268 -1.3191 0.9011
42.7589 22.3859 -2.4477 0.8242
24.4967 15.4550 -1.4689 0.8905
13.0162 8.9642 -0.8015 0.9387
12.6742 9.1102 -0.7916 0.9394
19.6137 15.3325 -1.2626 0.9051
19.4418 15.8389 -1.2718 0.9044
19.6704 17.3883 -1.3315 0.9002
19.7392 18.1700 -1.3606 0.8981
20.4550 19.6042 -1.4369 0.8927
26.6044 26.5458 -1.9060 0.8603
24.3644 26.3517 -1.8201 0.8661
23.1973 26.1253 -1.7718 0.8694
21.2458 25.9615 -1.7013 0.8743
20.3299 25.8885 -1.6694 0.8765
18.6196 25.7837 -1.6129 0.8804
17.7663 25.6757 -1.5835 0.8825
16.9019 25.5091 -1.5519 0.8847
16.2233 25.5892 -1.5366 0.8857
4.9406 8.1512 -0.4834 0.9625
11.9616 25.1309 -1.4115 0.8945
11.3812 25.2070 -1.4026 0.8951
3.6053 9.4715 -0.5140 0.9602
3.1739 9.4682 -0.5064 0.9608
2.3447 9.4618 -0.4944 0.9617
2.1431 9.4602 -0.4919 0.9619
1.9434 9.4587 -0.4897 0.9621
1.5831 8.5776 -0.4423 0.9657
10.8565 88.4613 -4.5199 0.6998
5.4926 88.8844 -4.5163 0.7000
3.7011 88.9533 -4.5151 0.7001
0.6749 31.4602 -1.5958 0.8816
-2.2602 38.2111 -1.9412 0.8579
-7.0338 88.6097 -4.5079 0.7005
-4.3833 31.1919 -1.5974 0.8815
-6.8691 37.7746 -1.9471 0.8575
-17.6328 86.9796 -4.5008 0.7009
-8.4163 37.6109 -1.9546 0.8570
-9.2011 37.5537 -1.9608 0.8565
-10.7778 37.4043 -1.9741 0.8556
-13.1899 37.1758 -2.0005 0.8539
-14.0095 37.0982 -2.0111 0.8531
-14.2286 30.0979 -1.6884 0.8752
-18.2604 36.6955 -2.0787 0.8486
-19.1410 36.5988 -2.0946 0.8475
-20.0495 36.5261 -2.1131 0.8463
-19.6555 29.8353 -1.8119 0.8667
-20.8996 30.3745 -1.8698 0.8627
-29.3330 39.1567 -2.4812 0.8221
-28.2512 36.1715 -2.3276 0.8321
-6.5834 8.0880 -0.5289 0.9591
-8.8139 9.5833 -0.6603 0.9492
-8.9598 9.3567 -0.6570 0.9494
-9.1872 9.2155 -0.6599 0.9492
-31.4702 29.1220 -2.1745 0.8422
-31.6162 26.9776 -2.1078 0.8467
-32.8702 26.9232 -2.1548 0.8435
-34.1048 26.8056 -2.1999 0.8405
-39.7517 26.3634 -2.4190 0.8261
-40.6171 24.6426 -2.4093 0.8267
-41.0144 23.7675 -2.4040 0.8271
-42.0893 21.1055 -2.3879 0.8281
-42.7081 19.3051 -2.3769 0.8289
-42.9883 18.3987 -2.3714 0.8292
-43.2490 17.4888 -2.3659 0.8296
-44.0991 13.8223 -2.3437 0.8310
-44.2630 12.9010 -2.3382 0.8314
-44.4076 11.9787 -2.3326 0.8318
-44.9605 8.3182 -2.3188 0.8327
-45.1172 7.4111 -2.3187 0.8327
-45.3761 5.5886 -2.3186 0.8327
-45.4784 4.6738 -2.3185 0.8327
-48.4690 3.0160 -2.4628 0.8232
-48.6392 2.0446 -2.4689 0.8229
-48.6702 1.0650 -2.4689 0.8229
-48.6821 0.0850 -2.4689 0.8229
-48.6744 -0.8951 -2.4689 0.8229
-48.6004 -2.8538 -2.4690 0.8228
-48.4487 -4.8082 -2.4691 0.8228
-48.3439 -5.7828 -2.4692 0.8228
-3.3782 -14.9718 -1.1254 0.9403
-3.0565 -14.9407 -1.1182 0.9407
-2.7707 -15.0843 -1.1245 0.9403
-1.4893 -14.6767 -1.0817 0.9425
-0.6057 -14.8625 -1.0907 0.9421
-0.3021 -14.6665 -1.0756 0.9429
0.2885 -14.6658 -1.0755 0.9429
0.8752 -14.5849 -1.0713 0.9431
1.1729 -14.6170 -1.0752 0.9429
1.7688 -14.6275 -1.0803 0.9426
2.0444 -14.4581 -1.0706 0.9431
2.3282 -14.3716 -1.0675 0.9433
2.6711 -14.6176 -1.0895 0.9421
2.9503 -14.4896 -1.0842 0.9424
3.2259 -14.3585 -1.0790 0.9427
3.5067 -14.2597 -1.0767 0.9428
4.1118 -14.2241 -1.0856 0.9423
4.4656 -14.3580 -1.1025 0.9415
6.2423 -18.7322 -1.4477 0.9239
7.4794 -18.6144 -1.4709 0.9227
10.5799 -17.5254 -1.5010 0.9212
10.6504 -16.8653 -1.4625 0.9231
10.8920 -16.5023 -1.4498 0.9238
11.2159 -16.2708 -1.4490 0.9238
11.3299 -15.7480 -1.4225 0.9251
11.6347 -15.5036 -1.4213 0.9252
12.0034 -14.7209 -1.3927 0.9266
12.4086 -14.6072 -1.4053 0.9260
14.6927 -15.3173 -1.5563 0.9184
15.1981 -15.2187 -1.5770 0.9174
16.2816 -15.6600 -1.6564 0.9134
19.4562 -16.5729 -1.8740 0.9026
20.6758 -16.9055 -1.9582 0.8984
26.1790 -18.8881 -2.3670 0.8786
26.5568 -18.3592 -2.3672 0.8785
26.9236 -17.8226 -2.3674 0.8785
29.3623 -17.7798 -2.5168 0.8714
29.7721 -17.2185 -2.5217 0.8712
30.4462 -16.0088 -2.5222 0.8711
30.7648 -15.3939 -2.5224 0.8711
31.6449 -13.5118 -2.5229 0.8711
32.1674 -12.2285 -2.5233 0.8711
32.4091 -11.5792 -2.5234 0.8711
32.6374 -10.9250 -2.5236 0.8711
33.2423 -8.9364 -2.5239 0.8710
33.4168 -8.2657 -2.5240 0.8710
33.5778 -7.5916 -2.5241 0.8710
33.7249 -6.9143 -2.5242 0.8710
33.8584 -6.2342 -2.5243 0.8710
33.9779 -5.5514 -2.5244 0.8710
34.2531 -3.4905 -2.5245 0.8710
34.3168 -2.8003 -2.5245 0.8710
34.3665 -2.1089 -2.5246 0.8710
32.8404 1.2938 -2.4098 0.8765
32.2296 2.5723 -2.3707 0.8784
31.4723 3.1506 -2.3192 0.8809
30.3319 3.6546 -2.2401 0.8847
30.8527 4.9845 -2.2915 0.8822
31.6790 6.4362 -2.3702 0.8784
31.5417 7.0724 -2.3701 0.8784
31.3914 7.7055 -2.3700 0.8784
30.3540 8.7604 -2.3165 0.8810
29.9151 9.2901 -2.2968 0.8819
28.6596 9.5369 -2.2147 0.8859
27.7074 9.8439 -2.1560 0.8888
25.7958 10.3522 -2.0380 0.8945
23.3553 11.0534 -1.8946 0.9016
22.5504 11.2335 -1.8472 0.9039
21.6787 11.3497 -1.7942 0.9065
21.0896 11.5880 -1.7644 0.9080
19.3273 12.1937 -1.6756 0.9124
18.6104 12.2720 -1.6345 0.9145
13.0027 8.9549 -1.1576 0.9386
15.0677 12.7886 -1.4491 0.9238
13.1392 13.1103 -1.3609 0.9283
12.1564 13.1479 -1.3129 0.9307
9.7587 13.5135 -1.2222 0.9353
17.0079 25.6691 -2.2578 0.8838
16.3013 25.7121 -2.2322 0.8851
12.6250 25.2041 -2.0669 0.8931
11.3031 25.0340 -2.0140 0.8957
3.8169 9.4508 -0.7473 0.9599
3.6053 9.4715 -0.7431 0.9602
3.3880 9.4698 -0.7374 0.9605
3.1739 9.4682 -0.7322 0.9607
2.5483 9.4633 -0.7186 0.9615
1.5831 8.5775 -0.6395 0.9656
1.5409 9.4059 -0.6989 0.9625
2.7518 33.5457 -2.4679 0.8737
1.2852 30.8888 -2.2668 0.8834
0.6609 30.8076 -2.2594 0.8837
0.0405 30.7268 -2.2530 0.8841
-1.3104 33.6268 -2.4675 0.8737
-3.3356 33.4641 -2.4658 0.8738
-4.6777 33.2864 -2.4646 0.8739
-7.3295 32.7545 -2.4610 0.8740
-7.9838 32.5856 -2.4599 0.8741
-8.6341 32.4028 -2.4587 0.8742
-9.2799 32.2059 -2.4575 0.8742
-10.5569 31.7702 -2.4547 0.8744
-11.8123 31.2801 -2.4516 0.8745
-12.4312 31.0150 -2.4500 0.8746
-13.6496 30.4446 -2.4464 0.8748
-14.2485 30.1400 -2.4444 0.8748
-16.0014 29.1513 -2.4383 0.8751
-17.1309 28.4320 -2.4339 0.8753
-17.6827 28.0542 -2.4315 0.8755
-19.2843 26.8528 -2.4240 0.8758
-19.7995 26.4304 -2.4214 0.8759
-21.2870 25.1024 -2.4132 0.8763
-21.7621 24.6395 -2.4104 0.8765
-8.9474 9.3438 -0.9486 0.9494
-23.5558 22.6954 -2.3984 0.8770
-25.5460 20.0785 -2.3824 0.8778
-26.9243 17.8562 -2.3688 0.8785
-27.2380 17.2850 -2.3653 0.8786
-27.5392 16.7082 -2.3618 0.8788
-27.8278 16.1259 -2.3582 0.8790
-23.8041 13.1614 -1.9944 0.8966
-28.8569 13.7503 -2.3438 0.8797
-29.4939 11.9266 -2.3327 0.8802
-29.6805 11.3123 -2.3289 0.8804
-30.3052 9.4988 -2.3286 0.8804
-29.0068 8.4544 -2.2153 0.8859
-28.9418 7.8069 -2.1979 0.8867
-28.9440 7.1856 -2.1867 0.8873
-26.3885 5.9900 -1.9841 0.8972
-30.0039 6.1782 -2.2461 0.8844
-31.2216 5.7763 -2.3281 0.8804
-31.3307 5.1465 -2.3280 0.8804
-33.5555 4.1327 -2.4789 0.8732
-33.6937 2.7785 -2.4789 0.8732
-33.7425 2.0996 -2.4789 0.8732
-33.7994 0.7396 -2.4788 0.8732
-33.8021 -0.6216 -2.4789 0.8732
-33.7042 -2.6609 -2.4790 0.8732
-33.5713 -4.0157 -2.4791 0.8732
-3.4059 -15.0944 -1.4856 0.9397
-3.0668 -14.9908 -1.4690 0.9404
-2.7331 -14.8796 -1.4524 0.9410
-0.8962 -14.7082 -1.4147 0.9425
0.2851 -14.4919 -1.3916 0.9434
0.8769 -14.6135 -1.4055 0.9429
1.4550 -14.4718 -1.3964 0.9432
1.7470 -14.4477 -1.3972 0.9432
2.0603 -14.5705 -1.4128 0.9426
2.3640 -14.5930 -1.4193 0.9423
2.9137 -14.3101 -1.4020 0.9430
3.5208 -14.3169 -1.4155 0.9425
3.8067 -14.2370 -1.4148 0.9425
4.4727 -14.3808 -1.4459 0.9413
6.6504 -18.6933 -1.9048 0.9234
7.0339 -18.5781 -1.9071 0.9233
8.7615 -18.4922 -1.9645 0.9211
10.5748 -17.5170 -1.9644 0.9211
10.7639 -17.0448 -1.9354 0.9222
10.9475 -16.5863 -1.9079 0.9232
11.1260 -16.1404 -1.8820 0.9242
11.2999 -15.7062 -1.8576 0.9252
11.4693 -15.2831 -1.8345 0.9261
12.4570 -14.6642 -1.8472 0.9256
15.4632 -15.4840 -2.1009 0.9158
17.3051 -15.9864 -2.2618 0.9097
19.0476 -15.5742 -2.3621 0.9059
19.6624 -14.7973 -2.3625 0.9058
20.6939 -14.3061 -2.4152 0.9038
21.8226 -14.4459 -2.5125 0.9002
22.1446 -14.0262 -2.5166 0.9000
22.4242 -13.5785 -2.5168 0.9000
22.6945 -13.1253 -2.5169 0.9000
22.9557 -12.6666 -2.5171 0.9000
23.2075 -12.2026 -2.5173 0.9000
23.4499 -11.7337 -2.5174 0.9000
23.9060 -10.7814 -2.5177 0.9000
24.1195 -10.2985 -2.5178 0.9000
24.3232 -9.8114 -2.5180 0.9000
24.5170 -9.3202 -2.5181 0.9000
25.0381 -7.8243 -2.5184 0.9000
25.1914 -7.3189 -2.5185 0.9000
25.3346 -6.8105 -2.5186 0.8999
25.7017 -5.2694 -2.5188 0.8999
25.9745 -3.7086 -2.5190 0.8999
26.0443 -3.1850 -2.5190 0.8999
26.1035 -2.6600 -2.5190 0.8999
26.1898 -1.6071 -2.5191 0.8999
26.2170 -1.0795 -2.5191 0.8999
26.2334 -0.5515 -2.5191 0.8999
26.2342 0.5049 -2.5191 0.8999
26.1550 2.0875 -2.5190 0.8999
26.0489 3.1386 -2.5189 0.8999
25.9383 3.6564 -2.5148 0.9001
24.2946 4.4286 -2.3708 0.9055
24.0386 5.3900 -2.3651 0.9057
23.9244 5.8726 -2.3650 0.9058
23.5233 7.3051 -2.3647 0.9058
23.0361 8.7104 -2.3644 0.9058
22.2555 10.5329 -2.3638 0.9058
21.4249 11.7723 -2.3469 0.9064
20.5233 11.8209 -2.2738 0.9092
18.7760 12.3812 -2.1592 0.9136
12.9892 8.9456 -1.5142 0.9386
12.5277 9.3931 -1.5032 0.9390
15.7253 12.8112 -1.9473 0.9217
15.0266 12.7538 -1.8922 0.9239
14.5861 12.8939 -1.8690 0.9248
14.2446 13.1122 -1.8587 0.9252
13.0667 13.0379 -1.7721 0.9285
12.4340 12.9165 -1.7212 0.9305
11.1506 13.0792 -1.6501 0.9333
9.8997 13.1429 -1.5797 0.9360
9.1371 13.2049 -1.5416 0.9375
8.8259 13.3205 -1.5341 0.9378
8.4753 13.3682 -1.5196 0.9384
4.9403 8.1507 -0.9150 0.9624
4.8310 8.3448 -0.9257 0.9620
4.8791 8.8335 -0.9688 0.9603
5.9590 13.9396 -1.4554 0.9409
3.8169 9.4508 -0.9785 0.9599
3.3880 9.4698 -0.9656 0.9604
2.9627 9.4666 -0.9523 0.9609
2.7398 9.4152 -0.9414 0.9614
2.5483 9.4634 -0.9409 0.9614
2.1431 9.4602 -0.9312 0.9618
1.9434 9.4587 -0.9270 0.9619
1.5832 8.5775 -0.8374 0.9656
1.5409 9.4059 -0.9151 0.9624
3.5688 24.9191 -2.4168 0.9038
2.0580 25.0872 -2.4166 0.9038
1.0464 25.1494 -2.4165 0.9038
0.5399 25.1658 -2.4166 0.9038
-0.4736 25.1663 -2.4165 0.9038
-0.9799 25.1474 -2.4161 0.9038
-1.4857 25.1172 -2.4156 0.9038
-2.4945 25.0259 -2.4145 0.9039
-5.4835 24.5049 -2.4108 0.9040
-5.9734 24.3803 -2.4099 0.9041
-6.9444 24.1006 -2.4079 0.9041
-8.3755 23.6064 -2.4047 0.9042
-10.2259 22.8082 -2.3997 0.9044
-10.6768 22.5847 -2.3983 0.9045
-11.9981 21.8581 -2.3938 0.9047
-12.4272 21.5973 -2.3922 0.9047
-13.6784 20.7626 -2.3870 0.9049
-14.0829 20.4675 -2.3852 0.9050
-14.4808 20.1641 -2.3833 0.9051
-15.2560 19.5330 -2.3795 0.9052
-6.5771 8.0802 -1.0002 0.9590
-8.9350 9.3309 -1.2403 0.9494
-9.1618 9.1899 -1.2458 0.9492
-18.0582 16.7109 -2.3621 0.9059
-19.2655 15.1422 -2.3525 0.9062
-19.5457 14.7357 -2.3500 0.9063
-20.0797 13.9069 -2.3449 0.9065
-21.7354 10.8991 -2.3344 0.9069
-21.9492 10.4587 -2.3342 0.9069
-22.3499 9.5656 -2.3340 0.9069
-22.7147 8.6574 -2.3337 0.9069
-22.8833 8.1980 -2.3336 0.9069
-23.0427 7.7353 -2.3335 0.9069
-23.3336 6.8009 -2.3334 0.9070
-25.5348 4.1945 -2.4843 0.9012
-25.6136 3.6795 -2.4843 0.9012
-25.6821 3.1630 -2.4842 0.9012
-25.7403 2.6453 -2.4842 0.9012
-25.8255 1.6070 -2.4842 0.9012
-25.8753 0.0452 -2.4842 0.9012
-25.8711 -0.4757 -2.4842 0.9012
-25.8565 -0.9965 -2.4842 0.9012
-25.8314 -1.5168 -2.4842 0.9012
-25.7960 -2.0366 -2.4842 0.9012
-25.7502 -2.5555 -2.4843 0.9012
-3.3932 -15.0379 -1.8312 0.9398
-3.0788 -15.0495 -1.8247 0.9400
-2.7273 -14.8478 -1.7932 0.9410
-2.0908 -14.6889 -1.7624 0.9420
-1.8125 -14.8740 -1.7799 0.9414
-1.4796 -14.5811 -1.7409 0.9427
-1.1999 -14.7823 -1.7617 0.9420
-0.9001 -14.7716 -1.7579 0.9421
-0.5991 -14.7017 -1.7478 0.9425
-0.0068 -14.7458 -1.7516 0.9423
0.2898 -14.7281 -1.7498 0.9424
0.8777 -14.6259 -1.7405 0.9427
1.4759 -14.6792 -1.7525 0.9423
1.7429 -14.4136 -1.7246 0.9432
2.0595 -14.5650 -1.7473 0.9425
2.6135 -14.3026 -1.7271 0.9431
2.9049 -14.2665 -1.7294 0.9430
3.2594 -14.5073 -1.7662 0.9419
4.0852 -14.1323 -1.7474 0.9425
4.4662 -14.3599 -1.7864 0.9412
7.0172 -18.5341 -2.3541 0.9233
8.7037 -17.4532 -2.3167 0.9244
9.5105 -17.2910 -2.3441 0.9236
10.1417 -16.7995 -2.3310 0.9240
10.5924 -16.7734 -2.3565 0.9232
10.9290 -16.5583 -2.3567 0.9232
11.2997 -15.7060 -2.2983 0.9250
11.4691 -15.2828 -2.2697 0.9259
11.6345 -14.8699 -2.2427 0.9268
14.3127 -13.7662 -2.3589 0.9231
14.5881 -13.4763 -2.3591 0.9231
16.8991 -12.7177 -2.5123 0.9183
17.8770 -11.3231 -2.5137 0.9183
18.5310 -10.2251 -2.5141 0.9183
18.9296 -9.4718 -2.5143 0.9183
19.1173 -9.0892 -2.5145 0.9183
19.4694 -8.3131 -2.5147 0.9183
19.6336 -7.9197 -2.5148 0.9183
19.9381 -7.1235 -2.5150 0.9183
20.0781 -6.7209 -2.5151 0.9182
20.4490 -5.4972 -2.5153 0.9182
20.5561 -5.0846 -2.5154 0.9182
20.6548 -4.6698 -2.5154 0.9182
20.8268 -3.8347 -2.5155 0.9182
20.9002 -3.4147 -2.5156 0.9182
20.9650 -2.9933 -2.5156 0.9182
21.0690 -2.1470 -2.5157 0.9182
21.1081 -1.7224 -2.5157 0.9182
21.1605 -0.8713 -2.5157 0.9182
21.1784 -0.0188 -2.5157 0.9182
21.1618 0.8337 -2.5157 0.9182
21.1405 1.2596 -2.5157 0.9182
21.0722 2.1095 -2.5156 0.9182
21.0251 2.5333 -2.5156 0.9182
20.9695 2.9560 -2.5155 0.9182
20.9053 3.3775 -2.5155 0.9182
20.7515 4.2161 -2.5153 0.9182
20.5542 5.0454 -2.5140 0.9183
19.6588 5.6737 -2.4305 0.9209
18.8645 6.2774 -2.3616 0.9230
18.7335 6.6557 -2.3615 0.9230
18.4488 7.4037 -2.3613 0.9230
18.2952 7.7733 -2.3612 0.9231
18.1341 8.1396 -2.3611 0.9231
17.9657 8.5026 -2.3610 0.9231
17.7900 8.8621 -2.3609 0.9231
14.0401 7.3505 -1.8825 0.9382
17.2197 9.9181 -2.3605 0.9231
13.4876 8.1345 -1.8710 0.9385
13.9202 9.1793 -1.9807 0.9350
12.9757 8.9363 -1.8715 0.9385
12.6198 9.0711 -1.8461 0.9393
12.5096 9.3795 -1.8573 0.9390
15.6486 12.2329 -2.3594 0.9231
15.3980 12.5445 -2.3592 0.9231
14.6711 12.9691 -2.3260 0.9242
14.1925 13.0643 -2.2913 0.9252
12.4028 12.8841 -2.1243 0.9305
12.0203 13.0008 -2.1032 0.9312
11.5882 13.0509 -2.0732 0.9321
11.1104 13.0321 -2.0342 0.9333
10.3459 13.1748 -1.9898 0.9347
8.8544 13.3635 -1.9042 0.9375
4.8790 8.8333 -1.1987 0.9602
6.7520 13.4796 -1.7908 0.9411
5.9672 13.9589 -1.8033 0.9407
3.8169 9.4508 -1.2107 0.9598
3.6053 9.4715 -1.2038 0.9600
2.7398 9.4152 -1.1648 0.9613
2.5483 9.4634 -1.1642 0.9613
2.1431 9.4602 -1.1522 0.9617
1.9435 9.4587 -1.1470 0.9618
1.5409 9.4060 -1.1322 0.9623
2.8475 19.8827 -2.3859 0.9223
2.4467 19.9360 -2.3859 0.9223
1.6421 20.0173 -2.3858 0.9223
1.2388 20.0465 -2.3858 0.9223
0.8350 20.0682 -2.3859 0.9223
0.0265 20.0843 -2.3857 0.9223
-0.7818 20.0636 -2.3851 0.9223
-1.1854 20.0407 -2.3847 0.9223
-1.9904 19.9694 -2.3838 0.9223
-2.3916 19.9212 -2.3834 0.9224
-2.7915 19.8648 -2.3828 0.9224
-3.1901 19.7998 -2.3823 0.9224
-4.7679 19.4598 -2.3799 0.9225
-5.1570 19.3536 -2.3791 0.9225
-6.6874 18.8486 -2.3757 0.9226
-7.8033 18.3876 -2.3727 0.9227
-9.2394 17.6665 -2.3682 0.9228
-9.9327 17.2621 -2.3657 0.9229
-10.6075 16.8293 -2.3630 0.9230
-11.2629 16.3690 -2.3602 0.9231
-12.2067 15.6289 -2.3556 0.9232
-12.8084 15.1042 -2.3524 0.9233
-13.1006 14.8328 -2.3507 0.9234
-14.2088 13.6899 -2.3437 0.9236
-14.4703 13.3905 -2.3419 0.9237
-14.9780 12.7805 -2.3389 0.9238
-15.4782 12.1655 -2.3385 0.9238
-15.7189 11.8507 -2.3384 0.9238
-15.9533 11.5311 -2.3382 0.9238
-16.4025 10.8782 -2.3379 0.9238
-16.6172 10.5452 -2.3378 0.9238
-16.8252 10.2079 -2.3377 0.9238
-17.2206 9.5213 -2.3374 0.9238
-17.9272 8.1036 -2.3370 0.9238
-18.2374 7.3747 -2.3368 0.9238
-18.7522 6.2950 -2.3496 0.9234
-20.2213 5.4546 -2.4879 0.9191
-20.4235 4.6360 -2.4877 0.9191
-20.5927 3.8099 -2.4876 0.9191
-20.6649 3.3945 -2.4876 0.9191
-20.8701 1.7211 -2.4875 0.9191
-20.9357 0.4581 -2.4875 0.9191
-20.9373 -0.3850 -2.4875 0.9191
-20.9254 -0.8064 -2.4875 0.9191
-20.8764 -1.6482 -2.4875 0.9191
-3.2692 -14.4886 -2.1045 0.9418
-2.3468 -14.4027 -2.0676 0.9428
-2.0461 -14.3747 -2.0573 0.9430
-1.7483 -14.3469 -2.0478 0.9433
-1.4530 -14.3195 -2.0393 0.9435
-1.1601 -14.2922 -2.0317 0.9437
-0.8693 -14.2651 -2.0250 0.9439
-0.5802 -14.2382 -2.0191 0.9441
0.2785 -14.1582 -2.0065 0.9444
0.5628 -14.1318 -2.0039 0.9445
0.8464 -14.1054 -2.0022 0.9445
1.4128 -14.0526 -2.0011 0.9445
1.6961 -14.0263 -2.0019 0.9445
2.2637 -13.9734 -2.0057 0.9444
2.5485 -13.9469 -2.0089 0.9443
3.1215 -13.8936 -2.0176 0.9441
3.4101 -13.8667 -2.0233 0.9439
3.9928 -13.8124 -2.0372 0.9436
4.2874 -13.7850 -2.0455 0.9433
5.2499 -15.7542 -2.3529 0.9351
5.5665 -15.6467 -2.3531 0.9351
5.8809 -15.5328 -2.3533 0.9351
6.5025 -15.2862 -2.3537 0.9351
7.4153 -14.8697 -2.3543 0.9351
7.7138 -14.7186 -2.3545 0.9351
8.0092 -14.5615 -2.3547 0.9351
8.5903 -14.2296 -2.3551 0.9351
9.1576 -13.8745 -2.3555 0.9350
9.4358 -13.6884 -2.3557 0.9350
9.7102 -13.4967 -2.3558 0.9350
9.9807 -13.2995 -2.3560 0.9350
10.2472 -13.0968 -2.3562 0.9350
10.5095 -12.8888 -2.3564 0.9350
11.0214 -12.4571 -2.3567 0.9350
11.5155 -12.0050 -2.3570 0.9350
12.0393 -12.0555 -2.4140 0.9335
14.3735 -10.3704 -2.5113 0.9309
14.7808 -9.7844 -2.5116 0.9309
14.9756 -9.4854 -2.5117 0.9309
15.5230 -8.5653 -2.5120 0.9309
15.6929 -8.2514 -2.5122 0.9309
16.0137 -7.6136 -2.5124 0.9309
16.3084 -6.9633 -2.5125 0.9309
16.4458 -6.6339 -2.5126 0.9309
16.5766 -6.3017 -2.5127 0.9309
16.8179 -5.6296 -2.5129 0.9309
16.9282 -5.2900 -2.5129 0.9309
17.0317 -4.9483 -2.5130 0.9309
17.1283 -4.6045 -2.5131 0.9309
17.3005 -3.9114 -2.5132 0.9309
17.4445 -3.2120 -2.5132 0.9308
17.5601 -2.5072 -2.5133 0.9308
17.6072 -2.1532 -2.5133 0.9308
17.7238 -0.7298 -2.5134 0.9308
17.7349 -0.3729 -2.5134 0.9308
17.7249 0.6983 -2.5134 0.9308
17.5640 2.4759 -2.5132 0.9308
17.5103 2.8289 -2.5132 0.9308
17.3816 3.5314 -2.5131 0.9309
17.2245 4.2280 -2.5130 0.9309
17.1355 4.5738 -2.5129 0.9309
17.0395 4.9177 -2.5128 0.9309
16.9365 5.2596 -2.5128 0.9309
16.7008 5.9335 -2.5112 0.9309
16.5454 6.2562 -2.5063 0.9310
16.0591 6.4447 -2.4518 0.9325
15.4632 6.5700 -2.3805 0.9344
14.4249 8.3084 -2.3586 0.9350
13.0277 8.2193 -2.1826 0.9397
12.5875 8.3004 -2.1364 0.9409
12.1654 8.3783 -2.0929 0.9421
11.8911 9.6875 -2.1732 0.9399
11.9703 10.5816 -2.2637 0.9375
12.2398 11.2668 -2.3571 0.9350
11.7747 11.7488 -2.3568 0.9350
11.5350 11.9826 -2.3566 0.9350
11.2906 12.2115 -2.3565 0.9350
10.5306 12.8679 -2.3560 0.9350
10.2686 13.0763 -2.3558 0.9350
9.5603 13.2387 -2.3138 0.9362
9.1947 13.2881 -2.2896 0.9368
8.4664 13.3542 -2.2404 0.9381
4.8307 8.3443 -1.3661 0.9618
4.8788 8.8330 -1.4298 0.9601
4.8755 9.2628 -1.4831 0.9586
6.6936 13.3629 -2.1176 0.9414
6.3475 13.3359 -2.0927 0.9421
6.0626 13.4274 -2.0874 0.9422
3.8169 9.4508 -1.4442 0.9597
3.3880 9.4698 -1.4251 0.9602
3.1739 9.4682 -1.4149 0.9605
2.7398 9.4152 -1.3894 0.9612
2.1431 9.4602 -1.3744 0.9616
1.5832 8.5776 -1.2359 0.9654
2.0335 16.5693 -2.3653 0.9348
1.6995 16.6067 -2.3653 0.9348
1.3648 16.6373 -2.3652 0.9348
0.3580 16.6886 -2.3651 0.9348
0.0220 16.6910 -2.3649 0.9348
-0.3140 16.6863 -2.3647 0.9348
-0.9852 16.6561 -2.3641 0.9348
-1.9879 16.5582 -2.3630 0.9348
-3.6380 16.2575 -2.3605 0.9349
-5.2460 15.7874 -2.3572 0.9350
-5.5609 15.6734 -2.3564 0.9350
-5.8733 15.5530 -2.3556 0.9350
-7.6867 14.6975 -2.3501 0.9352
-8.0568 10.3156 -1.8546 0.9485
-10.6892 12.6052 -2.3417 0.9354
-10.9401 12.3865 -2.3416 0.9354
-9.1362 9.1642 -1.8335 0.9491
-11.8979 11.4633 -2.3409 0.9354
-9.8669 8.4193 -1.8378 0.9489
-10.2638 8.4069 -1.8798 0.9478
-13.1878 9.9424 -2.3401 0.9355
-13.5759 9.4025 -2.3399 0.9355
-13.7617 9.1268 -2.3397 0.9355
-14.2854 8.2783 -2.3394 0.9355
-14.4486 7.9887 -2.3393 0.9355
-14.6058 7.6959 -2.3392 0.9355
-14.9026 7.1011 -2.3390 0.9355
-15.0420 6.7994 -2.3389 0.9355
-16.4037 6.2520 -2.4873 0.9315
-16.7704 5.2565 -2.4902 0.9315
-16.8724 4.9177 -2.4901 0.9315
-16.9676 4.5769 -2.4901 0.9315
-17.0559 4.2343 -2.4900 0.9315
-17.1374 3.8900 -2.4900 0.9315
-17.2119 3.5442 -2.4899 0.9315
-17.2795 3.1969 -2.4899 0.9315
-17.3401 2.8484 -2.4898 0.9315
-17.3937 2.4987 -2.4898 0.9315
-17.4799 1.7964 -2.4898 0.9315
-17.5124 1.4442 -2.4897 0.9315
-17.5562 0.7380 -2.4897 0.9315
-17.5675 0.3844 -2.4897 0.9315
-17.5717 0.0307 -2.4897 0.9315
-17.5588 -0.6767 -2.4897 0.9315
-17.5176 -1.3830 -2.4898 0.9315
-17.4864 -1.7354 -2.4898 0.9315
-3.1361 -13.8987 -2.3472 0.9439
-2.8559 -13.9602 -2.3474 0.9439
-2.5745 -14.0159 -2.3476 0.9439
-2.0085 -14.1105 -2.3480 0.9439
-1.7242 -14.1493 -2.3482 0.9439
-0.8672 -14.2310 -2.3488 0.9438
-0.5802 -14.2381 -2.3475 0.9439
-0.2927 -14.2114 -2.3417 0.9440
-0.0066 -14.1847 -2.3368 0.9441
0.2785 -14.1582 -2.3329 0.9442
3.6875 -13.7914 -2.3518 0.9438
3.9648 -13.7155 -2.3520 0.9438
4.2404 -13.6339 -2.3522 0.9438
5.0568 -13.3562 -2.3527 0.9437
5.8551 -13.0295 -2.3532 0.9437
7.3857 -12.2343 -2.3543 0.9437
7.6311 -12.0839 -2.3544 0.9437
7.8733 -11.9287 -2.3546 0.9437
8.1124 -11.7686 -2.3547 0.9437
9.0595 -11.5788 -2.4220 0.9421
9.4798 -11.6259 -2.4712 0.9410
9.8339 -11.5764 -2.5023 0.9403
10.3179 -11.1993 -2.5086 0.9401
11.9856 -9.4038 -2.5097 0.9401
12.7056 -8.4107 -2.5102 0.9401
13.4892 -7.0927 -2.5107 0.9401
14.5504 -4.5469 -2.5113 0.9401
14.7992 -3.6606 -2.5115 0.9401
14.9939 -2.7607 -2.5116 0.9401
15.0932 -2.1550 -2.5117 0.9401
15.1680 -1.5457 -2.5117 0.9401
15.1961 -1.2400 -2.5117 0.9401
15.2433 -0.3205 -2.5117 0.9401
15.2195 0.9068 -2.5117 0.9401
15.1980 1.2130 -2.5117 0.9401
15.1704 1.5187 -2.5116 0.9401
14.9399 3.0353 -2.5115 0.9401
14.8050 3.6341 -2.5114 0.9401
14.7285 3.9313 -2.5113 0.9401
14.6460 4.2270 -2.5113 0.9401
14.5576 4.5208 -2.5112 0.9401
14.3630 5.1029 -2.5110 0.9401
13.9042 6.2410 -2.5107 0.9401
13.7635 6.5138 -2.5085 0.9401
12.7680 7.0156 -2.4000 0.9427
12.2527 7.3897 -2.3572 0.9436
12.1010 7.6345 -2.3571 0.9436
11.7827 8.1147 -2.3569 0.9437
11.4454 8.5816 -2.3566 0.9437
11.2697 8.8098 -2.3565 0.9437
10.3245 9.8950 -2.3559 0.9437
9.9166 10.3014 -2.3556 0.9437
9.4927 10.6909 -2.3553 0.9437
9.2750 10.8792 -2.3551 0.9437
7.8932 11.9128 -2.3542 0.9437
7.6513 12.0684 -2.3540 0.9437
4.8787 8.8327 -1.6623 0.9599
4.8753 9.2625 -1.7244 0.9585
5.8772 13.0168 -2.3528 0.9437
2.9627 9.4666 -1.6341 0.9606
2.3447 9.4618 -1.6059 0.9613
1.9434 9.4587 -1.5908 0.9616
1.5409 9.4060 -1.5702 0.9621
1.1665 14.2205 -2.3505 0.9438
0.5931 14.2550 -2.3504 0.9438
0.3060 14.2631 -2.3502 0.9438
0.0188 14.2654 -2.3501 0.9438
-0.2683 14.2616 -2.3499 0.9438
-0.5554 14.2520 -2.3496 0.9438
-1.4141 14.1872 -2.3488 0.9438
-1.9835 14.1144 -2.3480 0.9439
-2.2668 14.0692 -2.3476 0.9439
-3.1108 13.9017 -2.3468 0.9439
-3.3898 13.8352 -2.3466 0.9439
-3.6673 13.7630 -2.3464 0.9439
-4.2177 13.6021 -2.3461 0.9439
-4.4904 13.5134 -2.3459 0.9439
-5.2966 13.2147 -2.3453 0.9439
-5.5612 13.1044 -2.3452 0.9439
-5.8234 12.9889 -2.3450 0.9439
-6.3407 12.7421 -2.3446 0.9439
-6.5954 12.6109 -2.3445 0.9439
-6.8475 12.4747 -2.3443 0.9439
-7.5864 12.0361 -2.3438 0.9440
-8.0637 11.7194 -2.3435 0.9440
-8.2974 11.5539 -2.3434 0.9440
-8.0181 9.0783 -1.9953 0.9521
-8.0064 8.7053 -1.9484 0.9532
-8.1148 8.4743 -1.9329 0.9535
-9.4872 8.4312 -2.0909 0.9498
-9.8669 8.4193 -2.1368 0.9488
-10.2638 8.4069 -2.1856 0.9476
-11.1747 8.7831 -2.3415 0.9440
-11.5181 8.3253 -2.3412 0.9440
-13.0685 6.8859 -2.4335 0.9419
-13.4889 6.7639 -2.4859 0.9407
-13.7850 6.2312 -2.4922 0.9405
-13.9072 5.9522 -2.4921 0.9405
-14.3394 4.8137 -2.4918 0.9405
-14.6790 3.6442 -2.4916 0.9405
-14.9237 2.4514 -2.4915 0.9405
-14.9699 2.1505 -2.4914 0.9405
-15.0100 1.8487 -2.4914 0.9405
-15.0720 1.2429 -2.4914 0.9405
-15.0939 0.9392 -2.4914 0.9405
-15.1098 0.6352 -2.4914 0.9405
-15.1195 0.3309 -2.4914 0.9405
-15.1206 -0.2780 -2.4914 0.9405
-15.1120 -0.5824 -2.4914 0.9405
-15.0973 -0.8865 -2.4914 0.9405
-15.0496 -1.4936 -2.4914 0.9405
-2.7489 -12.1828 -2.3475 0.9504
-2.5033 -12.2365 -2.3476 0.9504
-1.7605 -12.3680 -2.3481 0.9504
-1.5113 -12.4018 -2.3483 0.9504
-1.0109 -12.4543 -2.3486 0.9504
-0.5088 -12.4867 -2.3490 0.9504
-0.2574 -12.4953 -2.3491 0.9504
0.4544 -11.4103 -2.1464 0.9546
0.6834 -11.3886 -2.1445 0.9546
1.0000 -12.4624 -2.3500 0.9504
1.2508 -12.4406 -2.3501 0.9504
1.5011 -12.4138 -2.3503 0.9504
1.9999 -12.3451 -2.3506 0.9504
2.2482 -12.3032 -2.3508 0.9504
2.4956 -12.2563 -2.3510 0.9504
2.7420 -12.2044 -2.3511 0.9504
2.9873 -12.1476 -2.3513 0.9504
3.2315 -12.0858 -2.3515 0.9504
3.4744 -12.0192 -2.3516 0.9504
4.1944 -11.7899 -2.3521 0.9503
4.4312 -11.7039 -2.3523 0.9503
4.6662 -11.6131 -2.3524 0.9503
4.8994 -11.5175 -2.3526 0.9503
5.1306 -11.4173 -2.3527 0.9503
6.1937 -11.2607 -2.4156 0.9490
8.0060 -10.6682 -2.5070 0.9472
8.2196 -10.5054 -2.5072 0.9472
9.2362 -9.6287 -2.5079 0.9471
9.6173 -9.2501 -2.5081 0.9471
9.8020 -9.0550 -2.5082 0.9471
10.1595 -8.6539 -2.5085 0.9471
10.8246 -7.8099 -2.5089 0.9471
10.9801 -7.5907 -2.5090 0.9471
11.1311 -7.3684 -2.5091 0.9471
11.6894 -6.4500 -2.5094 0.9471
11.8173 -6.2136 -2.5095 0.9471
11.9404 -5.9746 -2.5096 0.9471
12.3837 -4.9953 -2.5099 0.9471
12.5754 -4.4929 -2.5100 0.9471
12.6635 -4.2390 -2.5101 0.9471
12.7466 -3.9833 -2.5101 0.9471
12.8970 -3.4670 -2.5102 0.9471
12.9644 -3.2067 -2.5102 0.9471
13.0266 -2.9451 -2.5103 0.9471
13.0834 -2.6823 -2.5103 0.9471
13.1349 -2.4184 -2.5103 0.9471
13.1811 -2.1535 -2.5104 0.9471
13.2219 -1.8878 -2.5104 0.9471
13.2573 -1.6212 -2.5104 0.9471
13.2873 -1.3540 -2.5104 0.9471
13.3120 -1.0862 -2.5104 0.9471
13.3312 -0.8180 -2.5105 0.9471
13.3563 -0.0119 -2.5105 0.9471
13.3458 0.5258 -2.5104 0.9471
13.3137 1.0626 -2.5104 0.9471
13.2599 1.5976 -2.5104 0.9471
13.2249 1.8643 -2.5103 0.9471
13.1845 2.1301 -2.5103 0.9471
13.1388 2.3950 -2.5103 0.9471
13.0877 2.6590 -2.5102 0.9471
12.9026 3.4440 -2.5101 0.9471
12.7530 3.9604 -2.5100 0.9471
12.6704 4.2162 -2.5099 0.9471
12.4897 4.7227 -2.5098 0.9471
12.2888 5.2213 -2.5097 0.9471
12.1808 5.4675 -2.5096 0.9471
12.0679 5.7114 -2.5095 0.9471
11.9501 5.9530 -2.5094 0.9471
11.8274 6.1921 -2.5093 0.9471
11.7000 6.4287 -2.5092 0.9471
11.5677 6.6627 -2.5091 0.9471
10.9910 7.2477 -2.4746 0.9478
9.8735 7.7184 -2.3556 0.9503
9.5539 8.1089 -2.3554 0.9503
9.2189 8.4860 -2.3551 0.9503
9.0457 8.6694 -2.3550 0.9503
8.3172 9.3671 -2.3545 0.9503
8.1265 9.5321 -2.3544 0.9503
7.9325 9.6932 -2.3543 0.9503
7.7353 9.8504 -2.3541 0.9503
7.5350 10.0035 -2.3540 0.9503
6.7043 10.5747 -2.3534 0.9503
6.0526 10.9581 -2.3530 0.9503
5.8304 11.0769 -2.3528 0.9503
5.6059 11.1913 -2.3527 0.9503
3.4280 9.0058 -1.8112 0.9615
3.0424 9.0760 -1.7992 0.9618
2.2935 9.2553 -1.7923 0.9619
2.7632 12.1975 -2.3508 0.9504
1.9435 9.4587 -1.8150 0.9615
1.5409 9.4060 -1.7915 0.9619
1.0220 12.4585 -2.3496 0.9504
0.7709 12.4757 -2.3494 0.9504
0.5196 12.4878 -2.3492 0.9504
0.2681 12.4948 -2.3491 0.9504
0.0164 12.4968 -2.3489 0.9504
-0.4865 12.4855 -2.3486 0.9504
-0.7377 12.4723 -2.3484 0.9504
-1.2390 12.4308 -2.3481 0.9504
-1.7382 12.3690 -2.3477 0.9504
-1.9867 12.3307 -2.3476 0.9504
-2.2344 12.2873 -2.3474 0.9504
-2.4811 12.2390 -2.3472 0.9504
-2.7268 12.1857 -2.3471 0.9504
-2.9714 12.1275 -2.3469 0.9505
-3.2147 12.0644 -2.3468 0.9505
-3.4567 11.9964 -2.3466 0.9505
-3.6972 11.9236 -2.3464 0.9505
-3.9363 11.8459 -2.3463 0.9505
-4.1737 11.7635 -2.3461 0.9505
-4.4093 11.6763 -2.3460 0.9505
-4.6432 11.5844 -2.3458 0.9505
-4.8751 11.4878 -2.3456 0.9505
-5.3329 11.2808 -2.3453 0.9505
-5.7820 11.0556 -2.3450 0.9505
