ply
format ascii 1.0
element vertex 1563
property float32 x
property float32 y
property float32 z
property float32 I
end_header
-1.3186 11.8342 -1.4144 0.9532
-1.5596 11.8297 -1.4174 0.9531
-2.0435 11.8123 -1.4240 0.9529
-2.2787 11.7583 -1.4227 0.9529
-2.5134 11.7040 -1.4220 0.9529
-2.7479 11.6495 -1.4218 0.9529
-3.3837 12.1375 -1.4967 0.9505
-5.0525 12.2029 -1.5689 0.9482
-5.6484 12.2263 -1.5998 0.9472
-5.9555 12.2383 -1.6167 0.9467
-6.5903 12.2632 -1.6537 0.9455
-6.9022 12.2463 -1.6698 0.9449
-7.6017 12.3028 -1.7179 0.9434
-7.9569 12.3167 -1.7418 0.9426
-8.6988 12.3458 -1.7940 0.9410
-9.4878 12.3767 -1.8525 0.9391
-9.9023 12.3930 -1.8843 0.9381
-10.3315 12.4098 -1.9181 0.9370
-10.7644 12.4133 -1.9517 0.9360
-11.1709 12.3704 -1.9799 0.9351
-11.5737 12.3094 -2.0070 0.9342
-11.9878 12.2467 -2.0357 0.9333
-12.4141 12.1821 -2.0660 0.9323
-14.2494 13.4314 -2.3260 0.9242
-13.8469 12.5357 -2.2187 0.9275
-14.7695 12.8400 -2.3247 0.9242
-15.5131 11.9230 -2.3241 0.9242
-15.9829 11.2915 -2.3245 0.9242
-16.2083 10.9688 -2.3248 0.9242
-16.6397 10.3102 -2.3252 0.9242
-16.8455 9.9745 -2.3255 0.9242
-17.2369 9.2911 -2.3260 0.9242
-17.4224 8.9436 -2.3263 0.9241
-17.7724 8.2378 -2.3269 0.9241
-18.0942 7.5184 -2.3275 0.9241
-18.3870 6.7866 -2.3281 0.9241
-18.6050 6.0286 -2.3231 0.9242
-18.8844 5.2900 -2.3296 0.9240
-19.5499 4.6373 -2.3867 0.9223
-20.6623 3.1745 -2.4832 0.9192
-20.7807 2.3418 -2.4841 0.9192
-20.8275 1.9237 -2.4845 0.9192
-20.8659 1.5048 -2.4850 0.9192
-20.8959 1.0850 -2.4855 0.9192
-20.9175 0.6646 -2.4860 0.9192
-20.9307 0.2438 -2.4864 0.9191
-20.9356 -0.1772 -2.4869 0.9191
-20.9320 -0.5983 -2.4874 0.9191
-20.8706 -1.8607 -2.4890 0.9191
-20.7335 -3.1179 -2.4905 0.9190
-20.6710 -3.5350 -2.4911 0.9190
-20.5211 -4.3654 -2.4922 0.9190
-20.3379 -5.1894 -2.4933 0.9189
-20.2339 -5.5986 -2.4938 0.9189
-19.8728 -6.8132 -2.4955 0.9189
-19.2786 -8.3960 -2.4978 0.9188
-19.1102 -8.7841 -2.4984 0.9188
-18.9341 -9.1687 -2.4989 0.9188
-18.5586 -9.9274 -2.5001 0.9187
-18.3595 -10.3010 -2.5007 0.9187
-18.1528 -10.6707 -2.5012 0.9187
-17.9387 -11.0362 -2.5018 0.9187
-17.7172 -11.3974 -2.5024 0.9186
-17.2525 -12.1063 -2.5036 0.9186
-17.0095 -12.4537 -2.5041 0.9186
-16.2387 -13.4661 -2.5059 0.9185
-15.9683 -13.7932 -2.5065 0.9185
-14.8015 -13.8630 -2.4090 0.9216
-13.6347 -14.4092 -2.3564 0.9232
-13.3451 -14.6838 -2.3570 0.9232
-13.0500 -14.9526 -2.3575 0.9232
-12.1325 -15.7227 -2.3590 0.9231
-9.8452 -15.8209 -2.2135 0.9277
-9.3837 -15.7782 -2.1806 0.9287
-8.4998 -15.6962 -2.1203 0.9306
-6.4793 -15.5090 -1.9966 0.9345
-4.3587 -11.7393 -1.4875 0.9508
-5.3701 -15.4061 -1.9380 0.9364
-5.0444 -15.4657 -1.9324 0.9366
-4.4593 -15.8012 -1.9503 0.9360
-4.1624 -15.9714 -1.9605 0.9357
-2.3014 -17.0382 -2.0423 0.9331
-1.9749 -17.2255 -2.0595 0.9325
-1.3041 -17.6100 -2.0975 0.9313
-0.2474 -18.2158 -2.1640 0.9292
0.1204 -18.4266 -2.1889 0.9285
0.4969 -18.6425 -2.2153 0.9276
0.9339 -19.9571 -2.3732 0.9227
1.3352 -19.9365 -2.3735 0.9227
3.3317 -19.7112 -2.3746 0.9226
3.7278 -19.6418 -2.3748 0.9226
4.5154 -19.4790 -2.3752 0.9226
6.0516 -20.4190 -2.5298 0.9178
6.8686 -20.1613 -2.5300 0.9178
8.0729 -19.7129 -2.5304 0.9178
8.4681 -19.5472 -2.5305 0.9178
8.8597 -19.3735 -2.5305 0.9178
10.7608 -18.3873 -2.5307 0.9178
11.1285 -18.1672 -2.5307 0.9178
11.4916 -17.9397 -2.5307 0.9178
11.8499 -17.7047 -2.5307 0.9178
12.8953 -16.9570 -2.5305 0.9178
13.8930 -16.1468 -2.5303 0.9178
14.2144 -15.8635 -2.5302 0.9178
15.1428 -14.9751 -2.5298 0.9178
15.4400 -14.6667 -2.5296 0.9178
16.0152 -14.0319 -2.5293 0.9178
7.0446 11.4185 -1.9010 0.9472
6.7316 11.4190 -1.8782 0.9479
5.4448 11.2080 -1.7655 0.9509
4.8784 11.8049 -1.8098 0.9497
4.0779 11.8460 -1.7751 0.9506
3.8165 11.8562 -1.7648 0.9509
3.5580 11.8663 -1.7553 0.9512
3.3022 11.8763 -1.7466 0.9514
2.7975 11.8960 -1.7315 0.9518
2.5483 11.9058 -1.7251 0.9520
2.3007 11.9155 -1.7195 0.9522
2.0547 11.9251 -1.7146 0.9523
1.8100 11.9346 -1.7103 0.9524
1.5664 11.9442 -1.7069 0.9525
1.3237 11.9537 -1.7041 0.9526
0.8381 11.9436 -1.6964 0.9528
0.3542 11.8702 -1.6826 0.9532
-0.5971 11.7839 -1.6718 0.9535
-0.8347 11.7798 -1.6733 0.9534
-1.3116 11.7711 -1.6782 0.9533
-2.0178 11.6636 -1.6772 0.9533
-3.1194 12.1275 -1.7743 0.9507
-3.3837 12.1379 -1.7854 0.9504
-4.1986 12.1698 -1.8241 0.9493
-5.0527 12.2033 -1.8714 0.9480
-5.3477 12.2148 -1.8893 0.9476
-5.6486 12.2266 -1.9083 0.9470
-6.2695 12.2510 -1.9499 0.9459
-7.2561 12.2896 -2.0222 0.9440
-7.6019 12.3032 -2.0491 0.9432
-7.9572 12.3171 -2.0777 0.9425
-8.3227 12.3314 -2.1079 0.9417
-8.6991 12.3462 -2.1399 0.9408
-9.0873 12.3614 -2.1738 0.9399
-10.7592 12.4073 -2.3269 0.9358
-11.4892 11.7373 -2.3272 0.9358
-11.7234 11.5044 -2.3273 0.9358
-11.9531 11.2669 -2.3274 0.9358
-12.3979 10.7782 -2.3277 0.9358
-12.6129 10.5274 -2.3278 0.9358
-13.2276 9.7496 -2.3283 0.9358
-13.7947 8.9363 -2.3289 0.9358
-14.1455 8.3758 -2.3293 0.9357
-14.3124 8.0904 -2.3295 0.9357
-14.4736 7.8016 -2.3297 0.9357
-14.7787 7.2147 -2.3302 0.9357
-14.9224 6.9167 -2.3304 0.9357
-15.0602 6.6160 -2.3307 0.9357
-15.1919 6.3124 -2.3310 0.9357
-15.3417 6.0158 -2.3349 0.9356
-16.4019 5.6817 -2.4595 0.9323
-16.9756 4.3891 -2.4844 0.9316
-17.0628 4.0474 -2.4847 0.9316
-17.3429 2.6645 -2.4861 0.9316
-17.4800 1.6145 -2.4873 0.9315
-17.5645 0.2046 -2.4889 0.9315
-17.5680 -0.1487 -2.4893 0.9315
-17.5537 -0.8554 -2.4901 0.9315
-17.5111 -1.5612 -2.4910 0.9314
-17.4793 -1.9134 -2.4914 0.9314
-17.4403 -2.2650 -2.4919 0.9314
-17.3414 -2.9656 -2.4928 0.9314
-17.2143 -3.6619 -2.4937 0.9314
-16.9716 -4.6960 -2.4950 0.9313
-16.8769 -5.0373 -2.4955 0.9313
-16.7753 -5.3767 -2.4960 0.9313
-16.6670 -5.7141 -2.4965 0.9313
-16.5518 -6.0493 -2.4969 0.9313
-16.4299 -6.3822 -2.4974 0.9313
-15.8761 -7.6879 -2.4993 0.9312
-15.7213 -8.0072 -2.4998 0.9312
-14.6601 -9.8532 -2.5027 0.9311
-14.2575 -10.4388 -2.5037 0.9311
-13.6100 -11.2862 -2.5052 0.9311
-13.3828 -11.5599 -2.5057 0.9310
-12.6686 -12.3529 -2.5071 0.9310
-12.4060 -12.5935 -2.5048 0.9311
-10.9342 -12.5283 -2.3561 0.9350
-10.6820 -12.7481 -2.3566 0.9350
-10.4254 -12.9627 -2.3570 0.9350
-9.8992 -13.3764 -2.3578 0.9350
-9.6299 -13.5752 -2.3583 0.9350
-9.0794 -13.9564 -2.3591 0.9349
-8.2255 -14.4861 -2.3603 0.9349
-7.0394 -15.1104 -2.3619 0.9349
-6.7351 -15.2513 -2.3623 0.9349
-6.4280 -15.3861 -2.3627 0.9349
-6.1020 -15.4735 -2.3567 0.9350
-4.3112 -11.6115 -1.7550 0.9512
-5.3699 -15.4057 -2.3116 0.9362
-4.7531 -15.6324 -2.3151 0.9361
-3.5576 -16.3135 -2.3658 0.9348
-3.2292 -16.3839 -2.3661 0.9348
-2.5684 -16.5048 -2.3667 0.9347
-1.5690 -16.6356 -2.3676 0.9347
-0.5631 -16.7055 -2.3683 0.9347
0.4455 -16.7142 -2.3691 0.9347
1.7880 -16.6302 -2.3699 0.9347
2.1223 -16.5923 -2.3701 0.9347
2.4557 -16.5475 -2.3703 0.9346
2.7882 -16.4960 -2.3705 0.9346
3.1197 -16.4377 -2.3706 0.9346
3.4498 -16.3727 -2.3708 0.9346
4.5234 -16.4715 -2.4202 0.9333
5.7477 -16.8712 -2.5254 0.9305
6.7554 -16.4956 -2.5257 0.9305
7.4137 -16.2114 -2.5258 0.9305
8.0600 -15.9007 -2.5259 0.9305
8.6931 -15.5640 -2.5259 0.9305
9.3120 -15.2019 -2.5259 0.9305
9.6159 -15.0115 -2.5259 0.9305
9.9157 -14.8149 -2.5259 0.9305
11.3519 -13.7432 -2.5257 0.9305
11.6257 -13.5117 -2.5256 0.9305
11.8947 -13.2747 -2.5255 0.9305
12.1587 -13.0322 -2.5254 0.9305
12.6719 -12.5316 -2.5252 0.9305
12.9207 -12.2736 -2.5250 0.9305
13.1642 -12.0105 -2.5249 0.9305
13.4023 -11.7427 -2.5247 0.9305
13.6350 -11.4700 -2.5246 0.9305
7.4585 12.0894 -2.3401 0.9440
6.9076 11.7175 -2.2408 0.9464
6.9642 12.3759 -2.3394 0.9441
6.7129 12.5117 -2.3391 0.9441
6.4590 12.6424 -2.3388 0.9441
5.1475 11.7792 -2.1177 0.9492
4.8784 11.8050 -2.1043 0.9495
4.3426 11.8360 -2.0770 0.9502
4.0780 11.8463 -2.0640 0.9505
2.5483 11.9061 -2.0058 0.9518
2.3008 11.9158 -1.9993 0.9520
2.0548 11.9254 -1.9935 0.9521
1.8101 11.9350 -1.9886 0.9522
1.3237 11.9540 -1.9813 0.9524
1.2757 14.1092 -2.3338 0.9442
0.8381 11.9439 -1.9725 0.9526
0.5952 11.9071 -1.9640 0.9528
-0.1227 11.7983 -1.9437 0.9533
-0.5942 11.7268 -1.9343 0.9535
-0.8302 11.7171 -1.9351 0.9535
-1.5321 11.6216 -1.9311 0.9536
-1.7627 11.5698 -1.9280 0.9537
-3.3839 12.1382 -2.0759 0.9502
-3.6516 12.1487 -2.0898 0.9499
-3.9232 12.1593 -2.1048 0.9495
-5.0528 12.2036 -2.1759 0.9479
-5.3479 12.2152 -2.1967 0.9474
-5.9511 12.2292 -2.2405 0.9464
-6.4426 12.5892 -2.3297 0.9443
-6.6945 12.4570 -2.3297 0.9443
-7.4334 12.0305 -2.3297 0.9443
-7.6739 11.8786 -2.3297 0.9443
-7.9113 11.7219 -2.3297 0.9443
-8.3765 11.3946 -2.3298 0.9443
-9.0490 10.8694 -2.3299 0.9443
-9.2660 10.6855 -2.3300 0.9443
-9.6889 10.3048 -2.3301 0.9443
-10.4875 9.4944 -2.3305 0.9443
-10.6768 9.2820 -2.3306 0.9443
-11.3909 8.3959 -2.3312 0.9442
-11.5582 8.1656 -2.3313 0.9442
-11.8789 7.6953 -2.3317 0.9442
-12.0322 7.4553 -2.3318 0.9442
-12.1806 7.2124 -2.3320 0.9442
-13.3326 6.5087 -2.4441 0.9416
-14.0440 5.5069 -2.4851 0.9407
-14.1534 5.2239 -2.4854 0.9407
-14.3551 4.6515 -2.4859 0.9407
-14.5338 4.0713 -2.4865 0.9406
-14.6144 3.7786 -2.4867 0.9406
-14.8781 2.5931 -2.4879 0.9406
-14.9741 1.9932 -2.4886 0.9406
-15.0462 1.3897 -2.4892 0.9406
-15.0731 1.0870 -2.4896 0.9406
-15.0940 0.7837 -2.4899 0.9406
-15.1176 0.1761 -2.4906 0.9406
-14.9223 -2.5519 -2.4940 0.9405
-14.8703 -2.8519 -2.4944 0.9405
-14.8122 -3.1509 -2.4948 0.9405
-14.7482 -3.4488 -2.4951 0.9404
-14.6782 -3.7453 -2.4955 0.9404
-14.6022 -4.0404 -2.4959 0.9404
-14.2396 -5.2042 -2.4976 0.9404
-14.1343 -5.4905 -2.4980 0.9404
-14.0234 -5.7746 -2.4984 0.9404
-13.9067 -6.0565 -2.4988 0.9404
-13.5229 -6.8875 -2.5001 0.9403
-13.3839 -7.1593 -2.5005 0.9403
-13.0895 -7.6943 -2.5013 0.9403
-12.9343 -7.9574 -2.5017 0.9403
-12.6080 -8.4739 -2.5026 0.9403
-12.4371 -8.7273 -2.5030 0.9403
-12.2611 -8.9771 -2.5034 0.9403
-11.8941 -9.4661 -2.5042 0.9402
-11.5076 -9.9401 -2.5051 0.9402
-11.3072 -10.1712 -2.5055 0.9402
-11.1022 -10.3983 -2.5059 0.9402
-10.2372 -11.2642 -2.5075 0.9402
-10.0102 -11.4697 -2.5079 0.9402
-9.5263 -11.8448 -2.5041 0.9402
-9.2221 -11.9510 -2.4868 0.9406
-8.3570 -11.7808 -2.3795 0.9431
-7.3178 -12.3044 -2.3584 0.9436
-7.0699 -12.4509 -2.3588 0.9436
-6.8190 -12.5924 -2.3591 0.9436
-6.5653 -12.7288 -2.3594 0.9436
-6.3089 -12.8601 -2.3598 0.9436
-5.2578 -13.3329 -2.3611 0.9436
-4.3065 -11.5988 -2.0382 0.9511
-4.1714 -13.7194 -2.3623 0.9435
-2.7746 -14.0773 -2.3637 0.9435
-1.9213 -14.2236 -2.3645 0.9435
-1.6350 -14.2608 -2.3647 0.9435
-1.3480 -14.2923 -2.3650 0.9435
0.0938 -14.3621 -2.3660 0.9434
0.6714 -14.3491 -2.3664 0.9434
1.8230 -14.2529 -2.3671 0.9434
2.3951 -14.1699 -2.3674 0.9434
3.0093 -14.2819 -2.4045 0.9425
3.4119 -14.7187 -2.4890 0.9406
3.7494 -14.8138 -2.5174 0.9399
4.0536 -14.7608 -2.5217 0.9398
4.3498 -14.6769 -2.5218 0.9398
5.2276 -14.3895 -2.5221 0.9398
6.0863 -14.0492 -2.5223 0.9398
6.3677 -13.9242 -2.5224 0.9398
6.9228 -13.6573 -2.5224 0.9398
7.4666 -13.3681 -2.5225 0.9398
8.2591 -12.8935 -2.5225 0.9398
8.5167 -12.7247 -2.5225 0.9398
8.7708 -12.5507 -2.5224 0.9398
9.0214 -12.3716 -2.5224 0.9398
9.5113 -11.9983 -2.5223 0.9398
10.2167 -11.4020 -2.5221 0.9398
10.4436 -11.1938 -2.5220 0.9398
11.5121 -10.0866 -2.5215 0.9398
11.7120 -9.8524 -2.5213 0.9398
6.1069 10.8525 -2.3406 0.9506
5.8867 10.9717 -2.3403 0.9506
5.6641 11.0865 -2.3400 0.9506
5.4393 11.1968 -2.3397 0.9506
5.2124 11.3025 -2.3395 0.9506
4.9834 11.4037 -2.3392 0.9506
4.7525 11.5003 -2.3389 0.9506
4.5197 11.5922 -2.3386 0.9506
4.2852 11.6794 -2.3384 0.9506
3.8112 11.8397 -2.3378 0.9506
3.0892 12.0441 -2.3371 0.9507
2.6018 12.1561 -2.3366 0.9507
1.5622 9.0665 -1.7293 0.9632
1.3676 12.3501 -2.3355 0.9507
0.8697 12.3930 -2.3351 0.9507
0.6202 12.4069 -2.3349 0.9507
0.3705 12.4159 -2.3347 0.9507
-0.1291 12.4189 -2.3344 0.9507
-0.6284 12.4018 -2.3341 0.9507
-0.8776 12.3859 -2.3339 0.9507
-1.3748 12.3390 -2.3336 0.9507
-1.8697 12.2723 -2.3333 0.9507
-2.1161 12.2316 -2.3332 0.9507
-2.3615 12.1859 -2.3331 0.9507
-2.6060 12.1354 -2.3330 0.9507
-3.8105 11.8101 -2.3325 0.9507
-4.5153 11.5578 -2.3323 0.9508
-4.9763 11.3663 -2.3322 0.9508
-5.2038 11.2638 -2.3322 0.9508
-5.4292 11.1567 -2.3321 0.9508
-6.0920 10.8087 -2.3321 0.9508
-6.5217 10.5549 -2.3321 0.9508
-7.1465 10.1426 -2.3321 0.9508
-8.1294 9.3747 -2.3323 0.9508
-8.6807 8.8682 -2.3325 0.9507
-9.0310 8.5126 -2.3327 0.9507
-9.3669 8.1432 -2.3329 0.9507
-9.8423 7.5646 -2.3333 0.9507
-11.2066 6.9438 -2.4780 0.9478
-11.3589 6.7258 -2.4812 0.9477
-11.5074 6.5048 -2.4846 0.9476
-11.6421 6.2753 -2.4859 0.9476
-11.8868 5.8030 -2.4863 0.9476
-12.1126 5.3211 -2.4867 0.9476
-12.2182 5.0768 -2.4869 0.9476
-12.4147 4.5822 -2.4873 0.9476
-12.5913 4.0800 -2.4878 0.9476
-12.6720 3.8263 -2.4881 0.9475
-12.7477 3.5710 -2.4883 0.9475
-12.8182 3.3142 -2.4886 0.9475
-12.9439 2.7966 -2.4891 0.9475
-12.9989 2.5360 -2.4893 0.9475
-13.0932 2.0116 -2.4899 0.9475
-13.1666 1.4838 -2.4905 0.9475
-13.2187 0.9533 -2.4910 0.9475
-13.2495 0.4210 -2.4917 0.9475
-13.2591 -0.1122 -2.4923 0.9475
-13.2558 -0.3789 -2.4926 0.9475
-13.2140 -1.1781 -2.4936 0.9474
-13.1894 -1.4438 -2.4939 0.9474
-13.0836 -2.2375 -2.4949 0.9474
-12.9302 -3.0236 -2.4959 0.9474
-12.8017 -3.5422 -2.4966 0.9474
-12.3902 -4.8130 -2.4984 0.9473
-12.0827 -5.5538 -2.4995 0.9473
-11.9703 -5.7966 -2.4999 0.9473
-11.8530 -6.0370 -2.5002 0.9473
-11.6041 -6.5107 -2.5010 0.9473
-11.4725 -6.7438 -2.5013 0.9473
-11.3362 -6.9742 -2.5017 0.9473
-11.0497 -7.4266 -2.5024 0.9473
-10.7453 -7.8673 -2.5032 0.9472
-10.2558 -8.5047 -2.5043 0.9472
-10.0841 -8.7105 -2.5046 0.9472
-9.3568 -9.4982 -2.5061 0.9472
-8.9698 -9.8696 -2.5068 0.9472
-8.3618 -10.3970 -2.5078 0.9471
-8.1521 -10.5644 -2.5082 0.9471
-7.7228 -10.8867 -2.5089 0.9471
-7.5033 -11.0413 -2.5092 0.9471
-7.2755 -11.1836 -2.5078 0.9471
-6.4683 -11.3914 -2.4622 0.9481
-6.1392 -11.3370 -2.4233 0.9489
-5.5263 -11.2650 -2.3584 0.9502
-5.2993 -11.3752 -2.3587 0.9502
-5.0701 -11.4809 -2.3590 0.9502
-4.8387 -11.5820 -2.3593 0.9502
-4.1329 -11.8568 -2.3601 0.9502
-3.8940 -11.9389 -2.3604 0.9502
-3.6535 -12.0161 -2.3606 0.9502
-2.9232 -12.2184 -2.3614 0.9502
-2.6771 -12.2760 -2.3616 0.9501
-2.4299 -12.3286 -2.3619 0.9501
-1.9325 -12.4188 -2.3623 0.9501
-1.6825 -12.4563 -2.3626 0.9501
-1.4318 -12.4887 -2.3628 0.9501
-1.1804 -12.5161 -2.3630 0.9501
-0.9286 -12.5384 -2.3632 0.9501
-0.6762 -12.5556 -2.3634 0.9501
-0.4236 -12.5677 -2.3636 0.9501
0.0822 -12.5765 -2.3639 0.9501
0.3351 -12.5732 -2.3641 0.9501
0.8413 -12.5623 -2.3665 0.9500
1.1087 -12.7128 -2.3986 0.9494
1.3853 -12.8850 -2.4358 0.9486
1.9616 -13.2182 -2.5117 0.9471
2.2300 -13.1932 -2.5150 0.9470
2.7630 -13.1131 -2.5189 0.9469
3.0263 -13.0554 -2.5190 0.9469
3.2884 -12.9925 -2.5191 0.9469
3.5492 -12.9243 -2.5192 0.9469
4.0664 -12.7720 -2.5194 0.9469
4.5771 -12.5989 -2.5195 0.9469
4.8296 -12.5046 -2.5196 0.9469
5.8195 -12.0770 -2.5198 0.9469
6.0612 -11.9576 -2.5198 0.9469
6.3006 -11.8334 -2.5198 0.9469
6.5373 -11.7044 -2.5199 0.9469
7.2313 -11.2888 -2.5199 0.9469
7.6793 -10.9887 -2.5198 0.9469
7.8987 -10.8319 -2.5198 0.9469
8.1148 -10.6707 -2.5198 0.9469
8.3276 -10.5052 -2.5197 0.9469
8.5370 -10.3353 -2.5197 0.9469
8.7430 -10.1613 -2.5196 0.9469
9.1440 -9.8009 -2.5195 0.9469
9.3390 -9.6147 -2.5194 0.9469
10.2550 -8.6268 -2.5189 0.9469
10.4260 -8.4183 -2.5187 0.9469
5.8177 9.4298 -2.3421 0.9557
5.6262 9.5438 -2.3418 0.9557
5.4325 9.6539 -2.3416 0.9557
5.2367 9.7602 -2.3413 0.9557
5.0387 9.8624 -2.3410 0.9557
4.4334 10.1450 -2.3403 0.9557
4.0210 10.3130 -2.3398 0.9558
3.8123 10.3907 -2.3395 0.9558
3.6022 10.4642 -2.3393 0.9558
3.3907 10.5335 -2.3391 0.9558
3.1779 10.5985 -2.3389 0.9558
2.9638 10.6593 -2.3386 0.9558
2.3149 10.8157 -2.3380 0.9558
1.7475 9.0502 -1.9484 0.9630
1.6581 10.9328 -2.3374 0.9558
1.2169 10.9888 -2.3370 0.9558
0.9955 11.0102 -2.3368 0.9558
0.7738 11.0272 -2.3367 0.9558
0.3297 11.0478 -2.3363 0.9558
-0.3371 11.0454 -2.3359 0.9558
-0.5591 11.0356 -2.3357 0.9558
-0.7809 11.0215 -2.3356 0.9558
-1.0024 11.0030 -2.3354 0.9558
-1.4439 10.9526 -2.3352 0.9558
-1.6638 10.9208 -2.3351 0.9558
-2.1015 10.8440 -2.3348 0.9558
-2.3190 10.7991 -2.3347 0.9558
-2.5357 10.7498 -2.3347 0.9558
-2.9657 10.6384 -2.3345 0.9559
-3.1790 10.5762 -2.3344 0.9559
-3.3909 10.5098 -2.3343 0.9559
-3.6015 10.4392 -2.3343 0.9559
-4.0182 10.2854 -2.3342 0.9559
-4.8315 9.9285 -2.3340 0.9559
-5.0302 9.8293 -2.3340 0.9559
-6.1769 9.1522 -2.3340 0.9559
-6.7178 8.7633 -2.3340 0.9559
-6.8928 8.6265 -2.3341 0.9559
-7.0651 8.4863 -2.3341 0.9559
-7.2345 8.3427 -2.3342 0.9559
-7.4010 8.1957 -2.3342 0.9559
-7.5645 8.0454 -2.3343 0.9559
-7.7250 7.8919 -2.3344 0.9559
-8.5237 7.4101 -2.3874 0.9549
-8.8166 7.3587 -2.4275 0.9541
-9.3059 7.1524 -2.4810 0.9531
-9.7434 6.5938 -2.4869 0.9530
-9.8746 6.3969 -2.4870 0.9530
-10.2443 5.7908 -2.4875 0.9530
-10.3594 5.5839 -2.4876 0.9530
-10.4703 5.3748 -2.4878 0.9530
-10.7777 4.7347 -2.4883 0.9530
-10.9611 4.2981 -2.4887 0.9530
-11.0462 4.0771 -2.4889 0.9530
-11.4627 2.7190 -2.4902 0.9530
-11.5161 2.4881 -2.4904 0.9530
-11.5649 2.2562 -2.4907 0.9530
-11.6091 2.0234 -2.4909 0.9530
-11.7389 1.0843 -2.4919 0.9529
-11.7755 0.6114 -2.4925 0.9529
-11.7867 0.3745 -2.4927 0.9529
-11.7932 0.1374 -2.4930 0.9529
-11.7918 -0.3371 -2.4936 0.9529
-11.7714 -0.8112 -2.4941 0.9529
-11.7541 -1.0479 -2.4944 0.9529
-11.6374 -1.9901 -2.4956 0.9529
-11.5005 -2.6893 -2.4965 0.9529
-11.4455 -2.9204 -2.4969 0.9529
-11.2528 -3.6067 -2.4978 0.9528
-11.1794 -3.8328 -2.4981 0.9528
-11.1014 -4.0573 -2.4984 0.9528
-11.0190 -4.2803 -2.4988 0.9528
-10.9321 -4.5017 -2.4991 0.9528
-10.8408 -4.7212 -2.4994 0.9528
-10.6449 -5.1547 -2.5000 0.9528
-9.8251 -6.6035 -2.5023 0.9528
-9.5541 -6.9951 -2.5030 0.9527
-9.2675 -7.3756 -2.5036 0.9527
-8.8092 -7.9241 -2.5046 0.9527
-8.6491 -8.1008 -2.5049 0.9527
-7.7971 -8.9338 -2.5065 0.9527
-7.4333 -9.2425 -2.5071 0.9527
-7.0573 -9.5362 -2.5077 0.9527
-6.8649 -9.6774 -2.5080 0.9526
-6.4717 -9.9480 -2.5086 0.9526
-6.2710 -10.0774 -2.5089 0.9526
-5.8621 -10.3238 -2.5095 0.9526
-5.6539 -10.4408 -2.5098 0.9526
-4.7939 -10.8556 -2.5084 0.9526
-4.5721 -10.9437 -2.5070 0.9527
-1.7835 -11.4608 -2.4517 0.9537
-1.5566 -11.5242 -2.4581 0.9536
-1.3288 -11.5899 -2.4659 0.9534
-0.1612 -11.8725 -2.5098 0.9526
0.3168 -11.8865 -2.5135 0.9525
1.0342 -11.8585 -2.5162 0.9525
1.2725 -11.8360 -2.5163 0.9525
1.7477 -11.7765 -2.5166 0.9525
2.2201 -11.6978 -2.5168 0.9525
2.6890 -11.6000 -2.5170 0.9525
3.1535 -11.4834 -2.5172 0.9525
4.0667 -11.1941 -2.5175 0.9525
4.2911 -11.1103 -2.5176 0.9525
4.7347 -10.9292 -2.5177 0.9525
5.3853 -10.6242 -2.5178 0.9525
5.8083 -10.3992 -2.5178 0.9525
6.6253 -9.8987 -2.5178 0.9525
7.0179 -9.6241 -2.5178 0.9525
7.5851 -9.1829 -2.5176 0.9525
7.9479 -8.8700 -2.5175 0.9525
8.1245 -8.7081 -2.5175 0.9525
8.2978 -8.5427 -2.5174 0.9525
8.4676 -8.3739 -2.5173 0.9525
8.7969 -8.0260 -2.5171 0.9525
9.1118 -7.6651 -2.5169 0.9525
4.8876 8.6856 -2.3423 0.9599
4.5334 8.8733 -2.3418 0.9599
4.3536 8.9618 -2.3416 0.9599
4.1721 9.0467 -2.3414 0.9599
3.9889 9.1279 -2.3412 0.9599
3.4302 9.3492 -2.3405 0.9599
3.0509 9.4779 -2.3401 0.9599
2.6668 9.5913 -2.3397 0.9599
2.4732 9.6422 -2.3395 0.9599
2.2785 9.6891 -2.3393 0.9599
2.0831 9.7322 -2.3391 0.9599
1.5592 9.0489 -2.1580 0.9630
1.4920 9.8379 -2.3386 0.9599
1.2938 9.8651 -2.3384 0.9599
1.0950 9.8885 -2.3382 0.9599
0.4966 9.9345 -2.3377 0.9600
0.2967 9.9418 -2.3376 0.9600
-0.1034 9.9445 -2.3373 0.9600
-0.3033 9.9398 -2.3372 0.9600
-0.5032 9.9312 -2.3370 0.9600
-0.7028 9.9185 -2.3369 0.9600
-1.4973 9.8280 -2.3365 0.9600
-1.8912 9.7590 -2.3363 0.9600
-2.2820 9.6744 -2.3361 0.9600
-2.8610 9.5182 -2.3359 0.9600
-3.0517 9.4585 -2.3358 0.9600
-3.2413 9.3950 -2.3357 0.9600
-3.4295 9.3277 -2.3357 0.9600
-3.8017 9.1818 -2.3356 0.9600
-3.9855 9.1034 -2.3356 0.9600
-4.1678 9.0213 -2.3355 0.9600
-4.3483 8.9355 -2.3355 0.9600
-4.5271 8.8462 -2.3355 0.9600
-5.5591 8.2368 -2.3355 0.9600
-5.7237 8.1234 -2.3355 0.9600
-5.8860 8.0067 -2.3355 0.9600
-6.3784 7.6615 -2.3430 0.9599
-6.8681 7.6057 -2.4085 0.9588
-7.5371 7.3963 -2.4818 0.9575
-7.8427 7.1000 -2.4863 0.9575
-7.9882 6.9446 -2.4877 0.9574
-8.2617 6.6183 -2.4879 0.9574
-8.3935 6.4510 -2.4880 0.9574
-8.8864 5.7567 -2.4885 0.9574
-9.0009 5.5771 -2.4886 0.9574
-9.2189 5.2112 -2.4889 0.9574
-9.3224 5.0250 -2.4890 0.9574
-9.4222 4.8368 -2.4892 0.9574
-9.5181 4.6466 -2.4893 0.9574
-9.7830 4.0650 -2.4898 0.9574
-9.9400 3.6688 -2.4902 0.9574
-10.0125 3.4684 -2.4903 0.9574
-10.0810 3.2665 -2.4905 0.9574
-10.1454 3.0634 -2.4907 0.9574
-10.2058 2.8589 -2.4909 0.9574
-10.3622 2.2388 -2.4915 0.9574
-10.4060 2.0301 -2.4918 0.9574
-10.4457 1.8206 -2.4920 0.9574
-10.5123 1.3993 -2.4924 0.9574
-10.5393 1.1877 -2.4927 0.9574
-10.5621 0.9756 -2.4929 0.9574
-10.5948 0.5501 -2.4934 0.9573
-10.6047 0.3369 -2.4936 0.9573
-10.6104 0.1236 -2.4939 0.9573
-10.6118 -0.0898 -2.4941 0.9573
-10.6089 -0.3033 -2.4944 0.9573
-10.6018 -0.5166 -2.4946 0.9573
-10.5904 -0.7298 -2.4949 0.9573
-10.5746 -0.9428 -2.4951 0.9573
-10.5547 -1.1554 -2.4954 0.9573
-10.5304 -1.3678 -2.4957 0.9573
-10.5019 -1.5793 -2.4959 0.9573
-10.4692 -1.7904 -2.4962 0.9573
-10.3910 -2.2104 -2.4968 0.9573
-10.3456 -2.4192 -2.4970 0.9573
-10.2422 -2.8341 -2.4976 0.9573
-9.9859 -3.6496 -2.4987 0.9573
-9.9116 -3.8502 -2.4990 0.9572
-9.7510 -4.2466 -2.4996 0.9572
-9.6647 -4.4424 -2.4999 0.9572
-9.5746 -4.6364 -2.5002 0.9572
-9.4805 -4.8286 -2.5005 0.9572
-9.3825 -5.0189 -2.5008 0.9572
-9.1753 -5.3934 -2.5014 0.9572
-9.0660 -5.5776 -2.5017 0.9572
-8.4652 -6.4634 -2.5031 0.9572
-7.6308 -7.4406 -2.5049 0.9572
-7.4804 -7.5935 -2.5051 0.9571
-6.5162 -8.4445 -2.5068 0.9571
-6.1727 -8.7016 -2.5074 0.9571
-5.9971 -8.8249 -2.5076 0.9571
-5.6385 -9.0609 -2.5082 0.9571
-4.8941 -9.4886 -2.5092 0.9571
-4.5094 -9.6796 -2.5097 0.9571
-4.1173 -9.8551 -2.5102 0.9571
-2.9025 -10.2847 -2.5115 0.9570
-2.2775 -10.4436 -2.5122 0.9570
-2.0672 -10.4881 -2.5124 0.9570
-1.6440 -10.5644 -2.5128 0.9570
-1.4313 -10.5961 -2.5129 0.9570
-0.7898 -10.6654 -2.5135 0.9570
-0.3603 -10.6899 -2.5138 0.9570
-0.1453 -10.6957 -2.5140 0.9570
0.0699 -10.6971 -2.5141 0.9570
0.2850 -10.6941 -2.5143 0.9570
0.5001 -10.6869 -2.5144 0.9570
1.1438 -10.6389 -2.5148 0.9570
2.2067 -10.4727 -2.5154 0.9570
2.6262 -10.3762 -2.5155 0.9570
2.8345 -10.3216 -2.5156 0.9570
3.0416 -10.2628 -2.5157 0.9570
3.2475 -10.1999 -2.5158 0.9570
3.4521 -10.1327 -2.5158 0.9570
3.6552 -10.0615 -2.5159 0.9570
3.8569 -9.9862 -2.5160 0.9570
4.2556 -9.8233 -2.5160 0.9570
4.6473 -9.6445 -2.5161 0.9570
5.0315 -9.4499 -2.5161 0.9570
5.2206 -9.3469 -2.5162 0.9570
6.1325 -8.7754 -2.5161 0.9570
6.4804 -8.5215 -2.5161 0.9570
7.3025 -7.8271 -2.5158 0.9570
7.4582 -7.6784 -2.5158 0.9570
7.6109 -7.5267 -2.5157 0.9570
7.7605 -7.3718 -2.5156 0.9570
8.0502 -7.0533 -2.5155 0.9570
8.1901 -6.8897 -2.5154 0.9570
8.3267 -6.7233 -2.5153 0.9570
4.2778 7.9730 -2.3427 0.9633
3.9530 8.1371 -2.3423 0.9633
3.7882 8.2143 -2.3421 0.9633
3.6219 8.2881 -2.3419 0.9633
3.1147 8.4892 -2.3413 0.9633
2.7703 8.6063 -2.3409 0.9633
2.5965 8.6596 -2.3407 0.9633
2.4216 8.7093 -2.3405 0.9633
2.2458 8.7556 -2.3404 0.9633
1.8916 8.8375 -2.3400 0.9633
1.3549 8.9337 -2.3395 0.9634
0.8135 8.9973 -2.3391 0.9634
0.6324 9.0113 -2.3389 0.9634
0.0878 9.0315 -2.3385 0.9634
-0.4570 9.0189 -2.3382 0.9634
-0.6382 9.0075 -2.3380 0.9634
-0.9999 8.9737 -2.3378 0.9634
-1.1801 8.9514 -2.3377 0.9634
-1.3598 8.9254 -2.3376 0.9634
-2.0725 8.7860 -2.3373 0.9634
-2.5983 8.6443 -2.3371 0.9634
-2.7716 8.5901 -2.3370 0.9634
-3.4527 8.3389 -2.3368 0.9634
-3.6196 8.2676 -2.3368 0.9634
-3.7851 8.1931 -2.3368 0.9634
-3.9491 8.1152 -2.3368 0.9634
-4.4312 7.8621 -2.3367 0.9634
-4.8073 7.7803 -2.3680 0.9629
-5.4436 7.7259 -2.4471 0.9617
-5.8323 7.6082 -2.4821 0.9612
-5.9883 7.4945 -2.4838 0.9611
-6.1422 7.3778 -2.4856 0.9611
-6.4416 7.1333 -2.4886 0.9611
-6.5839 7.0025 -2.4886 0.9611
-6.7236 6.8688 -2.4887 0.9611
-6.8605 6.7324 -2.4887 0.9611
-6.9947 6.5932 -2.4888 0.9611
-7.1261 6.4514 -2.4889 0.9611
-7.2547 6.3069 -2.4890 0.9611
-7.5030 6.0105 -2.4891 0.9611
-7.6226 5.8586 -2.4892 0.9611
-7.9631 5.3889 -2.4895 0.9610
-8.0702 5.2279 -2.4896 0.9610
-8.2747 4.8996 -2.4899 0.9610
-8.3720 4.7325 -2.4900 0.9610
-8.6436 4.2197 -2.4904 0.9610
-8.7272 4.0452 -2.4906 0.9610
-8.8074 3.8691 -2.4907 0.9610
-9.1543 2.9663 -2.4915 0.9610
-9.2675 2.5961 -2.4919 0.9610
-9.3186 2.4094 -2.4921 0.9610
-9.3658 2.2216 -2.4923 0.9610
-9.5454 1.2706 -2.4933 0.9610
-9.5698 1.0784 -2.4935 0.9610
-9.5904 0.8858 -2.4937 0.9610
-9.6339 0.1122 -2.4946 0.9610
-9.6324 -0.2754 -2.4950 0.9610
-9.6258 -0.4691 -2.4953 0.9610
-9.5828 -1.0490 -2.4960 0.9610
-9.5606 -1.2416 -2.4962 0.9609
-9.4712 -1.8165 -2.4969 0.9609
-9.4337 -2.0068 -2.4972 0.9609
-9.3923 -2.1963 -2.4975 0.9609
-9.3472 -2.3850 -2.4977 0.9609
-9.2983 -2.5728 -2.4980 0.9609
-9.2456 -2.7596 -2.4982 0.9609
-9.1892 -2.9453 -2.4985 0.9609
-9.1291 -3.1298 -2.4987 0.9609
-9.0652 -3.3131 -2.4990 0.9609
-8.9977 -3.4952 -2.4993 0.9609
-8.9265 -3.6758 -2.4995 0.9609
-8.8517 -3.8550 -2.4998 0.9609
-8.7733 -4.0327 -2.5000 0.9609
-8.6059 -4.3832 -2.5006 0.9609
-8.3285 -4.8957 -2.5014 0.9609
-8.2293 -5.0628 -2.5016 0.9609
-8.1266 -5.2278 -2.5019 0.9609
-7.7991 -5.7102 -2.5027 0.9608
-7.5647 -6.0205 -2.5032 0.9608
-7.4429 -6.1721 -2.5035 0.9608
-7.3180 -6.3212 -2.5038 0.9608
-6.9257 -6.7531 -2.5045 0.9608
-6.7892 -6.8918 -2.5048 0.9608
-6.6499 -7.0276 -2.5051 0.9608
-6.3632 -7.2909 -2.5056 0.9608
-6.2159 -7.4181 -2.5058 0.9608
-6.0660 -7.5424 -2.5061 0.9608
-5.9137 -7.6636 -2.5063 0.9608
-5.7589 -7.7818 -2.5066 0.9608
-5.4424 -8.0087 -2.5071 0.9608
-5.2807 -8.1173 -2.5073 0.9608
-5.1169 -8.2226 -2.5076 0.9608
-4.6130 -8.5186 -2.5083 0.9608
-4.2675 -8.6989 -2.5087 0.9608
-3.9148 -8.8650 -2.5092 0.9607
-3.7361 -8.9427 -2.5094 0.9607
-3.5558 -9.0168 -2.5096 0.9607
-3.1908 -9.1541 -2.5100 0.9607
-3.0063 -9.2171 -2.5102 0.9607
-2.0665 -9.4760 -2.5112 0.9607
-1.8757 -9.5164 -2.5114 0.9607
-1.6840 -9.5528 -2.5115 0.9607
-1.4916 -9.5854 -2.5117 0.9607
-1.2986 -9.6142 -2.5119 0.9607
-1.1051 -9.6390 -2.5120 0.9607
-0.9110 -9.6599 -2.5122 0.9607
-0.7166 -9.6768 -2.5124 0.9607
-0.5219 -9.6899 -2.5125 0.9607
-0.3269 -9.6990 -2.5127 0.9607
-0.1318 -9.7042 -2.5128 0.9607
0.0634 -9.7054 -2.5129 0.9607
0.6487 -9.6854 -2.5133 0.9607
0.8434 -9.6708 -2.5135 0.9607
1.0378 -9.6524 -2.5136 0.9607
1.2317 -9.6300 -2.5137 0.9607
1.4252 -9.6036 -2.5138 0.9607
1.6181 -9.5734 -2.5139 0.9607
1.8104 -9.5393 -2.5140 0.9607
2.1928 -9.4594 -2.5142 0.9607
2.7595 -9.3108 -2.5144 0.9607
3.4991 -9.0597 -2.5146 0.9607
3.6807 -8.9877 -2.5147 0.9607
3.8608 -8.9120 -2.5147 0.9607
4.0393 -8.8326 -2.5147 0.9607
4.2162 -8.7497 -2.5148 0.9607
4.3913 -8.6632 -2.5148 0.9607
4.5647 -8.5732 -2.5148 0.9607
5.0734 -8.2824 -2.5148 0.9607
5.2390 -8.1786 -2.5148 0.9607
5.7225 -7.8477 -2.5148 0.9607
6.0334 -7.6110 -2.5147 0.9607
6.6251 -7.1010 -2.5145 0.9607
6.7664 -6.9661 -2.5145 0.9607
7.0407 -6.6880 -2.5143 0.9607
7.3035 -6.3991 -2.5142 0.9607
7.4305 -6.2507 -2.5141 0.9607
4.4670 7.5774 -2.4901 0.9641
3.3863 7.7491 -2.3940 0.9655
3.2061 7.7582 -2.3764 0.9657
2.8540 7.7787 -2.3456 0.9661
2.6925 7.8217 -2.3418 0.9662
2.5345 7.8737 -2.3416 0.9662
2.3755 7.9225 -2.3414 0.9662
2.0546 8.0104 -2.3411 0.9662
1.5675 8.1182 -2.3406 0.9662
1.4038 8.1475 -2.3405 0.9662
1.0749 8.1964 -2.3402 0.9662
0.9098 8.2158 -2.3401 0.9662
0.7443 8.2320 -2.3399 0.9662
0.5786 8.2448 -2.3398 0.9662
0.2465 8.2605 -2.3395 0.9662
0.0803 8.2634 -2.3394 0.9662
-0.0859 8.2629 -2.3393 0.9662
-0.5840 8.2416 -2.3390 0.9662
-1.0798 8.1903 -2.3387 0.9662
-1.2442 8.1667 -2.3386 0.9662
-1.4082 8.1397 -2.3385 0.9662
-1.7343 8.0759 -2.3384 0.9662
-2.2179 7.9560 -2.3382 0.9662
-2.7147 7.8688 -2.3564 0.9660
-2.8906 7.8622 -2.3714 0.9658
-3.4327 7.8407 -2.4230 0.9650
-3.6188 7.8329 -2.4427 0.9648
-4.4639 7.5605 -2.4855 0.9642
-4.7695 7.3828 -2.4882 0.9641
-4.9194 7.2890 -2.4894 0.9641
-6.0243 6.4073 -2.4897 0.9641
-6.1521 6.2850 -2.4898 0.9641
-6.5204 5.9030 -2.4899 0.9641
-6.9746 5.3605 -2.4903 0.9641
-7.0813 5.2194 -2.4904 0.9641
-7.4791 4.6342 -2.4908 0.9641
-7.5711 4.4830 -2.4909 0.9641
-7.6601 4.3300 -2.4910 0.9641
-7.7460 4.1753 -2.4911 0.9641
-7.8288 4.0189 -2.4912 0.9641
-7.9849 3.7011 -2.4915 0.9641
-8.0582 3.5400 -2.4916 0.9641
-8.1282 3.3774 -2.4918 0.9641
-8.1950 3.2134 -2.4919 0.9641
-8.3754 2.7139 -2.4924 0.9641
-8.4789 2.3752 -2.4927 0.9641
-8.6776 1.5124 -2.4936 0.9640
-8.8006 0.4570 -2.4947 0.9640
-8.8087 0.2799 -2.4949 0.9640
-8.8143 -0.0746 -2.4954 0.9640
-8.8118 -0.2519 -2.4956 0.9640
-8.7219 -1.3116 -2.4969 0.9640
-8.6946 -1.4869 -2.4971 0.9640
-8.5053 -2.3534 -2.4983 0.9640
-8.4570 -2.5242 -2.4985 0.9640
-8.4054 -2.6940 -2.4987 0.9640
-8.3503 -2.8628 -2.4990 0.9640
-8.2918 -3.0305 -2.4992 0.9640
-8.0963 -3.5260 -2.4999 0.9640
-7.9495 -3.8495 -2.5004 0.9639
-7.8712 -4.0090 -2.5007 0.9639
-7.7897 -4.1669 -2.5009 0.9639
-7.5265 -4.6304 -2.5016 0.9639
-7.4325 -4.7813 -2.5019 0.9639
-7.3356 -4.9303 -2.5021 0.9639
-7.1328 -5.2223 -2.5026 0.9639
-7.0270 -5.3653 -2.5028 0.9639
-6.6926 -5.7809 -2.5036 0.9639
-6.5756 -5.9150 -2.5038 0.9639
-6.4559 -6.0466 -2.5040 0.9639
-5.9513 -6.5483 -2.5050 0.9639
-5.8190 -6.6673 -2.5052 0.9639
-5.6842 -6.7836 -2.5055 0.9639
-5.4078 -7.0080 -2.5059 0.9639
-5.2662 -7.1160 -2.5061 0.9639
-4.9767 -7.3234 -2.5066 0.9639
-4.8288 -7.4226 -2.5068 0.9639
-4.6789 -7.5189 -2.5070 0.9639
-4.5272 -7.6121 -2.5073 0.9639
-4.3735 -7.7023 -2.5075 0.9638
-4.0609 -7.8733 -2.5079 0.9638
-3.9021 -7.9540 -2.5081 0.9638
-3.7416 -8.0316 -2.5083 0.9638
-3.5796 -8.1058 -2.5085 0.9638
-2.7488 -8.4275 -2.5095 0.9638
-2.5789 -8.4817 -2.5096 0.9638
-2.4080 -8.5325 -2.5098 0.9638
-2.0632 -8.6236 -2.5102 0.9638
-1.5397 -8.7341 -2.5107 0.9638
-1.3638 -8.7638 -2.5108 0.9638
-1.1873 -8.7900 -2.5110 0.9638
-1.0103 -8.8126 -2.5111 0.9638
-0.8329 -8.8317 -2.5113 0.9638
-0.6552 -8.8472 -2.5114 0.9638
-0.4772 -8.8591 -2.5116 0.9638
-0.2989 -8.8674 -2.5117 0.9638
0.2364 -8.8706 -2.5121 0.9638
0.4148 -8.8644 -2.5122 0.9638
0.5930 -8.8547 -2.5123 0.9638
0.7710 -8.8414 -2.5124 0.9638
0.9487 -8.8244 -2.5125 0.9638
1.3030 -8.7798 -2.5127 0.9638
1.4793 -8.7522 -2.5128 0.9638
1.6551 -8.7210 -2.5129 0.9638
2.5227 -8.5120 -2.5133 0.9638
3.1989 -8.2824 -2.5135 0.9638
3.3649 -8.2165 -2.5135 0.9638
4.0145 -7.9198 -2.5136 0.9638
4.7894 -7.4768 -2.5137 0.9638
4.9388 -7.3790 -2.5136 0.9638
5.0862 -7.2781 -2.5136 0.9638
5.2315 -7.1743 -2.5136 0.9638
5.3747 -7.0675 -2.5136 0.9638
5.5157 -6.9579 -2.5136 0.9638
5.6544 -6.8455 -2.5135 0.9638
5.9249 -6.6123 -2.5134 0.9638
6.0566 -6.4917 -2.5134 0.9638
6.4366 -6.1142 -2.5132 0.9638
6.9064 -5.5765 -2.5129 0.9638
4.2615 6.9074 -2.4964 0.9666
4.1214 6.9912 -2.4962 0.9666
3.9796 7.0721 -2.4960 0.9666
3.8363 7.1501 -2.4958 0.9666
3.3955 7.3628 -2.4938 0.9666
3.2452 7.4261 -2.4927 0.9667
3.0938 7.4865 -2.4916 0.9667
2.4782 7.6988 -2.4876 0.9667
2.1613 7.7731 -2.4815 0.9668
1.9957 7.7806 -2.4706 0.9669
1.1852 7.8145 -2.4311 0.9675
0.8667 7.8266 -2.4220 0.9676
0.7082 7.8324 -2.4189 0.9676
0.5500 7.8380 -2.4167 0.9677
0.3921 7.8434 -2.4155 0.9677
-0.0817 7.8548 -2.4161 0.9677
-0.3982 7.8587 -2.4203 0.9676
-0.5569 7.8604 -2.4237 0.9676
-0.7162 7.8618 -2.4282 0.9675
-0.8761 7.8632 -2.4335 0.9674
-1.1983 7.8654 -2.4471 0.9673
-1.5245 7.8669 -2.4647 0.9670
-1.6895 7.8674 -2.4750 0.9669
-1.8537 7.8584 -2.4834 0.9668
-2.1691 7.7808 -2.4845 0.9668
-2.3257 7.7376 -2.4851 0.9668
-2.4816 7.6913 -2.4858 0.9667
-2.6365 7.6421 -2.4865 0.9667
-2.7906 7.5899 -2.4873 0.9667
-3.0957 7.4767 -2.4890 0.9667
-3.2467 7.4157 -2.4899 0.9667
-3.3958 7.3504 -2.4904 0.9667
-3.9755 7.0536 -2.4904 0.9667
-4.1166 6.9722 -2.4904 0.9667
-4.3936 6.8010 -2.4904 0.9667
-4.5296 6.7113 -2.4904 0.9667
-4.7958 6.5238 -2.4904 0.9667
-5.0544 6.3258 -2.4905 0.9667
-5.3049 6.1175 -2.4906 0.9667
-5.4269 6.0097 -2.4906 0.9667
-5.5468 5.8994 -2.4906 0.9667
-5.6645 5.7868 -2.4907 0.9667
-5.8929 5.5546 -2.4908 0.9667
-6.0035 5.4351 -2.4909 0.9667
-6.2176 5.1895 -2.4910 0.9667
-6.4217 4.9356 -2.4912 0.9667
-6.6154 4.6737 -2.4913 0.9667
-6.7985 4.4042 -2.4915 0.9667
-6.8860 4.2667 -2.4916 0.9667
-7.2812 3.5546 -2.4922 0.9667
-7.3516 3.4076 -2.4923 0.9667
-7.4835 3.1095 -2.4926 0.9667
-7.5449 2.9585 -2.4927 0.9667
-7.7109 2.4986 -2.4931 0.9666
-7.8061 2.1867 -2.4934 0.9666
-7.8887 1.8712 -2.4937 0.9666
-7.9253 1.7123 -2.4939 0.9666
-7.9586 1.5527 -2.4941 0.9666
-7.9888 1.3924 -2.4942 0.9666
-8.0599 0.9083 -2.4947 0.9666
-8.0771 0.7461 -2.4949 0.9666
-8.1018 0.4207 -2.4953 0.9666
-8.1118 -0.2319 -2.4960 0.9666
-8.0972 -0.5580 -2.4964 0.9666
-8.0508 -1.0455 -2.4970 0.9666
-8.0288 -1.2074 -2.4972 0.9666
-7.9434 -1.6897 -2.4979 0.9666
-7.9084 -1.8493 -2.4981 0.9666
-7.8703 -2.0082 -2.4983 0.9666
-7.8290 -2.1662 -2.4985 0.9666
-7.7369 -2.4798 -2.4990 0.9666
-7.6861 -2.6351 -2.4992 0.9666
-7.6323 -2.7894 -2.4994 0.9666
-7.5152 -3.0947 -2.4998 0.9666
-7.4521 -3.2455 -2.5001 0.9666
-7.3169 -3.5432 -2.5005 0.9666
-7.2448 -3.6899 -2.5007 0.9665
-7.1698 -3.8353 -2.5009 0.9665
-7.0918 -3.9790 -2.5012 0.9665
-7.0110 -4.1212 -2.5014 0.9665
-6.5647 -4.8064 -2.5025 0.9665
-6.4673 -4.9379 -2.5027 0.9665
-5.9415 -5.5648 -2.5038 0.9665
-5.8289 -5.6836 -2.5041 0.9665
-5.7139 -5.8002 -2.5043 0.9665
-5.5966 -5.9145 -2.5045 0.9665
-5.3551 -6.1358 -2.5049 0.9665
-5.2310 -6.2428 -2.5051 0.9665
-4.9766 -6.4492 -2.5056 0.9665
-4.8463 -6.5486 -2.5058 0.9665
-4.7140 -6.6453 -2.5060 0.9665
-4.5797 -6.7393 -2.5062 0.9665
-4.4436 -6.8306 -2.5064 0.9665
-3.8815 -7.1679 -2.5072 0.9665
-3.5907 -7.3193 -2.5076 0.9665
-3.4430 -7.3906 -2.5078 0.9665
-3.1435 -7.5242 -2.5081 0.9665
-2.8387 -7.6456 -2.5085 0.9664
-2.6846 -7.7017 -2.5087 0.9664
-2.5293 -7.7546 -2.5088 0.9664
-2.0575 -7.8946 -2.5093 0.9664
-1.4167 -8.0364 -2.5099 0.9664
-1.2548 -8.0638 -2.5101 0.9664
-1.0925 -8.0878 -2.5102 0.9664
-0.6028 -8.1403 -2.5106 0.9664
0.0533 -8.1640 -2.5111 0.9664
0.7094 -8.1347 -2.5116 0.9664
1.0361 -8.1002 -2.5117 0.9664
1.3611 -8.0525 -2.5119 0.9664
1.5228 -8.0238 -2.5120 0.9664
1.8444 -7.9565 -2.5121 0.9664
2.0041 -7.9180 -2.5122 0.9664
2.6342 -7.7320 -2.5124 0.9664
3.2473 -7.4958 -2.5126 0.9664
3.3974 -7.4290 -2.5126 0.9664
3.5462 -7.3593 -2.5126 0.9664
3.6935 -7.2865 -2.5127 0.9664
3.8393 -7.2108 -2.5127 0.9664
4.4064 -6.8789 -2.5127 0.9664
4.5439 -6.7889 -2.5127 0.9664
4.6795 -6.6961 -2.5127 0.9664
4.9449 -6.5024 -2.5126 0.9664
5.3278 -6.1921 -2.5125 0.9664
5.4512 -6.0836 -2.5125 0.9664
5.5723 -5.9727 -2.5124 0.9664
5.6912 -5.8592 -2.5124 0.9664
5.9220 -5.6254 -2.5123 0.9664
6.0338 -5.5050 -2.5122 0.9664
6.1431 -5.3824 -2.5121 0.9664
6.2500 -5.2576 -2.5121 0.9664
4.0719 6.3123 -2.4969 0.9688
3.9438 6.3925 -2.4967 0.9688
3.8142 6.4700 -2.4966 0.9688
3.6830 6.5450 -2.4964 0.9688
3.5504 6.6172 -2.4962 0.9688
3.1442 6.8179 -2.4957 0.9688
2.5854 7.0466 -2.4950 0.9689
2.4430 7.0967 -2.4949 0.9689
2.1554 7.1884 -2.4945 0.9689
2.0102 7.2298 -2.4944 0.9689
1.7176 7.3040 -2.4941 0.9689
1.4222 7.3654 -2.4935 0.9689
1.1244 7.4138 -2.4926 0.9689
0.9749 7.4338 -2.4922 0.9689
0.5247 7.4766 -2.4914 0.9689
-0.6799 7.4635 -2.4912 0.9689
-1.8673 7.2595 -2.4916 0.9689
-2.0128 7.2203 -2.4916 0.9689
-2.1576 7.1782 -2.4915 0.9689
-2.4444 7.0853 -2.4914 0.9689
-2.5864 7.0346 -2.4914 0.9689
-2.7273 6.9811 -2.4914 0.9689
-3.1432 6.8037 -2.4913 0.9689
-3.4143 6.6717 -2.4912 0.9689
-3.5478 6.6016 -2.4912 0.9689
-4.1926 6.2121 -2.4912 0.9689
-4.4391 6.0385 -2.4913 0.9689
-4.5597 5.9481 -2.4913 0.9689
-4.7953 5.7600 -2.4913 0.9689
-5.0232 5.5626 -2.4914 0.9689
-5.2431 5.3563 -2.4915 0.9689
-5.3498 5.2499 -2.4915 0.9689
-5.4545 5.1414 -2.4916 0.9689
-5.7550 4.8034 -2.4918 0.9689
-5.9439 4.5683 -2.4919 0.9689
-6.1232 4.3259 -2.4921 0.9689
-6.2092 4.2020 -2.4922 0.9689
-6.2926 4.0764 -2.4923 0.9689
-6.3736 3.9492 -2.4923 0.9689
-6.4520 3.8203 -2.4924 0.9689
-6.6009 3.5581 -2.4926 0.9689
-6.6715 3.4247 -2.4928 0.9689
-6.7393 3.2900 -2.4929 0.9689
-6.9264 2.8780 -2.4932 0.9689
-6.9832 2.7383 -2.4933 0.9689
-7.0373 2.5974 -2.4935 0.9689
-7.1368 2.3125 -2.4937 0.9689
-7.2248 2.0239 -2.4940 0.9689
-7.3658 1.4370 -2.4946 0.9689
-7.3937 1.2887 -2.4948 0.9689
-7.4405 0.9904 -2.4951 0.9689
-7.4753 0.6905 -2.4954 0.9689
-7.4882 0.5400 -2.4956 0.9688
-7.5094 -0.0636 -2.4963 0.9688
-7.4822 -0.6671 -2.4970 0.9688
-7.4679 -0.8175 -2.4972 0.9688
-7.3509 -1.5637 -2.4981 0.9688
-7.3185 -1.7114 -2.4983 0.9688
-7.2832 -1.8584 -2.4985 0.9688
-7.2449 -2.0046 -2.4987 0.9688
-7.2037 -2.1501 -2.4989 0.9688
-7.0627 -2.5812 -2.4995 0.9688
-7.0099 -2.7230 -2.4997 0.9688
-6.9543 -2.8636 -2.5000 0.9688
-6.8958 -3.0032 -2.5002 0.9688
-6.7038 -3.4144 -2.5008 0.9688
-6.6344 -3.5489 -2.5010 0.9688
-6.4099 -3.9435 -2.5016 0.9688
-6.3298 -4.0719 -2.5018 0.9688
-6.1619 -4.3239 -2.5022 0.9688
-5.9840 -4.5690 -2.5026 0.9688
-5.7964 -4.8067 -2.5031 0.9688
-5.6990 -4.9227 -2.5033 0.9688
-5.4973 -5.1488 -2.5037 0.9687
-5.2867 -5.3665 -2.5041 0.9687
-5.1781 -5.4722 -2.5043 0.9687
-5.0674 -5.5757 -2.5045 0.9687
-4.8398 -5.7759 -2.5049 0.9687
-4.4837 -6.0587 -2.5055 0.9687
-4.3613 -6.1481 -2.5056 0.9687
-3.8542 -6.4807 -2.5064 0.9687
-3.7234 -6.5573 -2.5066 0.9687
-3.3043 -6.7354 -2.4938 0.9689
-3.1713 -6.8073 -2.4963 0.9688
-2.8972 -6.9347 -2.4982 0.9688
-2.6262 -7.0731 -2.5080 0.9687
-2.4835 -7.1249 -2.5081 0.9687
-2.3399 -7.1739 -2.5083 0.9687
-1.7562 -7.3405 -2.5089 0.9687
-1.3105 -7.4343 -2.5093 0.9687
-1.1608 -7.4596 -2.5094 0.9687
-0.8600 -7.5010 -2.5097 0.9687
-0.7090 -7.5171 -2.5098 0.9687
-0.2544 -7.5473 -2.5102 0.9687
0.2012 -7.5499 -2.5105 0.9687
0.3530 -7.5446 -2.5106 0.9687
0.9584 -7.4929 -2.5110 0.9687
1.1089 -7.4724 -2.5111 0.9687
1.2590 -7.4488 -2.5111 0.9687
1.5577 -7.3925 -2.5113 0.9687
1.7061 -7.3599 -2.5113 0.9687
1.8538 -7.3243 -2.5114 0.9687
2.1470 -7.2441 -2.5115 0.9687
2.2923 -7.1996 -2.5116 0.9687
3.0037 -6.9336 -2.5118 0.9687
3.1426 -6.8719 -2.5118 0.9687
3.2802 -6.8074 -2.5118 0.9686
3.4165 -6.7400 -2.5118 0.9686
3.5514 -6.6700 -2.5118 0.9686
3.8168 -6.5218 -2.5118 0.9686
3.9472 -6.4437 -2.5118 0.9686
4.2031 -6.2797 -2.5118 0.9686
4.5740 -6.0147 -2.5118 0.9687
4.8121 -5.8258 -2.5117 0.9687
5.1545 -5.5247 -2.5116 0.9687
5.2644 -5.4199 -2.5116 0.9687
5.3723 -5.3128 -2.5115 0.9687
5.4779 -5.2036 -2.5115 0.9687
5.5813 -5.0922 -2.5114 0.9687
5.6825 -4.9788 -2.5113 0.9687
5.8778 -4.7460 -2.5112 0.9687
3.6664 5.9428 -2.4971 0.9708
3.5459 6.0149 -2.4969 0.9708
3.4239 6.0846 -2.4967 0.9708
3.3006 6.1518 -2.4966 0.9708
2.5351 6.5020 -2.4956 0.9708
2.4036 6.5512 -2.4955 0.9708
2.2713 6.5979 -2.4953 0.9708
1.8689 6.7217 -2.4949 0.9708
1.7333 6.7575 -2.4948 0.9708
1.4599 6.8210 -2.4945 0.9708
1.0458 6.8956 -2.4941 0.9708
0.9068 6.9149 -2.4940 0.9708
0.4881 6.9560 -2.4936 0.9708
0.3481 6.9642 -2.4935 0.9708
0.2080 6.9694 -2.4934 0.9708
0.0678 6.9719 -2.4933 0.9708
-0.2127 6.9685 -2.4931 0.9708
-0.6325 6.9422 -2.4929 0.9708
-0.7719 6.9279 -2.4928 0.9708
-0.9111 6.9107 -2.4927 0.9708
-1.1882 6.8681 -2.4926 0.9708
-1.3260 6.8426 -2.4925 0.9708
-1.4634 6.8144 -2.4924 0.9708
-1.6001 6.7834 -2.4924 0.9708
-1.8715 6.7133 -2.4923 0.9708
-2.4048 6.5407 -2.4921 0.9708
-2.9226 6.3260 -2.4920 0.9708
-3.1746 6.2033 -2.4920 0.9708
-3.4215 6.0706 -2.4919 0.9708
-3.7813 5.8532 -2.4919 0.9708
-4.1275 5.6146 -2.4920 0.9708
-4.2396 5.5305 -2.4920 0.9708
-4.3500 5.4441 -2.4920 0.9708
-4.6706 5.1721 -2.4921 0.9708
-4.9742 4.8813 -2.4922 0.9708
-5.1667 4.6775 -2.4923 0.9708
-5.3509 4.4661 -2.4925 0.9708
-5.4398 4.3577 -2.4925 0.9708
-5.5265 4.2475 -2.4926 0.9708
-5.6932 4.0221 -2.4927 0.9708
-5.7731 3.9069 -2.4928 0.9708
-5.9260 3.6718 -2.4930 0.9708
-6.0693 3.4308 -2.4932 0.9708
-6.1373 3.3081 -2.4933 0.9708
-6.2028 3.1842 -2.4934 0.9708
-6.2659 3.0589 -2.4935 0.9708
-6.3264 2.9324 -2.4936 0.9708
-6.3844 2.8047 -2.4937 0.9708
-6.4398 2.6758 -2.4938 0.9708
-6.4926 2.5459 -2.4939 0.9708
-6.5904 2.2829 -2.4942 0.9708
-6.6353 2.1500 -2.4943 0.9708
-6.6775 2.0163 -2.4944 0.9708
-6.7171 1.8816 -2.4945 0.9708
-6.8194 1.4734 -2.4949 0.9708
-6.8481 1.3360 -2.4951 0.9708
-6.8971 1.0596 -2.4954 0.9708
-6.9174 0.9208 -2.4955 0.9708
-6.9349 0.7815 -2.4957 0.9708
-6.9616 0.5020 -2.4960 0.9708
-6.9708 0.3619 -2.4961 0.9708
-6.9771 0.2217 -2.4963 0.9708
-6.9806 0.0813 -2.4965 0.9708
-6.9791 -0.1995 -2.4968 0.9708
-6.9742 -0.3399 -2.4970 0.9708
-6.9558 -0.6201 -2.4973 0.9708
-6.9424 -0.7600 -2.4975 0.9708
-6.8854 -1.1775 -2.4980 0.9708
-6.7349 -1.8635 -2.4989 0.9708
-6.6555 -2.1332 -2.4993 0.9707
-6.5653 -2.3995 -2.4997 0.9707
-6.3531 -2.9202 -2.5004 0.9707
-6.2936 -3.0476 -2.5006 0.9707
-6.2315 -3.1739 -2.5008 0.9707
-6.0302 -3.5447 -2.5014 0.9707
-5.9581 -3.6655 -2.5016 0.9707
-5.6460 -4.1338 -2.5024 0.9707
-5.5261 -4.2193 -2.4863 0.9709
-5.3634 -4.4477 -2.4917 0.9708
-5.2758 -4.5571 -2.4931 0.9708
-5.1754 -4.6554 -2.4894 0.9709
-5.1096 -4.7856 -2.5035 0.9707
-5.0127 -4.8878 -2.5037 0.9707
-4.6050 -5.2764 -2.5044 0.9707
-4.4983 -5.3684 -2.5046 0.9707
-4.3897 -5.4581 -2.5048 0.9707
-4.2794 -5.5457 -2.5050 0.9707
-4.1673 -5.6311 -2.5052 0.9707
-3.9380 -5.7949 -2.5055 0.9707
-3.4605 -6.0944 -2.5062 0.9707
-3.0873 -6.2932 -2.5067 0.9707
-2.8321 -6.4131 -2.5070 0.9707
-2.7027 -6.4692 -2.5072 0.9707
-2.3081 -6.6216 -2.5076 0.9707
-2.0401 -6.7098 -2.5079 0.9706
-1.7688 -6.7872 -2.5082 0.9706
-1.6321 -6.8218 -2.5084 0.9706
-1.4946 -6.8536 -2.5085 0.9706
-1.3565 -6.8826 -2.5086 0.9706
-1.2179 -6.9089 -2.5088 0.9706
-1.0788 -6.9323 -2.5089 0.9706
-0.7992 -6.9708 -2.5091 0.9706
-0.6588 -6.9858 -2.5092 0.9706
-0.3774 -7.0072 -2.5095 0.9706
0.1870 -7.0160 -2.5099 0.9706
0.3281 -7.0111 -2.5100 0.9706
0.7504 -6.9793 -2.5102 0.9706
0.8906 -6.9630 -2.5103 0.9706
1.1700 -6.9220 -2.5105 0.9706
1.3090 -6.8972 -2.5105 0.9706
1.4475 -6.8697 -2.5106 0.9706
1.5854 -6.8393 -2.5106 0.9706
1.7227 -6.8062 -2.5107 0.9706
1.9951 -6.7317 -2.5108 0.9706
2.1301 -6.6904 -2.5109 0.9706
2.2643 -6.6463 -2.5109 0.9706
2.3975 -6.5995 -2.5109 0.9706
2.9203 -6.3858 -2.5111 0.9706
3.5468 -6.0604 -2.5111 0.9706
3.6679 -5.9879 -2.5111 0.9706
3.7876 -5.9129 -2.5111 0.9706
4.0223 -5.7557 -2.5111 0.9706
4.1372 -5.6736 -2.5111 0.9706
4.2505 -5.5892 -2.5111 0.9706
4.3620 -5.5026 -2.5110 0.9706
4.4717 -5.4137 -2.5110 0.9706
4.5796 -5.3226 -2.5110 0.9706
4.8921 -5.0365 -2.5109 0.9706
5.1866 -4.7320 -2.5107 0.9706
5.3724 -4.5194 -2.5106 0.9706
5.4621 -4.4103 -2.5105 0.9706
3.5328 5.4767 -2.4975 0.9725
3.1955 5.6787 -2.4971 0.9725
2.9642 5.8019 -2.4967 0.9725
2.8467 5.8600 -2.4966 0.9725
2.7281 5.9157 -2.4964 0.9725
2.3660 6.0684 -2.4960 0.9725
2.2434 6.1144 -2.4959 0.9725
1.9954 6.1990 -2.4956 0.9725
1.7443 6.2735 -2.4953 0.9725
1.6177 6.3070 -2.4952 0.9725
1.4905 6.3380 -2.4951 0.9725
1.1054 6.4154 -2.4947 0.9725
0.9761 6.4360 -2.4946 0.9725
0.8464 6.4541 -2.4945 0.9725
0.7164 6.4695 -2.4944 0.9725
0.5861 6.4823 -2.4943 0.9725
0.3249 6.5001 -2.4941 0.9725
0.1941 6.5051 -2.4940 0.9725
-0.0677 6.5071 -2.4938 0.9725
-0.1985 6.5042 -2.4937 0.9725
-0.3293 6.4987 -2.4936 0.9725
-0.4599 6.4905 -2.4935 0.9725
-0.5903 6.4798 -2.4934 0.9725
-0.8504 6.4504 -2.4933 0.9725
-1.3659 6.3605 -2.4930 0.9725
-1.8725 6.2297 -2.4928 0.9725
-1.9974 6.1907 -2.4928 0.9725
-2.1215 6.1491 -2.4928 0.9725
-2.4883 6.0098 -2.4927 0.9725
-2.6087 5.9585 -2.4926 0.9725
-2.7279 5.9047 -2.4926 0.9725
-2.8461 5.8486 -2.4926 0.9725
-3.0790 5.7294 -2.4926 0.9725
-3.1936 5.6663 -2.4926 0.9725
-3.3069 5.6009 -2.4926 0.9725
-3.4189 5.5333 -2.4926 0.9725
-3.5295 5.4634 -2.4926 0.9725
-3.8526 5.2407 -2.4926 0.9725
-4.1617 4.9989 -2.4927 0.9725
-4.2615 4.9143 -2.4927 0.9725
-4.3595 4.8277 -2.4927 0.9725
-4.5503 4.6486 -2.4928 0.9725
-4.6429 4.5562 -2.4929 0.9725
-4.8226 4.3659 -2.4930 0.9725
-5.0775 4.0675 -2.4931 0.9725
-5.1584 3.9646 -2.4932 0.9725
-5.2372 3.8602 -2.4933 0.9725
-5.3139 3.7542 -2.4933 0.9725
-5.3885 3.6466 -2.4934 0.9725
-5.5992 3.3154 -2.4936 0.9725
-5.6649 3.2022 -2.4937 0.9725
-5.7284 3.0877 -2.4938 0.9725
-5.7895 2.9720 -2.4939 0.9725
-5.8484 2.8551 -2.4940 0.9725
-5.9048 2.7370 -2.4941 0.9725
-6.0106 2.4975 -2.4943 0.9725
-6.0599 2.3762 -2.4944 0.9725
-6.1068 2.2540 -2.4945 0.9725
-6.1930 2.0067 -2.4948 0.9725
-6.2693 1.7562 -2.4950 0.9725
-6.3355 1.5028 -2.4953 0.9725
-6.3648 1.3751 -2.4954 0.9725
-6.4862 0.5991 -2.4962 0.9725
-6.5058 0.3378 -2.4965 0.9725
-6.5117 0.2069 -2.4967 0.9725
-6.5149 0.0759 -2.4968 0.9725
-6.5155 -0.0551 -2.4970 0.9725
-6.5135 -0.1862 -2.4971 0.9725
-6.5089 -0.3172 -2.4973 0.9725
-6.4917 -0.5788 -2.4976 0.9725
-6.4791 -0.7092 -2.4978 0.9725
-6.4640 -0.8395 -2.4979 0.9725
-6.4462 -0.9694 -2.4981 0.9725
-6.3773 -1.3566 -2.4986 0.9725
-6.3185 -1.6122 -2.4989 0.9725
-6.2852 -1.7391 -2.4991 0.9725
-6.1702 -2.1154 -2.4996 0.9724
-6.1268 -2.2392 -2.4998 0.9724
-6.0327 -2.4842 -2.5002 0.9724
-5.9287 -2.7251 -2.5005 0.9724
-5.8731 -2.8440 -2.5007 0.9724
-5.6272 -3.3078 -2.5014 0.9724
-5.5599 -3.4206 -2.5016 0.9724
-5.4186 -3.6419 -2.5020 0.9724
-5.1099 -4.0668 -2.5027 0.9724
-4.9429 -4.2696 -2.5030 0.9724
-4.7679 -4.4656 -2.5034 0.9724
-4.6774 -4.5609 -2.5036 0.9724
-4.4908 -4.7459 -2.5039 0.9724
-4.2969 -4.9234 -2.5043 0.9724
-4.0960 -5.0929 -2.5046 0.9724
-3.9930 -5.1746 -2.5048 0.9724
-3.8884 -5.2542 -2.5049 0.9724
-3.5652 -5.4802 -2.5054 0.9724
-3.4545 -5.5512 -2.5056 0.9724
-3.3423 -5.6199 -2.5057 0.9724
-3.2288 -5.6863 -2.5059 0.9724
-3.1140 -5.7505 -2.5061 0.9724
-2.9979 -5.8123 -2.5062 0.9724
-2.8806 -5.8718 -2.5064 0.9724
-2.6424 -5.9836 -2.5067 0.9724
-2.3999 -6.0857 -2.5070 0.9724
-2.2772 -6.1331 -2.5071 0.9724
-2.1535 -6.1780 -2.5072 0.9724
-2.0289 -6.2204 -2.5074 0.9724
-1.9035 -6.2603 -2.5075 0.9724
-1.1363 -6.4459 -2.5083 0.9724
-1.0065 -6.4677 -2.5084 0.9724
-0.7456 -6.5036 -2.5086 0.9723
-0.0889 -6.5469 -2.5091 0.9723
0.1745 -6.5457 -2.5093 0.9723
0.4376 -6.5338 -2.5095 0.9723
0.7001 -6.5113 -2.5096 0.9723
1.0915 -6.4578 -2.5099 0.9723
1.2212 -6.4347 -2.5099 0.9723
1.6072 -6.3498 -2.5101 0.9723
1.7346 -6.3163 -2.5101 0.9723
1.8613 -6.2803 -2.5102 0.9723
2.6040 -6.0110 -2.5104 0.9723
2.8437 -5.9015 -2.5104 0.9723
3.1945 -5.7193 -2.5105 0.9723
3.3089 -5.6540 -2.5105 0.9723
3.5336 -5.5163 -2.5105 0.9723
3.7525 -5.3697 -2.5104 0.9723
4.0694 -5.1335 -2.5104 0.9723
4.1718 -5.0506 -2.5104 0.9723
4.2725 -4.9656 -2.5103 0.9723
4.3714 -4.8786 -2.5103 0.9723
4.6575 -4.6059 -2.5102 0.9723
4.8387 -4.4147 -2.5101 0.9723
4.9265 -4.3164 -2.5100 0.9723
3.3082 5.1285 -2.4978 0.9740
3.2042 5.1937 -2.4976 0.9740
3.0989 5.2568 -2.4975 0.9740
2.6658 5.4876 -2.4969 0.9740
2.5548 5.5398 -2.4968 0.9740
2.4427 5.5897 -2.4966 0.9740
2.2157 5.6828 -2.4964 0.9740
2.1008 5.7259 -2.4962 0.9740
1.9852 5.7667 -2.4961 0.9740
1.8687 5.8052 -2.4960 0.9740
1.5150 5.9065 -2.4956 0.9740
1.3958 5.9354 -2.4955 0.9740
1.2761 5.9620 -2.4954 0.9740
1.1559 5.9862 -2.4953 0.9740
1.0352 6.0080 -2.4951 0.9740
0.9141 6.0273 -2.4950 0.9740
0.7927 6.0442 -2.4949 0.9740
0.6709 6.0587 -2.4948 0.9740
0.5489 6.0707 -2.4947 0.9740
0.3043 6.0874 -2.4945 0.9740
0.1818 6.0921 -2.4944 0.9740
-0.0634 6.0940 -2.4943 0.9740
-0.1859 6.0913 -2.4942 0.9740
-0.5528 6.0685 -2.4940 0.9740
-0.6748 6.0559 -2.4939 0.9740
-0.7964 6.0410 -2.4938 0.9740
-1.0387 6.0038 -2.4937 0.9740
-1.1592 5.9815 -2.4936 0.9740
-1.5177 5.9004 -2.4935 0.9740
-1.6360 5.8685 -2.4934 0.9740
-2.3304 5.6284 -2.4932 0.9740
-2.4431 5.5804 -2.4932 0.9740
-2.5548 5.5301 -2.4932 0.9740
-2.7751 5.4228 -2.4932 0.9740
-2.9910 5.3067 -2.4931 0.9740
-3.0971 5.2455 -2.4931 0.9740
-3.2020 5.1822 -2.4931 0.9740
-3.4078 5.0492 -2.4931 0.9740
-3.7061 4.8346 -2.4932 0.9740
-3.8977 4.6817 -2.4932 0.9740
-3.9911 4.6025 -2.4933 0.9740
-4.0829 4.5213 -2.4933 0.9740
-4.4333 4.1788 -2.4934 0.9740
-4.5165 4.0889 -2.4935 0.9740
-4.6775 3.9041 -2.4936 0.9740
-4.9767 3.5159 -2.4938 0.9740
-5.0465 3.4152 -2.4939 0.9740
-5.1801 3.2096 -2.4941 0.9740
-5.3647 2.8917 -2.4943 0.9740
-5.4220 2.7833 -2.4944 0.9740
-5.5299 2.5632 -2.4946 0.9740
-5.5806 2.4516 -2.4947 0.9740
-5.6290 2.3389 -2.4948 0.9740
-5.6751 2.2253 -2.4949 0.9740
-5.7997 1.8793 -2.4952 0.9740
-5.8366 1.7623 -2.4953 0.9740
-5.9855 1.1677 -2.4959 0.9740
-6.0081 1.0472 -2.4960 0.9740
-6.0459 0.8048 -2.4963 0.9740
-6.0612 0.6830 -2.4964 0.9740
-6.0741 0.5610 -2.4965 0.9740
-6.0845 0.4388 -2.4967 0.9740
-6.0979 0.1938 -2.4970 0.9740
-6.1009 0.0711 -2.4971 0.9740
-6.1014 -0.0516 -2.4972 0.9740
-6.0951 -0.2970 -2.4975 0.9740
-6.0883 -0.4196 -2.4977 0.9740
-6.0790 -0.5420 -2.4978 0.9740
-6.0672 -0.6642 -2.4980 0.9740
-6.0530 -0.7861 -2.4981 0.9740
-5.9957 -1.1499 -2.4986 0.9740
-5.9454 -1.3903 -2.4989 0.9740
-5.8518 -1.7466 -2.4994 0.9740
-5.8159 -1.8641 -2.4996 0.9739
-5.7776 -1.9808 -2.4997 0.9739
-5.7370 -2.0967 -2.4999 0.9739
-5.5514 -2.5517 -2.5006 0.9739
-5.4993 -2.6630 -2.5007 0.9739
