ply
format ascii 1.0
element vertex 1576
property float32 x
property float32 y
property float32 z
property float32 I
end_header
7.0226 -16.2238 -2.5048 0.9311
8.0593 -15.1454 -2.4309 0.9330
8.2746 -14.8228 -2.4053 0.9337
8.9581 -13.9905 -2.3538 0.9351
9.2385 -13.8083 -2.3540 0.9351
9.5151 -13.6203 -2.3541 0.9351
9.7879 -13.4269 -2.3543 0.9351
10.0567 -13.2280 -2.3544 0.9351
10.3215 -13.0237 -2.3546 0.9351
10.5821 -12.8141 -2.3547 0.9351
10.8385 -12.5992 -2.3548 0.9351
11.0905 -12.3792 -2.3550 0.9351
11.3380 -12.1541 -2.3551 0.9351
11.6004 -11.9442 -2.3592 0.9349
12.2688 -11.6548 -2.3977 0.9339
12.6337 -11.5267 -2.4232 0.9332
13.7489 -11.1008 -2.5038 0.9311
13.9916 -10.8388 -2.5077 0.9310
14.2141 -10.5604 -2.5090 0.9310
14.8273 -9.6847 -2.5093 0.9310
15.3865 -8.7733 -2.5096 0.9309
15.7282 -8.1475 -2.5098 0.9309
15.8895 -7.8296 -2.5099 0.9309
16.0444 -7.5084 -2.5099 0.9309
16.1928 -7.1842 -2.5100 0.9309
16.4697 -6.5271 -2.5102 0.9309
16.8348 -5.5217 -2.5103 0.9309
16.9429 -5.1819 -2.5104 0.9309
17.0441 -4.8400 -2.5104 0.9309
17.2257 -4.1503 -2.5105 0.9309
17.3060 -3.8028 -2.5106 0.9309
17.4456 -3.1034 -2.5107 0.9309
17.5567 -2.3988 -2.5107 0.9309
17.6699 -1.3350 -2.5108 0.9309
17.6932 -0.9792 -2.5108 0.9309
17.7094 -0.6229 -2.5108 0.9309
17.7184 -0.2663 -2.5108 0.9309
17.6822 1.1595 -2.5108 0.9309
17.6552 1.5151 -2.5107 0.9309
17.5796 2.2244 -2.5107 0.9309
17.5311 2.5777 -2.5107 0.9309
17.3429 3.6308 -2.5106 0.9309
17.0913 4.6705 -2.5104 0.9309
16.8888 5.3543 -2.5103 0.9309
16.1125 7.3461 -2.5090 0.9310
15.9276 7.6527 -2.5037 0.9311
14.5301 8.0948 -2.3567 0.9350
14.3637 8.3853 -2.3566 0.9350
13.8299 9.2357 -2.3563 0.9350
13.6406 9.5117 -2.3562 0.9350
13.4458 9.7839 -2.3561 0.9350
12.8291 10.5760 -2.3558 0.9350
12.6131 10.8316 -2.3557 0.9350
12.1657 11.3292 -2.3554 0.9350
11.9346 11.5712 -2.3553 0.9350
10.9630 12.4908 -2.3548 0.9351
10.7088 12.7082 -2.3547 0.9351
9.9206 13.3289 -2.3543 0.9351
8.3810 13.3878 -2.2379 0.9382
6.5200 13.2032 -2.0864 0.9422
6.2747 13.3780 -2.0937 0.9421
5.9502 13.3802 -2.0748 0.9426
5.6560 13.4409 -2.0662 0.9428
5.1557 13.7784 -2.0845 0.9423
4.7186 13.4277 -2.0166 0.9441
4.5097 13.7094 -2.0449 0.9434
4.1885 13.6529 -2.0235 0.9439
-13.3138 7.2107 -2.4943 0.9405
-13.4568 6.9415 -2.4944 0.9405
-14.1929 5.2690 -2.4940 0.9405
-14.2957 4.9821 -2.4940 0.9405
-14.4841 4.4027 -2.4939 0.9405
-14.5695 4.1102 -2.4939 0.9405
-14.6490 3.8161 -2.4938 0.9405
-14.7903 3.2233 -2.4937 0.9405
-14.9574 2.3249 -2.4937 0.9405
-15.0010 2.0234 -2.4936 0.9405
-15.0386 1.7210 -2.4936 0.9405
-15.0955 1.1144 -2.4936 0.9405
-15.1361 -0.1032 -2.4936 0.9405
-15.1310 -0.4078 -2.4936 0.9405
-15.1024 -1.0164 -2.4936 0.9405
-15.0790 -1.3202 -2.4936 0.9405
-15.0495 -1.6234 -2.4936 0.9405
-15.0139 -1.9260 -2.4936 0.9405
-14.9722 -2.2278 -2.4937 0.9405
-14.9245 -2.5287 -2.4937 0.9405
-14.8707 -2.8286 -2.4937 0.9405
-14.8110 -3.1273 -2.4938 0.9405
-14.7453 -3.4248 -2.4938 0.9405
-14.6736 -3.7210 -2.4938 0.9405
-14.5960 -4.0156 -2.4939 0.9405
-14.4231 -4.5999 -2.4940 0.9405
-14.2269 -5.1768 -2.4941 0.9405
-13.8895 -6.0264 -2.4942 0.9405
-13.7658 -6.3048 -2.4943 0.9405
-13.3614 -7.1247 -2.4945 0.9405
-13.2157 -7.3924 -2.4946 0.9405
-13.0647 -7.6571 -2.4947 0.9405
-12.7468 -8.1772 -2.4948 0.9405
-12.0497 -9.1772 -2.4952 0.9404
-11.6715 -9.6555 -2.4954 0.9404
-11.4753 -9.8889 -2.4955 0.9404
-11.2744 -10.1183 -2.4956 0.9404
-11.0690 -10.3435 -2.4957 0.9404
-10.4260 -10.9942 -2.4961 0.9404
-9.5099 -11.7993 -2.4966 0.9404
-9.2710 -11.9889 -2.4967 0.9404
-8.7819 -12.3536 -2.4969 0.9404
-8.5319 -12.5285 -2.4971 0.9404
-8.2785 -12.6983 -2.4972 0.9404
-7.4984 -13.1769 -2.4976 0.9404
-7.2321 -13.3259 -2.4978 0.9404
-6.4158 -13.7404 -2.4982 0.9404
-6.1383 -13.8676 -2.4983 0.9404
-5.5759 -14.1050 -2.4986 0.9404
-5.0044 -14.3197 -2.4989 0.9404
-4.7154 -14.4184 -2.4991 0.9404
-4.1319 -14.5983 -2.4994 0.9403
-2.9452 -14.8870 -2.5000 0.9403
-2.3440 -14.9954 -2.5003 0.9403
-1.7388 -15.0795 -2.5006 0.9403
-1.4351 -15.1124 -2.5008 0.9403
-1.1307 -15.1392 -2.5010 0.9403
-0.8258 -15.1598 -2.5011 0.9403
-0.5206 -15.1744 -2.5013 0.9403
-0.2151 -15.1827 -2.5014 0.9403
0.0905 -15.1850 -2.5016 0.9403
0.7016 -15.1710 -2.5019 0.9403
1.6162 -15.1039 -2.5024 0.9403
2.2230 -15.0285 -2.5027 0.9403
2.8263 -14.9287 -2.5030 0.9403
3.1264 -14.8698 -2.5032 0.9403
3.4252 -14.8048 -2.5033 0.9403
4.0188 -14.6567 -2.5037 0.9402
4.6059 -14.4849 -2.5040 0.9402
4.8968 -14.3902 -2.5041 0.9402
5.1858 -14.2896 -2.5043 0.9402
5.7573 -14.0709 -2.5046 0.9402
6.3196 -13.8295 -2.5049 0.9402
7.1439 -13.4252 -2.5053 0.9402
7.4131 -13.2794 -2.5054 0.9402
7.9424 -12.9718 -2.5057 0.9402
8.4589 -12.6430 -2.5060 0.9402
8.9618 -12.2936 -2.5062 0.9402
10.8210 -10.7020 -2.5072 0.9402
11.4486 -10.0308 -2.5075 0.9402
11.8440 -9.5627 -2.5077 0.9402
12.0345 -9.3227 -2.5078 0.9402
12.2201 -9.0790 -2.5079 0.9402
12.4009 -8.8316 -2.5080 0.9401
12.5765 -8.5805 -2.5081 0.9401
12.7471 -8.3260 -2.5082 0.9401
12.9126 -8.0680 -2.5083 0.9401
13.2277 -7.5423 -2.5085 0.9401
13.3772 -7.2748 -2.5085 0.9401
13.6599 -6.7309 -2.5087 0.9401
13.7930 -6.4548 -2.5088 0.9401
13.9205 -6.1761 -2.5088 0.9401
14.2688 -5.3252 -2.5090 0.9401
14.3734 -5.0370 -2.5091 0.9401
14.4722 -4.7468 -2.5091 0.9401
14.5651 -4.4547 -2.5091 0.9401
14.8081 -3.5678 -2.5093 0.9401
15.0477 -2.3658 -2.5094 0.9401
15.0925 -2.0621 -2.5094 0.9401
15.1310 -1.7580 -2.5094 0.9401
15.1634 -1.4531 -2.5095 0.9401
15.2237 -0.5354 -2.5095 0.9401
15.2314 -0.2290 -2.5095 0.9401
15.2329 0.0777 -2.5095 0.9401
15.2173 0.6906 -2.5095 0.9401
15.2003 0.9967 -2.5095 0.9401
15.1771 1.3025 -2.5094 0.9401
15.1122 1.9122 -2.5094 0.9401
15.0705 2.2159 -2.5094 0.9401
14.9688 2.8205 -2.5093 0.9401
14.7706 3.7185 -2.5092 0.9401
14.6926 4.0150 -2.5092 0.9401
14.6085 4.3098 -2.5091 0.9401
14.5186 4.6028 -2.5091 0.9401
14.4227 4.8940 -2.5090 0.9401
14.1001 5.7550 -2.5089 0.9401
13.9811 6.0375 -2.5088 0.9401
13.8564 6.3175 -2.5087 0.9401
13.7260 6.5949 -2.5087 0.9401
13.5901 6.8696 -2.5086 0.9401
13.4487 7.1415 -2.5085 0.9401
13.2911 7.4046 -2.5064 0.9402
12.1346 7.7551 -2.3724 0.9433
11.8897 7.9400 -2.3553 0.9437
11.3876 8.6421 -2.3550 0.9437
11.2109 8.8692 -2.3549 0.9437
11.0297 9.0926 -2.3548 0.9437
10.8440 9.3124 -2.3548 0.9437
10.6540 9.5283 -2.3547 0.9437
10.0582 10.1525 -2.3543 0.9437
9.4259 10.7395 -2.3540 0.9437
9.2074 10.9265 -2.3539 0.9437
8.9852 11.1090 -2.3538 0.9437
8.7593 11.2870 -2.3537 0.9437
8.5299 11.4604 -2.3535 0.9437
8.0610 11.7932 -2.3533 0.9437
7.5790 12.1067 -2.3530 0.9437
6.8335 12.5400 -2.3526 0.9438
6.5794 12.6742 -2.3525 0.9438
5.8015 13.0459 -2.3521 0.9438
5.2712 13.2672 -2.3518 0.9438
5.0028 13.3698 -2.3517 0.9438
4.7125 13.4103 -2.3416 0.9440
4.4602 13.5587 -2.3514 0.9438
4.1551 13.5436 -2.3338 0.9442
-11.6738 6.3224 -2.4954 0.9474
-11.7984 6.0860 -2.4953 0.9474
-12.4440 4.6197 -2.4950 0.9474
-12.6194 4.1151 -2.4949 0.9474
-12.6994 3.8602 -2.4948 0.9474
-12.8441 3.3459 -2.4948 0.9474
-13.0221 2.5646 -2.4947 0.9474
-13.1145 2.0384 -2.4946 0.9474
-13.1858 1.5090 -2.4946 0.9474
-13.2526 0.7105 -2.4946 0.9474
-13.2642 0.4437 -2.4945 0.9474
-13.2704 0.1766 -2.4945 0.9474
-13.2668 -0.3576 -2.4945 0.9474
-13.2570 -0.6245 -2.4946 0.9474
-13.1953 -1.4234 -2.4946 0.9474
-13.1275 -1.9533 -2.4946 0.9474
-13.0857 -2.2171 -2.4947 0.9474
-13.0386 -2.4801 -2.4947 0.9474
-12.9861 -2.7420 -2.4947 0.9474
-12.7975 -3.5208 -2.4948 0.9474
-12.7243 -3.7777 -2.4948 0.9474
-12.5624 -4.2869 -2.4949 0.9474
-12.0694 -5.5279 -2.4952 0.9474
-11.9560 -5.7698 -2.4953 0.9474
-11.7147 -6.2466 -2.4954 0.9474
-11.5869 -6.4813 -2.4955 0.9474
-11.4544 -6.7134 -2.4955 0.9474
-11.3173 -6.9428 -2.4956 0.9474
-10.8788 -7.6138 -2.4958 0.9474
-10.4005 -8.2572 -2.4961 0.9474
-10.2326 -8.4652 -2.4962 0.9474
-10.0605 -8.6697 -2.4963 0.9474
-9.7042 -9.0682 -2.4964 0.9474
-9.5201 -9.2621 -2.4965 0.9474
-9.3321 -9.4522 -2.4966 0.9474
-8.5432 -10.1738 -2.4971 0.9474
-8.1275 -10.5102 -2.4973 0.9474
-7.9147 -10.6722 -2.4974 0.9474
-7.6987 -10.8298 -2.4975 0.9474
-7.2573 -11.1319 -2.4977 0.9474
-6.8041 -11.4160 -2.4980 0.9473
-6.5732 -11.5512 -2.4981 0.9473
-6.3397 -11.6817 -2.4982 0.9473
-6.1036 -11.8075 -2.4983 0.9473
-5.8651 -11.9286 -2.4985 0.9473
-5.6241 -12.0448 -2.4986 0.9473
-5.3808 -12.1562 -2.4987 0.9473
-4.8877 -12.3642 -2.4990 0.9473
-4.6382 -12.4607 -2.4991 0.9473
-4.1334 -12.6386 -2.4994 0.9473
-3.8784 -12.7199 -2.4995 0.9473
-3.6218 -12.7961 -2.4996 0.9473
-3.3637 -12.8671 -2.4998 0.9473
-3.1042 -12.9329 -2.4999 0.9473
-2.8435 -12.9934 -2.5001 0.9473
-2.3185 -13.0988 -2.5003 0.9473
-2.0545 -13.1435 -2.5005 0.9473
-1.7897 -13.1830 -2.5006 0.9473
-1.5241 -13.2171 -2.5007 0.9473
-0.9910 -13.2692 -2.5010 0.9473
-0.4563 -13.2998 -2.5013 0.9473
0.0793 -13.3089 -2.5016 0.9473
0.3472 -13.3053 -2.5017 0.9473
0.6149 -13.2964 -2.5019 0.9473
1.1496 -13.2624 -2.5021 0.9473
1.9482 -13.1710 -2.5026 0.9473
2.7399 -13.0316 -2.5030 0.9472
3.7799 -12.7718 -2.5035 0.9472
4.0364 -12.6938 -2.5037 0.9472
4.2913 -12.6107 -2.5038 0.9472
4.5445 -12.5225 -2.5039 0.9472
4.7958 -12.4291 -2.5041 0.9472
5.0453 -12.3307 -2.5042 0.9472
5.5380 -12.1189 -2.5044 0.9472
5.7810 -12.0056 -2.5046 0.9472
6.2601 -11.7644 -2.5048 0.9472
6.4960 -11.6366 -2.5049 0.9472
6.9597 -11.3669 -2.5052 0.9472
7.1874 -11.2250 -2.5053 0.9472
7.4122 -11.0786 -2.5054 0.9472
7.8527 -10.7723 -2.5057 0.9472
8.0683 -10.6126 -2.5058 0.9472
8.4896 -10.2802 -2.5060 0.9472
8.8972 -9.9310 -2.5062 0.9472
9.0956 -9.7503 -2.5063 0.9472
9.2904 -9.5657 -2.5064 0.9472
9.4814 -9.3772 -2.5065 0.9472
9.6686 -9.1848 -2.5066 0.9472
9.8519 -8.9887 -2.5067 0.9472
10.7070 -7.9548 -2.5071 0.9472
10.8653 -7.7380 -2.5072 0.9472
11.1686 -7.2949 -2.5074 0.9472
11.4538 -6.8399 -2.5075 0.9472
11.5895 -6.6082 -2.5076 0.9471
11.7204 -6.3738 -2.5077 0.9471
11.8467 -6.1368 -2.5077 0.9471
12.1963 -5.4111 -2.5079 0.9471
12.4047 -4.9161 -2.5080 0.9471
12.5014 -4.6656 -2.5081 0.9471
12.6794 -4.1588 -2.5082 0.9471
12.7608 -3.9028 -2.5082 0.9471
12.9079 -3.3862 -2.5083 0.9471
12.9736 -3.1258 -2.5083 0.9471
13.0341 -2.8641 -2.5083 0.9471
13.0892 -2.6012 -2.5084 0.9471
13.1390 -2.3373 -2.5084 0.9471
13.2227 -1.8067 -2.5084 0.9471
13.2848 -1.2731 -2.5085 0.9471
13.3254 -0.7374 -2.5085 0.9471
13.3376 -0.4691 -2.5085 0.9471
13.3443 -0.2006 -2.5085 0.9471
13.3457 0.0680 -2.5085 0.9471
13.3172 0.8733 -2.5085 0.9471
13.2968 1.1411 -2.5085 0.9471
13.2711 1.4085 -2.5085 0.9471
13.1144 2.4711 -2.5084 0.9471
12.9409 3.2579 -2.5083 0.9471
12.7201 4.0327 -2.5082 0.9471
12.6361 4.2878 -2.5081 0.9471
12.5470 4.5412 -2.5081 0.9471
12.1401 5.5350 -2.5078 0.9471
12.0260 5.7781 -2.5078 0.9471
11.6545 6.4928 -2.5076 0.9471
10.9167 7.6124 -2.5015 0.9473
10.6259 7.7320 -2.4701 0.9479
9.8229 7.7710 -2.3542 0.9503
9.6641 7.9669 -2.3541 0.9503
9.5015 8.1594 -2.3541 0.9503
9.3350 8.3487 -2.3540 0.9503
8.9908 8.7170 -2.3538 0.9503
8.8131 8.8958 -2.3537 0.9503
7.7143 8.1066 -2.1034 0.9555
7.5084 8.2153 -2.0919 0.9557
8.2592 9.4102 -2.3534 0.9503
8.0678 9.5742 -2.3533 0.9503
7.6753 9.8902 -2.3531 0.9503
7.2704 10.1901 -2.3529 0.9503
6.6413 10.6088 -2.3525 0.9503
6.4261 10.7398 -2.3524 0.9503
6.2084 10.8664 -2.3523 0.9503
5.7655 11.1064 -2.3521 0.9503
5.5405 11.2196 -2.3520 0.9503
4.6193 11.6265 -2.3515 0.9504
4.3842 11.7164 -2.3514 0.9504
-10.4941 5.4133 -2.4960 0.9529
-10.7030 4.9863 -2.4959 0.9529
-11.1488 3.8854 -2.4956 0.9529
-11.2958 3.4335 -2.4956 0.9529
-11.5829 2.2812 -2.4954 0.9529
-11.6263 2.0476 -2.4954 0.9529
-11.6992 1.5780 -2.4954 0.9529
-11.7531 1.1059 -2.4953 0.9529
-11.7880 0.6320 -2.4953 0.9529
-11.8046 -0.0805 -2.4953 0.9529
-11.7918 -0.5555 -2.4953 0.9529
-11.7092 -1.5021 -2.4954 0.9529
-11.6394 -1.9721 -2.4954 0.9529
-11.5975 -2.2060 -2.4954 0.9529
-11.5509 -2.4390 -2.4955 0.9529
-11.4436 -2.9019 -2.4955 0.9529
-11.3830 -3.1317 -2.4955 0.9529
-11.3179 -3.3602 -2.4956 0.9529
-11.2481 -3.5874 -2.4956 0.9529
-10.8318 -4.6997 -2.4958 0.9529
-10.7352 -4.9168 -2.4959 0.9529
-10.6343 -5.1320 -2.4959 0.9529
-10.5291 -5.3451 -2.4960 0.9529
-10.3059 -5.7648 -2.4961 0.9529
-10.1881 -5.9712 -2.4962 0.9529
-9.8100 -6.5756 -2.4964 0.9529
-9.5380 -6.9655 -2.4965 0.9529
-9.2505 -7.3441 -2.4967 0.9529
-8.7913 -7.8897 -2.4969 0.9529
-8.1294 -8.5724 -2.4973 0.9528
-7.7784 -8.8933 -2.4975 0.9528
-7.5982 -9.0484 -2.4976 0.9528
-7.0391 -9.4915 -2.4978 0.9528
-6.8469 -9.6316 -2.4979 0.9528
-6.6520 -9.7679 -2.4980 0.9528
-6.0512 -10.1528 -2.4984 0.9528
-5.6382 -10.3890 -2.4986 0.9528
-5.4282 -10.5008 -2.4987 0.9528
-5.2160 -10.6084 -2.4988 0.9528
-4.7852 -10.8108 -2.4990 0.9528
-4.5669 -10.9054 -2.4991 0.9528
-4.3467 -10.9956 -2.4993 0.9528
-4.1247 -11.0813 -2.4994 0.9528
-3.9010 -11.1626 -2.4995 0.9528
-2.9913 -11.4424 -2.5000 0.9528
-2.7605 -11.5008 -2.5001 0.9528
-2.5286 -11.5546 -2.5002 0.9528
-2.0617 -11.6482 -2.5005 0.9528
-1.3553 -11.7531 -2.5008 0.9528
-0.8813 -11.7993 -2.5011 0.9528
-0.6436 -11.8152 -2.5012 0.9528
-0.4057 -11.8264 -2.5013 0.9528
0.0705 -11.8343 -2.5016 0.9528
0.7847 -11.8103 -2.5020 0.9528
1.0223 -11.7926 -2.5021 0.9528
2.6690 -11.5362 -2.5029 0.9527
3.3608 -11.3558 -2.5033 0.9527
4.2640 -11.0508 -2.5038 0.9527
4.4857 -10.9633 -2.5039 0.9527
5.1399 -10.6740 -2.5042 0.9527
5.3539 -10.5689 -2.5043 0.9527
5.5658 -10.4595 -2.5045 0.9527
5.7754 -10.3458 -2.5046 0.9527
6.1876 -10.1058 -2.5048 0.9527
6.5898 -9.8495 -2.5050 0.9527
6.7870 -9.7153 -2.5051 0.9527
6.9814 -9.5771 -2.5052 0.9527
7.1731 -9.4350 -2.5053 0.9527
7.3618 -9.2891 -2.5054 0.9527
7.5475 -9.1394 -2.5055 0.9527
7.7302 -8.9860 -2.5056 0.9527
7.9098 -8.8289 -2.5057 0.9527
8.0862 -8.6683 -2.5058 0.9527
8.4291 -8.3364 -2.5059 0.9527
8.5955 -8.1653 -2.5060 0.9527
8.7584 -7.9910 -2.5061 0.9527
8.9177 -7.8134 -2.5062 0.9527
9.3739 -7.2617 -2.5064 0.9527
9.6591 -6.8789 -2.5066 0.9527
9.7958 -6.6833 -2.5067 0.9527
9.9286 -6.4850 -2.5067 0.9527
10.5312 -5.4554 -2.5070 0.9527
10.6391 -5.2424 -2.5071 0.9527
10.7427 -5.0274 -2.5071 0.9527
10.8419 -4.8102 -2.5072 0.9527
10.9368 -4.5911 -2.5072 0.9527
11.1131 -4.1474 -2.5073 0.9527
11.3437 -3.4694 -2.5075 0.9527
11.4744 -3.0102 -2.5075 0.9527
11.5328 -2.7787 -2.5076 0.9527
11.5865 -2.5460 -2.5076 0.9527
11.6355 -2.3123 -2.5076 0.9527
11.7193 -1.8422 -2.5076 0.9527
11.7541 -1.6060 -2.5077 0.9527
11.8454 -0.6555 -2.5077 0.9527
11.8562 -0.4170 -2.5077 0.9527
11.8622 -0.1783 -2.5077 0.9527
11.8598 0.2992 -2.5077 0.9527
11.8381 0.7763 -2.5077 0.9527
11.8200 1.0144 -2.5077 0.9527
11.6579 2.1967 -2.5076 0.9527
11.6112 2.4308 -2.5076 0.9527
11.5598 2.6640 -2.5075 0.9527
11.5037 2.8961 -2.5075 0.9527
11.4429 3.1270 -2.5075 0.9527
11.3775 3.3566 -2.5075 0.9527
11.3075 3.5849 -2.5074 0.9527
11.2329 3.8116 -2.5074 0.9527
11.1537 4.0368 -2.5073 0.9527
10.7921 4.9204 -2.5071 0.9527
10.6906 5.1365 -2.5071 0.9527
10.3605 5.7719 -2.5069 0.9527
10.2419 5.9791 -2.5068 0.9527
9.9925 6.3861 -2.5067 0.9527
9.8617 6.5857 -2.5066 0.9527
9.4454 7.1682 -2.5064 0.9527
9.2940 7.3526 -2.5050 0.9527
9.1329 7.5289 -2.5019 0.9528
8.9686 7.7018 -2.4989 0.9528
7.8350 7.9085 -2.3532 0.9555
7.3427 8.3659 -2.3529 0.9555
7.1726 8.5117 -2.3528 0.9555
6.8237 8.7928 -2.3526 0.9555
6.2799 9.1874 -2.3524 0.9555
6.0934 9.3116 -2.3523 0.9555
5.9045 9.4319 -2.3522 0.9555
5.5197 9.6610 -2.3520 0.9555
5.3239 9.7698 -2.3519 0.9555
4.9260 9.9752 -2.3516 0.9555
4.5202 10.1645 -2.3514 0.9555
4.3145 10.2529 -2.3513 0.9555
4.1070 10.3372 -2.3512 0.9555
3.2618 10.6320 -2.3508 0.9556
-9.5364 4.6787 -2.4965 0.9573
-9.7166 4.2910 -2.4964 0.9573
-9.8008 4.0945 -2.4964 0.9573
-9.8811 3.8963 -2.4963 0.9573
-10.0296 3.4954 -2.4962 0.9573
-10.0977 3.2928 -2.4962 0.9573
-10.2218 2.8837 -2.4961 0.9573
-10.3294 2.4699 -2.4961 0.9573
-10.4202 2.0522 -2.4960 0.9573
-10.4942 1.6312 -2.4960 0.9573
-10.5512 1.2075 -2.4960 0.9573
-10.5912 0.7819 -2.4959 0.9573
-10.6140 0.3550 -2.4959 0.9573
-10.6197 -0.0724 -2.4959 0.9573
-10.6161 -0.2862 -2.4959 0.9573
-10.5588 -1.1390 -2.4960 0.9573
-10.5338 -1.3513 -2.4960 0.9573
-10.4711 -1.7741 -2.4960 0.9573
-10.3914 -2.1942 -2.4961 0.9573
-10.3452 -2.4029 -2.4961 0.9573
-10.1817 -3.0229 -2.4962 0.9573
-9.9062 -3.8322 -2.4963 0.9573
-9.8272 -4.0308 -2.4964 0.9573
-9.7443 -4.2279 -2.4964 0.9573
-9.6574 -4.4232 -2.4965 0.9573
-9.5666 -4.6167 -2.4965 0.9573
-9.4720 -4.8084 -2.4966 0.9573
-9.3735 -4.9982 -2.4966 0.9573
-8.4525 -6.4376 -2.4971 0.9573
-8.1871 -6.7729 -2.4972 0.9573
-8.0493 -6.9366 -2.4973 0.9573
-7.9083 -7.0974 -2.4974 0.9573
-7.6168 -7.4103 -2.4975 0.9573
-7.1564 -7.8572 -2.4978 0.9573
-6.8349 -8.1394 -2.4979 0.9573
-6.6699 -8.2756 -2.4980 0.9573
-6.5022 -8.4085 -2.4981 0.9573
-5.9836 -8.7865 -2.4984 0.9573
-5.8058 -8.9055 -2.4985 0.9573
-5.2584 -9.2407 -2.4988 0.9573
-5.0716 -9.3450 -2.4989 0.9573
-4.8827 -9.4455 -2.4990 0.9573
-4.6917 -9.5423 -2.4991 0.9572
-4.4989 -9.6352 -2.4992 0.9572
-3.9098 -9.8903 -2.4995 0.9572
-3.6982 -9.9355 -2.4916 0.9574
-3.5089 -10.0405 -2.4997 0.9572
-3.3062 -10.1095 -2.4998 0.9572
-2.6905 -10.2919 -2.5001 0.9572
-2.0648 -10.4369 -2.5005 0.9572
-1.6433 -10.5125 -2.5007 0.9572
-1.4314 -10.5439 -2.5008 0.9572
-1.2190 -10.5710 -2.5009 0.9572
-1.0060 -10.5939 -2.5010 0.9572
-0.5789 -10.6268 -2.5012 0.9572
-0.3649 -10.6367 -2.5013 0.9572
0.0634 -10.6438 -2.5016 0.9572
0.9194 -10.6061 -2.5020 0.9572
1.9807 -10.4624 -2.5026 0.9572
2.4004 -10.3751 -2.5028 0.9572
2.6088 -10.3251 -2.5029 0.9572
3.2276 -10.1502 -2.5032 0.9572
3.8347 -9.9382 -2.5035 0.9572
4.0341 -9.8594 -2.5036 0.9572
4.4280 -9.6899 -2.5039 0.9572
4.8147 -9.5046 -2.5041 0.9572
5.3801 -9.1978 -2.5044 0.9572
5.5644 -9.0880 -2.5044 0.9572
5.7464 -8.9745 -2.5045 0.9572
5.9261 -8.8574 -2.5046 0.9572
6.2782 -8.6124 -2.5048 0.9572
6.6202 -8.3533 -2.5050 0.9571
6.9515 -8.0807 -2.5052 0.9571
7.2715 -7.7949 -2.5053 0.9571
7.8758 -7.1857 -2.5057 0.9571
8.0191 -7.0260 -2.5057 0.9571
8.5591 -6.3590 -2.5060 0.9571
8.6856 -6.1857 -2.5061 0.9571
9.1558 -5.4676 -2.5063 0.9571
9.2642 -5.2824 -2.5064 0.9571
9.3688 -5.0950 -2.5064 0.9571
9.4697 -4.9055 -2.5065 0.9571
10.0660 -3.5275 -2.5068 0.9571
10.1350 -3.3242 -2.5068 0.9571
10.2000 -3.1196 -2.5069 0.9571
10.2609 -2.9138 -2.5069 0.9571
10.3701 -2.4985 -2.5069 0.9571
10.6187 -1.0176 -2.5071 0.9571
10.6371 -0.8037 -2.5071 0.9571
10.6511 -0.5894 -2.5071 0.9571
10.6673 0.0544 -2.5071 0.9571
10.6640 0.2691 -2.5071 0.9571
10.6445 0.6980 -2.5071 0.9571
10.6283 0.9121 -2.5071 0.9571
10.4406 2.1858 -2.5070 0.9571
10.3944 2.3954 -2.5069 0.9571
10.3439 2.6041 -2.5069 0.9571
10.2305 3.0182 -2.5069 0.9571
10.1005 3.4274 -2.5068 0.9571
9.8748 4.0304 -2.5067 0.9571
9.7915 4.2283 -2.5066 0.9571
9.7042 4.4244 -2.5066 0.9571
9.4190 5.0017 -2.5064 0.9571
9.0993 5.5606 -2.5063 0.9571
8.8678 5.9220 -2.5061 0.9571
8.7466 6.0991 -2.5061 0.9571
8.4936 6.4458 -2.5059 0.9571
7.6463 7.4134 -2.5030 0.9572
6.7838 7.7292 -2.4170 0.9586
6.2944 7.7822 -2.3524 0.9597
5.6473 8.2620 -2.3520 0.9597
5.4797 8.3737 -2.3519 0.9597
5.3099 8.4819 -2.3519 0.9597
5.1379 8.5868 -2.3518 0.9597
4.7878 8.7859 -2.3516 0.9597
4.6098 8.8801 -2.3515 0.9597
4.4300 8.9708 -2.3514 0.9597
4.0650 9.1410 -2.3512 0.9597
3.5056 9.3685 -2.3509 0.9597
3.3162 9.4367 -2.3508 0.9597
-8.5708 4.4212 -2.4970 0.9609
-8.7415 4.0725 -2.4969 0.9609
-9.0948 3.1696 -2.4937 0.9610
-9.1567 2.9859 -2.4937 0.9610
-9.2258 2.8043 -2.4967 0.9609
-9.3310 2.4307 -2.4966 0.9609
-9.4211 2.0532 -2.4966 0.9609
-9.4605 1.8632 -2.4965 0.9609
-9.5794 1.0963 -2.4965 0.9609
-9.5995 0.9033 -2.4965 0.9609
-9.6157 0.7099 -2.4965 0.9609
-9.6365 0.3223 -2.4964 0.9609
-9.6410 0.1283 -2.4964 0.9609
-9.5864 -1.0341 -2.4965 0.9609
-9.5371 -1.4191 -2.4965 0.9609
-9.5067 -1.6108 -2.4965 0.9609
-9.3924 -2.1816 -2.4966 0.9609
-9.3466 -2.3702 -2.4966 0.9609
-9.2439 -2.7444 -2.4967 0.9609
-9.1869 -2.9300 -2.4967 0.9609
-9.0618 -3.2974 -2.4968 0.9609
-8.8467 -3.8384 -2.4969 0.9609
-8.7678 -4.0157 -2.4969 0.9609
-8.6853 -4.1915 -2.4970 0.9609
-8.5994 -4.3655 -2.4970 0.9609
-8.5100 -4.5378 -2.4971 0.9609
-8.4171 -4.7082 -2.4971 0.9609
-8.2211 -5.0433 -2.4972 0.9609
-8.1181 -5.2079 -2.4973 0.9609
-7.7896 -5.6887 -2.4974 0.9609
-7.6737 -5.8444 -2.4975 0.9609
-7.4327 -6.1489 -2.4976 0.9609
-7.3076 -6.2974 -2.4977 0.9609
-7.1796 -6.4433 -2.4978 0.9609
-7.0486 -6.5867 -2.4978 0.9609
-6.9149 -6.7274 -2.4979 0.9609
-6.7782 -6.8654 -2.4980 0.9609
-6.4969 -7.1331 -2.4981 0.9609
-6.0551 -7.5128 -2.4984 0.9609
-5.7482 -7.7509 -2.4985 0.9609
-5.2706 -8.0845 -2.4988 0.9609
-5.1070 -8.1892 -2.4989 0.9609
-4.9413 -8.2906 -2.4989 0.9609
-4.6040 -8.4834 -2.4991 0.9609
-4.2591 -8.6624 -2.4993 0.9609
-4.0841 -8.7467 -2.4994 0.9609
-3.9074 -8.8275 -2.4995 0.9609
-3.5492 -8.9782 -2.4997 0.9609
-3.3679 -9.0482 -2.4998 0.9609
-3.1853 -9.1145 -2.4999 0.9609
-2.6298 -9.2912 -2.5002 0.9609
-2.2539 -9.3902 -2.5004 0.9609
-2.0645 -9.4341 -2.5005 0.9609
-1.8743 -9.4741 -2.5006 0.9609
-1.2993 -9.5711 -2.5009 0.9609
-0.9132 -9.6164 -2.5011 0.9609
-0.7195 -9.6332 -2.5012 0.9609
-0.3313 -9.6551 -2.5014 0.9609
-0.1369 -9.6603 -2.5015 0.9609
0.2520 -9.6587 -2.5017 0.9609
0.4464 -9.6521 -2.5018 0.9609
0.8345 -9.6271 -2.5020 0.9609
1.0282 -9.6087 -2.5021 0.9609
1.2214 -9.5865 -2.5022 0.9609
1.7979 -9.4965 -2.5025 0.9609
2.1788 -9.4172 -2.5027 0.9608
2.3680 -9.3718 -2.5028 0.9608
2.7434 -9.2696 -2.5030 0.9608
2.9295 -9.2129 -2.5031 0.9608
3.1145 -9.1524 -2.5032 0.9608
3.2982 -9.0882 -2.5033 0.9608
3.6615 -8.9488 -2.5035 0.9608
4.0190 -8.7949 -2.5036 0.9608
4.1953 -8.7125 -2.5037 0.9608
4.7140 -8.4444 -2.5040 0.9608
5.0503 -8.2484 -2.5042 0.9608
5.2155 -8.1454 -2.5043 0.9608
5.3785 -8.0390 -2.5043 0.9608
5.5394 -7.9294 -2.5044 0.9608
5.6981 -7.8166 -2.5045 0.9608
5.8545 -7.7006 -2.5046 0.9608
6.4556 -7.2057 -2.5049 0.9608
6.8793 -6.8036 -2.5051 0.9608
7.0150 -6.6640 -2.5052 0.9608
7.1479 -6.5216 -2.5053 0.9608
7.4050 -6.2290 -2.5054 0.9608
7.6500 -5.9262 -2.5055 0.9608
7.7679 -5.7712 -2.5056 0.9608
8.3094 -4.9621 -2.5059 0.9608
8.4077 -4.7940 -2.5059 0.9608
8.5027 -4.6239 -2.5060 0.9608
8.6822 -4.2781 -2.5061 0.9608
8.8476 -3.9254 -2.5062 0.9608
8.9250 -3.7466 -2.5062 0.9608
9.1979 -3.0169 -2.5063 0.9608
9.3635 -2.4564 -2.5064 0.9608
9.4112 -2.2675 -2.5064 0.9608
9.4949 -1.8869 -2.5065 0.9608
9.5311 -1.6955 -2.5065 0.9608
9.5633 -1.5033 -2.5065 0.9608
9.5917 -1.3105 -2.5065 0.9608
9.6368 -0.9235 -2.5066 0.9608
9.6662 -0.5349 -2.5066 0.9608
9.6799 -0.1455 -2.5066 0.9608
9.6710 0.4389 -2.5066 0.9608
9.6602 0.6335 -2.5066 0.9608
9.6454 0.8277 -2.5066 0.9608
9.5474 1.6008 -2.5065 0.9608
9.4332 2.1739 -2.5064 0.9608
9.3379 2.5517 -2.5064 0.9608
9.1665 3.1105 -2.5063 0.9608
9.0337 3.4767 -2.5062 0.9608
8.9617 3.6578 -2.5062 0.9608
8.8862 3.8374 -2.5061 0.9608
8.7242 4.1917 -2.5061 0.9608
8.6379 4.3664 -2.5060 0.9608
8.3582 4.8794 -2.5059 0.9608
8.2581 5.0465 -2.5058 0.9608
8.0480 5.3745 -2.5057 0.9608
7.9380 5.5353 -2.5056 0.9608
7.4664 6.1551 -2.5054 0.9608
7.3408 6.3040 -2.5053 0.9608
6.8093 6.8732 -2.5050 0.9608
6.5268 7.1412 -2.5049 0.9608
6.3813 7.2705 -2.5047 0.9608
6.2283 7.3912 -2.5026 0.9609
6.0733 7.5088 -2.5005 0.9609
5.7403 7.7124 -2.4893 0.9611
5.5066 7.7180 -2.4548 0.9616
4.3455 7.9743 -2.3514 0.9632
4.1840 8.0599 -2.3513 0.9632
4.0208 8.1421 -2.3512 0.9632
3.6896 8.2967 -2.3510 0.9632
3.5217 8.3690 -2.3509 0.9632
3.1818 8.5033 -2.3507 0.9632
-7.7573 4.2013 -2.4974 0.9640
-7.8401 4.0442 -2.4974 0.9640
-7.9198 3.8856 -2.4973 0.9640
-8.3295 2.9029 -2.4971 0.9640
-8.3861 2.7347 -2.4971 0.9640
-8.4394 2.5653 -2.4971 0.9640
-8.6540 1.7043 -2.4970 0.9640
-8.6865 1.5298 -2.4969 0.9640
-8.7410 1.1790 -2.4969 0.9640
-8.7629 1.0028 -2.4969 0.9640
-8.7961 0.6493 -2.4969 0.9640
-8.8074 0.4722 -2.4969 0.9640
-8.8151 0.2948 -2.4969 0.9640
-8.8198 -0.0601 -2.4969 0.9640
-8.8168 -0.2376 -2.4969 0.9640
-8.8102 -0.4150 -2.4969 0.9640
-8.7484 -1.1223 -2.4969 0.9640
-8.7241 -1.2981 -2.4969 0.9640
-8.6963 -1.4734 -2.4969 0.9640
-8.6649 -1.6482 -2.4970 0.9640
-8.6301 -1.8222 -2.4970 0.9640
-8.5917 -1.9956 -2.4970 0.9640
-8.5046 -2.3398 -2.4971 0.9640
-8.3482 -2.8488 -2.4971 0.9640
-8.1614 -3.3475 -2.4972 0.9640
-8.0925 -3.5112 -2.4973 0.9640
-8.0203 -3.6734 -2.4973 0.9640
-7.7844 -4.1509 -2.4974 0.9640
-7.6994 -4.3068 -2.4975 0.9640
-7.5202 -4.6133 -2.4976 0.9640
-7.3287 -4.9124 -2.4977 0.9640
-7.0194 -5.3461 -2.4978 0.9640
-6.7989 -5.6245 -2.4980 0.9640
-6.6844 -5.7603 -2.4980 0.9640
-6.4475 -6.0250 -2.4981 0.9640
-6.2002 -6.2799 -2.4983 0.9640
-6.0727 -6.4036 -2.4983 0.9640
-5.9427 -6.5247 -2.4984 0.9640
-5.6757 -6.7589 -2.4986 0.9640
-5.5386 -6.8720 -2.4986 0.9640
-5.3994 -6.9823 -2.4987 0.9640
-5.2579 -7.0898 -2.4988 0.9640
-5.1143 -7.1944 -2.4988 0.9640
-4.9686 -7.2961 -2.4989 0.9640
-4.8209 -7.3948 -2.4990 0.9640
-4.6713 -7.4906 -2.4991 0.9640
-4.5197 -7.5833 -2.4992 0.9640
-4.3663 -7.6730 -2.4992 0.9640
-4.2111 -7.7596 -2.4993 0.9640
-3.8957 -7.9233 -2.4995 0.9640
-3.7356 -8.0003 -2.4996 0.9640
-3.5739 -8.0742 -2.4997 0.9640
-3.4108 -8.1448 -2.4997 0.9640
-3.2463 -8.2120 -2.4998 0.9640
-3.0805 -8.2760 -2.4999 0.9640
-2.9134 -8.3366 -2.5000 0.9640
-2.7451 -8.3939 -2.5001 0.9640
-2.5758 -8.4477 -2.5002 0.9640
-2.2339 -8.5451 -2.5004 0.9639
-1.8883 -8.6287 -2.5005 0.9639
-1.3643 -8.7279 -2.5008 0.9639
-1.1884 -8.7539 -2.5009 0.9639
-0.8352 -8.7953 -2.5011 0.9639
-0.4806 -8.8225 -2.5013 0.9639
0.2305 -8.8339 -2.5017 0.9639
0.5859 -8.8181 -2.5018 0.9639
1.2933 -8.7437 -2.5022 0.9639
1.6443 -8.6852 -2.5024 0.9639
1.8188 -8.6507 -2.5025 0.9639
1.9926 -8.6126 -2.5026 0.9639
2.3378 -8.5261 -2.5028 0.9639
3.1831 -8.2495 -2.5032 0.9639
3.6755 -8.0432 -2.5035 0.9639
3.8368 -7.9679 -2.5035 0.9639
4.1546 -7.8075 -2.5037 0.9639
4.3110 -7.7226 -2.5038 0.9639
4.4657 -7.6345 -2.5039 0.9639
4.6186 -7.5433 -2.5039 0.9639
4.9188 -7.3518 -2.5041 0.9639
5.0659 -7.2516 -2.5042 0.9639
5.2110 -7.1483 -2.5043 0.9639
5.3539 -7.0422 -2.5043 0.9639
5.4947 -6.9333 -2.5044 0.9639
6.0352 -6.4696 -2.5047 0.9639
6.4151 -6.0941 -2.5049 0.9639
6.6555 -5.8313 -2.5050 0.9639
6.8851 -5.5590 -2.5051 0.9639
6.9958 -5.4194 -2.5052 0.9639
7.1036 -5.2776 -2.5052 0.9639
7.2085 -5.1337 -2.5053 0.9639
7.4096 -4.8397 -2.5054 0.9639
7.6886 -4.3840 -2.5055 0.9639
7.8591 -4.0711 -2.5056 0.9639
8.0908 -3.5896 -2.5058 0.9639
8.2289 -3.2612 -2.5058 0.9639
8.3537 -2.9275 -2.5059 0.9639
8.4111 -2.7588 -2.5059 0.9639
8.5154 -2.4181 -2.5060 0.9639
8.5625 -2.2463 -2.5060 0.9639
8.6461 -1.8999 -2.5060 0.9639
8.6826 -1.7255 -2.5061 0.9639
8.7157 -1.5504 -2.5061 0.9639
8.7452 -1.3747 -2.5061 0.9639
8.7935 -1.0217 -2.5061 0.9639
8.8123 -0.8445 -2.5061 0.9639
8.8473 -0.3112 -2.5061 0.9639
8.8517 -0.1330 -2.5061 0.9639
8.8526 0.0451 -2.5061 0.9639
8.8436 0.4014 -2.5061 0.9639
8.8337 0.5793 -2.5061 0.9639
8.8202 0.7569 -2.5061 0.9639
8.8032 0.9343 -2.5061 0.9639
8.7826 1.1113 -2.5061 0.9639
8.7584 1.2878 -2.5061 0.9639
8.7306 1.4638 -2.5061 0.9639
8.6993 1.6392 -2.5061 0.9639
8.5843 2.1611 -2.5060 0.9639
8.4902 2.5048 -2.5059 0.9639
8.4380 2.6751 -2.5059 0.9639
8.3824 2.8444 -2.5059 0.9639
8.1951 3.3449 -2.5058 0.9639
8.1260 3.5091 -2.5057 0.9639
7.9780 3.8332 -2.5057 0.9639
7.8991 3.9929 -2.5056 0.9639
7.5518 4.6149 -2.5054 0.9639
7.4573 4.7658 -2.5054 0.9639
7.3597 4.9148 -2.5053 0.9639
7.1556 5.2068 -2.5052 0.9639
6.9400 5.4903 -2.5051 0.9639
6.8279 5.6288 -2.5051 0.9639
6.7131 5.7649 -2.5050 0.9639
6.5955 5.8987 -2.5049 0.9639
6.3525 6.1590 -2.5048 0.9639
6.0991 6.4093 -2.5047 0.9639
5.5633 6.8783 -2.5044 0.9639
5.4236 6.9887 -2.5043 0.9639
5.2817 7.0962 -2.5042 0.9639
5.1376 7.2008 -2.5042 0.9639
4.6860 7.4855 -2.5001 0.9640
4.5316 7.5735 -2.4985 0.9640
4.2004 7.7081 -2.4851 0.9642
4.0035 7.7121 -2.4599 0.9645
3.8103 7.7159 -2.4361 0.9649
3.4343 7.7227 -2.3927 0.9655
2.9099 7.7767 -2.3506 0.9661
2.7527 7.8334 -2.3505 0.9661
2.4351 7.9373 -2.3503 0.9661
-7.3607 3.4292 -2.4976 0.9666
-7.4925 3.1301 -2.4976 0.9666
-7.5539 2.9787 -2.4975 0.9666
-7.6675 2.6722 -2.4975 0.9666
-7.7196 2.5173 -2.4974 0.9666
-7.7687 2.3614 -2.4974 0.9666
-7.8145 2.2046 -2.4974 0.9666
-7.9663 1.5689 -2.4973 0.9666
-7.9962 1.4082 -2.4973 0.9666
-8.0463 1.0853 -2.4973 0.9666
-8.0665 0.9231 -2.4973 0.9666
-8.0970 0.5977 -2.4973 0.9666
-8.1145 0.2714 -2.4972 0.9666
-8.1183 0.1080 -2.4972 0.9666
-8.1189 -0.0554 -2.4972 0.9666
-8.1161 -0.2188 -2.4972 0.9666
-8.0882 -0.7081 -2.4973 0.9666
-8.0308 -1.1950 -2.4973 0.9666
-8.0052 -1.3564 -2.4973 0.9666
-7.9442 -1.6774 -2.4973 0.9666
-7.8704 -1.9958 -2.4974 0.9666
-7.7838 -2.3110 -2.4974 0.9666
-7.7358 -2.4672 -2.4975 0.9666
-7.6847 -2.6224 -2.4975 0.9666
-7.4493 -3.2321 -2.4976 0.9666
-7.0874 -3.9645 -2.4978 0.9666
-7.0063 -4.1064 -2.4978 0.9666
-6.6539 -4.6569 -2.4980 0.9666
-6.5589 -4.7899 -2.4981 0.9666
-6.3611 -5.0502 -2.4982 0.9666
-6.1530 -5.3024 -2.4983 0.9666
-5.9349 -5.5460 -2.4984 0.9666
-5.8222 -5.6644 -2.4985 0.9666
-5.4702 -6.0059 -2.4987 0.9666
-5.3483 -6.1149 -2.4987 0.9666
-4.9700 -6.4270 -2.4989 0.9666
-4.8398 -6.5259 -2.4990 0.9666
-4.7076 -6.6222 -2.4991 0.9666
-4.4375 -6.8067 -2.4992 0.9666
-4.1602 -6.9801 -2.4993 0.9666
-3.8762 -7.1424 -2.4995 0.9666
-3.5858 -7.2930 -2.4996 0.9666
-3.2896 -7.4319 -2.4998 0.9666
-3.1395 -7.4968 -2.4999 0.9666
-2.9881 -7.5587 -2.5000 0.9666
-2.8354 -7.6176 -2.5000 0.9666
-2.5267 -7.7260 -2.5002 0.9666
-2.3708 -7.7755 -2.5003 0.9666
-2.2139 -7.8219 -2.5004 0.9666
-2.0561 -7.8652 -2.5005 0.9666
-1.8975 -7.9052 -2.5005 0.9665
-1.7380 -7.9421 -2.5006 0.9665
-1.2557 -8.0333 -2.5009 0.9665
-1.0938 -8.0572 -2.5010 0.9665
-0.4424 -8.1202 -2.5013 0.9665
-0.2789 -8.1277 -2.5014 0.9665
-0.1152 -8.1320 -2.5015 0.9665
0.0485 -8.1329 -2.5016 0.9665
0.3758 -8.1250 -2.5017 0.9665
0.5392 -8.1160 -2.5018 0.9665
0.8655 -8.0883 -2.5020 0.9665
1.1904 -8.0475 -2.5022 0.9665
1.3521 -8.0221 -2.5022 0.9665
1.6740 -7.9618 -2.5024 0.9665
2.1516 -7.8470 -2.5027 0.9665
2.4658 -7.7546 -2.5028 0.9665
2.6215 -7.7036 -2.5029 0.9665
2.9295 -7.5924 -2.5031 0.9665
3.0819 -7.5321 -2.5031 0.9665
3.2329 -7.4688 -2.5032 0.9665
3.5311 -7.3331 -2.5034 0.9665
3.6781 -7.2608 -2.5035 0.9665
3.9676 -7.1073 -2.5036 0.9665
4.2506 -6.9423 -2.5038 0.9665
4.6622 -6.6737 -2.5040 0.9665
4.7957 -6.5787 -2.5040 0.9665
5.0569 -6.3807 -2.5042 0.9665
5.1844 -6.2778 -2.5042 0.9665
5.3098 -6.1724 -2.5043 0.9665
5.4331 -6.0644 -2.5044 0.9665
5.5542 -5.9540 -2.5044 0.9665
5.7896 -5.7259 -2.5046 0.9665
6.0156 -5.4885 -2.5047 0.9665
6.1250 -5.3665 -2.5047 0.9665
6.3363 -5.1159 -2.5048 0.9665
6.5373 -4.8569 -2.5049 0.9665
6.6339 -4.7245 -2.5050 0.9665
6.8189 -4.4538 -2.5051 0.9665
6.9929 -4.1760 -2.5052 0.9665
7.0756 -4.0345 -2.5052 0.9665
7.2325 -3.7466 -2.5053 0.9665
7.3065 -3.6003 -2.5053 0.9665
7.3776 -3.4525 -2.5054 0.9665
7.5108 -3.1529 -2.5054 0.9665
7.6318 -2.8482 -2.5055 0.9665
7.6876 -2.6941 -2.5055 0.9665
7.7900 -2.3825 -2.5056 0.9665
7.9198 -1.9082 -2.5057 0.9665
7.9903 -1.5879 -2.5057 0.9665
8.0207 -1.4268 -2.5057 0.9665
8.0478 -1.2651 -2.5057 0.9665
8.0717 -1.1029 -2.5057 0.9665
8.1236 -0.6138 -2.5058 0.9665
8.1467 0.0415 -2.5058 0.9665
8.1384 0.3694 -2.5058 0.9665
8.1293 0.5331 -2.5058 0.9665
8.1169 0.6966 -2.5058 0.9665
8.1012 0.8598 -2.5057 0.9665
8.0600 1.1851 -2.5057 0.9665
7.9736 1.6693 -2.5057 0.9665
7.9383 1.8294 -2.5057 0.9665
7.8998 1.9888 -2.5056 0.9665
7.8581 2.1474 -2.5056 0.9665
7.7652 2.4618 -2.5056 0.9665
7.7140 2.6176 -2.5055 0.9665
7.6597 2.7723 -2.5055 0.9665
7.6022 2.9258 -2.5055 0.9665
7.5417 3.0782 -2.5054 0.9665
7.4115 3.3791 -2.5054 0.9665
7.1938 3.8200 -2.5053 0.9665
7.1153 3.9640 -2.5052 0.9665
7.0340 4.1063 -2.5052 0.9665
6.8628 4.3859 -2.5051 0.9665
6.5852 4.7917 -2.5049 0.9665
6.4873 4.9232 -2.5049 0.9665
6.2837 5.1801 -2.5048 0.9665
6.1780 5.3054 -2.5047 0.9665
6.0698 5.4285 -2.5047 0.9665
5.7308 5.7845 -2.5045 0.9665
5.4930 6.0101 -2.5044 0.9665
5.2465 6.2260 -2.5042 0.9665
5.1200 6.3301 -2.5042 0.9665
4.8608 6.5307 -2.5040 0.9665
4.7282 6.6271 -2.5040 0.9665
4.4574 6.8116 -2.5038 0.9665
4.1795 6.9850 -2.5037 0.9665
3.8947 7.1471 -2.5035 0.9665
3.4535 7.3630 -2.5014 0.9665
3.3030 7.4275 -2.5003 0.9666
2.9988 7.5477 -2.4980 0.9666
2.6904 7.6561 -2.4960 0.9666
2.5333 7.7010 -2.4935 0.9666
-6.6081 3.5789 -2.4980 0.9688
-6.6787 3.4451 -2.4980 0.9688
-6.8117 3.1734 -2.4979 0.9688
-6.8741 3.0357 -2.4979 0.9688
-6.9337 2.8967 -2.4979 0.9688
-7.0445 2.6152 -2.4978 0.9688
-7.0957 2.4729 -2.4978 0.9688
-7.2317 2.0401 -2.4977 0.9688
-7.2713 1.8942 -2.4977 0.9688
-7.3722 1.4519 -2.4976 0.9688
-7.4932 0.5532 -2.4976 0.9688
-7.5094 0.2512 -2.4976 0.9688
-7.5134 -0.0512 -2.4976 0.9688
-7.4967 -0.5045 -2.4976 0.9688
-7.4850 -0.6553 -2.4976 0.9688
-7.3518 -1.5523 -2.4977 0.9688
-7.2033 -2.1386 -2.4977 0.9688
-7.0614 -2.5695 -2.4978 0.9688
-7.0083 -2.7111 -2.4978 0.9688
-6.9524 -2.8517 -2.4979 0.9688
-6.8322 -3.1292 -2.4979 0.9688
-6.5588 -3.6688 -2.4981 0.9688
-6.4837 -3.8001 -2.4981 0.9688
-6.4060 -3.9299 -2.4982 0.9688
-6.2429 -4.1846 -2.4982 0.9688
-5.7915 -4.7911 -2.4985 0.9688
-5.6940 -4.9068 -2.4985 0.9688
-5.5942 -5.0205 -2.4986 0.9688
-5.4921 -5.1322 -2.4986 0.9688
-5.2814 -5.3493 -2.4988 0.9688
-5.0621 -5.5578 -2.4989 0.9688
-4.9493 -5.6587 -2.4989 0.9688
-4.7178 -5.8536 -2.4990 0.9688
-4.5991 -5.9475 -2.4991 0.9688
-4.4786 -6.0390 -2.4992 0.9688
-4.1064 -6.2987 -2.4994 0.9688
-3.9789 -6.3802 -2.4994 0.9688
-3.5869 -6.6093 -2.4996 0.9688
-3.4532 -6.6803 -2.4997 0.9688
-2.9051 -6.9372 -2.5000 0.9688
-2.3381 -7.1492 -2.5003 0.9688
-2.1938 -7.1950 -2.5004 0.9688
-2.0486 -7.2380 -2.5005 0.9688
-1.7558 -7.3150 -2.5006 0.9688
-1.4601 -7.3802 -2.5008 0.9688
-1.1620 -7.4334 -2.5009 0.9688
-1.0121 -7.4555 -2.5010 0.9688
-0.8619 -7.4746 -2.5011 0.9688
-0.5604 -7.5038 -2.5012 0.9688
0.3477 -7.5181 -2.5017 0.9688
0.4990 -7.5098 -2.5018 0.9688
0.6500 -7.4984 -2.5019 0.9688
1.1014 -7.4462 -2.5021 0.9688
1.2511 -7.4228 -2.5022 0.9688
1.4003 -7.3963 -2.5023 0.9688
1.5489 -7.3669 -2.5023 0.9688
1.6969 -7.3345 -2.5024 0.9688
1.8442 -7.2991 -2.5025 0.9688
2.1366 -7.2194 -2.5026 0.9688
2.4256 -7.1280 -2.5028 0.9688
2.5686 -7.0779 -2.5029 0.9688
2.7106 -7.0250 -2.5029 0.9688
2.8515 -6.9692 -2.5030 0.9688
3.2672 -6.7850 -2.5032 0.9688
3.4032 -6.7181 -2.5033 0.9688
3.8027 -6.5010 -2.5035 0.9688
4.1884 -6.2602 -2.5037 0.9687
4.7968 -5.8085 -2.5040 0.9687
5.0269 -5.6110 -2.5042 0.9687
5.2489 -5.4044 -2.5043 0.9687
5.4623 -5.1890 -2.5044 0.9687
5.5658 -5.0781 -2.5044 0.9687
5.6670 -4.9652 -2.5045 0.9687
5.7659 -4.8502 -2.5045 0.9687
5.8625 -4.7333 -2.5046 0.9687
6.0484 -4.4937 -2.5047 0.9687
6.1378 -4.3711 -2.5047 0.9687
6.3089 -4.1208 -2.5048 0.9687
6.3907 -3.9930 -2.5049 0.9687
6.5464 -3.7327 -2.5049 0.9687
6.6915 -3.4663 -2.5050 0.9687
6.7600 -3.3310 -2.5051 0.9687
6.8258 -3.1943 -2.5051 0.9687
6.8888 -3.0563 -2.5051 0.9687
6.9490 -2.9171 -2.5052 0.9687
7.0064 -2.7767 -2.5052 0.9687
7.2073 -2.2043 -2.5053 0.9687
7.3273 -1.7654 -2.5053 0.9687
7.4458 -1.1704 -2.5054 0.9687
7.5373 0.0384 -2.5055 0.9687
7.5296 0.3417 -2.5054 0.9687
7.5212 0.4932 -2.5054 0.9687
7.5097 0.6445 -2.5054 0.9687
7.4334 1.2463 -2.5054 0.9687
7.3771 1.5444 -2.5054 0.9687
7.3089 1.8400 -2.5053 0.9687
7.2288 2.1327 -2.5053 0.9687
7.1370 2.4218 -2.5052 0.9687
7.0867 2.5649 -2.5052 0.9687
6.8572 3.1264 -2.5051 0.9687
6.7256 3.3997 -2.5050 0.9687
6.4300 3.9293 -2.5049 0.9687
6.3495 4.0579 -2.5048 0.9687
6.2664 4.1848 -2.5048 0.9687
5.9092 4.6748 -2.5046 0.9687
5.8138 4.7927 -2.5045 0.9687
5.6159 5.0226 -2.5044 0.9687
5.3023 5.3520 -2.5043 0.9687
4.9693 5.6618 -2.5041 0.9687
4.8542 5.7605 -2.5040 0.9687
4.7372 5.8569 -2.5040 0.9687
4.6182 5.9509 -2.5039 0.9687
4.2504 6.2183 -2.5037 0.9687
4.1242 6.3024 -2.5036 0.9688
3.4697 6.6839 -2.5033 0.9688
3.3344 6.7522 -2.5032 0.9688
3.0598 6.8805 -2.5031 0.9688
2.9206 6.9405 -2.5030 0.9688
2.7802 6.9977 -2.5029 0.9688
2.4962 7.1035 -2.5028 0.9688
2.2082 7.1977 -2.5026 0.9688
-6.2086 3.2026 -2.4982 0.9708
-6.3903 2.8220 -2.4981 0.9708
-6.4458 2.6928 -2.4981 0.9708
-6.5963 2.2989 -2.4980 0.9708
-6.6412 2.1656 -2.4980 0.9708
-6.7596 1.7609 -2.4980 0.9708
-6.8791 1.2115 -2.4979 0.9708
-6.9223 0.9337 -2.4979 0.9708
-6.9542 0.6543 -2.4979 0.9708
-6.9659 0.5142 -2.4978 0.9708
-6.9749 0.3739 -2.4978 0.9708
-6.9842 0.0929 -2.4978 0.9708
-6.9823 -0.1882 -2.4978 0.9708
-6.9691 -0.4691 -2.4979 0.9708
-6.9583 -0.6092 -2.4979 0.9708
-6.9446 -0.7491 -2.4979 0.9708
-6.9282 -0.8888 -2.4979 0.9708
-6.8869 -1.1669 -2.4979 0.9708
-6.8620 -1.3052 -2.4979 0.9708
-6.8040 -1.5803 -2.4979 0.9708
-6.7709 -1.7170 -2.4980 0.9708
-6.7350 -1.8529 -2.4980 0.9708
-6.6964 -1.9881 -2.4980 0.9708
-6.6111 -2.2560 -2.4980 0.9708
-6.5644 -2.3887 -2.4981 0.9708
-6.4085 -2.7805 -2.4982 0.9708
-6.3513 -2.9090 -2.4982 0.9708
-6.2916 -3.0363 -2.4982 0.9708
-6.2293 -3.1623 -2.4982 0.9708
-6.1645 -3.2871 -2.4983 0.9708
-6.0972 -3.4105 -2.4983 0.9708
-5.8035 -3.8901 -2.4985 0.9708
-5.7241 -4.0062 -2.4985 0.9708
-5.3838 -4.4539 -2.4987 0.9708
-5.2931 -4.5614 -2.4987 0.9708
-5.0085 -4.8728 -2.4989 0.9708
-4.9096 -4.9727 -2.4989 0.9708
-4.8086 -5.0706 -2.4990 0.9708
-4.7057 -5.1665 -2.4991 0.9707
-4.6008 -5.2603 -2.4991 0.9707
-4.0495 -5.6966 -2.4994 0.9707
-3.8172 -5.8552 -2.4995 0.9707
-3.5787 -6.0044 -2.4996 0.9707
-3.4572 -6.0753 -2.4997 0.9707
-3.2100 -6.2099 -2.4998 0.9707
-3.0845 -6.2733 -2.4999 0.9707
-2.9577 -6.3343 -2.5000 0.9707
-2.8297 -6.3928 -2.5000 0.9707
-2.5703 -6.5018 -2.5002 0.9707
-2.4389 -6.5524 -2.5002 0.9707
-2.1734 -6.6456 -2.5004 0.9707
-1.6321 -6.7997 -2.5007 0.9707
-1.3572 -6.8602 -2.5008 0.9707
-1.2189 -6.8864 -2.5009 0.9707
-1.0801 -6.9097 -2.5010 0.9707
-0.8012 -6.9480 -2.5011 0.9707
-0.6612 -6.9629 -2.5012 0.9707
-0.0991 -6.9943 -2.5015 0.9707
0.0417 -6.9951 -2.5015 0.9707
0.4638 -6.9805 -2.5018 0.9707
0.6042 -6.9699 -2.5018 0.9707
1.3016 -6.8750 -2.5022 0.9707
1.4397 -6.8476 -2.5023 0.9707
1.5773 -6.8174 -2.5024 0.9707
1.7142 -6.7845 -2.5024 0.9707
1.8505 -6.7488 -2.5025 0.9707
1.9860 -6.7104 -2.5026 0.9707
2.1207 -6.6692 -2.5026 0.9707
2.5195 -6.5297 -2.5028 0.9707
2.6505 -6.4778 -2.5029 0.9707
3.0368 -6.3066 -2.5031 0.9707
3.1632 -6.2443 -2.5032 0.9707
3.2883 -6.1796 -2.5032 0.9707
3.7750 -5.8957 -2.5035 0.9707
4.2373 -5.5735 -2.5037 0.9707
4.4584 -5.3987 -2.5039 0.9707
4.6723 -5.2152 -2.5040 0.9707
4.8786 -5.0231 -2.5041 0.9707
5.0770 -4.8229 -2.5042 0.9707
5.1731 -4.7199 -2.5042 0.9707
5.2672 -4.6149 -2.5043 0.9707
5.3591 -4.5080 -2.5043 0.9707
5.5364 -4.2889 -2.5044 0.9707
5.7047 -4.0627 -2.5045 0.9707
5.7854 -3.9472 -2.5045 0.9707
6.2193 -3.2217 -2.5048 0.9707
6.4027 -2.8407 -2.5049 0.9707
6.5119 -2.5808 -2.5049 0.9707
6.5626 -2.4492 -2.5049 0.9707
6.6107 -2.3166 -2.5050 0.9707
6.6987 -2.0487 -2.5050 0.9707
6.7386 -1.9136 -2.5050 0.9707
6.9203 -1.0878 -2.5051 0.9707
6.9855 -0.5278 -2.5052 0.9707
6.9947 -0.3871 -2.5052 0.9707
7.0010 -0.2462 -2.5052 0.9707
7.0031 0.1767 -2.5052 0.9707
6.9982 0.3176 -2.5052 0.9707
6.9904 0.4584 -2.5052 0.9707
6.9797 0.5990 -2.5052 0.9707
6.9662 0.7393 -2.5051 0.9707
6.9499 0.8794 -2.5051 0.9707
6.8841 1.2972 -2.5051 0.9707
6.8565 1.4354 -2.5051 0.9707
6.8262 1.5731 -2.5051 0.9707
6.7187 1.9821 -2.5050 0.9707
6.6773 2.1169 -2.5050 0.9707
6.6333 2.2509 -2.5050 0.9707
6.5866 2.3839 -2.5049 0.9707
6.5372 2.5159 -2.5049 0.9707
6.4852 2.6470 -2.5049 0.9707
6.4306 2.7769 -2.5049 0.9707
6.2510 3.1598 -2.5048 0.9707
6.0487 3.5311 -2.5047 0.9707
5.7447 4.0059 -2.5045 0.9707
5.6629 4.1206 -2.5045 0.9707
5.5787 4.2337 -2.5044 0.9707
5.4036 4.4546 -2.5043 0.9707
5.3127 4.5623 -2.5043 0.9707
5.1246 4.7723 -2.5042 0.9707
4.8270 5.0725 -2.5040 0.9707
4.7238 5.1685 -2.5040 0.9707
4.5118 5.3542 -2.5038 0.9707
4.4030 5.4438 -2.5038 0.9707
4.2925 5.5311 -2.5037 0.9707
3.9506 5.7797 -2.5036 0.9707
3.7146 5.9337 -2.5034 0.9707
3.5943 6.0071 -2.5034 0.9707
3.4726 6.0780 -2.5033 0.9707
3.3495 6.1466 -2.5032 0.9707
3.0993 6.2760 -2.5031 0.9707
2.9722 6.3370 -2.5030 0.9707
2.7147 6.4511 -2.5029 0.9707
2.3202 6.6026 -2.5027 0.9707
2.0525 6.6903 -2.5026 0.9707
-5.8531 2.8716 -2.4984 0.9725
-5.9096 2.7532 -2.4984 0.9725
-6.0648 2.3915 -2.4983 0.9725
-6.1117 2.2689 -2.4983 0.9725
-6.1560 2.1454 -2.4983 0.9725
-6.1979 2.0211 -2.4982 0.9725
-6.3084 1.6433 -2.4982 0.9725
-6.3402 1.5160 -2.4982 0.9725
-6.3694 1.3881 -2.4982 0.9725
-6.3960 1.2596 -2.4981 0.9725
-6.4200 1.1306 -2.4981 0.9725
-6.4414 1.0012 -2.4981 0.9725
-6.4765 0.7412 -2.4981 0.9725
-6.5150 0.2179 -2.4981 0.9725
-6.5181 0.0867 -2.4981 0.9725
-6.5185 -0.0445 -2.4981 0.9725
-6.5163 -0.1757 -2.4981 0.9725
-6.5115 -0.3068 -2.4981 0.9725
-6.4478 -0.9594 -2.4981 0.9725
-6.4272 -1.0890 -2.4981 0.9725
-6.4040 -1.2181 -2.4981 0.9725
-6.3499 -1.4749 -2.4982 0.9725
-6.2855 -1.7293 -2.4982 0.9725
-6.2495 -1.8554 -2.4982 0.9725
-6.1698 -2.1055 -2.4983 0.9725
-6.0802 -2.3521 -2.4983 0.9725
-6.0317 -2.4740 -2.4983 0.9725
-5.9274 -2.7148 -2.4984 0.9725
-5.8135 -2.9512 -2.4985 0.9725
-5.6902 -3.1829 -2.4985 0.9725
-5.5576 -3.4094 -2.4986 0.9725
-5.4879 -3.5206 -2.4986 0.9725
-5.2657 -3.8455 -2.4988 0.9725
-5.1874 -3.9508 -2.4988 0.9725
-4.8532 -4.3555 -2.4990 0.9725
-4.4875 -4.7321 -2.4992 0.9725
-4.3915 -4.8215 -2.4992 0.9725
-4.2936 -4.9090 -2.4993 0.9724
-4.1940 -4.9946 -2.4993 0.9724
-3.7791 -5.3161 -2.4995 0.9724
-3.6714 -5.3912 -2.4996 0.9724
-3.5623 -5.4642 -2.4997 0.9724
-3.3396 -5.6033 -2.4998 0.9724
-2.9956 -5.7951 -2.5000 0.9724
-2.8785 -5.8544 -2.5000 0.9724
-2.7601 -5.9113 -2.5001 0.9724
-2.3986 -6.0675 -2.5003 0.9724
-2.2760 -6.1147 -2.5003 0.9724
-2.1526 -6.1594 -2.5004 0.9724
-2.0282 -6.2017 -2.5005 0.9724
-1.9030 -6.2414 -2.5005 0.9724
-1.5230 -6.3454 -2.5007 0.9724
-1.3951 -6.3749 -2.5008 0.9724
-1.2665 -6.4019 -2.5009 0.9724
-0.8780 -6.4672 -2.5011 0.9724
-0.4861 -6.5089 -2.5013 0.9724
-0.0925 -6.5269 -2.5015 0.9724
0.3016 -6.5211 -2.5017 0.9724
0.6946 -6.4916 -2.5019 0.9724
0.8251 -6.4765 -2.5020 0.9724
1.0852 -6.4383 -2.5021 0.9724
1.2146 -6.4154 -2.5022 0.9724
1.4719 -6.3617 -2.5023 0.9724
1.5996 -6.3309 -2.5024 0.9724
1.7268 -6.2976 -2.5024 0.9724
1.8532 -6.2617 -2.5025 0.9724
2.1038 -6.1824 -2.5026 0.9724
2.3510 -6.0931 -2.5028 0.9724
2.4732 -6.0447 -2.5028 0.9724
2.7146 -5.9405 -2.5029 0.9724
2.8337 -5.8849 -2.5030 0.9724
2.9517 -5.8268 -2.5031 0.9724
3.0684 -5.7663 -2.5031 0.9724
3.1839 -5.7035 -2.5032 0.9724
3.4110 -5.5710 -2.5033 0.9724
3.5225 -5.5014 -2.5034 0.9724
3.6326 -5.4295 -2.5034 0.9724
3.8484 -5.2791 -2.5035 0.9724
4.2608 -4.9530 -2.5038 0.9724
4.3597 -4.8663 -2.5038 0.9724
4.6457 -4.5946 -2.5040 0.9724
4.7373 -4.5003 -2.5040 0.9724
4.8271 -4.4041 -2.5040 0.9724
5.0006 -4.2064 -2.5041 0.9724
5.0843 -4.1050 -2.5042 0.9724
5.5423 -3.4630 -2.5044 0.9724
5.6110 -3.3507 -2.5045 0.9724
5.6774 -3.2372 -2.5045 0.9724
5.7414 -3.1223 -2.5045 0.9724
5.9742 -2.6506 -2.5046 0.9724
6.0762 -2.4081 -2.5047 0.9724
6.1683 -2.1616 -2.5047 0.9724
6.2106 -2.0371 -2.5048 0.9724
6.2877 -1.7855 -2.5048 0.9724
6.3224 -1.6586 -2.5048 0.9724
6.3545 -1.5310 -2.5048 0.9724
6.3841 -1.4028 -2.5049 0.9724
6.4110 -1.2741 -2.5049 0.9724
6.4572 -1.0150 -2.5049 0.9724
6.4763 -0.8849 -2.5049 0.9724
6.5067 -0.6235 -2.5049 0.9724
6.5365 0.0333 -2.5049 0.9724
6.5345 0.1649 -2.5049 0.9724
6.5298 0.2963 -2.5049 0.9724
6.5126 0.5589 -2.5049 0.9724
6.4669 0.9508 -2.5049 0.9724
6.4465 1.0808 -2.5049 0.9724
6.3977 1.3394 -2.5048 0.9724
6.3694 1.4678 -2.5048 0.9724
6.3385 1.5957 -2.5048 0.9724
6.2691 1.8495 -2.5048 0.9724
6.1459 2.2244 -2.5047 0.9724
6.0998 2.3476 -2.5047 0.9724
5.9468 2.7113 -2.5046 0.9724
5.7721 3.0651 -2.5045 0.9724
5.5764 3.4077 -2.5044 0.9724
5.3604 3.7378 -2.5043 0.9724
5.0421 4.1565 -2.5041 0.9724
4.8705 4.3559 -2.5040 0.9724
4.7818 4.4530 -2.5040 0.9724
4.6911 4.5483 -2.5039 0.9724
4.5985 4.6416 -2.5039 0.9724
4.5041 4.7332 -2.5038 0.9724
4.3098 4.9104 -2.5037 0.9724
4.2100 4.9960 -2.5037 0.9724
4.1085 5.0796 -2.5036 0.9724
4.0054 5.1612 -2.5036 0.9724
3.9006 5.2406 -2.5035 0.9724
3.7942 5.3180 -2.5035 0.9724
3.6864 5.3931 -2.5034 0.9724
3.5770 5.4661 -2.5034 0.9724
3.3540 5.6054 -2.5032 0.9724
3.1255 5.7355 -2.5031 0.9724
2.8920 5.8564 -2.5030 0.9724
2.7735 5.9132 -2.5029 0.9724
2.6538 5.9677 -2.5029 0.9724
2.5332 6.0198 -2.5028 0.9724
2.2887 6.1165 -2.5027 0.9724
2.0406 6.2033 -2.5025 0.9724
1.9153 6.2430 -2.5025 0.9724
-5.4257 2.7988 -2.4986 0.9740
-5.4809 2.6890 -2.4986 0.9740
-5.5338 2.5781 -2.4986 0.9740
-5.5845 2.4662 -2.4986 0.9740
-5.6792 2.2394 -2.4985 0.9740
-5.8407 1.7754 -2.4984 0.9740
-5.8752 1.6574 -2.4984 0.9740
-5.9073 1.5388 -2.4984 0.9740
-5.9644 1.2999 -2.4984 0.9740
-5.9893 1.1795 -2.4984 0.9740
-6.0118 1.0588 -2.4983 0.9740
-6.0319 0.9375 -2.4983 0.9740
-6.0774 0.5718 -2.4983 0.9740
-6.0876 0.4494 -2.4983 0.9740
-6.1008 0.2040 -2.4983 0.9740
-6.1037 0.0812 -2.4983 0.9740
-6.1041 -0.0417 -2.4983 0.9740
-6.1020 -0.1645 -2.4983 0.9740
-6.0904 -0.4099 -2.4983 0.9740
-6.0810 -0.5324 -2.4983 0.9740
-6.0690 -0.6547 -2.4983 0.9740
-6.0378 -0.8984 -2.4983 0.9740
-5.9968 -1.1407 -2.4984 0.9740
-5.9461 -1.3811 -2.4984 0.9740
-5.8858 -1.6193 -2.4984 0.9740
-5.7367 -2.0875 -2.4985 0.9740
-5.5505 -2.5422 -2.4986 0.9740
-5.4982 -2.6534 -2.4986 0.9740
-5.3871 -2.8726 -2.4987 0.9740
-5.3283 -2.9805 -2.4987 0.9740
-5.2042 -3.1926 -2.4988 0.9740
-5.1389 -3.2967 -2.4988 0.9740
-4.6256 -3.9861 -2.4991 0.9740
-4.4616 -4.1692 -2.4992 0.9740
-4.3768 -4.2582 -2.4992 0.9740
-4.2903 -4.3455 -2.4993 0.9740
-3.9272 -4.6768 -2.4995 0.9740
-3.8324 -4.7550 -2.4995 0.9739
-3.6381 -4.9056 -2.4996 0.9739
-3.5387 -4.9779 -2.4997 0.9739
-3.4379 -5.0483 -2.4997 0.9739
-3.3356 -5.1165 -2.4998 0.9739
-3.2321 -5.1827 -2.4998 0.9739
-2.9136 -5.3687 -2.5000 0.9739
-2.6953 -5.4819 -2.5001 0.9739
-2.5845 -5.5351 -2.5002 0.9739
-2.3598 -5.6349 -2.5003 0.9739
-2.0156 -5.7675 -2.5005 0.9739
-1.8991 -5.8070 -2.5005 0.9739
-1.7819 -5.8442 -2.5006 0.9739
-1.6640 -5.8790 -2.5006 0.9739
-1.5454 -5.9115 -2.5007 0.9739
-1.3063 -5.9691 -2.5008 0.9739
-1.1859 -5.9944 -2.5009 0.9739
-1.0651 -6.0172 -2.5010 0.9739
-0.4552 -6.0945 -2.5013 0.9739
-0.3324 -6.1026 -2.5013 0.9739
-0.0866 -6.1114 -2.5015 0.9739
0.0364 -6.1120 -2.5015 0.9739
0.1594 -6.1102 -2.5016 0.9739
0.4052 -6.0992 -2.5017 0.9739
0.7726 -6.0641 -2.5019 0.9739
0.8945 -6.0475 -2.5020 0.9739
1.0161 -6.0284 -2.5021 0.9739
1.3781 -5.9565 -2.5022 0.9739
1.4977 -5.9277 -2.5023 0.9739
1.7352 -5.8629 -2.5024 0.9739
1.8529 -5.8269 -2.5025 0.9739
2.0860 -5.7480 -2.5026 0.9739
2.2013 -5.7050 -2.5027 0.9739
2.5417 -5.5621 -2.5029 0.9739
2.6532 -5.5100 -2.5029 0.9739
2.9811 -5.3402 -2.5031 0.9739
3.1937 -5.2161 -2.5032 0.9739
3.2981 -5.1509 -2.5032 0.9739
3.6032 -4.9428 -2.5034 0.9739
3.7020 -4.8694 -2.5035 0.9739
3.8951 -4.7166 -2.5036 0.9739
3.9893 -4.6374 -2.5036 0.9739
4.0819 -4.5562 -2.5037 0.9739
4.1729 -4.4732 -2.5037 0.9739
4.2621 -4.3884 -2.5037 0.9739
4.3497 -4.3018 -2.5038 0.9739
4.6016 -4.0317 -2.5039 0.9739
4.6819 -3.9384 -2.5040 0.9739
5.1227 -3.3460 -2.5042 0.9739
5.1891 -3.2422 -2.5042 0.9739
5.2534 -3.1372 -2.5043 0.9739
5.3155 -3.0308 -2.5043 0.9739
5.4889 -2.7046 -2.5044 0.9739
5.7751 -2.0238 -2.5045 0.9739
5.8147 -1.9072 -2.5046 0.9739
5.8520 -1.7898 -2.5046 0.9739
5.9193 -1.5529 -2.5046 0.9739
5.9494 -1.4334 -2.5046 0.9739
5.9771 -1.3134 -2.5046 0.9739
6.0023 -1.1929 -2.5047 0.9739
6.0456 -0.9503 -2.5047 0.9739
6.0635 -0.8285 -2.5047 0.9739
6.1198 0.0312 -2.5047 0.9739
6.1179 0.1544 -2.5047 0.9739
6.1136 0.2775 -2.5047 0.9739
6.0974 0.5233 -2.5047 0.9739
6.0547 0.8902 -2.5047 0.9739
5.8334 1.8494 -2.5046 0.9739
5.7949 1.9664 -2.5045 0.9739
5.6655 2.3124 -2.5045 0.9739
5.5155 2.6500 -2.5044 0.9739
5.4042 2.8698 -2.5043 0.9739
5.3453 2.9779 -2.5043 0.9739
5.0882 3.3980 -2.5042 0.9739
4.7208 3.8917 -2.5040 0.9739
4.5602 4.0783 -2.5039 0.9739
4.4771 4.1692 -2.5038 0.9739
4.3055 4.3458 -2.5037 0.9739
4.2171 4.4316 -2.5037 0.9739
4.0352 4.5975 -2.5036 0.9739
3.9418 4.6777 -2.5036 0.9739
3.8467 4.7560 -2.5035 0.9739
3.7502 4.8323 -2.5034 0.9739
3.6521 4.9067 -2.5034 0.9739
3.5525 4.9791 -2.5033 0.9739
3.4515 5.0495 -2.5033 0.9739
3.3491 5.1179 -2.5032 0.9739
3.2454 5.1841 -2.5032 0.9739
3.1403 5.2483 -2.5031 0.9739
3.0340 5.3103 -2.5031 0.9739
2.9264 5.3701 -2.5030 0.9739
2.8177 5.4278 -2.5030 0.9739
2.5968 5.5366 -2.5028 0.9739
2.3718 5.6363 -2.5027 0.9739
2.1429 5.7269 -2.5026 0.9739
2.0272 5.7688 -2.5025 0.9739
1.9106 5.8083 -2.5025 0.9739
1.7933 5.8454 -2.5024 0.9739
-5.0418 2.7306 -2.4988 0.9753
-5.2903 2.2101 -2.4987 0.9753
-5.3749 1.9954 -2.4987 0.9753
-5.4139 1.8868 -2.4987 0.9753
-5.4507 1.7774 -2.4986 0.9753
-5.4854 1.6674 -2.4986 0.9753
-5.5178 1.5566 -2.4986 0.9753
-5.6016 1.2208 -2.4986 0.9753
-5.6250 1.1078 -2.4985 0.9753
-5.6461 0.9944 -2.4985 0.9753
-5.6649 0.8805 -2.4985 0.9753
-5.6815 0.7663 -2.4985 0.9753
