ply
format ascii 1.0
element vertex 1535
property float32 x
property float32 y
property float32 z
property float32 I
end_header
-44.4548 50.2796 7.2068 0.7634
-45.3010 49.2054 7.1820 0.7641
-46.1417 48.1381 7.1603 0.7647
-46.9777 47.0768 7.1416 0.7652
-48.6383 44.9687 7.1131 0.7661
-49.4643 43.9200 7.1032 0.7663
-51.1110 41.8294 7.0921 0.7667
-52.7553 39.7419 7.0925 0.7667
-53.5781 38.6972 7.0970 0.7665
-54.4024 37.6507 7.1044 0.7663
-55.2287 36.6017 7.1147 0.7660
-56.8901 34.4922 7.1441 0.7652
-57.7267 33.4301 7.1632 0.7646
-71.2184 37.5019 8.6430 0.7234
-70.2342 33.4471 8.3534 0.7313
-72.2393 30.9014 8.4371 0.7290
-79.6593 21.4800 8.8595 0.7175
-80.7859 20.0495 8.9381 0.7154
-81.9331 18.5929 9.0218 0.7132
-85.5144 14.0454 9.3057 0.7057
-90.6832 7.4821 9.7708 0.6935
-93.4755 3.9363 10.0464 0.6863
-72.8143 -27.4303 8.3553 0.7312
-71.3945 -28.5484 8.2567 0.7339
-70.0598 -29.6630 8.1697 0.7363
-66.0696 -32.8053 7.9211 0.7432
-67.7332 -35.3473 8.2041 0.7354
-69.0994 -37.8480 8.4601 0.7284
-67.7573 -38.9049 8.3900 0.7303
-65.2216 -41.0229 8.2738 0.7335
-58.9200 -45.9214 8.0216 0.7404
-59.5764 -48.3905 8.2418 0.7343
-55.2251 -48.6711 7.9045 0.7437
-52.2787 -54.1383 8.0815 0.7388
-51.0855 -55.0781 8.0667 0.7392
-46.0081 -56.0347 7.7855 0.7470
-42.5498 -56.2960 7.5776 0.7528
-43.9736 -60.6800 8.0470 0.7397
-31.5181 -54.2259 6.7350 0.7770
-30.5140 -55.0168 6.7556 0.7764
-29.3370 -55.4983 6.7409 0.7768
-32.9582 -81.1743 9.4077 0.7030
-29.2970 -76.5397 8.8005 0.7191
-22.1525 -65.6733 7.4425 0.7567
-18.6383 -63.5953 7.1162 0.7660
-14.4962 -58.0146 6.4212 0.7862
-9.6958 -51.9535 5.6752 0.8085
-8.3003 -50.0373 5.4465 0.8154
-6.6891 -46.0440 4.9962 0.8293
-1.4133 -11.3255 1.2256 0.9551
-4.7239 -45.2447 4.8849 0.8328
-3.7126 -44.1395 4.7565 0.8368
-2.7628 -43.2478 4.6535 0.8400
-1.8244 -41.7435 4.4868 0.8453
-0.1307 -37.9862 4.0790 0.8583
2.1210 -37.2266 4.0039 0.8607
3.2462 -33.3094 3.5938 0.8740
4.6330 -33.5100 3.6326 0.8728
5.2175 -32.8524 3.5720 0.8747
7.3148 -30.1554 3.3320 0.8826
7.7985 -29.5417 3.2809 0.8843
71.2127 -17.4330 6.2063 0.7450
92.1836 -20.6105 7.9963 0.6844
93.5007 -18.9385 8.0758 0.6818
95.9674 -15.4487 8.2285 0.6769
45.1701 -2.6690 3.8304 0.8339
45.4452 -1.7687 3.8500 0.8331
44.9075 -0.8436 3.8022 0.8350
45.6527 1.8989 3.8680 0.8324
49.1746 3.0374 4.1707 0.8206
50.6085 4.1494 4.2985 0.8156
52.3352 9.6531 4.5051 0.8076
52.0986 10.6974 4.5023 0.8077
55.6665 13.7850 4.8547 0.7944
50.5605 14.7025 4.4574 0.8095
51.0616 15.9691 4.5290 0.8067
52.3491 17.5354 4.6735 0.8012
82.3655 31.3283 7.4598 0.7021
67.8091 32.2495 6.3563 0.7398
38.7008 20.3535 3.7016 0.8390
37.3443 21.6008 3.6521 0.8410
35.8125 22.6847 3.5886 0.8435
35.0684 23.2149 3.5602 0.8447
33.6862 24.3037 3.5163 0.8464
33.1233 24.9259 3.5092 0.8467
31.9489 25.0645 3.4375 0.8496
31.1199 26.5040 3.4603 0.8487
13.9864 12.9179 1.6117 0.9264
27.7822 28.9543 3.3969 0.8512
26.6047 30.0594 3.3981 0.8512
25.8788 30.4523 3.3830 0.8518
25.2472 30.9498 3.3811 0.8519
22.7199 32.9404 3.3875 0.8516
22.0853 33.4403 3.3925 0.8514
21.4486 33.9418 3.3989 0.8511
35.4661 64.4283 6.2258 0.7444
34.1730 65.1480 6.2276 0.7443
16.1433 37.9056 3.4877 0.8476
15.4660 38.4426 3.5078 0.8468
14.7805 38.9859 3.5295 0.8459
12.6682 40.6605 3.6052 0.8429
11.1441 41.5919 3.6451 0.8413
8.6579 38.4361 3.3353 0.8537
7.7038 37.7253 3.2595 0.8568
7.0156 38.2673 3.2934 0.8554
4.8583 39.9663 3.4082 0.8508
4.1424 40.9373 3.4831 0.8477
3.3618 41.5521 3.5290 0.8459
2.5599 42.1836 3.5775 0.8440
0.8947 43.9023 3.7172 0.8384
-1.8591 46.4782 3.9377 0.8297
-2.8432 47.2532 4.0073 0.8269
-33.5772 64.0923 6.1251 0.7479
-34.5554 62.8505 6.0716 0.7498
-35.5172 61.6296 6.0215 0.7516
-36.4635 60.4283 5.9746 0.7533
-38.3145 58.0786 5.8900 0.7563
-39.2212 56.9276 5.8521 0.7577
-40.1166 55.7908 5.8170 0.7589
-42.7446 52.4546 5.7280 0.7621
-43.6041 51.3635 5.7036 0.7630
-45.3027 49.2071 5.6620 0.7645
-46.9794 47.0785 5.6302 0.7657
-48.6400 44.9702 5.6077 0.7665
-49.4660 43.9216 5.5999 0.7668
-50.2901 42.8754 5.5944 0.7670
-53.5800 38.6986 5.5950 0.7670
-55.2306 36.6030 5.6090 0.7665
-56.0597 35.5504 5.6194 0.7661
-57.7288 33.4313 5.6472 0.7651
-71.2025 37.4935 6.8121 0.7239
-69.2483 34.7034 6.5570 0.7328
-70.2368 33.4483 6.5855 0.7318
-72.2419 30.9025 6.6515 0.7295
-75.3345 26.9759 6.7738 0.7253
-76.3923 25.6329 6.8212 0.7236
-78.5549 22.8869 6.9264 0.7200
-81.9363 18.5936 7.1125 0.7137
-86.7639 12.4637 7.4202 0.7034
-90.6870 7.4824 7.7030 0.6940
-67.8245 -31.9923 6.3482 0.7401
-68.9673 -37.7757 6.6567 0.7293
-63.0510 -37.9093 6.2279 0.7443
-63.7322 -41.8987 6.4566 0.7363
-59.9906 -44.8455 6.3405 0.7403
-56.3684 -47.6985 6.2509 0.7435
-52.8343 -50.4821 6.1860 0.7458
-51.6251 -51.3527 6.1641 0.7465
-50.4685 -52.2637 6.1503 0.7470
-48.2113 -54.1233 6.1358 0.7475
-31.3899 -54.0054 5.2878 0.7782
-30.3899 -54.7930 5.3040 0.7776
-28.2776 -56.2023 5.3259 0.7768
-27.3469 -57.1900 5.3663 0.7753
-26.3153 -58.0027 5.3918 0.7744
-33.2951 -82.0041 7.4922 0.7010
-22.1502 -65.6663 5.8666 0.7571
-20.4308 -64.8483 5.7556 0.7611
-17.8156 -60.7879 5.3623 0.7755
-14.4672 -57.8987 5.0520 0.7870
-12.1116 -52.9813 4.6007 0.8040
-9.6950 -51.9491 4.4736 0.8089
-6.6903 -46.0522 3.9394 0.8296
-4.7255 -45.2603 3.8522 0.8330
-0.9664 -41.0127 3.4728 0.8482
-0.1297 -37.7030 3.1917 0.8595
1.3787 -37.4527 3.1726 0.8603
2.1017 -36.8881 3.1277 0.8622
3.9439 -33.4773 2.8535 0.8734
5.2173 -32.8511 2.8158 0.8750
6.2997 -31.4425 2.7146 0.8792
6.7903 -30.6738 2.6595 0.8815
7.7821 -29.4797 2.5810 0.8848
8.2502 -28.8854 2.5430 0.8864
8.7228 -28.3663 2.5123 0.8877
74.6818 -37.1293 5.1718 0.7159
69.5071 -23.0766 4.5415 0.7456
91.7782 -20.5199 5.8317 0.6860
94.4278 -17.1564 5.9514 0.6807
88.0335 -10.5590 5.4981 0.7009
77.9395 -3.0335 4.8367 0.7315
74.3782 0.0993 4.6122 0.7422
47.4960 1.9756 2.9478 0.8265
49.0727 3.0311 3.0488 0.8212
68.0889 5.5826 4.2365 0.7605
64.2254 7.8774 4.0125 0.7716
52.6609 11.9217 3.3482 0.8054
51.4116 13.8347 3.3015 0.8079
52.7360 15.3352 3.4056 0.8024
78.6080 28.1023 5.1766 0.7157
82.6114 31.4218 5.4808 0.7017
71.8294 32.4062 4.8865 0.7292
24.5178 11.6604 1.6835 0.8969
38.7025 20.3544 2.7116 0.8392
35.7746 22.6607 2.6260 0.8439
35.0699 23.2159 2.6080 0.8449
34.3745 23.7637 2.5913 0.8458
32.7411 24.6383 2.5409 0.8486
28.4219 28.4525 2.4938 0.8511
27.7833 28.9555 2.4884 0.8514
27.1466 29.4558 2.4840 0.8517
26.5125 29.9552 2.4806 0.8519
22.7208 32.9418 2.4815 0.8518
22.0862 33.4416 2.4852 0.8516
21.4494 33.9432 2.4899 0.8514
17.4770 36.8503 2.5291 0.8492
16.1440 37.9071 2.5549 0.8478
15.4666 38.4442 2.5696 0.8470
6.5988 18.5210 1.2192 0.9242
13.3830 40.0960 2.6212 0.8442
11.9433 41.2373 2.6622 0.8419
11.1452 41.5956 2.6703 0.8415
9.8467 39.9474 2.5513 0.8480
8.6586 38.4393 2.4434 0.8539
6.6897 36.4895 2.3004 0.8618
5.3341 37.5571 2.3523 0.8590
2.4421 40.2421 2.5000 0.8508
1.6555 40.8616 2.5359 0.8488
0.8457 41.4994 2.5739 0.8467
-2.6890 44.6904 2.7763 0.8357
-3.6536 45.4501 2.8275 0.8330
-34.5568 62.8529 4.4478 0.7502
-35.5185 61.6320 4.4111 0.7520
-13.8746 22.9933 1.6653 0.8980
-14.2579 22.5885 1.6564 0.8985
-39.2226 56.9297 4.2870 0.7580
-41.8790 53.5573 4.2159 0.7615
-42.7462 52.4564 4.1961 0.7625
-46.1450 48.1415 4.1352 0.7655
-48.6417 44.9718 4.1079 0.7668
-50.2918 42.8769 4.0982 0.7673
-51.1146 41.8323 4.0958 0.7674
-51.9368 40.7886 4.0951 0.7675
-20.0461 14.4784 1.5334 0.9057
-20.2024 13.9817 1.5235 0.9062
-55.2326 36.6043 4.1089 0.7668
-57.7308 33.4325 4.1369 0.7654
-69.2507 34.7046 4.8033 0.7331
-72.2445 30.9036 4.8726 0.7299
-73.2631 29.6103 4.9001 0.7286
-74.2937 28.3019 4.9299 0.7272
-76.3951 25.6338 4.9968 0.7240
-79.6654 21.4816 5.1165 0.7184
-86.7674 12.4643 5.4357 0.7038
-88.0430 10.8447 5.5008 0.7008
-89.3501 9.1851 5.5698 0.6977
-90.6908 7.4827 5.6429 0.6944
-92.0678 5.7343 5.7202 0.6909
-93.4837 3.9366 5.8021 0.6873
-68.6957 -30.7295 4.6666 0.7396
-67.6368 -35.2970 4.7309 0.7366
-61.5880 -35.3627 4.4039 0.7523
-64.2926 -40.4386 4.7098 0.7376
-60.0042 -44.8557 4.6456 0.7406
-56.4439 -47.7625 4.5851 0.7435
-55.2560 -48.6982 4.5672 0.7444
-52.9052 -50.5498 4.5375 0.7458
-49.4267 -53.2896 4.5071 0.7473
-45.9307 -55.9405 4.4884 0.7482
-44.7869 -56.8414 4.4874 0.7482
-41.3978 -59.6137 4.5006 0.7476
-32.3305 -53.1338 3.8568 0.7794
-31.4749 -54.1515 3.8840 0.7780
-28.2764 -56.1999 3.9012 0.7771
-32.6526 -80.4217 5.3824 0.7062
-29.2914 -76.5250 5.0811 0.7201
-24.7690 -68.8262 4.5359 0.7459
-22.1306 -65.6084 4.2936 0.7577
-20.4976 -65.0603 4.2299 0.7608
-16.4863 -60.7552 3.9037 0.7770
-11.0143 -53.0743 3.3613 0.8047
-9.6943 -51.9450 3.2767 0.8091
-8.2991 -50.0300 3.1448 0.8161
-1.4129 -11.3221 0.7075 0.9553
-4.7253 -45.2579 2.8217 0.8333
-3.7160 -44.1802 2.7493 0.8372
-2.7407 -42.9021 2.6658 0.8417
-1.8194 -41.6290 2.5839 0.8462
-0.9556 -40.5551 2.5155 0.8500
1.3871 -37.6826 2.3383 0.8597
2.1016 -36.8865 2.2910 0.8624
3.4233 -35.1270 2.1886 0.8681
4.6425 -33.5793 2.1021 0.8730
5.2171 -32.8497 2.0626 0.8752
5.7708 -32.1468 2.0253 0.8773
7.7978 -29.5392 1.8945 0.8848
8.2668 -28.9437 1.8666 0.8864
8.7224 -28.3651 1.8402 0.8879
9.1920 -27.8828 1.8205 0.8890
9.6049 -27.2770 1.7933 0.8906
72.3682 -22.4206 2.9873 0.7384
74.4966 -16.6560 3.0100 0.7367
95.6557 -19.3750 3.8484 0.6766
94.4241 -17.1557 3.7842 0.6810
92.7597 -13.0237 3.6935 0.6873
78.0439 -3.0375 3.0797 0.7315
79.1738 -1.4873 3.1225 0.7283
74.1108 1.5901 2.9229 0.7432
68.9728 4.2603 2.7248 0.7583
68.0740 5.5814 2.6935 0.7608
67.1093 13.7796 2.7014 0.7601
55.7178 12.6137 2.2526 0.7956
51.7605 12.8177 2.1026 0.8078
89.7011 42.6611 3.9167 0.6719
38.7042 20.3553 1.7243 0.8394
37.9541 20.9461 1.7093 0.8407
37.2849 21.5664 1.6984 0.8416
35.0714 23.2168 1.6585 0.8450
34.4968 23.8482 1.6536 0.8455
33.6890 24.3057 1.6380 0.8468
32.7953 24.6790 1.6184 0.8485
32.3381 25.3698 1.6207 0.8483
31.6728 25.8939 1.6131 0.8489
30.8117 26.2415 1.5959 0.8504
30.3593 26.9285 1.6002 0.8501
29.8144 27.5365 1.6003 0.8500
28.4230 28.4537 1.5858 0.8513
25.8809 30.4547 1.5759 0.8522
24.6180 31.4495 1.5748 0.8522
22.0871 33.4430 1.5803 0.8518
17.4778 36.8519 1.6083 0.8494
16.8146 37.3776 1.6161 0.8487
11.1461 41.5993 1.6982 0.8416
9.8475 39.9508 1.6225 0.8481
8.6593 38.4424 1.5538 0.8541
6.3958 31.3200 1.2605 0.8799
6.5589 35.7761 1.4342 0.8645
5.7262 35.2137 1.4068 0.8669
3.7611 37.1688 1.4731 0.8611
3.0523 37.7270 1.4925 0.8594
2.3243 38.3004 1.5130 0.8576
0.8049 39.4971 1.5577 0.8537
0.0102 39.4974 1.5574 0.8538
-0.8098 40.7688 1.6079 0.8494
-1.6743 41.8570 1.6518 0.8456
-2.5605 42.5550 1.6810 0.8431
-3.4791 43.2784 1.7120 0.8405
-33.5798 64.0972 2.8533 0.7485
-34.5581 62.8553 2.8284 0.7504
-35.5199 61.6343 2.8050 0.7522
-38.3173 58.0829 2.7437 0.7569
-40.1196 55.7949 2.7098 0.7595
-41.0048 54.6711 2.6947 0.7607
-43.6072 51.3672 2.6569 0.7636
-45.3059 49.2106 2.6376 0.7651
-46.9827 47.0818 2.6227 0.7662
-47.8147 46.0255 2.6169 0.7667
-48.6434 44.9734 2.6122 0.7671
-50.2936 42.8784 2.6060 0.7675
-51.1164 41.8338 2.6045 0.7677
-51.9386 40.7900 2.6041 0.7677
-53.5838 38.7013 2.6063 0.7675
-54.4082 37.6547 2.6091 0.7673
-56.0636 35.5529 2.6177 0.7666
-69.2532 34.7059 3.0544 0.7334
-70.2418 33.4508 3.0677 0.7324
-71.2395 32.1840 3.0824 0.7313
-72.2472 30.9047 3.0985 0.7301
-73.2658 29.6114 3.1160 0.7288
-74.2964 28.3029 3.1350 0.7274
-75.3401 26.9779 3.1555 0.7259
-77.4711 24.2723 3.2012 0.7225
-83.1123 17.1100 3.3459 0.7120
-85.5246 14.0471 3.4175 0.7068
-92.0718 5.7345 3.6375 0.6912
-93.4877 3.9368 3.6896 0.6876
-95.6198 -21.3271 3.8630 0.6756
-93.7360 -22.8957 3.8048 0.6796
-91.7908 -24.3873 3.7450 0.6837
-89.9051 -25.8334 3.6885 0.6877
-70.1552 -29.7034 3.0040 0.7371
-59.6822 -31.1458 2.6545 0.7638
-59.0617 -33.9121 2.6855 0.7614
-58.7591 -49.7216 3.0351 0.7348
-51.3730 -55.3881 2.9788 0.7390
-47.7559 -58.1634 2.9675 0.7399
-36.7227 -48.5863 2.4015 0.7836
-35.8381 -49.4537 2.4082 0.7831
-41.7464 -62.7745 2.9726 0.7395
-31.5142 -54.2192 2.4728 0.7780
-28.2752 -56.1976 2.4806 0.7774
-27.4552 -57.4164 2.5095 0.7751
-26.4194 -58.2322 2.5214 0.7742
-25.1895 -58.6282 2.5161 0.7746
-24.8198 -68.9674 2.8902 0.7457
-22.1552 -65.6813 2.7332 0.7577
-20.4286 -64.8413 2.6807 0.7617
-16.3466 -60.2405 2.4612 0.7789
-14.4650 -57.8896 2.3528 0.7875
-12.7301 -55.6868 2.2524 0.7956
-4.7495 -45.4903 1.8035 0.8327
-1.8241 -41.7364 1.6473 0.8460
-0.9576 -40.6362 1.6028 0.8498
0.6511 -39.0382 1.5395 0.8553
2.1380 -37.5254 1.4821 0.8603
4.0450 -34.3356 1.3632 0.8708
4.6423 -33.5775 1.3366 0.8731
4.5852 -28.8711 1.1527 0.8896
5.5359 -27.6303 1.1111 0.8933
5.9903 -27.0603 1.0928 0.8950
6.4359 -26.5319 1.0765 0.8965
7.8645 -29.7921 1.2150 0.8840
8.7221 -28.3639 1.1701 0.8880
9.1916 -27.8816 1.1576 0.8891
9.7004 -27.5484 1.1516 0.8897
90.4851 -22.1510 1.5736 0.6889
95.7872 -15.4197 1.6389 0.6783
92.7067 -13.0163 1.5813 0.6876
92.0817 -11.0446 1.5666 0.6900
87.5247 -8.7159 1.4858 0.7034
86.1353 -6.8308 1.4596 0.7077
83.5587 -4.9373 1.4139 0.7154
79.1791 -1.4874 1.3377 0.7285
73.8134 1.5837 1.2471 0.7443
70.9864 2.9526 1.2001 0.7526
67.8713 5.5648 1.1503 0.7615
35.7870 5.8590 0.6126 0.8650
66.9150 13.7396 1.1539 0.7609
67.7912 15.3470 1.1741 0.7572
73.0163 18.0814 1.2706 0.7401
71.5918 19.2651 1.2523 0.7433
75.8098 25.3940 1.3505 0.7263
78.3936 28.0257 1.4063 0.7167
85.6746 36.5964 1.5739 0.6889
89.7460 40.4893 1.6631 0.6744
39.4696 19.7546 0.7456 0.8381
38.7059 20.3562 0.7387 0.8395
37.9558 20.9470 0.7323 0.8408
36.4925 22.0996 0.7207 0.8431
35.7777 22.6627 0.7154 0.8441
32.7967 24.6801 0.6933 0.8486
31.3493 25.6294 0.6840 0.8504
28.4242 28.4548 0.6794 0.8514
26.5146 29.9576 0.6758 0.8521
25.2502 30.9535 0.6748 0.8523
23.9876 31.9480 0.6748 0.8523
22.0880 33.4443 0.6770 0.8519
21.4512 33.9459 0.6783 0.8516
15.4679 38.4474 0.7000 0.8472
14.7824 38.9908 0.7044 0.8464
13.3841 40.0994 0.7141 0.8444
12.6698 40.6657 0.7195 0.8433
9.8484 39.9542 0.6951 0.8482
8.6600 38.4455 0.6657 0.8541
7.5677 37.0588 0.6389 0.8596
6.5594 35.7788 0.6144 0.8646
5.6252 34.5928 0.5920 0.8692
3.5704 35.2842 0.5991 0.8677
0.7722 37.8955 0.6403 0.8593
0.0099 38.4959 0.6503 0.8573
-0.7770 39.1157 0.6609 0.8551
-1.5903 39.7563 0.6721 0.8528
-3.3045 41.1065 0.6966 0.8479
-33.5811 64.0997 1.2223 0.7486
-34.5594 62.8577 1.2117 0.7505
-35.5212 61.6366 1.2017 0.7523
-14.2817 22.6262 0.4520 0.8985
-38.3187 58.0850 1.1754 0.7570
-39.2255 56.9338 1.1679 0.7584
-40.1210 55.7969 1.1609 0.7596
-41.8820 53.5612 1.1485 0.7618
-42.7492 52.4602 1.1431 0.7628
-43.6087 51.3690 1.1382 0.7637
-44.4612 50.2868 1.1338 0.7645
-45.3075 49.2124 1.1299 0.7652
-46.9843 47.0835 1.1236 0.7664
-51.9404 40.7914 1.1156 0.7678
-53.5857 38.7027 1.1166 0.7676
-54.4101 37.6560 1.1177 0.7674
-55.2365 36.6068 1.1194 0.7671
-56.0656 35.5541 1.1214 0.7668
-56.8982 34.4971 1.1240 0.7663
-57.7349 33.4349 1.1270 0.7657
-79.0178 43.6613 1.5250 0.6969
-71.1553 37.4686 1.3584 0.7249
-69.2557 34.7071 1.3085 0.7335
-70.2443 33.4520 1.3142 0.7325
-72.2498 30.9059 1.3274 0.7302
-75.3429 26.9788 1.3518 0.7260
-78.5638 22.8896 1.3823 0.7208
-80.7983 20.0526 1.4062 0.7167
-81.9458 18.5958 1.4194 0.7145
-84.3090 15.5955 1.4483 0.7096
-85.5281 14.0477 1.4641 0.7070
-89.3574 9.1859 1.5174 0.6981
-72.8004 -27.4250 1.3141 0.7326
-71.3810 -28.5430 1.2986 0.7352
-70.0468 -29.6575 1.2849 0.7376
-68.6379 -30.7036 1.2701 0.7402
-58.9943 -29.2922 1.1126 0.7684
-56.6377 -31.0223 1.0908 0.7723
-59.0533 -33.9073 1.1503 0.7615
-79.0852 -49.7428 1.5782 0.6881
-82.7589 -54.4072 1.6730 0.6729
-35.5187 -46.9934 0.9950 0.7901
-34.6234 -47.7774 0.9967 0.7897
-46.8457 -70.4424 1.4290 0.7129
-36.3407 -57.1047 1.1434 0.7628
-30.2879 -54.6091 1.0548 0.7789
-29.2846 -55.3993 1.0585 0.7783
-27.2329 -56.9517 1.0663 0.7768
-26.2056 -57.7609 1.0714 0.7759
-25.1884 -58.6258 1.0778 0.7747
-29.4005 -76.8100 1.3893 0.7196
-23.2864 -69.0348 1.2307 0.7472
-18.4470 -62.9423 1.1079 0.7692
-7.0340 -48.4185 0.8265 0.8222
-2.4034 -37.6214 0.6368 0.8600
-0.9575 -40.6338 0.6866 0.8499
-0.1367 -39.7235 0.6710 0.8531
0.6518 -39.0835 0.6603 0.8552
1.3909 -37.7846 0.6387 0.8596
3.4543 -35.4447 0.6016 0.8672
5.3374 -33.6071 0.5748 0.8727
5.7703 -32.1441 0.5517 0.8775
6.8733 -31.0488 0.5372 0.8805
9.7118 -27.5807 0.4939 0.8896
94.7375 -29.3509 -0.5584 0.6725
90.5831 -26.0787 -0.5307 0.6859
94.4166 -17.1543 -0.5403 0.6812
82.8112 -4.8931 -0.4670 0.7176
64.5381 7.9158 -0.3661 0.7710
63.1185 9.0339 -0.3590 0.7749
68.1435 12.5688 -0.3901 0.7579
66.7105 13.6976 -0.3834 0.7615
69.1969 17.1355 -0.4014 0.7519
71.5371 19.2503 -0.4171 0.7435
72.2478 21.0090 -0.4236 0.7401
35.8186 22.6886 -0.2387 0.8440
34.4997 23.8503 -0.2361 0.8456
33.6918 24.3078 -0.2339 0.8469
30.7493 23.1394 -0.2167 0.8573
30.1236 23.6325 -0.2156 0.8580
31.7868 25.9871 -0.2312 0.8485
30.8142 26.2437 -0.2279 0.8505
30.3618 26.9307 -0.2285 0.8502
29.8168 27.5388 -0.2285 0.8501
29.0670 27.9505 -0.2270 0.8510
28.4253 28.4560 -0.2265 0.8514
25.8830 30.4572 -0.2250 0.8522
25.2324 30.9316 -0.2247 0.8524
24.5695 31.3876 -0.2244 0.8526
23.9886 31.9494 -0.2249 0.8523
22.7235 32.9458 -0.2253 0.8521
21.4520 33.9473 -0.2261 0.8516
18.1363 36.3339 -0.2286 0.8501
17.4792 36.8549 -0.2297 0.8495
15.4686 38.4490 -0.2333 0.8472
14.7830 38.9925 -0.2348 0.8464
13.3847 40.1011 -0.2380 0.8444
11.1481 41.6067 -0.2425 0.8417
9.8492 39.9575 -0.2317 0.8482
7.5683 37.0617 -0.2130 0.8596
6.5599 35.7815 -0.2048 0.8646
4.7568 33.4922 -0.1905 0.8734
3.4560 34.1540 -0.1933 0.8717
1.4319 35.3411 -0.1991 0.8681
0.7314 35.8928 -0.2021 0.8662
-1.5062 37.6554 -0.2122 0.8601
-3.1298 38.9343 -0.2199 0.8554
-3.5176 34.9420 -0.1977 0.8689
-5.8077 41.0436 -0.2334 0.8472
-6.7761 41.8064 -0.2384 0.8442
-36.4690 60.4374 -0.3974 0.7540
-14.2834 22.6289 -0.1507 0.8985
-38.3201 58.0872 -0.3918 0.7570
-39.2269 56.9359 -0.3893 0.7584
-40.1225 55.7989 -0.3869 0.7596
-41.8836 53.5631 -0.3828 0.7619
-42.7508 52.4621 -0.3810 0.7628
-43.6103 51.3709 -0.3794 0.7637
-45.3091 49.2141 -0.3766 0.7652
-46.9860 47.0852 -0.3745 0.7664
-47.8181 46.0287 -0.3737 0.7668
-49.4730 43.9278 -0.3725 0.7675
-50.2971 42.8814 -0.3721 0.7677
-51.9422 40.7928 -0.3718 0.7678
-52.7646 39.7488 -0.3719 0.7678
-56.9002 34.4983 -0.3746 0.7663
-78.9982 43.6505 -0.5081 0.6970
-71.1395 37.4603 -0.4527 0.7250
-69.2581 34.7084 -0.4362 0.7335
-71.2446 32.1864 -0.4401 0.7315
-73.2711 29.6136 -0.4449 0.7290
-75.3456 26.9799 -0.4506 0.7261
-77.4769 24.2741 -0.4571 0.7227
-78.5668 22.8904 -0.4607 0.7208
-80.8014 20.0534 -0.4687 0.7168
-83.1188 17.1113 -0.4778 0.7122
-61.3593 7.5579 -0.3481 0.7809
-89.3612 9.1863 -0.5058 0.6981
-90.7023 7.4836 -0.5124 0.6949
-42.3994 -14.0525 -0.2516 0.8364
-69.1280 -30.9228 -0.4264 0.7387
-58.1196 -31.8340 -0.3731 0.7672
-75.7414 -43.4893 -0.4917 0.7051
-81.7973 -51.4487 -0.5440 0.6794
-25.7054 -28.8576 -0.2176 0.8568
-28.2729 -56.1930 -0.3542 0.7775
-26.4172 -58.2274 -0.3600 0.7743
-31.9375 -78.6609 -0.4779 0.7121
-29.3410 -76.6544 -0.4621 0.7201
-22.5781 -66.9351 -0.3977 0.7538
-18.4586 -62.9820 -0.3695 0.7691
-14.4626 -57.8798 -0.3359 0.7877
-9.6612 -51.7678 -0.2965 0.8101
-7.0336 -48.4151 -0.2755 0.8223
-4.1331 -39.5866 -0.2241 0.8528
-3.2343 -38.4529 -0.2173 0.8570
-2.3883 -37.3858 -0.2109 0.8608
-0.8348 -35.4264 -0.1995 0.8678
-0.1188 -34.5233 -0.1944 0.8710
0.5614 -33.6653 -0.1896 0.8740
1.2092 -32.8483 -0.1851 0.8768
3.5256 -29.9266 -0.1697 0.8864
4.0467 -29.2694 -0.1664 0.8885
4.5480 -28.6370 -0.1632 0.8905
5.9484 -26.8707 -0.1549 0.8958
6.3846 -26.3205 -0.1525 0.8973
6.8073 -25.7873 -0.1502 0.8988
7.2175 -25.2700 -0.1480 0.9002
7.6161 -24.7673 -0.1459 0.9015
8.3813 -23.8021 -0.1421 0.9040
76.1703 -54.6463 -2.6397 0.6872
77.1460 -53.0285 -2.6360 0.6876
78.9907 -49.7402 -2.6284 0.6883
80.6900 -46.3859 -2.6207 0.6891
81.4850 -44.6865 -2.6168 0.6894
82.2433 -42.9734 -2.6129 0.6898
82.7710 -41.1510 -2.6028 0.6908
78.5531 -37.1023 -2.4462 0.7064
79.7324 -33.8067 -2.4386 0.7071
80.2690 -32.1449 -2.4347 0.7075
68.3360 -22.6878 -2.0275 0.7497
55.5094 -12.4108 -1.6016 0.7964
52.8860 -10.7120 -1.5194 0.8058
51.5512 -9.3662 -1.4753 0.8109
49.5798 -7.9812 -1.4140 0.8180
48.2169 -6.7698 -1.3710 0.8230
43.8403 -3.4766 -1.2383 0.8386
42.6284 -2.5188 -1.2024 0.8429
41.4878 -1.6147 -1.1691 0.8469
40.4082 -0.7591 -1.1380 0.8507
41.2588 0.8852 -1.1620 0.8478
28.4276 1.1824 -0.8012 0.8924
43.3716 3.5560 -1.2254 0.8402
44.1300 4.5135 -1.2491 0.8374
44.9186 5.5093 -1.2743 0.8344
45.7374 6.5462 -1.3010 0.8312
35.7863 5.8589 -1.0211 0.8649
48.6598 9.9913 -1.3987 0.8197
49.7953 11.2729 -1.4376 0.8152
50.3521 12.4689 -1.4606 0.8126
52.5849 15.2912 -1.5420 0.8032
54.2242 16.9581 -1.5998 0.7966
57.0005 20.3776 -1.7045 0.7849
39.4731 19.7564 -1.2429 0.8381
38.7093 20.3579 -1.2315 0.8394
37.9591 20.9488 -1.2208 0.8407
37.3524 21.6055 -1.2150 0.8414
36.4957 22.1015 -1.2014 0.8430
35.9065 22.7443 -1.1968 0.8436
35.0758 23.2198 -1.1845 0.8451
34.5012 23.8513 -1.1810 0.8455
32.7994 24.6821 -1.1559 0.8485
32.4559 25.4622 -1.1616 0.8478
30.3630 26.9318 -1.1428 0.8501
29.8180 27.5399 -1.1429 0.8501
28.4265 28.4571 -1.1326 0.8513
27.1509 29.4605 -1.1281 0.8519
26.6100 30.0654 -1.1305 0.8516
25.2334 30.9329 -1.1240 0.8524
24.5705 31.3888 -1.1224 0.8526
23.4191 32.5339 -1.1287 0.8518
21.4529 33.9487 -1.1308 0.8515
44.0245 72.8739 -2.3974 0.7113
41.2976 75.0219 -2.4114 0.7099
39.9210 76.1062 -2.4199 0.7090
17.4799 36.8564 -1.1486 0.8494
16.8167 37.3822 -1.1542 0.8487
12.6709 40.6692 -1.1994 0.8433
11.9454 41.2445 -1.2091 0.8421
9.8500 39.9609 -1.1589 0.8482
8.6614 38.4517 -1.1098 0.8541
4.7571 33.4946 -0.9526 0.8734
3.9464 32.4653 -0.9209 0.8773
2.0415 33.6406 -0.9490 0.8738
1.3839 34.1585 -0.9626 0.8721
0.7070 34.6918 -0.9771 0.8704
0.0091 35.2058 -0.9913 0.8686
-1.4390 35.9748 -1.0138 0.8658
-2.2007 36.5748 -1.0317 0.8636
-4.6615 38.5133 -1.0924 0.8562
-5.5486 39.2121 -1.1151 0.8534
-7.4404 40.7023 -1.1651 0.8474
-8.3534 41.0141 -1.1786 0.8458
-17.9760 79.9954 -2.3087 0.7203
-21.2026 79.2946 -2.3112 0.7200
-22.8066 78.8979 -2.3126 0.7199
-24.4036 78.4697 -2.3139 0.7198
-27.5633 77.4891 -2.3159 0.7196
-29.1302 76.9552 -2.3169 0.7195
-30.6875 76.3910 -2.3181 0.7193
-32.2348 75.7978 -2.3193 0.7192
-33.7718 75.1756 -2.3206 0.7191
-36.8125 73.8447 -2.3234 0.7188
-33.5837 64.1046 -2.0378 0.7486
-34.5620 62.8625 -2.0200 0.7505
-35.5239 61.6412 -2.0033 0.7522
-36.4703 60.4396 -1.9877 0.7539
-38.3215 58.0893 -1.9595 0.7569
-41.0092 54.6770 -1.9245 0.7607
-41.8851 53.5650 -1.9147 0.7618
-44.4643 50.2904 -1.8902 0.7644
-46.1515 48.1483 -1.8780 0.7658
-46.9876 47.0868 -1.8731 0.7663
-48.6485 44.9781 -1.8656 0.7671
-50.2989 42.8829 -1.8612 0.7676
-51.1218 41.8382 -1.8601 0.7677
-51.9440 40.7943 -1.8598 0.7677
-52.7664 39.7502 -1.8602 0.7677
-54.4139 37.6586 -1.8633 0.7674
-55.2403 36.6094 -1.8660 0.7671
-56.0696 35.5566 -1.8695 0.7667
-56.9022 34.4995 -1.8737 0.7662
-79.5687 32.1588 -2.4166 0.7093
-80.3188 30.5971 -2.4201 0.7090
-81.0398 29.0188 -2.4238 0.7086
-83.6227 22.5487 -2.4387 0.7071
-84.1910 20.8946 -2.4426 0.7067
-85.2339 17.5468 -2.4503 0.7059
-85.7069 15.8540 -2.4543 0.7055
-86.1476 14.1494 -2.4582 0.7051
-86.5553 12.4338 -2.4622 0.7047
-87.5779 7.2259 -2.4744 0.7035
-88.2934 1.9399 -2.4868 0.7023
-88.4627 0.1636 -2.4909 0.7019
-55.5387 -3.2530 -1.5665 0.8004
-88.0136 -8.7188 -2.4904 0.7019
-86.5591 -17.4861 -2.4866 0.7023
-86.1522 -19.2156 -2.4855 0.7024
-85.2243 -22.6427 -2.4830 0.7027
-84.7037 -24.3386 -2.4816 0.7028
-84.1466 -26.0222 -2.4801 0.7030
-42.3974 -14.0519 -1.2577 0.8363
-44.2992 -16.6882 -1.3329 0.8274
-71.3743 -28.5403 -2.1645 0.7352
-68.6317 -30.7008 -2.1171 0.7402
-58.2661 -28.9307 -1.8318 0.7708
-63.3685 -47.3706 -2.2278 0.7286
-67.8647 -52.8927 -2.4228 0.7087
-72.5588 -58.9355 -2.6321 0.6879
-71.4601 -60.4691 -2.6359 0.6876
-69.1621 -63.4710 -2.6432 0.6869
-66.7327 -66.3805 -2.6504 0.6862
-65.4705 -67.7992 -2.6539 0.6858
-23.5298 -26.4152 -0.9961 0.8680
-56.4484 -68.7502 -2.5048 0.7005
-35.4547 -44.9975 -1.6131 0.7951
-35.6385 -47.1519 -1.6643 0.7894
-50.9743 -73.4040 -2.5164 0.6993
-46.4763 -69.8869 -2.3633 0.7147
-27.2528 -56.9932 -1.7788 0.7766
-26.2247 -57.8030 -1.7873 0.7757
-23.7610 -66.0253 -1.9759 0.7552
-18.6338 -59.1444 -1.7461 0.7803
-17.1270 -58.4384 -1.7147 0.7837
-14.4613 -57.8748 -1.6797 0.7876
-10.5907 -51.0330 -1.4676 0.8117
-9.6608 -51.7654 -1.4828 0.8100
-7.0880 -48.7901 -1.3883 0.8210
-1.4120 -11.3147 -0.3211 0.9554
-4.1329 -39.5840 -1.1207 0.8528
-3.2341 -38.4505 -1.0865 0.8569
-1.5835 -36.2310 -1.0212 0.8649
0.5614 -33.6634 -0.9480 0.8740
2.9830 -30.6092 -0.8660 0.8842
3.5254 -29.9252 -0.8485 0.8864
5.0310 -28.0262 -0.8018 0.8923
5.9481 -26.8695 -0.7749 0.8957
6.3843 -26.3194 -0.7626 0.8973
6.8071 -25.7862 -0.7510 0.8988
7.2172 -25.2689 -0.7400 0.9002
8.0034 -24.2773 -0.7198 0.9028
41.8357 -28.7570 -2.5746 0.8160
42.3731 -27.8881 -2.5726 0.8161
43.8737 -25.2214 -2.5665 0.8165
45.2035 -22.4737 -2.5601 0.8169
45.6081 -21.5417 -2.5580 0.8171
45.9932 -20.6024 -2.5558 0.8172
46.3586 -19.6561 -2.5536 0.8174
47.0300 -17.7446 -2.5492 0.8176
47.6218 -15.8106 -2.5447 0.8179
47.6142 -13.7081 -2.5128 0.8200
45.6451 -12.1523 -2.3955 0.8276
45.6053 -11.1643 -2.3811 0.8286
45.9336 -9.3038 -2.3768 0.8289
46.2828 -6.4982 -2.3702 0.8293
45.3828 -4.5193 -2.3129 0.8330
42.8355 -2.5310 -2.1761 0.8421
40.5275 0.0541 -2.0553 0.8502
41.4854 0.8901 -2.1044 0.8469
28.4206 1.1822 -1.4426 0.8923
42.6475 2.6342 -2.1670 0.8427
43.5296 3.5690 -2.2150 0.8395
46.7638 8.6254 -2.4116 0.8266
37.1402 7.6260 -1.9228 0.8591
38.9816 9.6533 -2.0366 0.8514
45.7995 12.3245 -2.4053 0.8270
45.2096 14.1389 -2.4023 0.8272
44.8882 15.0362 -2.4008 0.8273
43.4300 18.5514 -2.3950 0.8277
42.5995 20.2600 -2.3923 0.8278
38.7110 20.3589 -2.2181 0.8393
36.4972 22.1024 -2.1639 0.8429
35.0773 23.2208 -2.1334 0.8449
34.3817 23.7686 -2.1197 0.8459
31.7894 25.9892 -2.0824 0.8484
30.3642 26.9329 -2.0584 0.8500
29.0694 27.9528 -2.0452 0.8508
28.4276 28.4583 -2.0399 0.8512
27.7889 28.9613 -2.0355 0.8515
27.1520 29.4617 -2.0319 0.8517
26.5178 29.9612 -2.0291 0.8519
25.8851 30.4596 -2.0272 0.8521
22.7254 32.9484 -2.0299 0.8519
21.6417 41.2582 -2.3628 0.8298
16.8174 37.3838 -2.0789 0.8486
16.1473 37.9150 -2.0899 0.8478
8.3047 24.8813 -1.3303 0.9003
12.6714 40.6710 -2.1604 0.8431
11.1501 41.6140 -2.1849 0.8415
6.5609 35.7869 -1.8451 0.8644
5.6264 34.6003 -1.7778 0.8690
3.9467 32.4674 -1.6587 0.8772
2.5571 31.6065 -1.6081 0.8807
1.9472 32.0870 -1.6303 0.8792
0.6743 33.0897 -1.6785 0.8759
0.0087 33.6141 -1.7047 0.8740
-0.6784 34.1553 -1.7325 0.8721
-3.5179 34.9449 -1.7812 0.8688
-4.4438 36.7142 -1.8755 0.8623
-5.2894 37.3803 -1.9146 0.8597
-8.9577 39.8627 -2.0720 0.8490
-11.0553 44.9505 -2.3476 0.8308
-12.8147 44.3316 -2.3403 0.8313
-14.5878 43.7811 -2.3403 0.8312
-16.3354 43.1541 -2.3401 0.8313
-21.4313 40.9081 -2.3421 0.8311
-23.0716 40.0339 -2.3433 0.8311
-23.8768 39.5692 -2.3438 0.8310
-28.5146 36.4662 -2.3476 0.8308
-29.2656 35.9135 -2.3495 0.8306
-29.9837 35.3193 -2.3496 0.8306
-30.6907 34.7120 -2.3498 0.8306
-31.4073 34.1142 -2.3516 0.8305
-33.4481 32.1965 -2.3545 0.8303
-34.0859 31.5142 -2.3543 0.8303
-34.7331 30.8399 -2.3556 0.8302
-35.9731 29.4405 -2.3574 0.8301
-36.5824 28.7300 -2.3590 0.8300
-37.7120 27.2377 -2.3592 0.8300
-38.8079 25.7192 -2.3611 0.8299
-39.3384 24.9465 -2.3623 0.8298
-40.3344 23.3581 -2.3638 0.8297
-41.6942 20.8948 -2.3652 0.8296
-42.1104 20.0539 -2.3654 0.8296
-42.5200 19.2094 -2.3662 0.8296
-43.9840 15.7498 -2.3693 0.8293
-44.5913 13.9708 -2.3698 0.8293
-44.8706 13.0730 -2.3702 0.8293
-45.3855 11.2638 -2.3715 0.8292
-45.6052 10.3491 -2.3716 0.8292
-45.8074 9.4302 -2.3718 0.8292
-45.9935 8.5079 -2.3721 0.8292
-46.1644 7.5823 -2.3726 0.8291
-46.3119 6.6528 -2.3728 0.8291
-46.4379 5.7200 -2.3729 0.8291
-46.5493 4.7852 -2.3732 0.8291
-46.6386 3.8480 -2.3733 0.8291
-46.7555 1.9689 -2.3733 0.8291
-46.7852 1.0279 -2.3732 0.8291
-46.7114 -2.7360 -2.3730 0.8291
-46.6435 -3.6748 -2.3728 0.8291
-46.3196 -6.4791 -2.3719 0.8292
-46.1725 -7.4084 -2.3715 0.8292
-45.6122 -10.1734 -2.3700 0.8293
-45.2106 -12.0117 -2.3724 0.8291
-42.3953 -14.0512 -2.2651 0.8362
-43.9766 -16.5667 -2.3832 0.8284
-43.5590 -18.4427 -2.3989 0.8274
-44.7742 -20.0287 -2.4875 0.8216
-45.0210 -22.3542 -2.5492 0.8177
-44.1620 -24.1890 -2.5536 0.8174
-42.7313 -26.8770 -2.5601 0.8169
-41.6843 -28.6213 -2.5643 0.8167
-39.9783 -31.1585 -2.5705 0.8163
-39.3741 -31.9814 -2.5725 0.8161
-38.1142 -33.5908 -2.5765 0.8159
-37.4587 -34.3764 -2.5784 0.8158
-36.0983 -35.9078 -2.5822 0.8155
-35.3939 -36.6529 -2.5840 0.8154
-24.0634 -25.9441 -1.7946 0.8679
-29.7132 -37.7106 -2.4348 0.8251
-28.9667 -38.3247 -2.4363 0.8250
-28.2073 -38.9237 -2.4378 0.8249
-27.4351 -39.5070 -2.4393 0.8248
-26.6503 -40.0744 -2.4407 0.8247
-25.8536 -40.6256 -2.4421 0.8246
-22.5521 -42.6630 -2.4473 0.8243
-20.8378 -43.5776 -2.4497 0.8241
-19.9660 -44.0080 -2.4508 0.8240
-17.2969 -45.1894 -2.4539 0.8238
-16.3909 -45.5457 -2.4548 0.8238
-14.5560 -46.2013 -2.4566 0.8237
-10.8081 -47.2792 -2.4596 0.8235
-8.6677 -46.4441 -2.3960 0.8276
-7.7602 -46.7816 -2.4049 0.8270
-6.3244 -43.5333 -2.2309 0.8385
-1.4117 -11.3129 -0.5782 0.9554
-4.1326 -39.5814 -2.0183 0.8527
-3.2339 -38.4480 -1.9567 0.8568
-2.3880 -37.3812 -1.8996 0.8607
-1.5834 -36.2288 -1.8391 0.8648
-0.8347 -35.4223 -1.7969 0.8677
-0.1188 -34.5194 -1.7506 0.8709
1.8196 -31.9371 -1.6223 0.8797
2.9829 -30.6077 -1.5596 0.8841
3.5252 -29.9237 -1.5280 0.8863
5.0308 -28.0249 -1.4440 0.8922
5.4751 -27.3268 -1.4134 0.8944
5.9478 -26.8683 -1.3956 0.8956
7.2169 -25.2678 -1.3327 0.9001
8.0031 -24.2763 -1.2963 0.9027
28.2914 -20.2969 -2.5530 0.8697
30.1058 -17.3068 -2.5462 0.8700
30.4309 -16.6884 -2.5448 0.8701
30.7431 -16.0637 -2.5433 0.8701
31.0423 -15.4332 -2.5419 0.8702
31.3285 -14.7971 -2.5404 0.8703
31.6014 -14.1556 -2.5389 0.8703
31.8610 -13.5092 -2.5374 0.8704
32.1072 -12.8578 -2.5359 0.8705
32.3400 -12.2020 -2.5344 0.8705
32.9569 -10.2105 -2.5298 0.8708
33.2997 -8.8655 -2.5267 0.8709
33.4504 -8.1888 -2.5251 0.8710
33.5872 -7.5095 -2.5235 0.8711
33.8193 -6.1446 -2.5203 0.8712
33.9145 -5.4595 -2.5187 0.8713
34.0469 -3.3905 -2.5087 0.8718
33.2750 -2.6388 -2.4475 0.8747
32.2365 -1.9048 -2.3678 0.8785
32.1079 -0.6032 -2.3546 0.8792
32.0928 0.0429 -2.3531 0.8792
32.0646 0.6880 -2.3516 0.8793
31.9695 1.9747 -2.3485 0.8794
31.9027 2.6157 -2.3470 0.8795
31.6256 4.5265 -2.3425 0.8797
15.8151 3.9164 -1.1946 0.9367
15.3668 4.4685 -1.1734 0.9378
30.6265 10.9490 -2.3848 0.8777
30.3894 11.5588 -2.3840 0.8777
29.9948 12.8125 -2.3915 0.8774
29.7940 13.4400 -2.3965 0.8771
29.3398 14.6865 -2.4058 0.8767
28.0517 16.9879 -2.4046 0.8768
27.6943 17.5424 -2.4037 0.8768
21.2111 14.6636 -1.8906 0.9017
26.5580 19.1609 -2.4012 0.8769
24.9000 21.2067 -2.3981 0.8771
24.0126 22.1781 -2.3967 0.8771
23.5550 22.6503 -2.3961 0.8772
23.0884 23.1133 -2.3954 0.8772
21.6358 24.4453 -2.3936 0.8773
21.1346 24.8697 -2.3930 0.8773
19.5834 26.0823 -2.3915 0.8774
19.0510 26.4658 -2.3910 0.8774
17.9644 27.2008 -2.3901 0.8774
17.4107 27.5521 -2.3897 0.8775
16.2834 28.2215 -2.3890 0.8775
15.1310 28.8460 -2.3884 0.8775
13.9553 29.4247 -2.3878 0.8776
13.3592 29.6966 -2.3876 0.8776
12.7580 29.9568 -2.3874 0.8776
12.1519 30.2050 -2.3872 0.8776
6.6004 18.5257 -1.4420 0.9242
8.2118 24.6029 -1.9018 0.9012
9.6500 30.9732 -2.3787 0.8780
7.7290 31.3560 -2.3679 0.8785
7.0973 31.5080 -2.3681 0.8785
5.8254 31.7746 -2.3686 0.8785
5.1856 31.8892 -2.3689 0.8785
4.5275 31.8779 -2.3608 0.8789
3.8661 31.8046 -2.3491 0.8794
1.8765 30.9221 -2.2714 0.8832
1.2721 31.3982 -2.3041 0.8816
0.0085 31.9013 -2.3391 0.8799
-0.6332 31.8816 -2.3381 0.8799
-1.9128 31.7902 -2.3351 0.8801
-2.5507 31.7293 -2.3340 0.8801
-3.8258 31.6092 -2.3346 0.8801
-6.3484 31.1697 -2.3324 0.8802
-8.8351 30.5644 -2.3328 0.8802
-9.4453 30.3711 -2.3321 0.8802
-10.6675 29.9901 -2.3339 0.8801
-11.8589 29.5206 -2.3326 0.8802
-12.4473 29.2689 -2.3321 0.8802
-13.0387 29.0240 -2.3330 0.8802
-13.6247 28.7658 -2.3338 0.8802
-14.1971 28.4789 -2.3332 0.8802
-14.7639 28.1815 -2.3327 0.8802
-15.3249 27.8734 -2.3323 0.8802
-15.8892 27.5710 -2.3332 0.8802
-16.4447 27.2525 -2.3338 0.8802
-14.2419 22.5631 -1.9564 0.8985
-18.0522 26.2019 -2.3330 0.8802
-18.5860 25.8478 -2.3343 0.8801
-19.1007 25.4666 -2.3341 0.8801
-20.6009 24.2668 -2.3340 0.8801
-21.0927 23.8563 -2.3349 0.8801
-21.5663 23.4251 -2.3346 0.8801
-22.5024 22.5498 -2.3358 0.8801
-23.8165 21.1471 -2.3353 0.8801
-24.6584 20.1805 -2.3363 0.8800
-25.4513 19.1731 -2.3364 0.8800
-25.8388 18.6622 -2.3370 0.8800
-26.5661 17.6061 -2.3368 0.8800
-26.9142 17.0677 -2.3368 0.8800
-27.2513 16.5224 -2.3367 0.8800
-27.5864 15.9755 -2.3374 0.8800
-27.9015 15.4170 -2.3373 0.8800
-28.2050 14.8521 -2.3372 0.8800
-28.5031 14.2842 -2.3377 0.8800
-29.0543 13.1259 -2.3376 0.8800
-29.5624 11.9481 -2.3379 0.8800
-30.0162 10.7482 -2.3377 0.8800
-30.4221 9.5315 -2.3375 0.8800
-30.6062 8.9171 -2.3374 0.8800
-30.7782 8.2993 -2.3373 0.8800
-30.9378 7.6782 -2.3372 0.8800
-31.0845 7.0539 -2.3371 0.8800
-31.3411 5.7975 -2.3370 0.8800
-31.6268 3.8956 -2.3365 0.8800
-31.7984 2.6236 -2.3394 0.8799
-31.8652 1.9847 -2.3409 0.8798
-31.9603 0.7022 -2.3440 0.8797
-31.9885 0.0592 -2.3455 0.8796
-32.0039 -0.5847 -2.3470 0.8795
-31.9725 -2.5189 -2.3516 0.8793
-31.9360 -3.1637 -2.3531 0.8792
-31.8865 -3.8079 -2.3546 0.8792
-33.6063 -6.0880 -2.5042 0.8720
-33.4840 -7.4683 -2.5154 0.8715
-33.3483 -8.1456 -2.5171 0.8714
-32.6685 -10.8274 -2.5235 0.8711
-32.2468 -12.1479 -2.5266 0.8709
-32.0159 -12.8021 -2.5282 0.8708
-30.3515 -16.6245 -2.5374 0.8704
-30.0286 -17.2418 -2.5389 0.8703
-29.6929 -17.8528 -2.5404 0.8703
-28.2258 -20.2278 -2.5461 0.8700
-27.4193 -21.3702 -2.5489 0.8699
-26.5657 -22.4798 -2.5517 0.8697
-25.6665 -23.5545 -2.5543 0.8696
-24.6943 -24.5640 -2.5539 0.8696
-22.7588 -23.5683 -2.4023 0.8769
-22.2907 -24.0329 -2.4034 0.8768
-21.8130 -24.4879 -2.4045 0.8768
-21.3258 -24.9332 -2.4057 0.8767
-17.6670 -27.7615 -2.4128 0.8764
-14.8164 -29.4479 -2.4171 0.8762
-14.2255 -29.7495 -2.4179 0.8761
-12.4164 -30.5809 -2.4200 0.8760
-11.8019 -30.8329 -2.4207 0.8760
-11.1822 -31.0723 -2.4213 0.8759
-10.5576 -31.2989 -2.4219 0.8759
-9.9281 -31.5123 -2.4225 0.8759
-8.6563 -31.9003 -2.4236 0.8758
-6.7202 -32.3825 -2.4249 0.8758
-4.7573 -32.7432 -2.4260 0.8757
-1.4115 -11.3110 -0.8358 0.9553
-2.1102 -33.0336 -2.4270 0.8757
-0.1138 -33.1064 -2.4274 0.8757
1.2090 -32.8430 -2.4098 0.8765
5.0306 -28.0235 -2.0876 0.8921
5.9476 -26.8671 -2.0176 0.8955
6.8065 -25.7839 -1.9553 0.8986
21.8005 -14.9852 -2.5397 0.8992
22.0887 -14.5378 -2.5387 0.8992
22.3675 -14.0847 -2.5377 0.8992
23.3879 -12.2205 -2.5334 0.8994
23.8397 -11.2600 -2.5312 0.8995
24.0507 -10.7734 -2.5301 0.8995
24.6234 -9.2905 -2.5266 0.8996
24.7939 -8.7892 -2.5255 0.8997
25.3725 -6.7550 -2.5207 0.8999
25.6969 -5.2049 -2.5171 0.9000
25.9263 -3.6401 -2.5135 0.9001
25.9816 -3.1163 -2.5122 0.9002
26.0262 -2.5917 -2.5110 0.9002
26.0603 -2.0666 -2.5098 0.9003
26.0837 -1.5412 -2.5085 0.9003
26.0966 -1.0157 -2.5073 0.9004
26.0988 -0.4903 -2.5061 0.9004
26.0905 0.0348 -2.5048 0.9005
26.0716 0.5594 -2.5036 0.9005
26.0422 1.0832 -2.5023 0.9006
25.3358 2.0773 -2.4405 0.9029
17.9499 2.9387 -1.7462 0.9295
15.9573 3.6125 -1.5707 0.9364
14.6999 4.2746 -1.4697 0.9403
14.5413 4.5476 -1.4627 0.9406
14.4364 4.8357 -1.4616 0.9407
14.5677 5.2079 -1.4853 0.9397
22.3147 9.5319 -2.3296 0.9071
22.1083 9.9742 -2.3285 0.9071
21.9003 10.4156 -2.3282 0.9071
21.6927 10.8573 -2.3289 0.9071
11.0493 5.8110 -1.1985 0.9511
10.8957 6.0131 -1.1948 0.9512
10.8719 6.2886 -1.2058 0.9508
20.7740 12.5806 -2.3316 0.9070
20.5225 12.9996 -2.3323 0.9070
19.9935 13.8218 -2.3335 0.9069
19.4310 14.6222 -2.3347 0.9069
19.1369 15.0137 -2.3352 0.9069
17.8677 16.5025 -2.3351 0.9069
17.5320 16.8586 -2.3351 0.9069
16.1210 18.2146 -2.3352 0.9069
15.7520 18.5357 -2.3353 0.9069
15.3766 18.8496 -2.3354 0.9069
13.4102 20.3048 -2.3361 0.9068
12.9999 20.5723 -2.3363 0.9068
12.5847 20.8315 -2.3365 0.9068
12.1636 21.0807 -2.3366 0.9068
11.3017 21.5459 -2.3358 0.9069
9.9758 22.1755 -2.3345 0.9069
9.5259 22.3670 -2.3340 0.9069
9.0721 22.5495 -2.3335 0.9069
8.6140 22.7233 -2.3330 0.9070
6.6007 18.5265 -1.8881 0.9240
7.6905 23.0412 -2.3320 0.9070
7.2238 23.1866 -2.3316 0.9070
6.7545 23.3224 -2.3311 0.9070
6.2828 23.4485 -2.3306 0.9071
5.8087 23.5653 -2.3301 0.9071
5.3331 23.6763 -2.3300 0.9071
4.8570 23.7845 -2.3306 0.9071
2.9285 24.0909 -2.3299 0.9071
0.4940 24.2398 -2.3276 0.9072
-1.9427 24.1665 -2.3276 0.9072
-2.4258 24.1161 -2.3272 0.9072
-3.3962 24.0010 -2.3272 0.9072
-5.3137 23.6466 -2.3268 0.9072
-7.1984 23.1463 -2.3271 0.9072
-7.6614 22.9933 -2.3268 0.9072
-8.1212 22.8312 -2.3264 0.9072
-9.0306 22.4799 -2.3258 0.9072
-9.4798 22.2911 -2.3255 0.9072
-9.9275 22.0985 -2.3258 0.9072
-10.3727 21.8999 -2.3264 0.9072
-10.8098 21.6842 -2.3261 0.9072
-11.6707 21.2271 -2.3256 0.9072
-12.0942 20.9860 -2.3254 0.9073
-14.1411 19.6663 -2.3255 0.9073
-14.5329 19.3765 -2.3253 0.9073
-14.9187 19.0789 -2.3252 0.9073
-15.3029 18.7792 -2.3257 0.9072
-17.7866 16.4446 -2.3256 0.9072
-18.7435 15.3397 -2.3253 0.9073
-19.0512 14.9618 -2.3256 0.9072
-19.3475 14.5749 -2.3255 0.9072
-20.1912 13.3813 -2.3255 0.9073
-20.4553 12.9718 -2.3254 0.9073
-20.7110 12.5570 -2.3253 0.9073
-21.1973 11.7126 -2.3250 0.9073
-21.4277 11.2833 -2.3249 0.9073
-21.8627 10.4115 -2.3248 0.9073
-22.2616 9.5227 -2.3245 0.9073
-22.6445 8.6264 -2.3264 0.9072
-22.8237 8.1727 -2.3274 0.9072
-17.0780 5.7304 -1.7294 0.9302
-23.1551 7.2547 -2.3296 0.9071
-23.3071 6.7905 -2.3306 0.9071
-23.8223 4.9042 -2.3350 0.9069
-23.9275 4.4261 -2.3361 0.9068
-24.1094 3.4633 -2.3384 0.9068
-24.2527 2.4932 -2.3407 0.9067
-25.9840 0.0481 -2.4946 0.9009
-26.0343 -0.4756 -2.4998 0.9007
-26.0324 -0.9998 -2.5011 0.9006
-25.9632 -2.5720 -2.5048 0.9005
-25.9190 -3.0953 -2.5060 0.9004
-25.8642 -3.6178 -2.5073 0.9004
-25.4326 -6.2121 -2.5134 0.9001
-24.8991 -8.2524 -2.5183 0.9000
-24.5705 -9.2561 -2.5207 0.8999
-24.3908 -9.7531 -2.5219 0.8998
-23.7914 -11.2222 -2.5254 0.8997
-23.5717 -11.7040 -2.5266 0.8996
-23.1028 -12.6542 -2.5289 0.8996
-22.8538 -13.1222 -2.5300 0.8995
-22.5952 -13.5853 -2.5312 0.8995
-22.3272 -14.0433 -2.5323 0.8994
-21.7630 -14.9429 -2.5345 0.8994
-21.1621 -15.8196 -2.5366 0.8993
-20.8482 -16.2488 -2.5376 0.8992
-20.5255 -16.6717 -2.5387 0.8992
-17.6399 -17.5468 -2.3887 0.9049
-17.2897 -17.9047 -2.3896 0.9048
-16.9322 -18.2556 -2.3904 0.9048
-15.4313 -19.5847 -2.3937 0.9047
-15.0391 -19.8976 -2.3945 0.9046
-14.2355 -20.4994 -2.3960 0.9046
-12.9846 -21.3397 -2.3982 0.9045
-12.5563 -21.6026 -2.3988 0.9045
-10.7902 -22.5654 -2.4013 0.9044
-10.3365 -22.7833 -2.4019 0.9044
-9.8784 -22.9918 -2.4024 0.9043
-9.4159 -23.1910 -2.4030 0.9043
-8.9494 -23.3805 -2.4035 0.9043
-8.4789 -23.5606 -2.4039 0.9043
-7.5271 -23.8914 -2.4048 0.9042
-7.0462 -24.0421 -2.4052 0.9042
-5.5858 -24.4345 -2.4063 0.9042
-5.0938 -24.5452 -2.4067 0.9042
-4.5995 -24.6457 -2.4070 0.9042
-4.1032 -24.7362 -2.4072 0.9042
-1.4113 -11.3091 -1.0942 0.9552
-2.6045 -24.9454 -2.4079 0.9041
-1.0953 -25.0619 -2.4084 0.9041
-0.0863 -25.0875 -2.4085 0.9041
0.4183 -25.0847 -2.4086 0.9041
0.9229 -25.0715 -2.4086 0.9041
1.9307 -25.0139 -2.4086 0.9041
2.4334 -24.9696 -2.4086 0.9041
2.9351 -24.9149 -2.4085 0.9041
3.9346 -24.7744 -2.4083 0.9041
4.4319 -24.6888 -2.4081 0.9041
4.9274 -24.5929 -2.4080 0.9041
5.4207 -24.4869 -2.4078 0.9041
5.9116 -24.3707 -2.4076 0.9041
6.8857 -24.1082 -2.4071 0.9042
8.3241 -23.6397 -2.4061 0.9042
17.5685 -12.0762 -2.5324 0.9177
17.8021 -11.7165 -2.5315 0.9177
18.0283 -11.3523 -2.5307 0.9178
18.6613 -10.2339 -2.5281 0.9178
19.2244 -9.0801 -2.5255 0.9179
19.7157 -7.8954 -2.5228 0.9180
19.8632 -7.4945 -2.5218 0.9180
20.0026 -7.0907 -2.5209 0.9181
20.1336 -6.6844 -2.5200 0.9181
20.5744 -5.0367 -2.5161 0.9182
20.6636 -4.6200 -2.5151 0.9182
20.7443 -4.2017 -2.5142 0.9183
20.8802 -3.3612 -2.5122 0.9183
20.9353 -2.9394 -2.5112 0.9184
21.0200 -2.0932 -2.5092 0.9184
21.0495 -1.6693 -2.5082 0.9185
21.0469 0.8754 -2.5022 0.9186
21.0166 1.2981 -2.5012 0.9187
20.9779 1.7200 -2.5002 0.9187
20.8751 2.5604 -2.4982 0.9188
20.8111 2.9786 -2.4973 0.9188
18.0135 2.9491 -2.1682 0.9291
17.1846 3.1696 -2.0757 0.9320
16.5095 3.3899 -2.0020 0.9344
15.8711 3.5930 -1.9330 0.9366
14.7960 3.9816 -1.8201 0.9401
14.4591 4.2046 -1.7887 0.9411
14.3208 4.7970 -1.7940 0.9410
14.4164 5.1539 -1.8186 0.9402
12.7669 4.8560 -1.6225 0.9465
12.4648 5.0304 -1.5967 0.9473
12.1879 5.2062 -1.5743 0.9480
11.2012 5.0535 -1.4597 0.9517
10.7715 5.1229 -1.4168 0.9531
10.3771 5.1937 -1.3784 0.9543
9.8882 5.4571 -1.3416 0.9555
9.9050 5.7293 -1.3592 0.9550
9.9512 6.5876 -1.4176 0.9531
16.1008 11.1307 -2.3251 0.9242
15.8683 11.4486 -2.3243 0.9242
15.1352 12.3737 -2.3222 0.9243
14.6285 12.9754 -2.3227 0.9243
14.2734 13.1829 -2.3080 0.9247
14.0976 13.5561 -2.3232 0.9242
13.8233 13.8382 -2.3234 0.9242
12.9664 14.6499 -2.3239 0.9242
12.3678 15.1614 -2.3242 0.9242
12.0609 15.4078 -2.3243 0.9242
10.7844 16.3291 -2.3245 0.9242
10.1189 16.7498 -2.3245 0.9242
9.7798 16.9498 -2.3245 0.9242
9.4367 17.1429 -2.3245 0.9242
9.0898 17.3289 -2.3244 0.9242
8.3849 17.6796 -2.3243 0.9242
8.0272 17.8440 -2.3242 0.9242
7.6665 18.0011 -2.3241 0.9242
7.3024 18.1509 -2.3240 0.9242
6.9354 18.2933 -2.3239 0.9242
6.5394 18.3543 -2.3145 0.9245
4.6828 18.9977 -2.3242 0.9242
3.9142 19.1679 -2.3239 0.9242
3.5276 19.2413 -2.3237 0.9242
2.7503 19.3646 -2.3233 0.9242
1.9688 19.4564 -2.3230 0.9242
0.0050 19.5571 -2.3231 0.9242
-0.3884 19.5515 -2.3229 0.9243
-1.5665 19.4873 -2.3223 0.9243
-2.7394 19.3588 -2.3224 0.9243
-3.5155 19.2315 -2.3223 0.9243
-3.9014 19.1553 -2.3221 0.9243
-4.3789 17.8043 -2.1779 0.9288
-4.7077 17.6060 -2.1648 0.9292
-2.9682 10.2682 -1.2697 0.9579
-3.1989 9.6004 -1.2020 0.9601
-7.2842 18.1328 -2.3212 0.9243
-8.3630 17.6568 -2.3207 0.9243
-9.0656 17.3044 -2.3205 0.9243
-9.7552 16.9273 -2.3207 0.9243
-10.4269 16.5191 -2.3204 0.9243
-6.1898 8.9841 -1.2960 0.9570
-11.4027 15.8578 -2.3201 0.9243
-11.7187 15.6244 -2.3200 0.9243
-12.0318 15.3871 -2.3202 0.9243
-12.3384 15.1412 -2.3201 0.9243
-12.6399 14.8892 -2.3200 0.9243
-13.2285 14.3687 -2.3200 0.9243
-13.7946 13.8237 -2.3198 0.9243
-14.3379 13.2562 -2.3195 0.9244
-15.1097 12.3658 -2.3193 0.9244
-15.8369 11.4383 -2.3206 0.9243
-16.2944 10.7988 -2.3220 0.9243
-16.5136 10.4721 -2.3228 0.9243
-16.9326 9.8059 -2.3243 0.9242
-17.1321 9.4664 -2.3251 0.9242
-17.5110 8.7755 -2.3266 0.9241
-17.8622 8.0697 -2.3283 0.9241
-19.0864 4.7369 -2.3360 0.9238
-19.1851 4.3536 -2.3369 0.9238
-20.6267 3.3879 -2.4830 0.9192
-20.8879 2.1473 -2.4943 0.9189
-20.9352 1.7273 -2.4953 0.9189
-20.9739 1.3063 -2.4962 0.9188
-21.0043 0.8845 -2.4972 0.9188
-21.0263 0.4620 -2.4982 0.9188
-21.0397 0.0389 -2.4992 0.9187
-21.0446 -0.3845 -2.5002 0.9187
-21.0082 -1.6551 -2.5032 0.9186
-20.9791 -2.0782 -2.5042 0.9186
-20.9414 -2.5009 -2.5052 0.9186
-20.4397 -5.4305 -2.5122 0.9183
-20.2205 -6.2532 -2.5141 0.9183
-19.9681 -7.0670 -2.5161 0.9182
-19.8295 -7.4701 -2.5171 0.9182
-19.3649 -8.6624 -2.5199 0.9181
-19.0149 -9.4414 -2.5218 0.9180
-18.8281 -9.8256 -2.5227 0.9180
-18.6334 -10.2061 -2.5237 0.9180
-18.4310 -10.5827 -2.5246 0.9180
-18.2209 -10.9552 -2.5255 0.9179
-17.7779 -11.6875 -2.5273 0.9179
-17.5453 -12.0470 -2.5281 0.9178
-17.3053 -12.4017 -2.5290 0.9178
-17.0581 -12.7517 -2.5298 0.9178
-16.8037 -13.0966 -2.5307 0.9178
-16.2740 -13.7709 -2.5323 0.9177
-15.7168 -14.4235 -2.5339 0.9177
-15.4282 -14.7413 -2.5347 0.9176
-13.6392 -14.7052 -2.3825 0.9224
-13.3445 -14.9809 -2.3831 0.9224
-13.0441 -15.2506 -2.3838 0.9223
-12.7382 -15.5142 -2.3845 0.9223
-12.4268 -15.7716 -2.3851 0.9223
-11.7885 -16.2671 -2.3864 0.9223
-11.4618 -16.5052 -2.3870 0.9222
-11.1302 -16.7365 -2.3875 0.9222
-10.4528 -17.1787 -2.3887 0.9222
-10.1074 -17.3895 -2.3892 0.9222
-9.4038 -17.7896 -2.3902 0.9221
-9.0459 -17.9789 -2.3907 0.9221
-7.9495 -18.5023 -2.3921 0.9221
-7.5770 -18.6618 -2.3925 0.9221
-6.8224 -18.9576 -2.3933 0.9220
-6.4407 -19.0940 -2.3937 0.9220
-6.0562 -19.2225 -2.3940 0.9220
-5.2794 -19.4558 -2.3946 0.9220
-4.8876 -19.5604 -2.3949 0.9220
-4.0977 -19.7456 -2.3955 0.9220
-3.7000 -19.8259 -2.3957 0.9220
-2.9000 -19.9622 -2.3961 0.9220
-2.0950 -20.0655 -2.3965 0.9219
-1.6910 -20.1048 -2.3966 0.9219
-0.8810 -20.1584 -2.3968 0.9219
0.7423 -20.1658 -2.3970 0.9219
1.5529 -20.1195 -2.3970 0.9219
2.3609 -20.0399 -2.3969 0.9219
2.7634 -19.9878 -2.3969 0.9219
3.1648 -19.9274 -2.3968 0.9219
3.9634 -19.7819 -2.3965 0.9219
4.3603 -19.6969 -2.3964 0.9220
5.1483 -19.5026 -2.3960 0.9220
6.3135 -19.1510 -2.3953 0.9220
6.6967 -19.0180 -2.3950 0.9220
14.4972 -10.4006 -2.5280 0.9305
15.0859 -9.4996 -2.5260 0.9305
15.2697 -9.1916 -2.5253 0.9305
15.4472 -8.8800 -2.5246 0.9305
15.6182 -8.5650 -2.5239 0.9306
15.7827 -8.2467 -2.5231 0.9306
16.3751 -6.9431 -2.5201 0.9307
16.5064 -6.6102 -2.5193 0.9307
16.6309 -6.2749 -2.5186 0.9307
16.8593 -5.5974 -2.5170 0.9307
17.1499 -4.5659 -2.5146 0.9308
17.2327 -4.2186 -2.5138 0.9308
17.3085 -3.8699 -2.5130 0.9309
17.4388 -3.1684 -2.5113 0.9309
17.4933 -2.8160 -2.5105 0.9309
17.5406 -2.4628 -2.5097 0.9309
17.5808 -2.1087 -2.5089 0.9310
17.6138 -1.7540 -2.5080 0.9310
17.6397 -1.3988 -2.5072 0.9310
17.6698 -0.6877 -2.5055 0.9311
17.6443 0.7339 -2.5022 0.9311
17.6201 1.0884 -2.5013 0.9312
17.5047 2.1470 -2.4988 0.9312
17.3261 3.1957 -2.4963 0.9313
17.2526 3.5425 -2.4955 0.9313
14.7752 3.9759 -2.1680 0.9401
15.7984 5.2920 -2.3607 0.9349
13.1145 4.6884 -1.9734 0.9453
12.4679 4.7422 -1.8900 0.9475
11.9238 4.8121 -1.8219 0.9494
11.4402 4.8868 -1.7627 0.9510
10.9801 4.9537 -1.7068 0.9525
10.5693 5.0267 -1.6583 0.9538
10.1979 5.1041 -1.6158 0.9550
9.5742 5.2838 -1.5494 0.9568
9.4918 5.4903 -1.5537 0.9567
9.4445 6.2521 -1.6048 0.9553
9.1779 6.9065 -1.6275 0.9547
12.4967 10.6431 -2.3258 0.9358
12.0523 11.1314 -2.3246 0.9359
11.8229 11.3687 -2.3240 0.9359
11.3504 11.8293 -2.3229 0.9359
11.1075 12.0524 -2.3223 0.9359
10.6088 12.4837 -2.3212 0.9360
10.3532 12.6917 -2.3207 0.9360
10.0936 12.8946 -2.3202 0.9360
9.8300 13.0922 -2.3197 0.9360
8.7426 13.8349 -2.3188 0.9360
8.4628 14.0084 -2.3189 0.9360
7.8929 14.3382 -2.3190 0.9360
7.6030 14.4945 -2.3191 0.9360
7.3100 14.6447 -2.3191 0.9360
6.7151 14.9272 -2.3192 0.9360
6.4135 15.0593 -2.3192 0.9360
5.8033 15.3071 -2.3195 0.9360
5.1829 15.5281 -2.3195 0.9360
4.2367 15.8120 -2.3194 0.9360
3.5971 15.9691 -2.3193 0.9360
2.9517 16.1001 -2.3192 0.9360
2.6271 16.1558 -2.3192 0.9360
2.3015 16.2049 -2.3191 0.9360
1.3198 16.3127 -2.3189 0.9360
0.6625 16.3521 -2.3188 0.9360
0.3335 16.3638 -2.3191 0.9360
0.0042 16.3666 -2.3190 0.9360
-0.6541 16.3521 -2.3188 0.9360
-0.9829 16.3350 -2.3187 0.9360
-1.3112 16.3112 -2.3186 0.9360
-1.6390 16.2808 -2.3185 0.9360
-2.2924 16.2003 -2.3183 0.9360
-2.6177 16.1501 -2.3182 0.9360
-2.9419 16.0935 -2.3181 0.9360
-3.5863 15.9620 -2.3181 0.9360
-3.0363 9.7633 -1.4487 0.9595
-3.1825 9.5513 -1.4265 0.9601
-3.3426 9.3972 -1.4132 0.9605
-3.4547 9.1264 -1.3827 0.9613
-7.0006 14.7803 -2.3172 0.9361
-7.2962 14.6359 -2.3172 0.9361
-8.7274 13.8266 -2.3167 0.9361
-6.0925 8.8430 -1.5215 0.9575
-6.2531 8.6963 -1.5176 0.9577
-9.8135 13.0842 -2.3174 0.9361
-11.3313 11.8216 -2.3202 0.9360
-12.6900 10.3855 -2.3234 0.9359
-12.8995 10.1306 -2.3240 0.9359
-13.3033 9.6085 -2.3252 0.9359
-13.4975 9.3413 -2.3258 0.9358
-13.6863 9.0703 -2.3264 0.9358
-13.8697 8.7955 -2.3270 0.9358
-14.2201 8.2350 -2.3283 0.9358
-14.3869 7.9495 -2.3290 0.9358
-14.7035 7.3686 -2.3303 0.9357
-14.8530 7.0733 -2.3310 0.9357
-15.3919 5.8635 -2.3338 0.9356
-15.5115 5.5544 -2.3345 0.9356
-16.4849 5.1648 -2.4477 0.9326
-16.8231 4.9014 -2.4828 0.9317
-16.9540 4.5716 -2.4880 0.9315
-17.1421 3.8900 -2.4906 0.9314
-17.2224 3.5455 -2.4914 0.9314
-17.5585 1.4487 -2.4963 0.9313
-17.5900 1.0956 -2.4971 0.9313
-17.6143 0.7418 -2.4980 0.9313
-17.6446 -0.3224 -2.5005 0.9312
-17.6405 -0.6775 -2.5013 0.9312
-17.6292 -1.0326 -2.5021 0.9311
-17.6108 -1.3875 -2.5030 0.9311
-17.5852 -1.7420 -2.5038 0.9311
-17.4115 -3.1542 -2.5072 0.9310
-17.2067 -4.2029 -2.5097 0.9309
-17.0349 -4.8948 -2.5113 0.9309
-16.9385 -5.2382 -2.5121 0.9309
-16.8352 -5.5797 -2.5130 0.9309
-16.7249 -5.9192 -2.5138 0.9308
-16.6078 -6.2564 -2.5146 0.9308
-16.4839 -6.5914 -2.5154 0.9308
-16.0715 -7.5808 -2.5178 0.9307
-15.7633 -8.2262 -2.5193 0.9307
-15.4290 -8.8590 -2.5209 0.9306
-14.8798 -9.7822 -2.5231 0.9306
-14.6842 -10.0825 -2.5238 0.9306
-14.4826 -10.3788 -2.5246 0.9305
-14.2749 -10.6711 -2.5253 0.9305
-13.6165 -11.5222 -2.5274 0.9305
-13.3855 -11.7969 -2.5280 0.9305
-13.1489 -12.0670 -2.5287 0.9304
-12.6594 -12.5926 -2.5300 0.9304
