ply
format ascii 1.0
element vertex 1601
property float32 x
property float32 y
property float32 z
property float32 I
end_header
3.0791 -8.2833 -2.5017 0.9639
3.2449 -8.2198 -2.5017 0.9639
4.0530 -7.8529 -2.5017 0.9639
4.3652 -7.6837 -2.5017 0.9639
4.5187 -7.5944 -2.5017 0.9639
4.6704 -7.5021 -2.5017 0.9639
4.8202 -7.4068 -2.5017 0.9639
5.1138 -7.2071 -2.5017 0.9639
5.2576 -7.1029 -2.5017 0.9639
5.5387 -6.8860 -2.5017 0.9639
5.6759 -6.7733 -2.5017 0.9639
5.9435 -6.5398 -2.5017 0.9639
6.0737 -6.4191 -2.5017 0.9639
6.2014 -6.2958 -2.5017 0.9639
6.3266 -6.1699 -2.5017 0.9639
6.4493 -6.0415 -2.5017 0.9639
6.5694 -5.9107 -2.5017 0.9639
7.0227 -5.3642 -2.5017 0.9639
7.3331 -4.9314 -2.5017 0.9639
7.4307 -4.7831 -2.5017 0.9639
7.6169 -4.4807 -2.5017 0.9639
7.7054 -4.3268 -2.5017 0.9639
7.8730 -4.0137 -2.5017 0.9639
8.0279 -3.6942 -2.5017 0.9639
8.1698 -3.3687 -2.5017 0.9639
8.2358 -3.2038 -2.5017 0.9639
8.6036 -2.0177 -2.5017 0.9639
8.7379 -1.3204 -2.5017 0.9639
8.7838 -0.9683 -2.5017 0.9639
8.8157 -0.6146 -2.5017 0.9639
8.8262 -0.4374 -2.5017 0.9639
8.8332 -0.2600 -2.5017 0.9639
8.8367 -0.0825 -2.5017 0.9639
8.8365 0.0951 -2.5017 0.9639
8.8329 0.2726 -2.5017 0.9639
8.7824 0.9809 -2.5017 0.9639
8.7360 1.3329 -2.5017 0.9639
8.7074 1.5082 -2.5017 0.9639
8.6398 1.8568 -2.5017 0.9639
8.6007 2.0300 -2.5017 0.9639
8.4628 2.5444 -2.5017 0.9639
8.2942 3.0496 -2.5017 0.9639
8.1650 3.3804 -2.5017 0.9639
8.0954 3.5437 -2.5017 0.9639
8.0226 3.7057 -2.5017 0.9639
7.9465 3.8661 -2.5017 0.9639
7.7848 4.1822 -2.5017 0.9639
7.6104 4.4916 -2.5017 0.9639
7.4239 4.7937 -2.5017 0.9639
7.3260 4.9419 -2.5017 0.9639
7.1216 5.2323 -2.5017 0.9639
7.0150 5.3743 -2.5017 0.9639
6.9056 5.5141 -2.5017 0.9639
6.6785 5.7871 -2.5017 0.9639
6.5609 5.9201 -2.5017 0.9639
6.3178 6.1789 -2.5017 0.9639
6.0644 6.4278 -2.5017 0.9639
5.9341 6.5483 -2.5017 0.9639
5.8013 6.6662 -2.5017 0.9639
5.6662 6.7814 -2.5017 0.9639
5.3892 7.0036 -2.5017 0.9639
4.9562 7.3136 -2.5010 0.9639
4.4982 7.5848 -2.4964 0.9640
4.3424 7.6692 -2.4950 0.9640
3.7811 7.7300 -2.4361 0.9649
3.5921 7.7334 -2.4139 0.9652
3.0442 7.7435 -2.3554 0.9660
2.5654 7.8923 -2.3493 0.9661
2.0853 8.0325 -2.3493 0.9661
1.9235 8.0727 -2.3493 0.9661
1.7609 8.1097 -2.3493 0.9661
1.5976 8.1435 -2.3493 0.9661
1.4337 8.1739 -2.3493 0.9661
1.2692 8.2011 -2.3493 0.9661
1.1041 8.2249 -2.3493 0.9661
0.7728 8.2627 -2.3493 0.9661
0.6066 8.2765 -2.3493 0.9661
-0.0598 8.2985 -2.3493 0.9661
-0.3931 8.2894 -2.3493 0.9661
-1.2225 8.2082 -2.3493 0.9661
-2.2008 8.0016 -2.3493 0.9661
-2.6789 7.8545 -2.3493 0.9661
-2.8361 7.7991 -2.3493 0.9661
-2.9923 7.7405 -2.3493 0.9661
-3.1632 7.7180 -2.3613 0.9659
-3.3441 7.7139 -2.3801 0.9657
-3.7147 7.7049 -2.4215 0.9651
-3.9049 7.7000 -2.4441 0.9647
-4.0987 7.6948 -2.4681 0.9644
-4.2963 7.6894 -2.4935 0.9640
-4.6080 7.5208 -2.4969 0.9640
-4.7611 7.4311 -2.4984 0.9640
-5.0622 7.2430 -2.5016 0.9639
-5.2069 7.1402 -2.5017 0.9639
-5.3493 7.0341 -2.5017 0.9639
-5.6276 6.8135 -2.5017 0.9639
-5.7634 6.6991 -2.5017 0.9639
-6.0278 6.4622 -2.5017 0.9639
-6.4062 6.0873 -2.5017 0.9639
-6.5272 5.9574 -2.5017 0.9639
-7.0918 5.2727 -2.5017 0.9639
-7.1963 5.1291 -2.5017 0.9639
-7.3965 4.8359 -2.5017 0.9639
-7.4922 4.6863 -2.5017 0.9639
-7.7609 4.2264 -2.5017 0.9639
-7.8443 4.0696 -2.5017 0.9639
-7.9244 3.9112 -2.5017 0.9639
-8.0752 3.5897 -2.5017 0.9639
-8.2129 3.2624 -2.5017 0.9639
-8.2768 3.0967 -2.5017 0.9639
-8.3373 2.9298 -2.5017 0.9639
-8.4483 2.5925 -2.5017 0.9639
-8.5891 2.0788 -2.5017 0.9639
-8.6292 1.9059 -2.5017 0.9639
-8.6987 1.5577 -2.5017 0.9639
-8.7543 1.2069 -2.5017 0.9639
-8.7957 0.8542 -2.5017 0.9639
-8.8111 0.6773 -2.5017 0.9639
-8.8346 -0.2098 -2.5017 0.9639
-8.8286 -0.3872 -2.5017 0.9639
-8.8059 -0.7416 -2.5017 0.9639
-8.7893 -0.9184 -2.5017 0.9639
-8.6528 -1.7953 -2.5017 0.9639
-8.6150 -1.9688 -2.5017 0.9639
-8.5737 -2.1415 -2.5017 0.9639
-5.1706 -6.2786 -2.5017 0.9665
-4.9142 -6.4812 -2.5017 0.9665
-4.7830 -6.5787 -2.5017 0.9665
-4.6498 -6.6734 -2.5017 0.9665
-4.5148 -6.7655 -2.5017 0.9665
-4.0990 -7.0252 -2.5017 0.9665
-3.9571 -7.1061 -2.5017 0.9665
-3.3738 -7.4009 -2.5017 0.9665
-2.4592 -7.7529 -2.5017 0.9665
-2.3030 -7.8008 -2.5017 0.9665
-2.1458 -7.8455 -2.5017 0.9665
-1.9877 -7.8870 -2.5017 0.9665
-1.6693 -7.9605 -2.5017 0.9665
-1.5090 -7.9924 -2.5017 0.9665
-1.3481 -8.0211 -2.5017 0.9665
-0.8624 -8.0878 -2.5017 0.9665
-0.2104 -8.1309 -2.5017 0.9665
-0.0469 -8.1335 -2.5017 0.9665
0.1165 -8.1328 -2.5017 0.9665
0.4431 -8.1215 -2.5017 0.9665
0.6062 -8.1110 -2.5017 0.9665
0.7691 -8.0971 -2.5017 0.9665
1.2554 -8.0361 -2.5017 0.9665
1.7373 -7.9459 -2.5017 0.9665
2.0551 -7.8697 -2.5017 0.9665
2.2128 -7.8268 -2.5017 0.9665
2.3696 -7.7808 -2.5017 0.9665
2.6803 -7.6793 -2.5017 0.9665
2.8340 -7.6239 -2.5017 0.9665
2.9866 -7.5654 -2.5017 0.9665
3.4370 -7.3717 -2.5017 0.9665
3.5844 -7.3012 -2.5017 0.9665
3.8748 -7.1513 -2.5017 0.9665
4.0177 -7.0720 -2.5017 0.9665
4.1590 -6.9899 -2.5017 0.9665
4.2986 -6.9049 -2.5017 0.9665
4.5725 -6.7266 -2.5017 0.9665
4.7067 -6.6334 -2.5017 0.9665
5.0978 -6.3378 -2.5017 0.9665
5.3483 -6.1279 -2.5017 0.9665
5.4703 -6.0192 -2.5017 0.9665
5.5902 -5.9081 -2.5017 0.9665
5.8230 -5.6787 -2.5017 0.9665
5.9359 -5.5606 -2.5017 0.9665
6.1545 -5.3176 -2.5017 0.9665
6.2601 -5.1929 -2.5017 0.9665
6.3632 -5.0661 -2.5017 0.9665
6.4637 -4.9372 -2.5017 0.9665
6.8392 -4.4023 -2.5017 0.9665
7.0105 -4.1240 -2.5017 0.9665
7.3190 -3.5479 -2.5017 0.9665
7.3888 -3.4001 -2.5017 0.9665
7.4556 -3.2510 -2.5017 0.9665
7.5194 -3.1005 -2.5017 0.9665
7.6926 -2.6419 -2.5017 0.9665
7.7925 -2.3307 -2.5017 0.9665
7.8798 -2.0158 -2.5017 0.9665
8.0162 -1.3766 -2.5017 0.9665
8.0651 -1.0535 -2.5017 0.9665
8.0846 -0.8912 -2.5017 0.9665
8.1009 -0.7286 -2.5017 0.9665
8.1139 -0.5657 -2.5017 0.9665
8.1332 -0.0759 -2.5017 0.9665
8.1297 0.2509 -2.5017 0.9665
8.0833 0.9028 -2.5017 0.9665
8.0405 1.2268 -2.5017 0.9665
7.9520 1.7090 -2.5017 0.9665
7.8346 2.1849 -2.5017 0.9665
7.7405 2.4979 -2.5017 0.9665
7.6339 2.8069 -2.5017 0.9665
7.5760 2.9597 -2.5017 0.9665
7.5150 3.1113 -2.5017 0.9665
7.3839 3.4107 -2.5017 0.9665
7.2409 3.7046 -2.5017 0.9665
7.1650 3.8493 -2.5017 0.9665
6.9201 4.2739 -2.5017 0.9665
6.8329 4.4121 -2.5017 0.9665
6.7429 4.5485 -2.5017 0.9665
6.5547 4.8157 -2.5017 0.9665
6.3559 5.0752 -2.5017 0.9665
6.2527 5.2018 -2.5017 0.9665
6.1469 5.3264 -2.5017 0.9665
5.9279 5.5691 -2.5017 0.9665
5.5817 5.9161 -2.5017 0.9665
5.2151 6.2416 -2.5017 0.9665
5.0887 6.3451 -2.5017 0.9665
4.6972 6.6401 -2.5017 0.9665
4.5628 6.7331 -2.5017 0.9665
4.4266 6.8235 -2.5017 0.9665
4.1489 6.9958 -2.5017 0.9665
4.0075 7.0777 -2.5017 0.9665
3.8645 7.1569 -2.5017 0.9665
3.4240 7.3715 -2.5000 0.9666
2.9700 7.5549 -2.4968 0.9666
2.6621 7.6624 -2.4950 0.9666
2.5067 7.7118 -2.4941 0.9666
2.1702 7.7185 -2.4661 0.9670
2.0042 7.7202 -2.4533 0.9672
1.5154 7.7244 -2.4211 0.9676
1.3550 7.7254 -2.4124 0.9677
1.1957 7.7262 -2.4047 0.9678
0.8797 7.7274 -2.3921 0.9680
0.7228 7.7277 -2.3873 0.9680
0.5664 7.7278 -2.3833 0.9681
0.4105 7.7278 -2.3803 0.9681
0.2549 7.7276 -2.3782 0.9682
0.0996 7.7273 -2.3769 0.9682
-0.0557 7.7268 -2.3767 0.9682
-1.1496 7.7183 -2.4002 0.9679
-1.3083 7.7164 -2.4073 0.9678
-1.4680 7.7143 -2.4153 0.9677
-2.6179 7.6757 -2.4944 0.9666
-2.7725 7.6243 -2.4953 0.9666
-2.9263 7.5698 -2.4962 0.9666
-3.0789 7.5123 -2.4972 0.9666
-3.2306 7.4520 -2.4982 0.9666
-3.3811 7.3887 -2.4993 0.9666
-3.5304 7.3225 -2.5004 0.9666
-3.9673 7.1004 -2.5017 0.9665
-4.2493 6.9353 -2.5017 0.9665
-4.3878 6.8486 -2.5017 0.9665
-4.7924 6.5718 -2.5017 0.9665
-5.0525 6.3739 -2.5017 0.9665
-5.4274 6.0580 -2.5017 0.9665
-5.5480 5.9477 -2.5017 0.9665
-5.7825 5.7200 -2.5017 0.9665
-5.8962 5.6027 -2.5017 0.9665
-6.1165 5.3613 -2.5017 0.9665
-6.5272 4.8529 -2.5017 0.9665
-6.6234 4.7208 -2.5017 0.9665
-6.8077 4.4509 -2.5017 0.9665
-6.8958 4.3132 -2.5017 0.9665
-6.9810 4.1738 -2.5017 0.9665
-7.1431 3.8900 -2.5017 0.9665
-7.2198 3.7457 -2.5017 0.9665
-7.2936 3.5999 -2.5017 0.9665
-7.3644 3.4526 -2.5017 0.9665
-7.4972 3.1539 -2.5017 0.9665
-7.6179 2.8502 -2.5017 0.9665
-7.6736 2.6966 -2.5017 0.9665
-7.7757 2.3861 -2.5017 0.9665
-7.8221 2.2294 -2.5017 0.9665
-7.8653 2.0718 -2.5017 0.9665
-7.9054 1.9134 -2.5017 0.9665
-7.9422 1.7541 -2.5017 0.9665
-7.9758 1.5942 -2.5017 0.9665
-8.0334 1.2725 -2.5017 0.9665
-8.0955 0.7862 -2.5017 0.9665
-8.1282 0.2971 -2.5017 0.9665
-8.1325 0.1337 -2.5017 0.9665
-8.1336 -0.0296 -2.5017 0.9665
-8.1313 -0.1931 -2.5017 0.9665
-8.0240 -1.3311 -2.5017 0.9665
-7.9956 -1.4920 -2.5017 0.9665
-7.9640 -1.6524 -2.5017 0.9665
-7.9292 -1.8120 -2.5017 0.9665
-7.8912 -1.9710 -2.5017 0.9665
-7.8500 -2.1291 -2.5017 0.9665
-7.7581 -2.4428 -2.5017 0.9665
-5.1257 -5.5109 -2.5017 0.9688
-4.9002 -5.7123 -2.5017 0.9688
-4.5472 -5.9971 -2.5017 0.9688
-4.3026 -6.1750 -2.5017 0.9688
-4.1776 -6.2602 -2.5017 0.9688
-4.0510 -6.3429 -2.5017 0.9688
-3.9227 -6.4230 -2.5017 0.9688
-3.7929 -6.5005 -2.5017 0.9688
-3.3944 -6.7172 -2.5017 0.9688
-3.1218 -6.8481 -2.5017 0.9688
-2.8442 -6.9680 -2.5017 0.9688
-2.7036 -7.0237 -2.5017 0.9688
-2.5619 -7.0766 -2.5017 0.9688
-2.4192 -7.1267 -2.5017 0.9688
-2.1310 -7.2181 -2.5017 0.9688
-1.6923 -7.3334 -2.5017 0.9688
-1.0980 -7.4456 -2.5017 0.9688
-0.9482 -7.4661 -2.5017 0.9688
-0.7980 -7.4837 -2.5017 0.9688
0.2590 -7.5217 -2.5017 0.9688
0.4100 -7.5149 -2.5017 0.9688
0.8620 -7.4766 -2.5017 0.9688
1.0120 -7.4577 -2.5017 0.9688
1.3108 -7.4111 -2.5017 0.9688
2.1926 -7.1996 -2.5017 0.9688
2.4801 -7.1057 -2.5017 0.9688
2.6224 -7.0545 -2.5017 0.9688
2.9036 -6.9434 -2.5017 0.9688
3.0426 -6.8837 -2.5017 0.9688
3.3167 -6.7559 -2.5017 0.9688
3.4517 -6.6879 -2.5017 0.9688
3.7176 -6.5438 -2.5017 0.9688
3.9775 -6.3892 -2.5017 0.9688
4.1051 -6.3080 -2.5017 0.9688
4.2310 -6.2242 -2.5017 0.9688
4.3552 -6.1380 -2.5017 0.9688
4.4776 -6.0492 -2.5017 0.9688
4.5983 -5.9580 -2.5017 0.9688
4.7170 -5.8644 -2.5017 0.9688
4.8339 -5.7685 -2.5017 0.9688
4.9488 -5.6702 -2.5017 0.9688
5.1726 -5.4668 -2.5017 0.9688
5.2814 -5.3618 -2.5017 0.9688
5.3881 -5.2546 -2.5017 0.9688
5.4926 -5.1453 -2.5017 0.9688
5.5948 -5.0339 -2.5017 0.9688
5.8879 -4.6877 -2.5017 0.9688
5.9809 -4.5685 -2.5017 0.9688
6.2453 -4.1998 -2.5017 0.9688
6.3284 -4.0735 -2.5017 0.9688
6.4089 -3.9455 -2.5017 0.9688
6.6350 -3.5523 -2.5017 0.9688
6.7050 -3.4183 -2.5017 0.9688
6.7723 -3.2829 -2.5017 0.9688
6.8369 -3.1461 -2.5017 0.9688
6.8988 -3.0081 -2.5017 0.9688
7.0141 -2.7286 -2.5017 0.9688
7.0675 -2.5871 -2.5017 0.9688
7.1657 -2.3011 -2.5017 0.9688
7.4416 -1.1245 -2.5017 0.9688
7.4627 -0.9748 -2.5017 0.9688
7.4808 -0.8246 -2.5017 0.9688
7.4958 -0.6742 -2.5017 0.9688
7.5169 -0.3725 -2.5017 0.9688
7.5228 -0.2214 -2.5017 0.9688
7.5258 -0.0702 -2.5017 0.9688
7.5256 0.0810 -2.5017 0.9688
7.5225 0.2322 -2.5017 0.9688
7.5163 0.3833 -2.5017 0.9688
7.4949 0.6849 -2.5017 0.9688
7.4613 0.9855 -2.5017 0.9688
7.4157 1.2844 -2.5017 0.9688
7.3884 1.4332 -2.5017 0.9688
7.3581 1.5813 -2.5017 0.9688
7.3248 1.7288 -2.5017 0.9688
7.2886 1.8757 -2.5017 0.9688
7.2494 2.0217 -2.5017 0.9688
7.1624 2.3113 -2.5017 0.9688
7.1145 2.4548 -2.5017 0.9688
7.0637 2.5972 -2.5017 0.9688
6.8324 3.1559 -2.5017 0.9688
6.7676 3.2926 -2.5017 0.9688
6.7001 3.4279 -2.5017 0.9688
6.5570 3.6943 -2.5017 0.9688
6.4814 3.8253 -2.5017 0.9688
6.3225 4.0826 -2.5017 0.9688
5.8812 4.6961 -2.5017 0.9688
5.7857 4.8133 -2.5017 0.9688
5.6878 4.9286 -2.5017 0.9688
5.5876 5.0419 -2.5017 0.9688
5.4852 5.1531 -2.5017 0.9688
5.2737 5.3693 -2.5017 0.9688
4.9407 5.6773 -2.5017 0.9688
4.8256 5.7754 -2.5017 0.9688
4.7086 5.8712 -2.5017 0.9688
4.5897 5.9646 -2.5017 0.9688
4.4689 6.0556 -2.5017 0.9688
4.2221 6.2303 -2.5017 0.9688
3.5759 6.6223 -2.5017 0.9688
3.4421 6.6928 -2.5017 0.9688
3.3069 6.7606 -2.5017 0.9688
3.1704 6.8257 -2.5017 0.9688
3.0327 6.8880 -2.5017 0.9688
2.8937 6.9476 -2.5017 0.9688
2.6122 7.0582 -2.5017 0.9688
2.0371 7.2451 -2.5017 0.9688
1.5960 7.3503 -2.5002 0.9688
1.4477 7.3794 -2.4997 0.9688
1.2989 7.4056 -2.4993 0.9688
1.1497 7.4290 -2.4988 0.9688
0.8501 7.4672 -2.4982 0.9688
0.6998 7.4820 -2.4979 0.9688
0.5493 7.4939 -2.4977 0.9688
0.3986 7.5030 -2.4975 0.9688
-0.0541 7.5128 -2.4974 0.9688
-0.2051 7.5103 -2.4974 0.9688
-0.5067 7.4966 -2.4976 0.9688
-0.6572 7.4854 -2.4978 0.9688
-0.9576 7.4545 -2.4983 0.9688
-1.1073 7.4347 -2.4986 0.9688
-1.4056 7.3866 -2.4994 0.9688
-1.7019 7.3271 -2.5004 0.9688
-1.8492 7.2931 -2.5010 0.9688
-1.9958 7.2562 -2.5016 0.9688
-2.2859 7.1706 -2.5017 0.9688
-2.5721 7.0730 -2.5017 0.9688
-2.7137 7.0198 -2.5017 0.9688
-2.8542 6.9639 -2.5017 0.9688
-3.1316 6.8436 -2.5017 0.9688
-3.4040 6.7123 -2.5017 0.9688
-3.5382 6.6425 -2.5017 0.9688
-3.6710 6.5701 -2.5017 0.9688
-3.8022 6.4950 -2.5017 0.9688
-4.0601 6.3370 -2.5017 0.9688
-4.5557 5.9906 -2.5017 0.9688
-4.6752 5.8979 -2.5017 0.9688
-5.0220 5.6055 -2.5017 0.9688
-5.1336 5.5035 -2.5017 0.9688
-5.3506 5.2928 -2.5017 0.9688
-5.8544 4.7295 -2.5017 0.9688
-6.2993 4.1185 -2.5017 0.9688
-6.4596 3.8621 -2.5017 0.9688
-6.5359 3.7315 -2.5017 0.9688
-6.6096 3.5994 -2.5017 0.9688
-6.9372 2.9184 -2.5017 0.9688
-7.3149 1.7704 -2.5017 0.9688
-7.3490 1.6231 -2.5017 0.9688
-7.4083 1.3266 -2.5017 0.9688
-7.4556 1.0279 -2.5017 0.9688
-7.4909 0.7275 -2.5017 0.9688
-7.5040 0.5769 -2.5017 0.9688
-7.5211 0.2749 -2.5017 0.9688
-7.5251 0.1238 -2.5017 0.9688
-7.5189 -0.3298 -2.5017 0.9688
-7.5107 -0.4808 -2.5017 0.9688
-7.4854 -0.7821 -2.5017 0.9688
-7.4479 -1.0822 -2.5017 0.9688
-7.4247 -1.2317 -2.5017 0.9688
-7.3984 -1.3806 -2.5017 0.9688
-7.3692 -1.5290 -2.5017 0.9688
-7.3018 -1.8238 -2.5017 0.9688
-7.2226 -2.1157 -2.5017 0.9688
-7.1787 -2.2603 -2.5017 0.9688
-4.7645 -5.1225 -2.5017 0.9707
-4.6606 -5.2172 -2.5017 0.9707
-4.5548 -5.3098 -2.5017 0.9707
-4.2267 -5.5745 -2.5017 0.9707
-3.9993 -5.7398 -2.5017 0.9707
-3.8832 -5.8190 -2.5017 0.9707
-3.6463 -5.9703 -2.5017 0.9707
-3.5256 -6.0424 -2.5017 0.9707
-3.4035 -6.1120 -2.5017 0.9707
-3.2800 -6.1792 -2.5017 0.9707
-3.0291 -6.3059 -2.5017 0.9707
-2.9018 -6.3655 -2.5017 0.9707
-2.5131 -6.5287 -2.5017 0.9707
-2.3814 -6.5779 -2.5017 0.9707
-2.2487 -6.6245 -2.5017 0.9707
-1.9808 -6.7095 -2.5017 0.9707
-1.5730 -6.8166 -2.5017 0.9707
-1.4357 -6.8468 -2.5017 0.9707
-1.0207 -6.9209 -2.5017 0.9707
-0.8814 -6.9400 -2.5017 0.9707
-0.7418 -6.9563 -2.5017 0.9707
-0.6019 -6.9698 -2.5017 0.9707
-0.3214 -6.9883 -2.5017 0.9707
-0.1809 -6.9934 -2.5017 0.9707
0.1002 -6.9950 -2.5017 0.9707
0.5214 -6.9763 -2.5017 0.9707
0.8012 -6.9497 -2.5017 0.9707
0.9407 -6.9322 -2.5017 0.9707
1.0798 -6.9119 -2.5017 0.9707
1.2185 -6.8888 -2.5017 0.9707
1.4942 -6.8343 -2.5017 0.9707
1.6312 -6.8029 -2.5017 0.9707
1.7676 -6.7687 -2.5017 0.9707
1.9032 -6.7318 -2.5017 0.9707
2.0381 -6.6923 -2.5017 0.9707
2.1721 -6.6500 -2.5017 0.9707
2.3053 -6.6050 -2.5017 0.9707
2.4375 -6.5573 -2.5017 0.9707
2.8281 -6.3986 -2.5017 0.9707
2.9561 -6.3404 -2.5017 0.9707
3.0829 -6.2798 -2.5017 0.9707
3.8158 -5.8634 -2.5017 0.9707
3.9328 -5.7856 -2.5017 0.9707
4.1621 -5.6229 -2.5017 0.9707
4.3846 -5.4512 -2.5017 0.9707
4.4933 -5.3620 -2.5017 0.9707
4.7050 -5.1771 -2.5017 0.9707
4.8081 -5.0815 -2.5017 0.9707
4.9092 -4.9839 -2.5017 0.9707
5.0084 -4.8843 -2.5017 0.9707
5.2935 -4.5737 -2.5017 0.9707
5.3843 -4.4664 -2.5017 0.9707
5.4730 -4.3573 -2.5017 0.9707
5.5594 -4.2465 -2.5017 0.9707
5.6436 -4.1339 -2.5017 0.9707
5.7255 -4.0197 -2.5017 0.9707
5.8051 -3.9039 -2.5017 0.9707
5.8824 -3.7865 -2.5017 0.9707
5.9573 -3.6675 -2.5017 0.9707
6.0298 -3.5471 -2.5017 0.9707
6.2951 -3.0515 -2.5017 0.9707
6.6164 -2.2723 -2.5017 0.9707
6.7023 -2.0046 -2.5017 0.9707
6.7413 -1.8696 -2.5017 0.9707
6.8948 -1.1840 -2.5017 0.9707
6.9368 -0.9061 -2.5017 0.9707
6.9788 -0.4866 -2.5017 0.9707
6.9871 -0.3462 -2.5017 0.9707
6.9927 -0.2058 -2.5017 0.9707
6.9866 0.3563 -2.5017 0.9707
6.9781 0.4966 -2.5017 0.9707
6.9525 0.7765 -2.5017 0.9707
6.8677 1.3322 -2.5017 0.9707
6.8086 1.6070 -2.5017 0.9707
6.7750 1.7435 -2.5017 0.9707
6.7386 1.8792 -2.5017 0.9707
6.6576 2.1484 -2.5017 0.9707
6.6131 2.2818 -2.5017 0.9707
6.5161 2.5456 -2.5017 0.9707
6.2907 3.0605 -2.5017 0.9707
6.0949 3.4340 -2.5017 0.9707
5.8770 3.7949 -2.5017 0.9707
5.7995 3.9122 -2.5017 0.9707
5.6377 4.1420 -2.5017 0.9707
5.5533 4.2545 -2.5017 0.9707
5.4667 4.3652 -2.5017 0.9707
5.3779 4.4741 -2.5017 0.9707
5.2869 4.5813 -2.5017 0.9707
5.0986 4.7900 -2.5017 0.9707
5.0014 4.8914 -2.5017 0.9707
4.9021 4.9909 -2.5017 0.9707
4.8008 5.0884 -2.5017 0.9707
4.3768 5.4574 -2.5017 0.9707
4.2663 5.5443 -2.5017 0.9707
4.0401 5.7112 -2.5017 0.9707
3.9245 5.7912 -2.5017 0.9707
3.8074 5.8689 -2.5017 0.9707
3.6887 5.9442 -2.5017 0.9707
3.5685 6.0171 -2.5017 0.9707
3.3239 6.1556 -2.5017 0.9707
3.0739 6.2842 -2.5017 0.9707
2.8189 6.4026 -2.5017 0.9707
2.6898 6.4579 -2.5017 0.9707
2.5595 6.5107 -2.5017 0.9707
2.4281 6.5608 -2.5017 0.9707
2.0285 6.6952 -2.5017 0.9707
1.6215 6.8052 -2.5017 0.9707
1.4844 6.8364 -2.5017 0.9707
1.3468 6.8648 -2.5017 0.9707
1.2086 6.8905 -2.5017 0.9707
1.0699 6.9134 -2.5017 0.9707
0.6515 6.9653 -2.5017 0.9707
0.3711 6.9858 -2.5017 0.9707
0.0902 6.9951 -2.5017 0.9707
-0.1909 6.9931 -2.5017 0.9707
-0.4717 6.9798 -2.5017 0.9707
-0.6119 6.9689 -2.5017 0.9707
-1.0306 6.9194 -2.5017 0.9707
-1.1694 6.8973 -2.5017 0.9707
-1.5828 6.8143 -2.5017 0.9707
-1.7194 6.7811 -2.5017 0.9707
-1.8553 6.7452 -2.5017 0.9707
-1.9904 6.7066 -2.5017 0.9707
-2.1248 6.6652 -2.5017 0.9707
-2.3908 6.5745 -2.5017 0.9707
-2.5224 6.5251 -2.5017 0.9707
-2.6530 6.4731 -2.5017 0.9707
-2.7825 6.4185 -2.5017 0.9707
-2.9109 6.3613 -2.5017 0.9707
-3.0381 6.3016 -2.5017 0.9707
-3.5343 6.0373 -2.5017 0.9707
-4.0075 5.7341 -2.5017 0.9707
-4.1219 5.6524 -2.5017 0.9707
-4.2347 5.5684 -2.5017 0.9707
-4.3457 5.4822 -2.5017 0.9707
-4.4550 5.3938 -2.5017 0.9707
-4.5624 5.3032 -2.5017 0.9707
-4.6681 5.2105 -2.5017 0.9707
-4.7718 5.1156 -2.5017 0.9707
-4.8736 5.0187 -2.5017 0.9707
-4.9735 4.9198 -2.5017 0.9707
-5.1671 4.7160 -2.5017 0.9707
-5.3524 4.5046 -2.5017 0.9707
-5.4418 4.3962 -2.5017 0.9707
-5.5291 4.2860 -2.5017 0.9707
-5.6141 4.1740 -2.5017 0.9707
-5.6968 4.0604 -2.5017 0.9707
-5.8553 3.8282 -2.5017 0.9707
-6.0044 3.5899 -2.5017 0.9707
-6.3342 2.9696 -2.5017 0.9707
-6.3925 2.8417 -2.5017 0.9707
-6.4484 2.7127 -2.5017 0.9707
-6.5521 2.4515 -2.5017 0.9707
-6.6001 2.3193 -2.5017 0.9707
-6.6453 2.1862 -2.5017 0.9707
-6.7278 1.9175 -2.5017 0.9707
-6.7650 1.7820 -2.5017 0.9707
-6.8600 1.3712 -2.5017 0.9707
-6.8862 1.2331 -2.5017 0.9707
-6.9302 0.9554 -2.5017 0.9707
-6.9480 0.8160 -2.5017 0.9707
-6.9845 0.3960 -2.5017 0.9707
-6.9938 -0.1661 -2.5017 0.9707
-6.9890 -0.3066 -2.5017 0.9707
-6.9814 -0.4469 -2.5017 0.9707
-6.9230 -1.0060 -2.5017 0.9707
-6.9014 -1.1449 -2.5017 0.9707
-6.8770 -1.2833 -2.5017 0.9707
-6.8499 -1.4212 -2.5017 0.9707
-6.7872 -1.6952 -2.5017 0.9707
-6.7518 -1.8313 -2.5017 0.9707
-6.7136 -1.9665 -2.5017 0.9707
-4.4461 -4.7802 -2.5017 0.9724
-4.2504 -4.9549 -2.5017 0.9724
-4.1500 -5.0393 -2.5017 0.9724
-3.5139 -5.5018 -2.5017 0.9724
-3.4026 -5.5713 -2.5017 0.9724
-3.2900 -5.6386 -2.5017 0.9724
-3.1760 -5.7035 -2.5017 0.9724
-2.5880 -5.9933 -2.5017 0.9724
-2.3451 -6.0924 -2.5017 0.9724
-2.2222 -6.1383 -2.5017 0.9724
-1.7223 -6.2969 -2.5017 0.9724
-1.3398 -6.3892 -2.5017 0.9724
-1.2111 -6.4149 -2.5017 0.9724
-1.0820 -6.4379 -2.5017 0.9724
-0.6922 -6.4914 -2.5017 0.9724
-0.5617 -6.5040 -2.5017 0.9724
-0.2999 -6.5213 -2.5017 0.9724
-0.1688 -6.5260 -2.5017 0.9724
-0.0377 -6.5281 -2.5017 0.9724
0.0935 -6.5275 -2.5017 0.9724
0.3557 -6.5185 -2.5017 0.9724
0.6173 -6.4989 -2.5017 0.9724
0.7477 -6.4852 -2.5017 0.9724
1.1370 -6.4284 -2.5017 0.9724
1.3944 -6.3775 -2.5017 0.9724
1.7760 -6.2820 -2.5017 0.9724
1.9019 -6.2450 -2.5017 0.9724
2.0270 -6.2055 -2.5017 0.9724
2.1512 -6.1635 -2.5017 0.9724
2.2746 -6.1191 -2.5017 0.9724
2.3971 -6.0721 -2.5017 0.9724
2.6391 -5.9709 -2.5017 0.9724
2.7586 -5.9167 -2.5017 0.9724
2.9940 -5.8011 -2.5017 0.9724
3.1100 -5.7398 -2.5017 0.9724
3.2247 -5.6761 -2.5017 0.9724
3.5608 -5.4716 -2.5017 0.9724
3.7777 -5.3241 -2.5017 0.9724
3.8839 -5.2471 -2.5017 0.9724
3.9885 -5.1680 -2.5017 0.9724
4.5811 -4.6508 -2.5017 0.9724
4.6736 -4.5579 -2.5017 0.9724
4.8530 -4.3664 -2.5017 0.9724
4.9397 -4.2680 -2.5017 0.9724
5.1072 -4.0661 -2.5017 0.9724
5.1879 -3.9627 -2.5017 0.9724
5.2664 -3.8577 -2.5017 0.9724
5.4893 -3.5334 -2.5017 0.9724
5.5592 -3.4224 -2.5017 0.9724
5.6268 -3.3100 -2.5017 0.9724
5.8744 -2.8476 -2.5017 0.9724
5.9840 -2.6093 -2.5017 0.9724
6.0352 -2.4885 -2.5017 0.9724
6.0840 -2.3668 -2.5017 0.9724
6.1742 -2.1204 -2.5017 0.9724
6.2544 -1.8707 -2.5017 0.9724
6.3557 -1.4905 -2.5017 0.9724
6.3844 -1.3625 -2.5017 0.9724
6.4105 -1.2340 -2.5017 0.9724
6.4732 -0.8455 -2.5017 0.9724
6.5019 -0.5848 -2.5017 0.9724
6.5202 -0.3231 -2.5017 0.9724
6.5279 -0.0609 -2.5017 0.9724
6.5197 0.3325 -2.5017 0.9724
6.5117 0.4634 -2.5017 0.9724
6.5011 0.5941 -2.5017 0.9724
6.4324 1.1141 -2.5017 0.9724
6.4087 1.2431 -2.5017 0.9724
6.3222 1.6270 -2.5017 0.9724
6.2882 1.7537 -2.5017 0.9724
6.0317 2.4972 -2.5017 0.9724
5.9803 2.6178 -2.5017 0.9724
5.7508 3.0895 -2.5017 0.9724
5.6876 3.2045 -2.5017 0.9724
5.5542 3.4304 -2.5017 0.9724
5.4842 3.5412 -2.5017 0.9724
5.4119 3.6507 -2.5017 0.9724
5.1822 3.9701 -2.5017 0.9724
5.1014 4.0734 -2.5017 0.9724
5.0185 4.1751 -2.5017 0.9724
4.9336 4.2751 -2.5017 0.9724
4.6671 4.5645 -2.5017 0.9724
4.4800 4.7484 -2.5017 0.9724
4.3837 4.8374 -2.5017 0.9724
4.2856 4.9245 -2.5017 0.9724
4.1858 5.0096 -2.5017 0.9724
3.9811 5.1737 -2.5017 0.9724
3.5529 5.4767 -2.5017 0.9724
3.4422 5.5469 -2.5017 0.9724
2.8685 5.8642 -2.5017 0.9724
2.7501 5.9206 -2.5017 0.9724
2.6306 5.9747 -2.5017 0.9724
2.5100 6.0263 -2.5017 0.9724
2.0181 6.2084 -2.5017 0.9724
1.8929 6.2477 -2.5017 0.9724
1.7670 6.2845 -2.5017 0.9724
1.3852 6.3795 -2.5017 0.9724
1.2568 6.4061 -2.5017 0.9724
0.9984 6.4514 -2.5017 0.9724
0.8686 6.4701 -2.5017 0.9724
0.7384 6.4863 -2.5017 0.9724
0.4772 6.5107 -2.5017 0.9724
0.3463 6.5190 -2.5017 0.9724
0.2153 6.5246 -2.5017 0.9724
0.0841 6.5276 -2.5017 0.9724
-0.1782 6.5257 -2.5017 0.9724
-0.9617 6.4569 -2.5017 0.9724
-1.3489 6.3873 -2.5017 0.9724
-1.4770 6.3589 -2.5017 0.9724
-2.1073 6.1787 -2.5017 0.9724
-2.2310 6.1351 -2.5017 0.9724
-2.3538 6.0891 -2.5017 0.9724
-2.9527 5.8223 -2.5017 0.9724
-3.4106 5.5664 -2.5017 0.9724
-3.5217 5.4968 -2.5017 0.9724
-3.7397 5.3509 -2.5017 0.9724
-3.8465 5.2746 -2.5017 0.9724
-4.1572 5.0333 -2.5017 0.9724
-4.2575 4.9488 -2.5017 0.9724
-4.3561 4.8623 -2.5017 0.9724
-4.4529 4.7738 -2.5017 0.9724
-4.5479 4.6833 -2.5017 0.9724
-4.8218 4.4008 -2.5017 0.9724
-4.9092 4.3031 -2.5017 0.9724
-4.9947 4.2036 -2.5017 0.9724
-5.1596 3.9995 -2.5017 0.9724
-5.3161 3.7890 -2.5017 0.9724
-5.3911 3.6814 -2.5017 0.9724
-5.8540 2.8893 -2.5017 0.9724
-6.0174 2.5314 -2.5017 0.9724
-6.0671 2.4100 -2.5017 0.9724
-6.1142 2.2876 -2.5017 0.9724
-6.1590 2.1643 -2.5017 0.9724
-6.3746 1.4079 -2.5017 0.9724
-6.4478 1.0213 -2.5017 0.9724
-6.4670 0.8916 -2.5017 0.9724
-6.5090 0.5004 -2.5017 0.9724
-6.5177 0.3695 -2.5017 0.9724
-6.5238 0.2385 -2.5017 0.9724
-6.5273 0.1074 -2.5017 0.9724
-6.5281 -0.0238 -2.5017 0.9724
-6.5264 -0.1550 -2.5017 0.9724
-6.5149 -0.4170 -2.5017 0.9724
-6.5052 -0.5478 -2.5017 0.9724
-6.4779 -0.8088 -2.5017 0.9724
-6.4402 -1.0683 -2.5017 0.9724
-6.4174 -1.1975 -2.5017 0.9724
-6.3921 -1.3262 -2.5017 0.9724
-6.3641 -1.4544 -2.5017 0.9724
-6.3336 -1.5820 -2.5017 0.9724
-6.3006 -1.7089 -2.5017 0.9724
-4.1630 -4.4758 -2.5017 0.9739
-4.0722 -4.5585 -2.5017 0.9739
-3.7902 -4.7956 -2.5017 0.9739
-3.6931 -4.8708 -2.5017 0.9739
-3.5945 -4.9440 -2.5017 0.9739
-3.3930 -5.0844 -2.5017 0.9739
-3.1860 -5.2166 -2.5017 0.9739
-3.0805 -5.2796 -2.5017 0.9739
-2.9738 -5.3404 -2.5017 0.9739
-2.6467 -5.5099 -2.5017 0.9739
-2.5355 -5.5619 -2.5017 0.9739
-2.4232 -5.6117 -2.5017 0.9739
-2.1958 -5.7046 -2.5017 0.9739
-1.3744 -5.9561 -2.5017 0.9739
-1.1340 -6.0064 -2.5017 0.9739
-1.0131 -6.0280 -2.5017 0.9739
-0.7701 -6.0639 -2.5017 0.9739
-0.4034 -6.0992 -2.5017 0.9739
-0.2808 -6.1061 -2.5017 0.9739
-0.0353 -6.1125 -2.5017 0.9739
0.0875 -6.1119 -2.5017 0.9739
0.3330 -6.1035 -2.5017 0.9739
0.7001 -6.0723 -2.5017 0.9739
0.8220 -6.0571 -2.5017 0.9739
0.9435 -6.0393 -2.5017 0.9739
1.0646 -6.0191 -2.5017 0.9739
1.4253 -5.9441 -2.5017 0.9739
1.6630 -5.8820 -2.5017 0.9739
1.7808 -5.8474 -2.5017 0.9739
2.0143 -5.7712 -2.5017 0.9739
2.3583 -5.6393 -2.5017 0.9739
2.6937 -5.4870 -2.5017 0.9739
3.0194 -5.3148 -2.5017 0.9739
3.1256 -5.2530 -2.5017 0.9739
3.2305 -5.1892 -2.5017 0.9739
3.4363 -5.0552 -2.5017 0.9739
3.5372 -4.9851 -2.5017 0.9739
3.6366 -4.9131 -2.5017 0.9739
3.7346 -4.8390 -2.5017 0.9739
3.9260 -4.6850 -2.5017 0.9739
4.0193 -4.6052 -2.5017 0.9739
4.2895 -4.3547 -2.5017 0.9739
4.4610 -4.1789 -2.5017 0.9739
4.5440 -4.0884 -2.5017 0.9739
4.6252 -3.9963 -2.5017 0.9739
4.7046 -3.9026 -2.5017 0.9739
4.8576 -3.7104 -2.5017 0.9739
4.9312 -3.6121 -2.5017 0.9739
5.0723 -3.4111 -2.5017 0.9739
5.2052 -3.2045 -2.5017 0.9739
5.2686 -3.0993 -2.5017 0.9739
5.3888 -2.8851 -2.5017 0.9739
5.4457 -2.7763 -2.5017 0.9739
5.5004 -2.6663 -2.5017 0.9739
5.5528 -2.5552 -2.5017 0.9739
5.6031 -2.4432 -2.5017 0.9739
5.6510 -2.3301 -2.5017 0.9739
5.6967 -2.2161 -2.5017 0.9739
5.7401 -2.1012 -2.5017 0.9739
5.7811 -1.9854 -2.5017 0.9739
5.8562 -1.7516 -2.5017 0.9739
5.9779 -1.2758 -2.5017 0.9739
6.0024 -1.1554 -2.5017 0.9739
6.0244 -1.0346 -2.5017 0.9739
6.0439 -0.9133 -2.5017 0.9739
6.0611 -0.7917 -2.5017 0.9739
6.0757 -0.6698 -2.5017 0.9739
6.0880 -0.5476 -2.5017 0.9739
6.0977 -0.4251 -2.5017 0.9739
6.1099 -0.1798 -2.5017 0.9739
6.1096 0.1886 -2.5017 0.9739
6.0971 0.4339 -2.5017 0.9739
6.0872 0.5563 -2.5017 0.9739
6.0748 0.6785 -2.5017 0.9739
6.0229 1.0432 -2.5017 0.9739
6.0007 1.1640 -2.5017 0.9739
5.9761 1.2843 -2.5017 0.9739
5.9491 1.4041 -2.5017 0.9739
5.9197 1.5234 -2.5017 0.9739
5.8171 1.8772 -2.5017 0.9739
5.6935 2.2242 -2.5017 0.9739
5.6477 2.3382 -2.5017 0.9739
5.5995 2.4512 -2.5017 0.9739
5.5492 2.5632 -2.5017 0.9739
5.4417 2.7841 -2.5017 0.9739
5.3847 2.8928 -2.5017 0.9739
5.3255 3.0004 -2.5017 0.9739
5.2006 3.2120 -2.5017 0.9739
5.1350 3.3158 -2.5017 0.9739
5.0674 3.4183 -2.5017 0.9739
4.9260 3.6191 -2.5017 0.9739
4.8523 3.7174 -2.5017 0.9739
4.7766 3.8141 -2.5017 0.9739
4.6990 3.9093 -2.5017 0.9739
4.5381 4.0949 -2.5017 0.9739
4.2832 4.3609 -2.5017 0.9739
4.1046 4.5294 -2.5017 0.9739
3.8242 4.7685 -2.5017 0.9739
3.6296 4.9183 -2.5017 0.9739
3.5300 4.9902 -2.5017 0.9739
3.3267 5.1280 -2.5017 0.9739
3.2230 5.1938 -2.5017 0.9739
3.1180 5.2575 -2.5017 0.9739
3.0118 5.3191 -2.5017 0.9739
2.7956 5.4358 -2.5017 0.9739
2.5750 5.5437 -2.5017 0.9739
2.2364 5.6887 -2.5017 0.9739
2.1216 5.7325 -2.5017 0.9739
2.0060 5.7740 -2.5017 0.9739
1.8896 5.8132 -2.5017 0.9739
1.7724 5.8499 -2.5017 0.9739
1.6545 5.8844 -2.5017 0.9739
1.5360 5.9164 -2.5017 0.9739
1.4168 5.9461 -2.5017 0.9739
1.2970 5.9734 -2.5017 0.9739
1.1768 5.9982 -2.5017 0.9739
1.0560 6.0206 -2.5017 0.9739
0.9348 6.0406 -2.5017 0.9739
0.8133 6.0582 -2.5017 0.9739
0.6914 6.0733 -2.5017 0.9739
0.5692 6.0860 -2.5017 0.9739
0.3243 6.1039 -2.5017 0.9739
0.2016 6.1092 -2.5017 0.9739
0.0788 6.1120 -2.5017 0.9739
-0.4122 6.0986 -2.5017 0.9739
-0.5346 6.0891 -2.5017 0.9739
-0.6569 6.0772 -2.5017 0.9739
-1.1426 6.0048 -2.5017 0.9739
-1.2631 5.9806 -2.5017 0.9739
-1.5023 5.9251 -2.5017 0.9739
-1.6210 5.8937 -2.5017 0.9739
-1.8565 5.8238 -2.5017 0.9739
-2.2040 5.7014 -2.5017 0.9739
-2.3181 5.6560 -2.5017 0.9739
-2.4313 5.6082 -2.5017 0.9739
-2.5434 5.5583 -2.5017 0.9739
-2.7647 5.4516 -2.5017 0.9739
-2.8737 5.3949 -2.5017 0.9739
-2.9815 5.3361 -2.5017 0.9739
-3.0881 5.2752 -2.5017 0.9739
-3.2975 5.1468 -2.5017 0.9739
-3.5016 5.0102 -2.5017 0.9739
-3.6016 4.9388 -2.5017 0.9739
-3.7001 4.8655 -2.5017 0.9739
-3.8926 4.7129 -2.5017 0.9739
-4.0788 4.5527 -2.5017 0.9739
-4.1694 4.4698 -2.5017 0.9739
-4.2584 4.3852 -2.5017 0.9739
-4.5148 4.1207 -2.5017 0.9739
-4.6767 3.9360 -2.5017 0.9739
-4.8311 3.7449 -2.5017 0.9739
-4.9776 3.5478 -2.5017 0.9739
-5.0479 3.4471 -2.5017 0.9739
-5.1823 3.2415 -2.5017 0.9739
-5.2464 3.1367 -2.5017 0.9739
-5.3682 2.9234 -2.5017 0.9739
-5.4813 2.7054 -2.5017 0.9739
-5.6343 2.3703 -2.5017 0.9739
-5.6808 2.2566 -2.5017 0.9739
-5.7250 2.1420 -2.5017 0.9739
-5.8064 1.9103 -2.5017 0.9739
-5.8436 1.7932 -2.5017 0.9739
-5.9410 1.4379 -2.5017 0.9739
-5.9687 1.3183 -2.5017 0.9739
-6.0708 0.7130 -2.5017 0.9739
-6.0839 0.5909 -2.5017 0.9739
-6.0946 0.4685 -2.5017 0.9739
-6.1028 0.3460 -2.5017 0.9739
-6.1085 0.2233 -2.5017 0.9739
-6.1117 0.1005 -2.5017 0.9739
-6.1125 -0.0223 -2.5017 0.9739
-6.1109 -0.1451 -2.5017 0.9739
-6.1067 -0.2679 -2.5017 0.9739
-5.9304 -1.4812 -2.5017 0.9739
-5.8994 -1.6001 -2.5017 0.9739
-5.8661 -1.7183 -2.5017 0.9739
-5.8304 -1.8358 -2.5017 0.9739
-3.6492 -4.4311 -2.5017 0.9753
-3.4682 -4.5741 -2.5017 0.9753
-3.2816 -4.7098 -2.5017 0.9753
-3.1863 -4.7748 -2.5017 0.9753
-3.0898 -4.8378 -2.5017 0.9753
-2.7927 -5.0152 -2.5017 0.9753
-2.6914 -5.0703 -2.5017 0.9753
-2.1693 -5.3146 -2.5017 0.9753
-1.9540 -5.3975 -2.5017 0.9753
-1.7356 -5.4716 -2.5017 0.9753
-1.6253 -5.5054 -2.5017 0.9753
-1.5144 -5.5369 -2.5017 0.9753
-1.4028 -5.5662 -2.5017 0.9753
-1.2907 -5.5933 -2.5017 0.9753
-1.0650 -5.6406 -2.5017 0.9753
-0.9514 -5.6609 -2.5017 0.9753
-0.8375 -5.6789 -2.5017 0.9753
-0.7232 -5.6946 -2.5017 0.9753
-0.6087 -5.7079 -2.5017 0.9753
-0.4939 -5.7190 -2.5017 0.9753
-0.3789 -5.7278 -2.5017 0.9753
-0.2637 -5.7342 -2.5017 0.9753
-0.1485 -5.7384 -2.5017 0.9753
0.4278 -5.7243 -2.5017 0.9753
0.5428 -5.7146 -2.5017 0.9753
0.6575 -5.7025 -2.5017 0.9753
0.7719 -5.6882 -2.5017 0.9753
1.2261 -5.6079 -2.5017 0.9753
1.4504 -5.5540 -2.5017 0.9753
1.6724 -5.4913 -2.5017 0.9753
1.7823 -5.4566 -2.5017 0.9753
2.1078 -5.3393 -2.5017 0.9753
2.4256 -5.2026 -2.5017 0.9753
2.6327 -5.1010 -2.5017 0.9753
2.7347 -5.0471 -2.5017 0.9753
3.1310 -4.8112 -2.5017 0.9753
3.2271 -4.7473 -2.5017 0.9753
3.4152 -4.6138 -2.5017 0.9753
3.6869 -4.3997 -2.5017 0.9753
4.1096 -4.0078 -2.5017 0.9753
4.1893 -3.9244 -2.5017 0.9753
4.2673 -3.8394 -2.5017 0.9753
4.3436 -3.7529 -2.5017 0.9753
4.4908 -3.5754 -2.5017 0.9753
4.6981 -3.2984 -2.5017 0.9753
4.8882 -3.0094 -2.5017 0.9753
4.9477 -2.9105 -2.5017 0.9753
5.0606 -2.7094 -2.5017 0.9753
5.1654 -2.5039 -2.5017 0.9753
5.2618 -2.2944 -2.5017 0.9753
5.3069 -2.1882 -2.5017 0.9753
5.3498 -2.0811 -2.5017 0.9753
5.4290 -1.8645 -2.5017 0.9753
5.4996 -1.6449 -2.5017 0.9753
5.5315 -1.5341 -2.5017 0.9753
5.5887 -1.3106 -2.5017 0.9753
5.6368 -1.0850 -2.5017 0.9753
5.6919 -0.7435 -2.5017 0.9753
5.7172 -0.5142 -2.5017 0.9753
5.7264 -0.3992 -2.5017 0.9753
5.7332 -0.2841 -2.5017 0.9753
5.7378 -0.1689 -2.5017 0.9753
5.7165 0.5224 -2.5017 0.9753
5.7048 0.6372 -2.5017 0.9753
5.6561 0.9797 -2.5017 0.9753
5.6352 1.0931 -2.5017 0.9753
5.3468 2.0888 -2.5017 0.9753
5.3037 2.1958 -2.5017 0.9753
5.2112 2.4071 -2.5017 0.9753
5.1618 2.5113 -2.5017 0.9753
5.1103 2.6145 -2.5017 0.9753
5.0567 2.7167 -2.5017 0.9753
5.0011 2.8177 -2.5017 0.9753
4.9435 2.9176 -2.5017 0.9753
4.7588 3.2101 -2.5017 0.9753
4.6260 3.3987 -2.5017 0.9753
4.5568 3.4910 -2.5017 0.9753
4.4128 3.6712 -2.5017 0.9753
4.3382 3.7591 -2.5017 0.9753
4.2618 3.8455 -2.5017 0.9753
4.1836 3.9304 -2.5017 0.9753
4.1038 4.0136 -2.5017 0.9753
4.0224 4.0953 -2.5017 0.9753
3.8546 4.2536 -2.5017 0.9753
3.7684 4.3302 -2.5017 0.9753
3.5913 4.4781 -2.5017 0.9753
3.5006 4.5493 -2.5017 0.9753
3.4086 4.6187 -2.5017 0.9753
3.3151 4.6863 -2.5017 0.9753
3.2202 4.7520 -2.5017 0.9753
2.9281 4.9373 -2.5017 0.9753
2.6254 5.1047 -2.5017 0.9753
2.4182 5.2061 -2.5017 0.9753
1.8838 5.4224 -2.5017 0.9753
1.5538 5.5260 -2.5017 0.9753
1.4424 5.5561 -2.5017 0.9753
1.3305 5.5840 -2.5017 0.9753
0.9917 5.6540 -2.5017 0.9753
0.8779 5.6728 -2.5017 0.9753
0.7637 5.6892 -2.5017 0.9753
0.5346 5.7153 -2.5017 0.9753
0.4196 5.7249 -2.5017 0.9753
0.3045 5.7322 -2.5017 0.9753
0.1893 5.7372 -2.5017 0.9753
0.0740 5.7398 -2.5017 0.9753
-0.1567 5.7381 -2.5017 0.9753
-0.3871 5.7272 -2.5017 0.9753
-0.5021 5.7183 -2.5017 0.9753
-0.6169 5.7071 -2.5017 0.9753
-0.8456 5.6777 -2.5017 0.9753
-0.9595 5.6595 -2.5017 0.9753
-1.1861 5.6164 -2.5017 0.9753
-1.2987 5.5914 -2.5017 0.9753
-1.5223 5.5347 -2.5017 0.9753
-1.6332 5.5030 -2.5017 0.9753
-1.7435 5.4691 -2.5017 0.9753
-2.0698 5.3542 -2.5017 0.9753
-2.1769 5.3115 -2.5017 0.9753
-2.2832 5.2667 -2.5017 0.9753
-2.3885 5.2197 -2.5017 0.9753
-2.4929 5.1707 -2.5017 0.9753
-2.7999 5.0112 -2.5017 0.9753
-3.0967 4.8334 -2.5017 0.9753
-3.1932 4.7702 -2.5017 0.9753
-3.3822 4.6380 -2.5017 0.9753
-3.4747 4.5691 -2.5017 0.9753
-3.5658 4.4984 -2.5017 0.9753
-3.6555 4.4259 -2.5017 0.9753
-3.8304 4.2754 -2.5017 0.9753
-3.9155 4.1976 -2.5017 0.9753
-3.9990 4.1181 -2.5017 0.9753
-4.0810 4.0369 -2.5017 0.9753
-4.6745 3.3317 -2.5017 0.9753
-4.9851 2.8461 -2.5017 0.9753
-5.0954 2.6435 -2.5017 0.9753
-5.1475 2.5406 -2.5017 0.9753
-5.1975 2.4367 -2.5017 0.9753
-5.2912 2.2259 -2.5017 0.9753
-5.3348 2.1191 -2.5017 0.9753
-5.3763 2.0115 -2.5017 0.9753
-5.4156 1.9031 -2.5017 0.9753
-5.4877 1.6840 -2.5017 0.9753
-5.6290 1.1251 -2.5017 0.9753
-5.6504 1.0118 -2.5017 0.9753
-5.6696 0.8981 -2.5017 0.9753
-5.6865 0.7840 -2.5017 0.9753
-5.7011 0.6696 -2.5017 0.9753
-5.7311 0.3249 -2.5017 0.9753
-5.7403 -0.0209 -2.5017 0.9753
-5.7387 -0.1363 -2.5017 0.9753
-5.7286 -0.3667 -2.5017 0.9753
-5.6961 -0.7111 -2.5017 0.9753
-5.6806 -0.8254 -2.5017 0.9753
-5.6206 -1.1662 -2.5017 0.9753
-5.5401 -1.5026 -2.5017 0.9753
-5.5088 -1.6136 -2.5017 0.9753
-5.4753 -1.7240 -2.5017 0.9753
-3.6006 -4.0306 -2.5017 0.9765
-3.4358 -4.1720 -2.5017 0.9765
-3.2654 -4.3067 -2.5017 0.9765
-3.1782 -4.3714 -2.5017 0.9765
-3.0897 -4.4344 -2.5017 0.9765
-2.9091 -4.5549 -2.5017 0.9765
-2.7237 -4.6681 -2.5017 0.9765
-2.6294 -4.7219 -2.5017 0.9765
-2.5340 -4.7738 -2.5017 0.9765
-2.3402 -4.8717 -2.5017 0.9765
-1.9415 -5.0439 -2.5017 0.9765
-1.8398 -5.0819 -2.5017 0.9765
-1.7373 -5.1178 -2.5017 0.9765
-1.6341 -5.1517 -2.5017 0.9765
-1.4258 -5.2132 -2.5017 0.9765
-0.7885 -5.3468 -2.5017 0.9765
-0.2483 -5.3989 -2.5017 0.9765
-0.1398 -5.4028 -2.5017 0.9765
-0.0312 -5.4045 -2.5017 0.9765
0.2945 -5.3966 -2.5017 0.9765
0.4028 -5.3896 -2.5017 0.9765
0.5110 -5.3804 -2.5017 0.9765
0.7268 -5.3555 -2.5017 0.9765
0.9413 -5.3220 -2.5017 0.9765
1.0481 -5.3020 -2.5017 0.9765
1.2602 -5.2556 -2.5017 0.9765
1.3656 -5.2293 -2.5017 0.9765
1.4704 -5.2008 -2.5017 0.9765
1.6781 -5.1375 -2.5017 0.9765
1.7810 -5.1027 -2.5017 0.9765
2.0852 -4.9862 -2.5017 0.9765
2.1849 -4.9433 -2.5017 0.9765
2.6697 -4.6992 -2.5017 0.9765
2.7636 -4.6447 -2.5017 0.9765
3.0383 -4.4697 -2.5017 0.9765
3.2155 -4.3441 -2.5017 0.9765
3.4713 -4.1425 -2.5017 0.9765
3.5538 -4.0719 -2.5017 0.9765
3.7146 -3.9258 -2.5017 0.9765
3.8693 -3.7734 -2.5017 0.9765
4.0177 -3.6149 -2.5017 0.9765
4.0896 -3.5335 -2.5017 0.9765
4.1597 -3.4506 -2.5017 0.9765
4.2282 -3.3663 -2.5017 0.9765
4.3600 -3.1937 -2.5017 0.9765
4.5445 -2.9253 -2.5017 0.9765
4.6024 -2.8334 -2.5017 0.9765
4.8633 -2.3575 -2.5017 0.9765
4.9097 -2.2593 -2.5017 0.9765
4.9965 -2.0602 -2.5017 0.9765
5.0369 -1.9594 -2.5017 0.9765
5.1458 -1.6524 -2.5017 0.9765
5.1780 -1.5487 -2.5017 0.9765
5.2360 -1.3394 -2.5017 0.9765
5.2619 -1.2340 -2.5017 0.9765
5.2856 -1.1280 -2.5017 0.9765
5.3439 -0.8076 -2.5017 0.9765
5.3591 -0.7000 -2.5017 0.9765
5.3721 -0.5922 -2.5017 0.9765
5.3829 -0.4841 -2.5017 0.9765
5.3915 -0.3759 -2.5017 0.9765
5.3980 -0.2675 -2.5017 0.9765
5.4023 -0.1590 -2.5017 0.9765
5.4043 0.0582 -2.5017 0.9765
5.3976 0.2752 -2.5017 0.9765
5.3822 0.4919 -2.5017 0.9765
5.3581 0.7077 -2.5017 0.9765
5.3428 0.8152 -2.5017 0.9765
5.3253 0.9224 -2.5017 0.9765
5.3057 1.0292 -2.5017 0.9765
5.2341 1.3470 -2.5017 0.9765
5.2060 1.4518 -2.5017 0.9765
5.1090 1.7628 -2.5017 0.9765
5.0341 1.9666 -2.5017 0.9765
4.9936 2.0674 -2.5017 0.9765
4.9065 2.2663 -2.5017 0.9765
4.8600 2.3645 -2.5017 0.9765
4.8115 2.4616 -2.5017 0.9765
4.7610 2.5578 -2.5017 0.9765
4.7087 2.6529 -2.5017 0.9765
4.4189 3.1118 -2.5017 0.9765
4.3555 3.2000 -2.5017 0.9765
4.2903 3.2868 -2.5017 0.9765
4.0845 3.5393 -2.5017 0.9765
3.9390 3.7006 -2.5017 0.9765
3.7089 3.9311 -2.5017 0.9765
3.6292 4.0048 -2.5017 0.9765
3.5480 4.0770 -2.5017 0.9765
3.4654 4.1474 -2.5017 0.9765
3.3813 4.2162 -2.5017 0.9765
3.2959 4.2833 -2.5017 0.9765
3.1212 4.4122 -2.5017 0.9765
2.9414 4.5341 -2.5017 0.9765
2.6629 4.7030 -2.5017 0.9765
2.4718 4.8062 -2.5017 0.9765
2.2768 4.9017 -2.5017 0.9765
1.9773 5.0299 -2.5017 0.9765
1.8759 5.0686 -2.5017 0.9765
1.6707 5.1399 -2.5017 0.9765
1.5671 5.1724 -2.5017 0.9765
1.3580 5.2312 -2.5017 0.9765
1.0405 5.3035 -2.5017 0.9765
0.9337 5.3233 -2.5017 0.9765
0.7191 5.3566 -2.5017 0.9765
0.3951 5.3902 -2.5017 0.9765
0.1782 5.4017 -2.5017 0.9765
0.0697 5.4042 -2.5017 0.9765
-0.1475 5.4026 -2.5017 0.9765
-0.2560 5.3985 -2.5017 0.9765
-0.4727 5.3839 -2.5017 0.9765
-0.6886 5.3606 -2.5017 0.9765
-0.7962 5.3456 -2.5017 0.9765
-1.0103 5.3093 -2.5017 0.9765
-1.1168 5.2880 -2.5017 0.9765
-1.2228 5.2645 -2.5017 0.9765
-1.3283 5.2388 -2.5017 0.9765
-1.4333 5.2111 -2.5017 0.9765
-1.6415 5.1493 -2.5017 0.9765
-1.7446 5.1153 -2.5017 0.9765
-1.9487 5.0411 -2.5017 0.9765
-2.2489 4.9145 -2.5017 0.9765
-2.7304 4.6642 -2.5017 0.9765
-3.0065 4.4912 -2.5017 0.9765
-3.0961 4.4299 -2.5017 0.9765
-3.2715 4.3020 -2.5017 0.9765
-3.3573 4.2354 -2.5017 0.9765
-3.4417 4.1670 -2.5017 0.9765
-3.5248 4.0971 -2.5017 0.9765
-3.6865 3.9521 -2.5017 0.9765
-3.8423 3.8009 -2.5017 0.9765
-3.9179 3.7229 -2.5017 0.9765
-3.9919 3.6434 -2.5017 0.9765
-4.0643 3.5625 -2.5017 0.9765
-4.1351 3.4801 -2.5017 0.9765
-4.3372 3.2247 -2.5017 0.9765
-4.4011 3.1369 -2.5017 0.9765
-4.5236 2.9576 -2.5017 0.9765
-4.6388 2.7734 -2.5017 0.9765
-4.7464 2.5848 -2.5017 0.9765
-4.9386 2.1954 -2.5017 0.9765
-4.9818 2.0957 -2.5017 0.9765
-5.0619 1.8939 -2.5017 0.9765
-5.1976 1.4814 -2.5017 0.9765
-5.2264 1.3767 -2.5017 0.9765
-5.2529 1.2714 -2.5017 0.9765
-5.2774 1.1656 -2.5017 0.9765
-5.2998 1.0593 -2.5017 0.9765
-5.3200 0.9526 -2.5017 0.9765
-5.3677 0.6304 -2.5017 0.9765
-5.3887 0.4143 -2.5017 0.9765
-5.4010 0.1974 -2.5017 0.9765
-5.4039 0.0889 -2.5017 0.9765
-5.4046 -0.0197 -2.5017 0.9765
-5.3994 -0.2368 -2.5017 0.9765
-5.3485 -0.7772 -2.5017 0.9765
-5.3318 -0.8845 -2.5017 0.9765
-5.3129 -0.9914 -2.5017 0.9765
-5.2919 -1.0980 -2.5017 0.9765
-5.2688 -1.2041 -2.5017 0.9765
-5.2435 -1.3097 -2.5017 0.9765
-5.2162 -1.4148 -2.5017 0.9765
-5.1867 -1.5193 -2.5017 0.9765
-5.1551 -1.6232 -2.5017 0.9765
-3.2422 -3.9369 -2.5017 0.9775
-3.1624 -4.0013 -2.5017 0.9775
-2.9991 -4.1251 -2.5017 0.9775
-2.9156 -4.1845 -2.5017 0.9775
-2.8310 -4.2422 -2.5017 0.9775
-2.7452 -4.2983 -2.5017 0.9775
-2.4812 -4.4558 -2.5017 0.9775
-2.3912 -4.5048 -2.5017 0.9775
-2.2083 -4.5972 -2.5017 0.9775
-2.1155 -4.6407 -2.5017 0.9775
-2.0219 -4.6822 -2.5017 0.9775
-1.9274 -4.7219 -2.5017 0.9775
-1.8321 -4.7597 -2.5017 0.9775
-1.7361 -4.7955 -2.5017 0.9775
-1.5420 -4.8614 -2.5017 0.9775
-1.0467 -4.9915 -2.5017 0.9775
-0.8453 -5.0296 -2.5017 0.9775
-0.5408 -5.0713 -2.5017 0.9775
-0.3366 -5.0890 -2.5017 0.9775
-0.1319 -5.0984 -2.5017 0.9775
0.0730 -5.0996 -2.5017 0.9775
0.1755 -5.0971 -2.5017 0.9775
0.3801 -5.0859 -2.5017 0.9775
0.5841 -5.0665 -2.5017 0.9775
1.0893 -4.9824 -2.5017 0.9775
1.4858 -4.8789 -2.5017 0.9775
1.5836 -4.8480 -2.5017 0.9775
1.7770 -4.7805 -2.5017 0.9775
2.0618 -4.6648 -2.5017 0.9775
2.4297 -4.4842 -2.5017 0.9775
2.6954 -4.3296 -2.5017 0.9775
2.8671 -4.2179 -2.5017 0.9775
2.9513 -4.1594 -2.5017 0.9775
3.0343 -4.0993 -2.5017 0.9775
3.2757 -3.9090 -2.5017 0.9775
3.4301 -3.7743 -2.5017 0.9775
3.5790 -3.6334 -2.5017 0.9775
3.7221 -3.4867 -2.5017 0.9775
3.7914 -3.4112 -2.5017 0.9775
4.0530 -3.0958 -2.5017 0.9775
4.1144 -3.0138 -2.5017 0.9775
4.2321 -2.8460 -2.5017 0.9775
4.3959 -2.5859 -2.5017 0.9775
4.4470 -2.4971 -2.5017 0.9775
4.4962 -2.4072 -2.5017 0.9775
4.5437 -2.3164 -2.5017 0.9775
4.6331 -2.1320 -2.5017 0.9775
4.7150 -1.9442 -2.5017 0.9775
4.7893 -1.7532 -2.5017 0.9775
4.8235 -1.6566 -2.5017 0.9775
4.8559 -1.5593 -2.5017 0.9775
4.9146 -1.3630 -2.5017 0.9775
4.9878 -1.0645 -2.5017 0.9775
5.0082 -0.9640 -2.5017 0.9775
5.0877 -0.3547 -2.5017 0.9775
5.0938 -0.2524 -2.5017 0.9775
5.0977 0.1573 -2.5017 0.9775
5.0935 0.2597 -2.5017 0.9775
5.0872 0.3620 -2.5017 0.9775
5.0789 0.4642 -2.5017 0.9775
5.0562 0.6678 -2.5017 0.9775
5.0253 0.8704 -2.5017 0.9775
4.9862 1.0716 -2.5017 0.9775
4.9637 1.1716 -2.5017 0.9775
4.9392 1.2711 -2.5017 0.9775
4.9126 1.3700 -2.5017 0.9775
4.7868 1.7600 -2.5017 0.9775
4.7504 1.8558 -2.5017 0.9775
4.7122 1.9509 -2.5017 0.9775
4.6721 2.0452 -2.5017 0.9775
4.4928 2.4137 -2.5017 0.9775
4.0486 3.1016 -2.5017 0.9775
3.9207 3.2618 -2.5017 0.9775
3.7865 3.4167 -2.5017 0.9775
3.6462 3.5660 -2.5017 0.9775
3.5738 3.6386 -2.5017 0.9775
3.4999 3.7096 -2.5017 0.9775
3.3481 3.8472 -2.5017 0.9775
3.2701 3.9137 -2.5017 0.9775
3.1102 4.0420 -2.5017 0.9775
3.0284 4.1036 -2.5017 0.9775
2.9453 4.1636 -2.5017 0.9775
2.7757 4.2786 -2.5017 0.9775
2.6892 4.3335 -2.5017 0.9775
2.5129 4.4380 -2.5017 0.9775
2.3326 4.5354 -2.5017 0.9775
2.2410 4.5814 -2.5017 0.9775
2.1485 4.6255 -2.5017 0.9775
2.0551 4.6677 -2.5017 0.9775
1.9609 4.7081 -2.5017 0.9775
1.8659 4.7465 -2.5017 0.9775
1.6737 4.8176 -2.5017 0.9775
1.4788 4.8810 -2.5017 0.9775
1.2816 4.9364 -2.5017 0.9775
1.1821 4.9612 -2.5017 0.9775
1.0822 4.9840 -2.5017 0.9775
0.8811 5.0234 -2.5017 0.9775
0.7800 5.0401 -2.5017 0.9775
0.3728 5.0865 -2.5017 0.9775
0.0657 5.0997 -2.5017 0.9775
-0.0367 5.1000 -2.5017 0.9775
-0.1392 5.0982 -2.5017 0.9775
-0.4461 5.0805 -2.5017 0.9775
-0.5481 5.0705 -2.5017 0.9775
-0.7513 5.0445 -2.5017 0.9775
-1.0538 4.9900 -2.5017 0.9775
-1.1539 4.9679 -2.5017 0.9775
-1.4511 4.8893 -2.5017 0.9775
-1.9341 4.7191 -2.5017 0.9775
-2.3977 4.5013 -2.5017 0.9775
-2.4876 4.4523 -2.5017 0.9775
-2.7513 4.2943 -2.5017 0.9775
-2.8370 4.2382 -2.5017 0.9775
-2.9216 4.1803 -2.5017 0.9775
-3.0050 4.1208 -2.5017 0.9775
-3.2478 3.9323 -2.5017 0.9775
-3.4788 3.7295 -2.5017 0.9775
-3.5530 3.6588 -2.5017 0.9775
-3.6258 3.5867 -2.5017 0.9775
-3.8353 3.3618 -2.5017 0.9775
-3.9021 3.2840 -2.5017 0.9775
-3.9673 3.2049 -2.5017 0.9775
-4.0928 3.0430 -2.5017 0.9775
-4.1531 2.9601 -2.5017 0.9775
-4.2118 2.8761 -2.5017 0.9775
-4.3774 2.6172 -2.5017 0.9775
-4.5271 2.3487 -2.5017 0.9775
-4.5734 2.2573 -2.5017 0.9775
-4.7010 1.9776 -2.5017 0.9775
-4.7767 1.7872 -2.5017 0.9775
-4.8116 1.6909 -2.5017 0.9775
-4.8447 1.5938 -2.5017 0.9775
-4.8757 1.4962 -2.5017 0.9775
-4.9319 1.2991 -2.5017 0.9775
-5.0012 0.9996 -2.5017 0.9775
-5.0203 0.8990 -2.5017 0.9775
-5.0653 0.5949 -2.5017 0.9775
-5.0762 0.4930 -2.5017 0.9775
-5.0919 0.2887 -2.5017 0.9775
-5.1001 -0.0186 -2.5017 0.9775
-5.0952 -0.2235 -2.5017 0.9775
-5.0897 -0.3258 -2.5017 0.9775
-5.0725 -0.5300 -2.5017 0.9775
-5.0608 -0.6318 -2.5017 0.9775
-5.0314 -0.8346 -2.5017 0.9775
-4.9938 -1.0361 -2.5017 0.9775
-4.9719 -1.1362 -2.5017 0.9775
-4.9481 -1.2359 -2.5017 0.9775
-4.8647 -1.5317 -2.5017 0.9775
-2.9902 -3.7833 -2.5017 0.9785
-2.8358 -3.9004 -2.5017 0.9785
-2.6768 -4.0112 -2.5017 0.9785
-2.2610 -4.2594 -2.5017 0.9785
-2.1749 -4.3040 -2.5017 0.9785
-2.0880 -4.3468 -2.5017 0.9785
-1.9117 -4.4272 -2.5017 0.9785
-1.6415 -4.5343 -2.5017 0.9785
-1.4581 -4.5966 -2.5017 0.9785
-0.9897 -4.7197 -2.5017 0.9785
-0.8947 -4.7386 -2.5017 0.9785
-0.6076 -4.7839 -2.5017 0.9785
-0.5113 -4.7951 -2.5017 0.9785
-0.4149 -4.8044 -2.5017 0.9785
-0.3183 -4.8118 -2.5017 0.9785
-0.1247 -4.8207 -2.5017 0.9785
0.3594 -4.8089 -2.5017 0.9785
0.5523 -4.7906 -2.5017 0.9785
0.7443 -4.7645 -2.5017 0.9785
0.8399 -4.7486 -2.5017 0.9785
1.1244 -4.6894 -2.5017 0.9785
1.3119 -4.6404 -2.5017 0.9785
1.4049 -4.6131 -2.5017 0.9785
1.5891 -4.5529 -2.5017 0.9785
1.6803 -4.5201 -2.5017 0.9785
1.8605 -4.4490 -2.5017 0.9785
1.9495 -4.4107 -2.5017 0.9785
2.0377 -4.3706 -2.5017 0.9785
2.1251 -4.3288 -2.5017 0.9785
2.3821 -4.1929 -2.5017 0.9785
2.4658 -4.1442 -2.5017 0.9785
2.7906 -3.9329 -2.5017 0.9785
2.8690 -3.8760 -2.5017 0.9785
2.9463 -3.8176 -2.5017 0.9785
3.0224 -3.7576 -2.5017 0.9785
3.0973 -3.6961 -2.5017 0.9785
3.1709 -3.6331 -2.5017 0.9785
3.2433 -3.5687 -2.5017 0.9785
3.3144 -3.5028 -2.5017 0.9785
3.4524 -3.3669 -2.5017 0.9785
3.6490 -3.1528 -2.5017 0.9785
3.7116 -3.0788 -2.5017 0.9785
3.8323 -2.9272 -2.5017 0.9785
3.8903 -2.8496 -2.5017 0.9785
4.0549 -2.6101 -2.5017 0.9785
4.1065 -2.5281 -2.5017 0.9785
4.1565 -2.4451 -2.5017 0.9785
4.2962 -2.1903 -2.5017 0.9785
4.3807 -2.0159 -2.5017 0.9785
4.4582 -1.8383 -2.5017 0.9785
4.4942 -1.7483 -2.5017 0.9785
4.5285 -1.6577 -2.5017 0.9785
4.5914 -1.4744 -2.5017 0.9785
4.6201 -1.3819 -2.5017 0.9785
4.6469 -1.2887 -2.5017 0.9785
4.6949 -1.1010 -2.5017 0.9785
4.7354 -0.9115 -2.5017 0.9785
4.7527 -0.8162 -2.5017 0.9785
4.8029 -0.4320 -2.5017 0.9785
4.8106 -0.3354 -2.5017 0.9785
4.8164 -0.2387 -2.5017 0.9785
4.8221 -0.0450 -2.5017 0.9785
4.8200 0.1488 -2.5017 0.9785
4.8101 0.3423 -2.5017 0.9785
4.7671 0.7274 -2.5017 0.9785
4.7516 0.8230 -2.5017 0.9785
4.7341 0.9183 -2.5017 0.9785
4.6934 1.1077 -2.5017 0.9785
4.6451 1.2954 -2.5017 0.9785
4.6181 1.3885 -2.5017 0.9785
4.5586 1.5729 -2.5017 0.9785
4.5261 1.6642 -2.5017 0.9785
4.4917 1.7548 -2.5017 0.9785
4.4556 1.8446 -2.5017 0.9785
4.3363 2.1097 -2.5017 0.9785
4.2931 2.1964 -2.5017 0.9785
4.2014 2.3671 -2.5017 0.9785
4.1029 2.5340 -2.5017 0.9785
3.9978 2.6968 -2.5017 0.9785
3.9428 2.7765 -2.5017 0.9785
3.7683 3.0090 -2.5017 0.9785
3.6444 3.1580 -2.5017 0.9785
3.5802 3.2306 -2.5017 0.9785
3.4476 3.3718 -2.5017 0.9785
3.3791 3.4404 -2.5017 0.9785
3.3093 3.5076 -2.5017 0.9785
3.0920 3.7006 -2.5017 0.9785
3.0170 3.7619 -2.5017 0.9785
2.9408 3.8218 -2.5017 0.9785
2.8635 3.8801 -2.5017 0.9785
2.7849 3.9368 -2.5017 0.9785
2.7053 3.9920 -2.5017 0.9785
2.5427 4.0975 -2.5017 0.9785
2.4599 4.1477 -2.5017 0.9785
2.3760 4.1963 -2.5017 0.9785
2.2912 4.2432 -2.5017 0.9785
2.1189 4.3318 -2.5017 0.9785
2.0315 4.3735 -2.5017 0.9785
1.9432 4.4135 -2.5017 0.9785
1.8541 4.4516 -2.5017 0.9785
1.7643 4.4880 -2.5017 0.9785
1.6738 4.5225 -2.5017 0.9785
1.4907 4.5861 -2.5017 0.9785
1.3983 4.6151 -2.5017 0.9785
1.3053 4.6423 -2.5017 0.9785
1.1177 4.6910 -2.5017 0.9785
1.0233 4.7125 -2.5017 0.9785
0.9284 4.7321 -2.5017 0.9785
0.8331 4.7498 -2.5017 0.9785
0.4491 4.8013 -2.5017 0.9785
0.0622 4.8219 -2.5017 0.9785
-0.0347 4.8222 -2.5017 0.9785
-0.1316 4.8205 -2.5017 0.9785
-0.5182 4.7944 -2.5017 0.9785
-0.7104 4.7697 -2.5017 0.9785
-0.8061 4.7545 -2.5017 0.9785
-0.9015 4.7373 -2.5017 0.9785
-0.9965 4.7182 -2.5017 0.9785
-1.4646 4.5945 -2.5017 0.9785
-1.5567 4.5642 -2.5017 0.9785
-1.6480 4.5320 -2.5017 0.9785
-1.8288 4.4621 -2.5017 0.9785
-1.9181 4.4245 -2.5017 0.9785
-2.0943 4.3438 -2.5017 0.9785
-2.5194 4.1119 -2.5017 0.9785
-2.6015 4.0604 -2.5017 0.9785
-2.6825 4.0073 -2.5017 0.9785
-2.8414 3.8963 -2.5017 0.9785
-2.9191 3.8385 -2.5017 0.9785
-3.1450 3.6556 -2.5017 0.9785
-3.2178 3.5917 -2.5017 0.9785
-3.2893 3.5263 -2.5017 0.9785
-3.4283 3.3913 -2.5017 0.9785
-3.5618 3.2509 -2.5017 0.9785
-3.7512 3.0304 -2.5017 0.9785
-3.8113 2.9544 -2.5017 0.9785
-3.9269 2.7989 -2.5017 0.9785
-4.0884 2.5573 -2.5017 0.9785
-4.1390 2.4746 -2.5017 0.9785
-4.1879 2.3909 -2.5017 0.9785
-4.2805 2.2208 -2.5017 0.9785
-4.3243 2.1343 -2.5017 0.9785
-4.3663 2.0470 -2.5017 0.9785
-4.4450 1.8699 -2.5017 0.9785
-4.5165 1.6899 -2.5017 0.9785
-4.5496 1.5988 -2.5017 0.9785
-4.6101 1.4147 -2.5017 0.9785
-4.6376 1.3218 -2.5017 0.9785
-4.6632 1.2283 -2.5017 0.9785
-4.7088 1.0400 -2.5017 0.9785
-4.7288 0.9452 -2.5017 0.9785
-4.8191 0.1762 -2.5017 0.9785
-4.8217 0.0793 -2.5017 0.9785
-4.8223 -0.0176 -2.5017 0.9785
-4.8210 -0.1145 -2.5017 0.9785
-4.8125 -0.3081 -2.5017 0.9785
-4.7962 -0.5011 -2.5017 0.9785
-4.7852 -0.5974 -2.5017 0.9785
-4.7722 -0.6934 -2.5017 0.9785
-4.7573 -0.7892 -2.5017 0.9785
-4.6786 -1.1686 -2.5017 0.9785
-4.6542 -1.2623 -2.5017 0.9785
-4.6279 -1.3556 -2.5017 0.9785
-3.1108 -3.3446 -2.5017 0.9794
-3.0430 -3.4064 -2.5017 0.9794
-2.9037 -3.5259 -2.5017 0.9794
-2.8323 -3.5835 -2.5017 0.9794
-2.7597 -3.6397 -2.5017 0.9794
-2.6860 -3.6944 -2.5017 0.9794
-2.6112 -3.7477 -2.5017 0.9794
-2.3807 -3.8981 -2.5017 0.9794
-2.3019 -3.9452 -2.5017 0.9794
-2.1416 -4.0345 -2.5017 0.9794
-1.9778 -4.1173 -2.5017 0.9794
-1.8946 -4.1562 -2.5017 0.9794
-1.8108 -4.1934 -2.5017 0.9794
-1.7261 -4.2289 -2.5017 0.9794
-1.6408 -4.2628 -2.5017 0.9794
-1.2050 -4.4059 -2.5017 0.9794
-1.1162 -4.4292 -2.5017 0.9794
-1.0270 -4.4507 -2.5017 0.9794
-0.9374 -4.4704 -2.5017 0.9794
-0.8474 -4.4884 -2.5017 0.9794
-0.7571 -4.5045 -2.5017 0.9794
-0.5755 -4.5313 -2.5017 0.9794
