ply
format ascii 1.0
element vertex 1549
property float32 x
property float32 y
property float32 z
property float32 I
end_header
-6.5699 -28.0421 2.4381 0.8908
-5.9855 -28.0782 2.4303 0.8911
-4.2460 -28.1507 2.4100 0.8920
-3.6779 -28.2207 2.4092 0.8920
-2.5354 -28.2913 2.4045 0.8922
-3.9762 -80.8119 6.8492 0.7227
18.8629 -96.9643 8.3622 0.6726
19.8797 -84.0137 7.3084 0.7071
25.5241 -78.9243 7.0219 0.7168
26.1549 -75.6449 6.7755 0.7252
21.2969 -51.3402 4.7052 0.8000
21.6701 -49.4086 4.5672 0.8053
20.8503 -40.6782 3.8695 0.8324
23.3607 -41.3871 4.0231 0.8263
23.4999 -39.7450 3.9086 0.8308
24.7097 -38.1974 3.8511 0.8331
25.9503 -38.3996 3.9233 0.8302
26.9529 -38.2041 3.9579 0.8289
29.8111 -40.5014 4.2572 0.8172
31.1494 -40.5843 4.3308 0.8143
32.5352 -40.6699 4.4089 0.8113
33.9725 -40.7587 4.4917 0.8082
34.9892 -40.3025 4.5181 0.8071
24.8088 -27.4415 3.1316 0.8620
38.8049 -41.2253 4.7927 0.7967
40.5802 -41.4105 4.9081 0.7924
43.9996 -41.4284 5.1159 0.7846
45.8241 -41.4400 5.2301 0.7803
50.5673 -40.4651 5.4825 0.7711
57.3906 -42.2554 6.0331 0.7512
59.0988 -41.7070 6.1232 0.7480
62.9235 -42.5370 6.4296 0.7372
59.4694 -33.5786 5.7813 0.7602
59.8051 -32.1997 5.7498 0.7614
59.6468 -29.0844 5.6175 0.7661
59.8099 -24.8206 5.4817 0.7711
63.8075 -24.9877 5.8009 0.7595
64.1880 -23.6596 5.7911 0.7599
61.4372 -18.5226 5.4321 0.7729
64.5346 -18.0491 5.6727 0.7641
64.6192 -16.6795 5.6495 0.7650
64.7031 -15.3204 5.6287 0.7657
64.8694 -12.6292 5.5945 0.7670
65.1972 -7.3227 5.5538 0.7685
65.4412 -3.3747 5.5471 0.7687
65.7672 1.9018 5.5697 0.7679
65.8493 3.2303 5.5810 0.7675
60.9797 7.9382 5.2057 0.7813
61.1312 9.2114 5.2333 0.7802
62.2439 14.5734 5.4116 0.7737
62.5308 15.9733 5.4634 0.7718
62.6154 17.3433 5.5001 0.7704
62.4972 18.6714 5.5216 0.7696
43.5453 21.0982 4.0961 0.8235
37.4812 21.0395 3.6386 0.8415
16.3753 11.0101 1.6704 0.9238
15.1371 11.0867 1.5883 0.9274
14.0131 11.1561 1.5163 0.9306
12.0384 11.2781 1.3964 0.9359
11.5917 11.3057 1.3707 0.9371
11.1609 11.3323 1.3465 0.9381
9.9534 11.4070 1.2816 0.9410
9.5758 11.4303 1.2623 0.9419
7.8393 11.5376 1.1808 0.9455
6.5942 11.6145 1.1306 0.9478
6.0087 11.6507 1.1097 0.9487
5.7160 11.6525 1.0987 0.9492
5.4435 11.6856 1.0913 0.9496
4.8959 11.7194 1.0752 0.9503
4.1021 11.7685 1.0550 0.9512
3.8438 11.7845 1.0493 0.9515
2.8346 11.8468 1.0312 0.9523
2.3415 11.8773 1.0248 0.9526
2.0970 11.8924 1.0223 0.9527
1.8511 11.8913 1.0188 0.9528
1.3693 11.9373 1.0172 0.9529
1.1280 11.9522 1.0163 0.9529
0.8871 11.9671 1.0158 0.9530
-0.0775 12.0267 1.0181 0.9529
-0.5629 12.0567 1.0217 0.9527
-1.0527 12.0870 1.0271 0.9525
-1.5484 12.1176 1.0341 0.9521
-1.7990 12.1331 1.0383 0.9520
-2.3069 12.1645 1.0481 0.9515
-2.8252 12.1965 1.0598 0.9510
-3.0890 12.2128 1.0664 0.9507
-3.3562 12.2293 1.0735 0.9504
-3.9020 12.2630 1.0894 0.9497
-4.1812 12.2803 1.0982 0.9493
-4.4651 12.2978 1.1075 0.9488
-5.3482 12.3524 1.1395 0.9474
-5.6544 12.3713 1.1515 0.9469
-12.6305 26.2262 2.4642 0.8897
-6.2873 12.4104 1.1777 0.9457
-6.6150 12.4307 1.1920 0.9450
-6.9508 12.4514 1.2072 0.9444
-7.6495 12.4946 1.2402 0.9429
-8.0137 12.5171 1.2582 0.9421
-8.3887 12.5403 1.2772 0.9412
-9.5875 12.6143 1.3413 0.9384
-10.4579 12.6681 1.3906 0.9362
-11.3964 12.7261 1.4461 0.9337
-11.8948 12.7569 1.4765 0.9324
-12.4147 12.7890 1.5088 0.9310
-14.1241 12.8946 1.6190 0.9261
-14.7517 12.9334 1.6608 0.9243
-15.4127 12.9742 1.7055 0.9223
-18.4457 13.1484 1.9176 0.9131
-12.8926 -20.0271 1.4770 0.9090
-14.9243 -26.5780 1.8902 0.8850
-14.2513 -26.6196 1.8724 0.8860
-13.5907 -26.6604 1.8556 0.8870
-9.8771 -21.4675 1.4653 0.9096
-11.9547 -27.4221 1.8550 0.8870
-10.8347 -27.8604 1.8537 0.8871
-10.7710 -29.4355 1.9437 0.8820
-8.9555 -26.0879 1.7104 0.8953
-9.5469 -29.7452 1.9372 0.8823
-4.4441 -20.8477 1.3218 0.9181
-5.7631 -29.9789 1.8930 0.8848
-4.0402 -31.0004 1.9386 0.8822
-2.1623 -31.1653 1.9372 0.8823
-3.8126 -77.4870 4.8108 0.7328
-1.7277 -59.4461 3.6878 0.7879
18.8169 -96.7274 6.1105 0.6737
21.8337 -84.6389 5.4203 0.7045
25.2649 -83.8451 5.4302 0.7040
25.1074 -77.6357 5.0597 0.7211
20.7557 -53.0237 3.5309 0.7960
22.2507 -50.7324 3.4352 0.8009
24.3176 -49.8894 3.4416 0.8006
24.5914 -47.9771 3.3431 0.8057
21.5465 -40.0326 2.8192 0.8334
23.2937 -39.3962 2.8381 0.8324
26.6312 -39.4071 2.9493 0.8265
29.8111 -40.5014 3.1185 0.8175
31.1493 -40.5841 3.1725 0.8146
32.5351 -40.6698 3.2296 0.8116
33.9725 -40.7587 3.2903 0.8084
24.8057 -27.4380 2.2937 0.8622
38.6413 -41.0515 3.4960 0.7978
40.6114 -41.4425 3.5981 0.7925
45.8845 -41.4946 3.8362 0.7804
48.2041 -41.8615 3.9590 0.7742
49.7223 -41.4560 4.0144 0.7715
54.8132 -42.0832 4.2852 0.7581
57.6778 -42.4668 4.4415 0.7505
60.3215 -42.5699 4.5782 0.7439
63.1148 -42.6663 4.7241 0.7369
59.0832 -36.5688 4.3088 0.7569
59.1800 -35.0028 4.2636 0.7592
59.2747 -33.4687 4.2211 0.7612
56.6061 -30.4774 3.9866 0.7729
59.4589 -30.4875 4.1435 0.7651
59.8089 -24.8202 4.0154 0.7714
63.4844 -24.8612 4.2278 0.7609
61.4303 -18.5205 3.9787 0.7733
64.5527 -18.0542 4.1565 0.7644
64.8047 -13.9746 4.1109 0.7667
64.9673 -12.6482 4.1043 0.7670
65.2956 -7.3338 4.0745 0.7685
65.3772 -6.0146 4.0712 0.7687
65.8678 3.2312 4.0894 0.7677
65.9503 4.5661 4.0994 0.7673
66.0332 5.9080 4.1111 0.7667
66.1979 7.2672 4.1296 0.7658
56.4406 9.6690 3.5509 0.7949
62.8713 13.3928 3.9861 0.7729
62.6144 17.3430 4.0289 0.7708
62.4961 18.6710 4.0447 0.7700
61.1317 19.6107 3.9811 0.7731
53.2974 19.4937 3.5191 0.7966
50.5800 19.6616 3.3651 0.8045
48.0895 19.8155 3.2253 0.8118
47.2996 20.6121 3.1995 0.8132
40.7577 20.7696 2.8366 0.8325
39.0102 20.8776 2.7437 0.8375
37.4804 21.0391 2.6653 0.8418
37.5448 22.0795 2.7009 0.8398
37.6108 23.1485 2.7386 0.8378
17.0442 10.9688 1.2569 0.9220
16.3753 11.0102 1.2236 0.9240
15.7406 11.0494 1.1926 0.9258
14.5621 11.1222 1.1363 0.9292
13.4882 11.1886 1.0867 0.9322
12.0384 11.2781 1.0229 0.9360
11.5917 11.3057 1.0041 0.9372
10.7450 11.3581 0.9695 0.9393
9.9534 11.4070 0.9388 0.9411
8.8531 11.4750 0.8987 0.9436
7.8393 11.5376 0.8650 0.9456
6.8956 11.5959 0.8366 0.9474
6.5942 11.6145 0.8282 0.9479
5.7159 11.6524 0.8048 0.9493
4.6279 11.7360 0.7823 0.9507
4.1021 11.7685 0.7728 0.9513
3.8438 11.7845 0.7686 0.9515
3.3348 11.8159 0.7613 0.9520
3.0837 11.8314 0.7582 0.9522
2.5873 11.8621 0.7529 0.9525
2.3415 11.8773 0.7507 0.9526
1.6111 11.9224 0.7460 0.9529
1.3693 11.9374 0.7451 0.9530
1.1280 11.9523 0.7445 0.9530
0.4054 11.9969 0.7444 0.9530
-0.3198 12.0417 0.7470 0.9529
-0.8072 12.0718 0.7502 0.9527
-1.7990 12.1331 0.7606 0.9520
-3.0890 12.2128 0.7812 0.9508
-3.3562 12.2293 0.7864 0.9504
-3.6271 12.2461 0.7920 0.9501
-3.9020 12.2630 0.7980 0.9497
-4.1812 12.2803 0.8044 0.9493
-4.4651 12.2979 0.8113 0.9489
-5.0482 12.3339 0.8264 0.9480
-5.3482 12.3524 0.8347 0.9475
-5.6545 12.3713 0.8435 0.9469
-12.6305 26.2262 1.8051 0.8899
-7.6495 12.4946 0.9085 0.9430
-8.3887 12.5403 0.9356 0.9413
-8.7754 12.5641 0.9503 0.9404
-9.5875 12.6143 0.9825 0.9385
-10.0149 12.6407 1.0000 0.9374
-10.4579 12.6681 1.0186 0.9363
-10.9180 12.6965 1.0384 0.9351
-11.8948 12.7569 1.0816 0.9325
-12.4147 12.7890 1.1053 0.9311
-12.9582 12.8226 1.1304 0.9295
-14.1242 12.8946 1.1859 0.9262
-15.4127 12.9742 1.2493 0.9224
-16.8492 13.0630 1.3221 0.9181
-21.3268 13.3396 1.5599 0.9041
-22.4260 13.4075 1.6202 0.9006
-23.6143 13.4809 1.6861 0.8968
-24.9039 13.5606 1.7584 0.8926
-18.3429 -27.2726 1.2960 0.8767
-17.0385 -26.4672 1.2412 0.8816
-15.6354 -26.5782 1.2159 0.8839
-14.9542 -26.6313 1.2043 0.8849
-14.2853 -26.6831 1.1934 0.8859
-13.6279 -26.7335 1.1832 0.8868
-11.4217 -27.7074 1.1817 0.8869
-10.8353 -27.8619 1.1788 0.8872
-7.9325 -28.6229 1.1712 0.8879
-4.0512 -31.0856 1.2361 0.8821
-4.0679 -37.0056 1.4680 0.8615
-3.3205 -37.0518 1.4668 0.8616
-1.8951 -38.5153 1.5205 0.8570
18.7009 -96.1316 3.8616 0.6757
23.0747 -82.5499 3.3798 0.7096
27.1495 -83.9502 3.4790 0.7024
22.0353 -50.2412 2.1632 0.8028
30.7417 -59.9762 2.6575 0.7635
28.1232 -52.2519 2.3398 0.7886
28.7199 -46.4171 2.1523 0.8037
29.1087 -44.9975 2.1132 0.8069
29.3209 -41.5607 2.0056 0.8158
31.1493 -40.5842 2.0173 0.8148
32.5351 -40.6698 2.0537 0.8118
35.5248 -40.9194 2.1367 0.8050
38.7019 -41.1159 2.2265 0.7977
33.7465 -34.4370 1.9012 0.8245
33.8255 -33.1570 1.8677 0.8273
33.9019 -31.9207 1.8361 0.8299
33.9757 -30.7252 1.8063 0.8325
34.2494 -26.2952 1.7026 0.8413
34.3131 -25.2639 1.6802 0.8432
34.3751 -24.2591 1.6590 0.8450
41.3929 -23.3719 1.8744 0.8267
43.6704 -23.5127 1.9557 0.8199
46.1556 -23.6662 2.0453 0.8125
60.1613 -26.3966 2.5905 0.7687
53.0256 -20.7654 2.2455 0.7962
38.2637 -14.1039 1.6080 0.8494
59.5129 -19.2561 2.4664 0.7785
69.5290 -20.9622 2.8635 0.7477
69.6747 -17.9844 2.8374 0.7497
69.6600 -16.4940 2.8227 0.7508
69.7314 -15.0370 2.8128 0.7516
69.8024 -13.5895 2.8041 0.7523
69.9432 -10.7186 2.7901 0.7533
70.0131 -9.2927 2.7849 0.7537
70.0828 -7.8715 2.7808 0.7540
70.3603 -2.2111 2.7758 0.7544
70.4297 -0.7964 2.7773 0.7543
70.4992 0.6205 2.7800 0.7541
70.7089 4.8956 2.7948 0.7530
70.7793 6.3327 2.8020 0.7524
62.8702 13.3926 2.5347 0.7731
62.6993 14.6800 2.5392 0.7728
62.7832 16.0378 2.5551 0.7715
35.4873 9.8293 1.4520 0.8629
33.3441 9.9617 1.3722 0.8700
47.2988 20.6117 2.0344 0.8134
45.5982 20.9715 1.9790 0.8180
43.5456 21.0983 1.9080 0.8239
37.4797 21.0387 1.6948 0.8419
37.5440 22.0791 1.7174 0.8400
37.6101 23.1481 1.7414 0.8380
17.0443 10.9689 0.7992 0.9221
16.3753 11.0102 0.7781 0.9240
15.7406 11.0494 0.7583 0.9259
15.1371 11.0867 0.7398 0.9276
14.0132 11.1562 0.7063 0.9308
13.4882 11.1886 0.6910 0.9323
12.9852 11.2197 0.6767 0.9336
12.5025 11.2495 0.6632 0.9349
11.5917 11.3058 0.6385 0.9372
11.1610 11.3324 0.6272 0.9383
10.7450 11.3581 0.6165 0.9393
9.9534 11.4070 0.5969 0.9412
9.5759 11.4303 0.5880 0.9421
9.2094 11.4530 0.5795 0.9429
8.8531 11.4750 0.5715 0.9436
8.1687 11.5173 0.5568 0.9450
7.8393 11.5376 0.5500 0.9457
7.5176 11.5575 0.5437 0.9463
7.2032 11.5769 0.5376 0.9469
6.8956 11.5959 0.5320 0.9474
6.0087 11.6507 0.5169 0.9489
5.7159 11.6523 0.5118 0.9494
5.1677 11.7027 0.5044 0.9501
4.6279 11.7360 0.4974 0.9508
4.3634 11.7524 0.4943 0.9511
4.1021 11.7685 0.4914 0.9513
3.8438 11.7845 0.4888 0.9516
3.0827 11.8276 0.4820 0.9522
2.8332 11.8409 0.4801 0.9524
2.3396 11.8680 0.4770 0.9527
1.8511 11.8918 0.4746 0.9530
1.3677 11.9236 0.4732 0.9531
0.8860 11.9523 0.4726 0.9532
0.4049 11.9818 0.4727 0.9531
0.1640 11.9969 0.4731 0.9531
-0.3194 12.0278 0.4744 0.9530
-1.0517 12.0760 0.4780 0.9526
-1.7981 12.1270 0.4834 0.9521
-5.6494 33.4513 1.3377 0.8730
-2.5646 12.1804 0.4908 0.9514
-3.3562 12.2293 0.5000 0.9505
-3.9020 12.2631 0.5074 0.9498
-4.1812 12.2803 0.5115 0.9494
-4.4651 12.2979 0.5159 0.9490
-4.7540 12.3157 0.5205 0.9485
-5.0482 12.3339 0.5255 0.9480
-5.6545 12.3713 0.5364 0.9470
-6.2873 12.4104 0.5486 0.9458
-6.6150 12.4307 0.5552 0.9452
-7.6495 12.4946 0.5777 0.9430
-9.1747 12.5888 0.6142 0.9395
-10.0149 12.6407 0.6359 0.9375
-10.4580 12.6681 0.6477 0.9364
-10.9180 12.6965 0.6603 0.9352
-12.4147 12.7890 0.7028 0.9311
-14.1242 12.8946 0.7541 0.9263
-14.7517 12.9334 0.7736 0.9245
-16.1107 13.0174 0.8167 0.9204
-18.4661 13.1629 0.8942 0.9132
-19.3551 13.2178 0.9242 0.9104
-20.3061 13.2766 0.9566 0.9074
-22.4261 13.4076 1.0303 0.9007
-24.9040 13.5607 1.1181 0.8927
-18.3429 -27.2725 0.5552 0.8768
-17.8614 -29.0111 0.5755 0.8726
-17.9547 -30.5205 0.5981 0.8679
-16.6802 -31.1564 0.5970 0.8682
-15.9070 -31.2042 0.5916 0.8693
-9.5044 -21.8015 0.4017 0.9092
-11.4217 -27.7073 0.5062 0.8870
-10.8359 -27.8634 0.5050 0.8873
-8.8114 -27.4537 0.4870 0.8911
-8.2173 -27.4904 0.4847 0.8916
-7.6287 -27.5268 0.4825 0.8920
-7.0451 -27.5628 0.4806 0.8924
-6.4660 -27.5986 0.4788 0.8928
-5.3191 -27.6694 0.4759 0.8934
-4.7503 -27.7045 0.4748 0.8936
-4.5332 -30.0548 0.5134 0.8855
-4.0522 -31.0932 0.5297 0.8821
-4.0679 -37.0056 0.6289 0.8616
-2.5739 -37.0979 0.6282 0.8618
28.3395 -81.9630 1.4649 0.7068
24.1876 -52.2656 0.9728 0.7942
42.2620 -86.7038 1.6293 0.6799
43.2802 -84.4385 1.6028 0.6841
28.1224 -52.2503 1.0023 0.7887
28.6940 -46.3753 0.9212 0.8040
29.1079 -44.9963 0.9052 0.8070
29.2985 -41.5289 0.8585 0.8160
29.8111 -40.5014 0.8495 0.8178
35.7153 -37.9431 0.8802 0.8118
33.8248 -33.1562 0.8001 0.8274
34.0385 -29.5597 0.7615 0.8350
34.1159 -28.4441 0.7503 0.8372
34.3124 -25.2634 0.7198 0.8433
35.5609 -23.0115 0.7155 0.8441
37.3586 -23.1226 0.7421 0.8388
46.1554 -23.6661 0.8762 0.8126
48.8803 -23.8345 0.9186 0.8045
51.8838 -24.0201 0.9658 0.7955
55.2139 -24.2258 1.0185 0.7857
59.8068 -24.8193 1.0938 0.7718
50.7796 -19.8859 0.9212 0.8040
87.3525 -26.3358 1.5411 0.6942
89.9596 11.7108 1.5324 0.6956
52.6885 7.9393 0.9001 0.8080
52.1574 8.9352 0.8939 0.8092
52.8206 10.1461 0.9086 0.8064
62.2407 14.5726 1.0798 0.7743
55.6412 20.3509 1.0008 0.7890
52.2838 20.3239 0.9475 0.7990
40.7579 20.7697 0.7727 0.8328
39.0104 20.8777 0.7474 0.8378
37.4790 21.0383 0.7260 0.8420
37.5433 22.0787 0.7357 0.8401
17.3618 11.1732 0.3488 0.9207
15.7407 11.0494 0.3249 0.9259
15.1372 11.0867 0.3169 0.9277
14.5621 11.1223 0.3095 0.9293
12.9852 11.2197 0.2899 0.9337
12.5025 11.2495 0.2841 0.9349
12.0385 11.2782 0.2787 0.9361
11.5917 11.3058 0.2735 0.9373
10.7451 11.3581 0.2641 0.9394
9.9534 11.4070 0.2557 0.9412
9.5706 11.4240 0.2517 0.9421
9.1984 11.4393 0.2480 0.9430
8.8424 11.4611 0.2445 0.9437
8.4960 11.4822 0.2413 0.9445
8.1585 11.5029 0.2382 0.9451
5.4435 11.6857 0.2178 0.9497
4.3635 11.7524 0.2118 0.9511
4.1021 11.7685 0.2105 0.9514
3.8438 11.7845 0.2094 0.9516
3.5881 11.8003 0.2083 0.9519
2.3774 9.1214 0.1592 0.9630
2.8346 11.8469 0.2058 0.9524
2.5873 11.8621 0.2051 0.9526
2.0970 11.8924 0.2040 0.9528
1.8512 11.8920 0.2033 0.9530
1.6096 11.9110 0.2030 0.9531
1.3673 11.9197 0.2027 0.9531
1.1264 11.9346 0.2025 0.9532
0.6453 11.9643 0.2024 0.9532
-0.0773 12.0070 0.2028 0.9531
-0.5613 12.0207 0.2033 0.9530
-0.8048 12.0358 0.2038 0.9529
-1.0495 12.0510 0.2043 0.9528
-1.7936 12.0972 0.2066 0.9523
-2.3069 12.1645 0.2091 0.9517
-3.3562 12.2294 0.2142 0.9505
-3.6271 12.2461 0.2157 0.9502
-4.1812 12.2803 0.2191 0.9494
-12.6306 26.2262 0.4917 0.8901
-6.2874 12.4105 0.2350 0.9459
-6.9508 12.4515 0.2409 0.9445
-7.2955 12.4727 0.2441 0.9438
-9.1747 12.5889 0.2631 0.9396
-9.5875 12.6144 0.2676 0.9386
-10.0118 12.6369 0.2723 0.9375
-10.4464 12.6541 0.2772 0.9365
-11.3845 12.7127 0.2883 0.9340
-14.1161 12.8872 0.3229 0.9264
-16.0869 12.9982 0.3494 0.9206
-16.8262 13.0452 0.3596 0.9184
-17.6107 13.0950 0.3707 0.9159
-18.4662 13.1629 0.3831 0.9133
-19.3551 13.2179 0.3959 0.9105
-21.3269 13.3397 0.4249 0.9043
-23.6145 13.4810 0.4593 0.8969
-24.8841 13.5499 0.4786 0.8928
-18.3428 -27.2725 -0.1850 0.8768
-10.6660 -18.1308 -0.1184 0.9193
-10.2858 -18.3176 -0.1183 0.9194
-15.0693 -31.0906 -0.1945 0.8709
-9.8942 -21.5048 -0.1333 0.9097
-9.4846 -21.7562 -0.1336 0.9094
-11.4217 -27.7073 -0.1687 0.8870
-6.7546 -21.0454 -0.1244 0.9154
-6.2954 -21.0610 -0.1238 0.9158
-5.6071 -21.9368 -0.1275 0.9134
-6.1918 -26.4283 -0.1528 0.8971
-5.1468 -30.0169 -0.1715 0.8853
-4.5332 -30.0548 -0.1711 0.8855
-4.0679 -37.0055 -0.2096 0.8616
-3.3205 -37.0517 -0.2094 0.8617
1.4523 -28.2426 -0.1592 0.8930
27.8977 -92.5823 -0.5444 0.6792
28.3104 -87.5401 -0.5180 0.6921
31.8303 -86.3940 -0.5184 0.6919
30.7253 -78.4925 -0.4746 0.7138
28.5462 -55.6930 -0.3523 0.7785
28.7414 -50.9197 -0.3292 0.7914
29.1071 -44.9950 -0.3017 0.8071
24.4844 -34.7052 -0.2391 0.8438
29.4964 -40.0738 -0.2802 0.8195
25.3321 -33.0050 -0.2342 0.8467
32.5777 -37.5248 -0.2798 0.8197
33.7450 -34.4355 -0.2714 0.8246
33.8241 -33.1555 -0.2667 0.8274
34.1152 -28.4436 -0.2501 0.8372
34.1825 -27.3536 -0.2465 0.8394
34.3738 -24.2582 -0.2369 0.8451
35.5608 -23.0115 -0.2385 0.8441
37.3585 -23.1225 -0.2474 0.8388
39.2962 -23.2423 -0.2570 0.8331
41.3927 -23.3718 -0.2676 0.8268
48.8801 -23.8344 -0.3062 0.8045
38.2466 -14.0976 -0.2295 0.8495
52.1508 -18.0402 -0.3107 0.8019
79.9866 -25.8806 -0.4733 0.7144
95.9667 -22.7229 -0.5553 0.6740
96.0903 -20.7211 -0.5534 0.6749
97.7889 6.7705 -0.5519 0.6756
91.0040 11.8467 -0.5169 0.6927
51.7272 7.7944 -0.2945 0.8112
53.3414 10.2461 -0.3058 0.8047
62.8680 13.3921 -0.3619 0.7733
62.6971 14.6795 -0.3625 0.7729
35.4876 9.8294 -0.2073 0.8630
29.4834 10.1163 -0.1755 0.8828
55.6414 20.3510 -0.3336 0.7890
49.9929 20.5998 -0.3044 0.8055
45.5985 20.9716 -0.2826 0.8181
43.5458 21.0984 -0.2724 0.8240
37.4782 21.0379 -0.2420 0.8420
37.7128 23.2113 -0.2493 0.8377
17.1396 11.5240 -0.1163 0.9207
15.7407 11.0495 -0.1083 0.9260
15.1372 11.0868 -0.1056 0.9277
14.5622 11.1223 -0.1032 0.9293
14.0132 11.1562 -0.1008 0.9309
12.9853 11.2197 -0.0966 0.9337
12.0385 11.2782 -0.0929 0.9361
11.5918 11.3058 -0.0912 0.9373
10.3429 11.3830 -0.0866 0.9403
9.9535 11.4070 -0.0852 0.9412
9.5706 11.4240 -0.0839 0.9421
9.1887 11.4273 -0.0826 0.9430
8.4808 11.4617 -0.0803 0.9446
8.1441 11.4825 -0.0793 0.9452
7.8153 11.5022 -0.0783 0.9459
6.8538 11.5257 -0.0755 0.9478
6.5543 11.5443 -0.0747 0.9483
6.2606 11.5625 -0.0740 0.9488
5.7157 11.6520 -0.0731 0.9494
5.1677 11.7027 -0.0720 0.9501
4.6280 11.7361 -0.0710 0.9508
3.3348 11.8160 -0.0691 0.9521
2.3769 9.1194 -0.0531 0.9630
1.6095 11.9111 -0.0677 0.9531
1.3665 11.9132 -0.0675 0.9532
1.1247 11.9167 -0.0674 0.9532
0.8845 11.9315 -0.0674 0.9533
0.6443 11.9463 -0.0674 0.9533
0.1637 11.9760 -0.0674 0.9532
-0.0772 11.9890 -0.0675 0.9532
-0.3184 11.9910 -0.0675 0.9532
-1.0463 12.0141 -0.0679 0.9529
-1.5390 12.0444 -0.0684 0.9526
-5.6502 33.4562 -0.1910 0.8731
-3.0891 12.2129 -0.0709 0.9509
-3.9020 12.2631 -0.0725 0.9498
-4.1812 12.2804 -0.0730 0.9494
-4.7540 12.3158 -0.0743 0.9486
-5.3483 12.3525 -0.0758 0.9476
-5.6545 12.3714 -0.0766 0.9470
-6.6150 12.4307 -0.0793 0.9452
-6.9509 12.4515 -0.0803 0.9446
-7.6495 12.4946 -0.0825 0.9431
-8.7755 12.5642 -0.0863 0.9405
-10.4352 12.6406 -0.0923 0.9365
-11.8544 12.7136 -0.0979 0.9328
-12.8738 12.7391 -0.1020 0.9301
-13.4387 12.7736 -0.1044 0.9285
-14.1161 12.8873 -0.1076 0.9264
-14.7049 12.8924 -0.1101 0.9248
-15.3620 12.9315 -0.1131 0.9228
-16.0436 12.9632 -0.1161 0.9208
-16.7357 12.9750 -0.1192 0.9188
-17.5131 13.0225 -0.1229 0.9164
-19.3552 13.2179 -0.1320 0.9105
-21.3270 13.3397 -0.1416 0.9043
-24.9042 13.5608 -0.1597 0.8928
-9.3394 -15.8758 -0.5186 0.9289
-8.8669 -15.7908 -0.5099 0.9301
-7.5863 -15.6520 -0.4898 0.9328
-7.3315 -15.9348 -0.4939 0.9322
-6.0182 -15.4753 -0.4675 0.9357
-5.1161 -15.9402 -0.4714 0.9352
-4.7792 -15.9886 -0.4699 0.9354
-3.6107 -16.9381 -0.4877 0.9330
-3.2669 -16.9943 -0.4873 0.9331
-2.9312 -17.0953 -0.4884 0.9329
-2.6269 -17.4163 -0.4960 0.9319
-2.3035 -17.6752 -0.5019 0.9312
-1.9462 -17.7047 -0.5015 0.9312
-1.2445 -17.9368 -0.5063 0.9306
-0.9010 -18.3115 -0.5162 0.9293
0.5954 -19.0352 -0.5363 0.9266
1.0880 -21.1581 -0.5966 0.9187
17.1088 -87.9471 -2.5228 0.6987
18.8832 -87.6295 -2.5241 0.6986
20.2977 -85.7800 -2.4821 0.7028
21.2074 -82.2107 -2.3907 0.7120
22.6952 -81.1923 -2.3738 0.7137
24.3348 -80.7582 -2.3750 0.7135
25.9662 -80.2915 -2.3761 0.7134
27.5885 -79.7911 -2.3773 0.7133
30.4664 -77.8311 -2.3535 0.7157
32.1502 -77.5041 -2.3627 0.7148
33.9732 -77.4602 -2.3817 0.7129
24.2517 -52.4041 -1.6259 0.7937
28.3345 -58.1304 -1.8209 0.7720
28.5453 -55.6911 -1.7621 0.7785
28.2242 -52.4395 -1.6769 0.7880
24.9660 -42.2246 -1.3812 0.8218
29.1062 -44.9938 -1.5089 0.8070
29.2152 -43.2307 -1.4692 0.8116
25.3315 -33.0042 -1.1715 0.8466
25.4083 -31.7611 -1.1453 0.8498
31.2025 -37.4354 -1.3722 0.8228
33.7442 -34.4347 -1.3576 0.8245
33.8233 -33.1548 -1.3336 0.8274
33.9736 -30.7232 -1.2898 0.8325
34.3111 -25.2624 -1.1998 0.8432
34.4337 -23.2776 -1.1703 0.8468
37.3584 -23.1225 -1.2371 0.8388
39.2961 -23.2422 -1.2855 0.8330
51.8834 -24.0199 -1.6099 0.7955
50.9932 -22.3739 -1.5680 0.8003
73.8675 -25.5525 -2.2009 0.7314
79.6034 -25.7566 -2.3559 0.7155
43.5379 -12.1767 -1.2730 0.8345
49.8804 -11.8106 -1.4434 0.8146
59.2434 -12.7753 -1.7065 0.7847
89.8003 -15.6158 -2.5665 0.6944
90.4293 -12.0025 -2.5686 0.6942
90.6520 -10.1817 -2.5686 0.6942
91.0922 -4.6975 -2.5684 0.6942
91.1639 -2.8649 -2.5682 0.6942
91.1975 -1.0312 -2.5681 0.6942
91.1927 0.8026 -2.5679 0.6942
71.2601 2.0606 -2.0074 0.7518
67.2895 3.3010 -1.8970 0.7637
85.4114 5.9135 -2.4108 0.7099
85.0839 9.3405 -2.4102 0.7100
51.7275 7.7945 -1.4730 0.8111
53.1843 10.2160 -1.5250 0.8052
62.2386 14.5721 -1.7999 0.7743
62.3218 15.9199 -1.8112 0.7731
35.4877 9.8294 -1.0369 0.8630
33.3445 9.9618 -0.9799 0.8700
34.0136 13.2219 -1.0276 0.8641
34.1340 15.6988 -1.0579 0.8604
34.0942 16.5190 -1.0668 0.8593
32.6086 16.6169 -1.0305 0.8638
32.5019 17.3945 -1.0380 0.8629
31.4878 17.6752 -1.0168 0.8655
17.3614 11.1729 -0.5813 0.9207
17.1394 11.5239 -0.5816 0.9207
15.7407 11.0495 -0.5415 0.9259
15.1372 11.0868 -0.5283 0.9277
14.5622 11.1223 -0.5160 0.9293
14.0133 11.1562 -0.5044 0.9308
12.9853 11.2197 -0.4832 0.9336
11.5918 11.3058 -0.4559 0.9373
10.7451 11.3581 -0.4403 0.9394
10.3429 11.3830 -0.4331 0.9403
9.5706 11.4241 -0.4196 0.9421
9.1888 11.4274 -0.4129 0.9430
8.1297 11.4623 -0.3957 0.9453
7.8012 11.4815 -0.3909 0.9460
6.5323 11.5055 -0.3725 0.9484
6.2398 11.5240 -0.3690 0.9489
34.4741 66.8449 -2.1178 0.7401
4.8960 11.7195 -0.3576 0.9504
4.6280 11.7361 -0.3552 0.9508
4.3635 11.7524 -0.3530 0.9511
4.1022 11.7686 -0.3509 0.9514
3.5881 11.8003 -0.3473 0.9518
3.3348 11.8160 -0.3457 0.9521
2.3764 9.1174 -0.2653 0.9630
2.5873 11.8622 -0.3419 0.9526
2.0970 11.8925 -0.3400 0.9528
1.8512 11.8925 -0.3389 0.9530
1.6096 11.9111 -0.3384 0.9530
1.3665 11.9132 -0.3376 0.9531
1.1246 11.9153 -0.3370 0.9532
0.8834 11.9174 -0.3365 0.9533
-0.0771 11.9710 -0.3371 0.9532
-0.3179 11.9730 -0.3373 0.9532
-0.5591 11.9749 -0.3376 0.9532
-1.5343 12.0074 -0.3409 0.9527
-5.6506 33.4586 -0.9555 0.8730
-2.3069 12.1646 -0.3486 0.9517
-3.6271 12.2461 -0.3596 0.9502
-4.4651 12.2979 -0.3684 0.9490
-5.6545 12.3714 -0.3830 0.9470
-12.6306 26.2263 -0.8197 0.8900
-6.6150 12.4307 -0.3965 0.9452
-7.2955 12.4728 -0.4069 0.9438
-8.0137 12.5172 -0.4185 0.9423
-8.7755 12.5642 -0.4315 0.9405
-9.1748 12.5889 -0.4386 0.9396
-9.5875 12.6144 -0.4461 0.9386
-10.0119 12.6370 -0.4540 0.9375
-10.4353 12.6406 -0.4615 0.9365
-10.8732 12.6444 -0.4696 0.9354
-11.8300 12.6874 -0.4885 0.9329
-12.3193 12.6907 -0.4980 0.9317
-12.8284 12.6942 -0.5082 0.9303
-14.1162 12.8873 -0.5382 0.9264
-14.7050 12.8924 -0.5507 0.9247
-15.3233 12.8990 -0.5640 0.9230
-16.0050 12.9320 -0.5794 0.9210
-16.6861 12.9365 -0.5945 0.9190
-17.4165 12.9506 -0.6111 0.9168
-18.4663 13.1630 -0.6385 0.9132
-19.3552 13.2179 -0.6600 0.9105
-20.3063 13.2767 -0.6832 0.9075
-21.3270 13.3398 -0.7083 0.9042
-22.4263 13.4077 -0.7357 0.9007
-23.4892 12.7903 -0.7531 0.8985
-10.1053 -15.6975 -0.9468 0.9280
-9.7565 -15.8469 -0.9438 0.9282
-7.0783 -15.3846 -0.8588 0.9344
-5.3326 -15.5341 -0.8329 0.9363
-5.0073 -15.6012 -0.8310 0.9365
-4.7083 -15.7512 -0.8337 0.9363
-4.4109 -15.9158 -0.8376 0.9360
-4.1534 -16.2495 -0.8506 0.9350
-3.5449 -16.6292 -0.8623 0.9342
-0.8875 -18.0380 -0.9159 0.9302
-0.5306 -18.2560 -0.9262 0.9295
-0.1645 -18.3847 -0.9324 0.9290
0.5944 -19.0053 -0.9643 0.9267
1.0674 -20.7570 -1.0541 0.9201
6.5079 -49.0865 -2.5112 0.8201
7.4956 -48.9596 -2.5119 0.8201
8.4809 -48.8126 -2.5126 0.8200
9.4633 -48.6458 -2.5133 0.8200
13.3558 -47.7805 -2.5160 0.8198
17.1697 -46.6022 -2.5187 0.8196
19.9633 -45.5170 -2.5206 0.8195
20.8797 -45.1178 -2.5213 0.8195
21.7880 -44.6998 -2.5219 0.8194
23.0724 -42.8676 -2.4689 0.8229
23.2004 -41.1030 -2.3936 0.8278
25.3996 -39.2639 -2.3716 0.8292
25.4111 -31.7645 -2.0630 0.8497
29.9786 -35.9669 -2.3746 0.8290
30.7017 -35.3642 -2.3750 0.8290
33.4686 -32.8070 -2.3768 0.8289
33.7997 -31.8245 -2.3544 0.8303
33.8734 -30.6326 -2.3161 0.8328
33.5986 -29.1778 -2.2568 0.8368
32.4845 -25.9948 -2.1100 0.8465
31.9014 -24.4925 -2.0397 0.8512
34.2099 -25.1880 -2.1545 0.8435
34.2718 -24.1862 -2.1273 0.8454
34.3322 -23.2089 -2.1016 0.8471
35.3811 -22.8952 -2.1372 0.8447
40.8862 -23.0858 -2.3812 0.8286
41.3466 -22.2615 -2.3815 0.8286
42.6256 -19.7339 -2.3821 0.8285
43.3915 -18.0071 -2.3825 0.8285
43.7479 -17.1322 -2.3827 0.8285
38.1512 -14.0625 -2.0621 0.8497
44.4071 -15.3614 -2.3830 0.8285
41.9917 -12.6600 -2.2242 0.8389
43.8416 -11.3164 -2.2963 0.8341
48.7014 -11.5315 -2.5381 0.8184
48.9247 -10.5502 -2.5382 0.8184
49.1279 -9.5645 -2.5383 0.8184
49.3109 -8.5749 -2.5383 0.8184
49.6162 -6.5854 -2.5383 0.8184
49.7385 -5.5865 -2.5383 0.8184
49.8401 -4.5852 -2.5383 0.8184
49.9214 -3.5821 -2.5382 0.8184
49.9822 -2.5775 -2.5382 0.8184
50.0226 -1.5720 -2.5381 0.8184
50.0414 0.4404 -2.5379 0.8184
50.0202 1.4464 -2.5378 0.8184
49.9161 3.4560 -2.5375 0.8184
49.8333 4.4586 -2.5374 0.8184
47.5742 5.2227 -2.4272 0.8256
46.2951 7.9309 -2.3820 0.8285
45.9301 9.7840 -2.3816 0.8285
45.7193 10.7044 -2.3813 0.8286
35.4879 9.8295 -1.8675 0.8629
33.3446 9.9619 -1.7649 0.8699
21.0755 10.7398 -1.1996 0.9096
32.6252 17.4605 -1.8766 0.8623
31.9465 17.9327 -1.8579 0.8635
18.2375 11.2248 -1.0860 0.9178
17.1391 11.5237 -1.0474 0.9206
12.9853 11.2197 -0.8703 0.9336
12.0385 11.2782 -0.8366 0.9361
10.3429 11.3830 -0.7800 0.9403
9.9535 11.4071 -0.7678 0.9412
9.1888 11.4274 -0.7437 0.9430
8.8189 11.4306 -0.7322 0.9438
8.4601 11.4337 -0.7213 0.9446
7.4569 11.4642 -0.6936 0.9467
7.1351 11.4673 -0.6849 0.9473
6.8210 11.4704 -0.6768 0.9480
6.2191 11.4857 -0.6624 0.9490
5.7156 11.6517 -0.6582 0.9493
5.4435 11.6857 -0.6538 0.9497
5.1677 11.7027 -0.6488 0.9501
4.8960 11.7195 -0.6441 0.9504
4.6280 11.7361 -0.6398 0.9507
4.3635 11.7524 -0.6358 0.9510
4.1022 11.7686 -0.6321 0.9513
3.3348 11.8160 -0.6226 0.9520
2.8346 11.8469 -0.6178 0.9524
2.5873 11.8622 -0.6157 0.9525
2.3415 11.8774 -0.6139 0.9527
1.1246 11.9153 -0.6070 0.9532
0.8834 11.9174 -0.6060 0.9533
0.6429 11.9195 -0.6054 0.9533
-0.0770 11.9531 -0.6062 0.9533
-0.5583 11.9570 -0.6070 0.9532
-0.7996 11.9589 -0.6078 0.9531
-1.2847 11.9627 -0.6102 0.9530
-1.7771 11.9854 -0.6145 0.9526
-2.3069 12.1646 -0.6279 0.9516
-2.5646 12.1805 -0.6313 0.9514
-3.3562 12.2294 -0.6431 0.9505
-4.4651 12.2979 -0.6635 0.9489
-4.7540 12.3158 -0.6695 0.9485
-5.0482 12.3340 -0.6759 0.9480
-5.3483 12.3525 -0.6826 0.9475
-5.6545 12.3714 -0.6898 0.9470
-12.6306 26.2264 -1.4763 0.8900
-6.2874 12.4105 -0.7056 0.9458
-7.6496 12.4947 -0.7430 0.9430
-8.3888 12.5404 -0.7652 0.9414
-9.5876 12.6144 -0.8035 0.9385
-11.3269 12.6484 -0.8611 0.9343
-11.8052 12.6608 -0.8779 0.9330
-14.1162 12.8874 -0.9694 0.9263
-15.3201 12.8963 -1.0156 0.9229
-15.9587 12.8946 -1.0405 0.9211
-17.3359 12.8907 -1.0956 0.9171
-20.4991 11.7025 -1.1971 0.9098
-21.4549 11.6826 -1.2389 0.9068
-22.6448 11.7464 -1.2937 0.9029
-10.8119 -16.0754 -1.4205 0.9252
-7.9700 -15.6346 -1.2867 0.9320
-7.5653 -15.6085 -1.2718 0.9328
-6.3726 -15.4591 -1.2260 0.9351
-5.9737 -15.3609 -1.2085 0.9360
-5.7214 -15.6358 -1.2208 0.9354
-5.0098 -15.6091 -1.2020 0.9364
-4.6956 -15.7087 -1.2021 0.9364
-4.4257 -15.9695 -1.2151 0.9357
-4.1289 -16.1538 -1.2225 0.9353
-3.5363 -16.5890 -1.2437 0.9342
-3.2060 -16.6776 -1.2452 0.9342
-2.2307 -17.1167 -1.2656 0.9331
-1.9408 -17.6555 -1.3023 0.9312
-1.5805 -17.6361 -1.2983 0.9314
0.5927 -18.9479 -1.3900 0.9268
1.0673 -20.7551 -1.5238 0.9200
2.3029 -25.0716 -1.8460 0.9040
3.5801 -31.9170 -2.3549 0.8791
4.4500 -22.8753 -1.7087 0.9108
7.8844 -33.3203 -2.5106 0.8717
8.5544 -33.1612 -2.5111 0.8717
9.2211 -32.9887 -2.5115 0.8716
9.8844 -32.8027 -2.5120 0.8716
11.1993 -32.3906 -2.5129 0.8716
11.8505 -32.1646 -2.5134 0.8716
13.1387 -31.6734 -2.5142 0.8715
15.6518 -30.5362 -2.5160 0.8714
16.2653 -30.2203 -2.5164 0.8714
16.8724 -29.8920 -2.5168 0.8714
17.4728 -29.5515 -2.5172 0.8714
18.6526 -28.8340 -2.5180 0.8713
19.8028 -28.0693 -2.5187 0.8713
23.0565 -25.5033 -2.5209 0.8712
23.5677 -25.0377 -2.5212 0.8712
24.0315 -24.5232 -2.5175 0.8714
24.4850 -21.2633 -2.3778 0.8780
25.2321 -20.1912 -2.3695 0.8784
25.6356 -19.6819 -2.3697 0.8784
26.0287 -19.1644 -2.3700 0.8784
26.7832 -18.1057 -2.3704 0.8784
27.4942 -17.0172 -2.3708 0.8784
28.4768 -15.3322 -2.3714 0.8783
29.3550 -13.5902 -2.3718 0.8783
29.9550 -13.1431 -2.3985 0.8770
32.0510 -12.5516 -2.5238 0.8711
32.3278 -11.9160 -2.5262 0.8709
32.5622 -11.2640 -2.5263 0.8709
32.7834 -10.6074 -2.5264 0.8709
32.9911 -9.9464 -2.5265 0.8709
33.1854 -9.2813 -2.5266 0.8709
33.5333 -7.9400 -2.5267 0.8709
33.9524 -5.9041 -2.5268 0.8709
34.1626 -4.5332 -2.5268 0.8709
34.2466 -3.8467 -2.5268 0.8709
34.3730 -2.4664 -2.5268 0.8709
34.4150 -1.7748 -2.5267 0.8709
34.4431 -1.0824 -2.5267 0.8709
34.4570 0.3033 -2.5266 0.8709
34.4428 0.9960 -2.5265 0.8709
34.3723 2.3798 -2.5263 0.8709
34.3160 3.0703 -2.5262 0.8709
34.2457 3.7595 -2.5261 0.8709
31.8107 6.1104 -2.3751 0.8782
31.6331 6.7385 -2.3714 0.8783
31.3320 8.0037 -2.3711 0.8784
31.1623 8.6313 -2.3709 0.8784
30.9798 9.2554 -2.3707 0.8784
30.3573 11.1033 -2.3701 0.8784
29.8804 12.3124 -2.3696 0.8784
29.6483 12.9200 -2.3713 0.8783
29.4067 13.5247 -2.3733 0.8783
29.1526 14.1247 -2.3752 0.8782
28.8857 14.7198 -2.3771 0.8781
28.6063 15.3096 -2.3790 0.8780
18.7162 11.0068 -1.5920 0.9166
18.2458 11.2299 -1.5709 0.9177
17.3609 11.1726 -1.5138 0.9205
17.1389 11.5236 -1.5143 0.9205
15.1373 11.0868 -1.3758 0.9275
12.9853 11.2198 -1.2583 0.9335
12.0386 11.2783 -1.2095 0.9360
10.7451 11.3582 -1.1464 0.9392
10.3429 11.3830 -1.1277 0.9402
9.9535 11.4071 -1.1100 0.9411
9.5596 11.4109 -1.0915 0.9420
8.4574 11.4301 -1.0426 0.9446
7.7731 11.4402 -1.0141 0.9460
6.8091 11.4505 -0.9768 0.9480
6.2035 11.4569 -0.9553 0.9491
11.0887 21.5008 -1.7738 0.9075
5.1677 11.7028 -0.9380 0.9500
4.6280 11.7361 -0.9250 0.9507
4.3635 11.7525 -0.9192 0.9510
3.8438 11.7846 -0.9089 0.9515
3.5881 11.8004 -0.9043 0.9517
3.3348 11.8160 -0.9002 0.9520
2.3753 9.1134 -0.6905 0.9629
2.8347 11.8469 -0.8932 0.9523
2.5873 11.8622 -0.8902 0.9525
1.6096 11.9111 -0.8813 0.9529
1.1246 11.9153 -0.8775 0.9531
0.6429 11.9195 -0.8752 0.9533
0.4028 11.9216 -0.8746 0.9533
-0.3170 11.9371 -0.8756 0.9532
-0.7984 11.9409 -0.8775 0.9531
-1.0401 11.9427 -0.8790 0.9531
-1.2827 11.9446 -0.8808 0.9530
-5.4736 32.4106 -2.4101 0.8765
-2.5646 12.1805 -0.9127 0.9513
-2.8253 12.1966 -0.9180 0.9510
-3.3562 12.2294 -0.9298 0.9504
-3.6271 12.2462 -0.9365 0.9501
-4.1813 12.2804 -0.9512 0.9493
-5.3483 12.3525 -0.9870 0.9474
-5.6545 12.3714 -0.9974 0.9469
-6.2874 12.4105 -1.0201 0.9457
-6.6150 12.4308 -1.0325 0.9451
-7.2955 12.4728 -1.0595 0.9437
-7.6496 12.4947 -1.0742 0.9429
-8.0137 12.5172 -1.0898 0.9421
-8.3888 12.5404 -1.1062 0.9413
-9.1748 12.5889 -1.1422 0.9394
-10.0052 12.6285 -1.1813 0.9374
-10.3995 12.5973 -1.1977 0.9366
-10.8310 12.5954 -1.2180 0.9355
-11.7400 12.5909 -1.2622 0.9333
-13.6448 12.4570 -1.3547 0.9286
-14.6071 12.8066 -1.4244 0.9250
-15.1930 12.7893 -1.4561 0.9234
-15.8231 12.7850 -1.4916 0.9217
-18.4624 12.6082 -1.6392 0.9142
-20.0794 12.5594 -1.7365 0.9094
-21.5033 11.7089 -1.7953 0.9065
-10.5533 -15.6909 -1.8154 0.9268
-10.1984 -15.8421 -1.8088 0.9271
-9.8890 -16.0621 -1.8109 0.9270
-9.2200 -15.6729 -1.7457 0.9295
-8.3165 -15.5343 -1.6916 0.9316
-7.6082 -15.6971 -1.6747 0.9323
-5.6053 -15.3185 -1.5660 0.9366
-5.3200 -15.4975 -1.5731 0.9363
-5.0062 -15.5978 -1.5727 0.9363
-4.3918 -15.8471 -1.5787 0.9361
-3.8563 -16.4598 -1.6230 0.9343
-3.5443 -16.6265 -1.6321 0.9340
-3.2058 -16.6766 -1.6303 0.9340
-1.9270 -17.5300 -1.6931 0.9316
-1.5923 -17.7675 -1.7126 0.9308
-1.2340 -17.7861 -1.7117 0.9309
1.5910 -22.2188 -2.1386 0.9144
2.2419 -24.4080 -2.3532 0.9062
2.7327 -24.3617 -2.3535 0.9062
3.2224 -24.3055 -2.3539 0.9062
4.4500 -22.8750 -2.2373 0.9106
6.5274 -25.3034 -2.5088 0.9003
7.0358 -25.1706 -2.5091 0.9003
7.5415 -25.0276 -2.5095 0.9003
8.5441 -24.7111 -2.5102 0.9003
9.5333 -24.3542 -2.5109 0.9002
10.0224 -24.1609 -2.5112 0.9002
10.9886 -23.7446 -2.5119 0.9002
11.4653 -23.5219 -2.5122 0.9002
12.4049 -23.0478 -2.5128 0.9002
13.7769 -22.2661 -2.5138 0.9001
14.2235 -21.9873 -2.5141 0.9001
14.6644 -21.6993 -2.5143 0.9001
15.0994 -21.4025 -2.5146 0.9001
15.9512 -20.7827 -2.5152 0.9001
16.3677 -20.4600 -2.5155 0.9001
16.7775 -20.1289 -2.5157 0.9001
17.1806 -19.7896 -2.5160 0.9000
17.5769 -19.4421 -2.5162 0.9000
17.9660 -19.0866 -2.5165 0.9000
18.3479 -18.7233 -2.5167 0.9000
19.8000 -17.1948 -2.5176 0.9000
21.1242 -15.5533 -2.5184 0.9000
21.7356 -14.6935 -2.5188 0.8999
22.0281 -14.2544 -2.5190 0.8999
22.3117 -13.8095 -2.5191 0.8999
23.1077 -12.4415 -2.5196 0.8999
23.3544 -11.9749 -2.5197 0.8999
23.5917 -11.5035 -2.5198 0.8999
24.0373 -10.5467 -2.5201 0.8999
24.2455 -10.0616 -2.5202 0.8999
24.6322 -9.0794 -2.5203 0.8999
25.1369 -7.5785 -2.5206 0.8999
25.2847 -7.0717 -2.5206 0.8999
25.4223 -6.5620 -2.5207 0.8999
25.5495 -6.0496 -2.5207 0.8999
25.6664 -5.5347 -2.5207 0.8999
25.7727 -5.0176 -2.5208 0.8999
25.8686 -4.4984 -2.5208 0.8999
25.9539 -3.9774 -2.5208 0.8999
26.1462 -2.4054 -2.5208 0.8999
26.2213 -1.3522 -2.5207 0.8999
26.2428 -0.8247 -2.5207 0.8999
26.2431 0.7589 -2.5205 0.8999
26.0939 2.8646 -2.5202 0.8999
26.0301 3.3885 -2.5201 0.8999
25.9556 3.9111 -2.5200 0.8999
25.8705 4.4320 -2.5199 0.8999
24.7284 6.3168 -2.4503 0.9025
23.6089 7.0533 -2.3656 0.9057
23.3031 7.9957 -2.3652 0.9057
23.1360 8.4621 -2.3651 0.9057
22.9595 8.9249 -2.3649 0.9058
22.7736 9.3840 -2.3647 0.9058
22.5786 9.8392 -2.3645 0.9058
22.1610 10.7372 -2.3641 0.9058
21.9387 11.1797 -2.3639 0.9058
21.4676 12.0505 -2.3635 0.9058
18.7163 11.0068 -2.0845 0.9164
17.3607 11.1725 -1.9820 0.9204
17.1387 11.5234 -1.9827 0.9204
15.7408 11.0495 -1.8464 0.9256
15.1373 11.0868 -1.8014 0.9274
13.4883 11.1887 -1.6825 0.9320
12.9853 11.2198 -1.6475 0.9334
12.5026 11.2496 -1.6147 0.9346
12.0386 11.2783 -1.5837 0.9359
9.9535 11.4071 -1.4534 0.9410
8.7550 11.3478 -1.3760 0.9440
8.4018 11.3550 -1.3561 0.9448
8.0585 11.3618 -1.3373 0.9456
7.3987 11.3746 -1.3027 0.9469
7.0811 11.3806 -1.2868 0.9476
6.7709 11.3863 -1.2718 0.9482
6.4677 11.3918 -1.2576 0.9487
6.1482 11.3548 -1.2397 0.9494
11.3989 22.1023 -2.3875 0.9049
5.7154 11.6515 -1.2459 0.9492
5.4436 11.6857 -1.2376 0.9495
5.1677 11.7028 -1.2282 0.9499
4.6280 11.7361 -1.2112 0.9506
4.1022 11.7686 -1.1965 0.9512
3.8438 11.7846 -1.1900 0.9514
3.3348 11.8160 -1.1787 0.9519
2.3748 9.1114 -0.9040 0.9629
2.8347 11.8469 -1.1695 0.9522
1.8513 11.8932 -1.1556 0.9528
1.3632 11.8842 -1.1484 0.9531
0.8813 11.8884 -1.1445 0.9532
0.6413 11.8904 -1.1432 0.9533
0.4018 11.8922 -1.1424 0.9533
-0.0766 11.8955 -1.1421 0.9533
-1.2782 11.9019 -1.1492 0.9530
-4.1323 24.4684 -2.3823 0.9051
-2.3069 12.1646 -1.1887 0.9515
-3.6271 12.2462 -1.2262 0.9500
-4.1813 12.2804 -1.2454 0.9492
-4.4651 12.2980 -1.2561 0.9488
-5.0483 12.3340 -1.2795 0.9479
-5.3483 12.3525 -1.2923 0.9473
-10.7153 22.2495 -2.3709 0.9055
-6.6151 12.4308 -1.3519 0.9450
-7.6496 12.4947 -1.4065 0.9428
-8.0138 12.5172 -1.4269 0.9420
-8.3888 12.5404 -1.4485 0.9412
-8.7755 12.5643 -1.4713 0.9403
-9.5876 12.6145 -1.5211 0.9383
-11.6545 12.4991 -1.6407 0.9336
-13.0094 12.3655 -1.7231 0.9304
-13.4323 12.2629 -1.7461 0.9295
-16.2786 12.6206 -1.9775 0.9206
-19.5084 12.7550 -2.2377 0.9106
-19.9751 12.4942 -2.2619 0.9097
-20.4895 12.2498 -2.2918 0.9085
-21.3636 11.6328 -2.3354 0.9069
-21.5810 11.1946 -2.3340 0.9069
-10.5533 -15.6908 -2.2462 0.9267
-10.0797 -15.6577 -2.2120 0.9277
-9.6202 -15.6256 -2.1797 0.9288
-9.1738 -15.5943 -2.1491 0.9297
-8.7395 -15.5639 -2.1203 0.9306
-7.9042 -15.5054 -2.0673 0.9323
-6.7235 -15.4228 -1.9985 0.9345
-5.9775 -15.3706 -1.9590 0.9357
-5.6151 -15.3452 -1.9410 0.9363
-4.9188 -15.3255 -1.9119 0.9372
-4.6327 -15.4983 -1.9215 0.9369
-4.3435 -15.6729 -1.9319 0.9366
-3.1513 -16.3927 -1.9829 0.9350
-2.8427 -16.5791 -1.9981 0.9345
-2.2104 -16.9608 -2.0317 0.9334
-1.2183 -17.5598 -2.0909 0.9316
0.5833 -18.6477 -2.2162 0.9276
1.0168 -19.7725 -2.3518 0.9233
1.8114 -19.7204 -2.3524 0.9233
2.6034 -19.6364 -2.3529 0.9233
2.9981 -19.5825 -2.3532 0.9233
3.3916 -19.5205 -2.3535 0.9233
3.7839 -19.4507 -2.3538 0.9233
4.1746 -19.3730 -2.3541 0.9233
4.9513 -19.1939 -2.3546 0.9233
5.3369 -19.0927 -2.3549 0.9232
6.4974 -20.0910 -2.5082 0.9185
6.9008 -19.9585 -2.5085 0.9185
7.6994 -19.6693 -2.5091 0.9184
8.0942 -19.5126 -2.5093 0.9184
9.6399 -18.8071 -2.5104 0.9184
10.0171 -18.6114 -2.5106 0.9184
10.3903 -18.4080 -2.5109 0.9184
10.7594 -18.1972 -2.5111 0.9184
11.4845 -17.7533 -2.5116 0.9184
12.5374 -17.0334 -2.5123 0.9183
12.8785 -16.7793 -2.5125 0.9183
13.2145 -16.5184 -2.5128 0.9183
13.8702 -15.9765 -2.5132 0.9183
14.5037 -15.4084 -2.5136 0.9183
14.8117 -15.1148 -2.5138 0.9183
15.1138 -14.8151 -2.5140 0.9183
15.4098 -14.5092 -2.5142 0.9183
15.6995 -14.1975 -2.5143 0.9183
16.2598 -13.5566 -2.5147 0.9183
16.7939 -12.8936 -2.5150 0.9182
17.0508 -12.5541 -2.5152 0.9182
17.3008 -12.2094 -2.5153 0.9182
17.7796 -11.5053 -2.5156 0.9182
18.2297 -10.7822 -2.5158 0.9182
18.4437 -10.4140 -2.5160 0.9182
18.8491 -9.6648 -2.5162 0.9182
19.8794 -7.3275 -2.5167 0.9182
20.1589 -6.5226 -2.5168 0.9182
20.2864 -6.1161 -2.5169 0.9182
20.4056 -5.7071 -2.5169 0.9182
20.6192 -4.8822 -2.5170 0.9182
20.7992 -4.0493 -2.5170 0.9182
20.8765 -3.6303 -2.5171 0.9182
21.0574 -2.3651 -2.5171 0.9182
21.1006 -1.9412 -2.5170 0.9182
21.1613 -1.0913 -2.5170 0.9182
21.1365 1.4634 -2.5167 0.9182
20.8795 3.5769 -2.5163 0.9182
20.8026 3.9959 -2.5162 0.9182
20.7172 4.4132 -2.5161 0.9182
20.5211 5.2421 -2.5159 0.9182
20.1884 6.0314 -2.5028 0.9186
18.8593 6.4710 -2.3684 0.9228
18.5323 7.2039 -2.3618 0.9230
18.2254 7.9422 -2.3615 0.9230
17.7097 9.0247 -2.3611 0.9231
17.5234 9.3783 -2.3609 0.9231
17.1296 10.0737 -2.3605 0.9231
16.9223 10.4152 -2.3603 0.9231
16.7081 10.7525 -2.3602 0.9231
16.2595 11.4137 -2.3598 0.9231
14.5623 11.1224 -2.1766 0.9288
12.0386 11.2783 -1.9595 0.9357
11.5919 11.3059 -1.9234 0.9369
11.1611 11.3325 -1.8894 0.9379
10.7452 11.3582 -1.8573 0.9390
10.3430 11.3831 -1.8270 0.9399
9.9535 11.4071 -1.7983 0.9408
9.5548 11.4052 -1.7674 0.9418
9.1267 11.3501 -1.7300 0.9430
8.7161 11.2974 -1.6949 0.9441
8.3467 11.2804 -1.6669 0.9450
8.0063 11.2883 -1.6439 0.9458
7.6750 11.2958 -1.6222 0.9465
9.1435 17.7291 -2.3695 0.9228
5.4436 11.6858 -1.5313 0.9494
4.8960 11.7196 -1.5087 0.9501
4.6280 11.7361 -1.4986 0.9505
4.3635 11.7525 -1.4891 0.9508
4.1022 11.7686 -1.4804 0.9510
3.8438 11.7846 -1.4724 0.9513
3.5881 11.8004 -1.4651 0.9515
3.3348 11.8161 -1.4584 0.9517
2.8347 11.8470 -1.4470 0.9521
1.3592 11.8495 -1.4168 0.9531
0.8765 11.8248 -1.4085 0.9534
-0.3142 11.8335 -1.4061 0.9534
-0.5526 11.8348 -1.4073 0.9534
-1.2701 11.8265 -1.4129 0.9532
-1.5051 11.7788 -1.4105 0.9533
-1.7393 11.7308 -1.4087 0.9534
-3.3161 19.6353 -2.3654 0.9229
-4.4651 12.2980 -1.5541 0.9487
-4.7540 12.3158 -1.5682 0.9482
-5.3483 12.3525 -1.5989 0.9472
-6.2874 12.4106 -1.6526 0.9455
-6.6151 12.4308 -1.6727 0.9449
-7.6496 12.4947 -1.7403 0.9427
-8.3888 12.5404 -1.7922 0.9410
-8.7755 12.5643 -1.8205 0.9401
-10.0053 12.6287 -1.9139 0.9372
-10.3851 12.5799 -1.9377 0.9364
-10.7746 12.5298 -1.9630 0.9356
-11.5859 12.4256 -2.0181 0.9339
-12.0135 12.3757 -2.0488 0.9329
-14.2794 13.5727 -2.3402 0.9237
-14.8010 12.9766 -2.3382 0.9238
-15.5451 12.0520 -2.3365 0.9238
-16.0152 11.4158 -2.3362 0.9238
-16.2406 11.0909 -2.3361 0.9238
-16.4594 10.7616 -2.3360 0.9238
-16.6716 10.4279 -2.3358 0.9238
-17.0758 9.7482 -2.3356 0.9239
-17.2675 9.4025 -2.3355 0.9239
-17.4523 9.0530 -2.3354 0.9239
-9.2315 -13.7256 -2.3437 0.9354
-8.3896 -14.2612 -2.3444 0.9353
-8.1019 -14.4284 -2.3446 0.9353
-7.2195 -14.8950 -2.3453 0.9353
-6.9192 -15.0387 -2.3455 0.9353
-6.3102 -15.3078 -2.3460 0.9353
-4.6327 -15.4984 -2.2920 0.9367
-3.7552 -16.0282 -2.3325 0.9357
-2.8013 -16.3377 -2.3487 0.9352
-2.4725 -16.3925 -2.3489 0.9352
-2.1426 -16.4406 -2.3492 0.9352
-1.8118 -16.4821 -2.3494 0.9352
-1.4802 -16.5169 -2.3496 0.9352
-1.1479 -16.5451 -2.3499 0.9352
-0.8151 -16.5665 -2.3501 0.9352
-0.4819 -16.5813 -2.3504 0.9352
0.5188 -16.5853 -2.3511 0.9352
0.8522 -16.5733 -2.3514 0.9352
1.1855 -16.5545 -2.3516 0.9351
1.5182 -16.5290 -2.3518 0.9351
1.8504 -16.4967 -2.3521 0.9351
2.5127 -16.4124 -2.3525 0.9351
2.8425 -16.3601 -2.3528 0.9351
3.1712 -16.3013 -2.3530 0.9351
3.4986 -16.2358 -2.3533 0.9351
3.8248 -16.1638 -2.3535 0.9351
5.4448 -16.8360 -2.5071 0.9310
6.1184 -16.6066 -2.5076 0.9310
6.7824 -16.3502 -2.5081 0.9310
7.4356 -16.0671 -2.5085 0.9310
8.0770 -15.7579 -2.5089 0.9310
8.7055 -15.4231 -2.5094 0.9310
9.6218 -14.8738 -2.5100 0.9309
9.9197 -14.6785 -2.5102 0.9309
10.2136 -14.4772 -2.5104 0.9309
10.7891 -14.0570 -2.5107 0.9309
11.3471 -13.6138 -2.5111 0.9309
12.4076 -12.6615 -2.5118 0.9309
12.9083 -12.1539 -2.5121 0.9309
13.1508 -11.8926 -2.5123 0.9309
13.6199 -11.3556 -2.5125 0.9309
13.8462 -11.0800 -2.5127 0.9309
14.0669 -10.8000 -2.5128 0.9309
14.8921 -9.6367 -2.5133 0.9308
15.2688 -9.0309 -2.5135 0.9308
15.4479 -8.7224 -2.5136 0.9308
15.7872 -8.0949 -2.5138 0.9308
16.1010 -7.4541 -2.5140 0.9308
16.2481 -7.1291 -2.5140 0.9308
16.3886 -6.8011 -2.5141 0.9308
16.5224 -6.4704 -2.5142 0.9308
16.6496 -6.1370 -2.5142 0.9308
16.7700 -5.8011 -2.5143 0.9308
16.8836 -5.4629 -2.5143 0.9308
17.2689 -4.0889 -2.5145 0.9308
17.3477 -3.7409 -2.5145 0.9308
17.4843 -3.0404 -2.5145 0.9308
17.5925 -2.3350 -2.5145 0.9308
17.7229 -0.9140 -2.5145 0.9308
17.7451 0.1562 -2.5144 0.9308
17.7380 0.5129 -2.5143 0.9308
17.7238 0.8695 -2.5143 0.9308
17.7024 1.2257 -2.5142 0.9308
17.4233 3.3468 -2.5138 0.9308
17.2734 4.0443 -2.5136 0.9308
17.0955 4.7351 -2.5134 0.9308
16.7767 5.7564 -2.5131 0.9309
16.6568 6.0923 -2.5130 0.9309
16.5301 6.4256 -2.5129 0.9309
16.3683 6.7446 -2.5084 0.9310
15.9876 6.9671 -2.4710 0.9320
14.8348 7.5596 -2.3591 0.9349
14.6789 7.8559 -2.3590 0.9350
14.5171 8.1490 -2.3588 0.9350
14.3494 8.4387 -2.3587 0.9350
13.2239 10.1001 -2.3577 0.9350
12.3658 11.1265 -2.3569 0.9350
12.1386 11.3720 -2.3568 0.9350
11.1490 11.3203 -2.2513 0.9378
10.7452 11.3582 -2.2154 0.9388
9.9535 11.4071 -2.1451 0.9407
9.5549 11.4052 -2.1081 0.9417
9.1267 11.3502 -2.0636 0.9429
8.7161 11.2974 -2.0218 0.9440
7.6260 11.2237 -1.9226 0.9467
6.5946 11.0897 -1.8281 0.9492
6.2675 11.0392 -1.7986 0.9500
5.9505 10.9898 -1.7707 0.9508
7.6264 14.7875 -2.3575 0.9350
5.7153 11.6512 -1.8388 0.9489
4.8960 11.7196 -1.7996 0.9500
4.6280 11.7362 -1.7875 0.9503
4.3635 11.7525 -1.7763 0.9506
4.1022 11.7687 -1.7659 0.9509
3.8438 11.7846 -1.7563 0.9512
3.5881 11.8004 -1.7476 0.9514
3.3348 11.8161 -1.7396 0.9516
2.3737 9.1074 -1.3335 0.9627
2.5873 11.8622 -1.7203 0.9521
2.0970 11.8925 -1.7110 0.9524
1.8514 11.8937 -1.7055 0.9525
1.6055 11.8812 -1.6987 0.9527
1.1154 11.8182 -1.6819 0.9532
0.8738 11.7871 -1.6747 0.9534
0.1609 11.7673 -1.6675 0.9536
-0.3126 11.7703 -1.6683 0.9535
-0.5496 11.7716 -1.6697 0.9535
-0.7870 11.7702 -1.6714 0.9535
-2.7667 16.3823 -2.3541 0.9351
-2.3069 12.1646 -1.7543 0.9512
-3.3563 12.2295 -1.7969 0.9501
-3.9021 12.2632 -1.8234 0.9493
-4.1813 12.2805 -1.8381 0.9489
-4.4651 12.2980 -1.8538 0.9485
-5.0483 12.3340 -1.8883 0.9476
-5.3483 12.3526 -1.9072 0.9471
-5.6545 12.3715 -1.9273 0.9465
-7.1853 14.9196 -2.3463 0.9353
-6.9509 12.4516 -2.0205 0.9440
-7.6496 12.4948 -2.0758 0.9425
-8.0138 12.5173 -2.1059 0.9417
-10.5143 12.7364 -2.3401 0.9355
-10.7675 12.5216 -2.3399 0.9355
-11.2608 12.0769 -2.3396 0.9355
-12.1917 11.1303 -2.3390 0.9355
-12.4123 10.8823 -2.3389 0.9355
-13.0436 10.1126 -2.3385 0.9355
-13.2436 9.8478 -2.3384 0.9355
-13.6275 9.3064 -2.3382 0.9355
-13.8113 9.0301 -2.3381 0.9355
-13.9895 8.7502 -2.3380 0.9355
-14.6450 7.5968 -2.3376 0.9355
-7.9424 -11.8089 -2.3445 0.9439
-7.7040 -11.9672 -2.3446 0.9439
-7.4624 -12.1206 -2.3448 0.9439
-6.7198 -12.5516 -2.3454 0.9439
-6.2107 -12.8138 -2.3458 0.9439
-5.6915 -13.0554 -2.3462 0.9439
-5.4283 -13.1683 -2.3464 0.9439
-5.1629 -13.2759 -2.3466 0.9439
-4.0810 -13.6527 -2.3475 0.9439
-3.5294 -13.8082 -2.3479 0.9439
-2.6912 -13.9996 -2.3485 0.9438
-2.4094 -14.0521 -2.3487 0.9438
-2.1266 -14.0990 -2.3489 0.9438
-1.2731 -14.2054 -2.3496 0.9438
-0.9873 -14.2294 -2.3498 0.9438
-0.4144 -14.2601 -2.3502 0.9438
0.4461 -14.2630 -2.3508 0.9438
0.7329 -14.2524 -2.3510 0.9438
1.5912 -14.1860 -2.3517 0.9438
2.1607 -14.1130 -2.3521 0.9438
2.7268 -14.0171 -2.3525 0.9438
3.7926 -14.7021 -2.5013 0.9403
4.3891 -14.5658 -2.5061 0.9402
4.9720 -14.3799 -2.5065 0.9402
5.2605 -14.2781 -2.5067 0.9402
6.1132 -13.9383 -2.5073 0.9402
6.3927 -13.8136 -2.5075 0.9402
6.9440 -13.5475 -2.5079 0.9402
7.2155 -13.4061 -2.5081 0.9401
7.4841 -13.2592 -2.5083 0.9401
7.7498 -13.1070 -2.5084 0.9401
9.0292 -12.2671 -2.5093 0.9401
10.4438 -11.0953 -2.5102 0.9401
11.0956 -10.4471 -2.5106 0.9401
11.3040 -10.2225 -2.5107 0.9401
11.7070 -9.7607 -2.5110 0.9401
11.9014 -9.5238 -2.5111 0.9401
12.2758 -9.0384 -2.5113 0.9401
12.7999 -8.2829 -2.5116 0.9401
13.1235 -7.7621 -2.5118 0.9401
13.7065 -6.6834 -2.5121 0.9401
13.9649 -6.1273 -2.5123 0.9401
14.2006 -5.5611 -2.5124 0.9400
14.3098 -5.2746 -2.5124 0.9400
14.7680 -3.8119 -2.5126 0.9400
14.9713 -2.9147 -2.5127 0.9400
15.1572 -1.7024 -2.5127 0.9400
15.2320 -0.7855 -2.5126 0.9400
15.2446 -0.4791 -2.5126 0.9400
15.2510 -0.1725 -2.5126 0.9400
15.2512 0.1342 -2.5126 0.9400
15.2452 0.4408 -2.5125 0.9400
15.2330 0.7473 -2.5125 0.9400
15.1901 1.3591 -2.5124 0.9400
15.1594 1.6642 -2.5123 0.9400
15.1225 1.9686 -2.5123 0.9400
15.0303 2.5749 -2.5122 0.9401
14.9138 3.1769 -2.5120 0.9401
14.7730 3.7737 -2.5118 0.9401
14.6937 4.0699 -2.5118 0.9401
14.6083 4.3643 -2.5117 0.9401
14.5171 4.6570 -2.5116 0.9401
14.3169 5.2365 -2.5114 0.9401
14.2081 5.5230 -2.5113 0.9401
14.0936 5.8073 -2.5111 0.9401
13.7151 6.6451 -2.5106 0.9401
12.1855 7.4999 -2.3572 0.9436
12.0316 7.7429 -2.3570 0.9436
11.8728 7.9828 -2.3569 0.9437
11.7091 8.2194 -2.3568 0.9437
11.3678 8.6825 -2.3565 0.9437
10.4354 9.7763 -2.3557 0.9437
9.3980 10.7705 -2.3548 0.9437
9.1789 10.9564 -2.3546 0.9437
8.9560 11.1379 -2.3545 0.9437
8.4996 11.4872 -2.3541 0.9437
8.2663 11.6548 -2.3539 0.9437
7.5165 11.5557 -2.2710 0.9456
7.0519 12.4206 -2.3529 0.9437
6.5457 12.6919 -2.3525 0.9438
5.7152 11.6510 -2.1379 0.9488
5.4436 11.6858 -2.1237 0.9491
4.6280 11.7362 -2.0783 0.9501
4.3635 11.7525 -2.0652 0.9504
3.8438 11.7846 -2.0421 0.9510
3.5881 11.8004 -2.0319 0.9512
2.3732 9.1054 -1.5501 0.9626
2.3415 11.8775 -1.9943 0.9521
2.0970 11.8926 -1.9894 0.9522
1.3592 11.8496 -1.9649 0.9528
1.1154 11.8182 -1.9556 0.9530
0.8738 11.7872 -1.9471 0.9532
0.3962 11.7258 -1.9328 0.9536
0.1600 11.7044 -1.9284 0.9537
-0.0754 11.7060 -1.9285 0.9537
-1.2382 11.5300 -1.9104 0.9541
-1.4674 11.4839 -1.9072 0.9542
-2.3069 12.1646 -2.0397 0.9510
-3.0891 12.2130 -2.0753 0.9502
-3.6272 12.2462 -2.1041 0.9495
-3.9021 12.2632 -2.1200 0.9492
-4.4651 12.2980 -2.1554 0.9483
-5.0483 12.3341 -2.1955 0.9474
-5.3483 12.3526 -2.2175 0.9469
-6.4278 12.6877 -2.3431 0.9440
-6.6811 12.5549 -2.3429 0.9440
-6.9317 12.4172 -2.3427 0.9440
-7.1794 12.2744 -2.3426 0.9440
-7.4243 12.1267 -2.3424 0.9440
-7.6661 11.9742 -2.3423 0.9440
-7.9048 11.8168 -2.3421 0.9440
-8.1402 11.6547 -2.3419 0.9440
-9.0480 10.9602 -2.3413 0.9440
-9.4802 10.5863 -2.3411 0.9440
-9.8971 10.1955 -2.3408 0.9440
-10.0995 9.9939 -2.3407 0.9440
-10.2979 9.7883 -2.3406 0.9440
-10.8676 9.1483 -2.3402 0.9440
-11.0489 8.9275 -2.3401 0.9440
-11.3979 8.4753 -2.3399 0.9440
-11.7284 8.0095 -2.3397 0.9441
-11.8866 7.7717 -2.3396 0.9441
-12.0400 7.5309 -2.3395 0.9441
-12.1886 7.2870 -2.3394 0.9441
-7.1833 -11.1584 -2.4944 0.9474
-6.9501 -11.2886 -2.4917 0.9475
-6.0297 -11.2626 -2.4012 0.9493
-5.2178 -11.3407 -2.3464 0.9505
-4.7583 -11.5430 -2.3468 0.9505
-4.5256 -11.6373 -2.3469 0.9505
-3.9735 -11.5751 -2.3003 0.9514
-3.5771 -11.9670 -2.3477 0.9504
-3.3360 -12.0374 -2.3478 0.9504
-3.0935 -12.1030 -2.3480 0.9504
-2.8498 -12.1637 -2.3482 0.9504
-2.6048 -12.2195 -2.3484 0.9504
-1.6152 -12.3932 -2.3491 0.9504
-1.1157 -12.4501 -2.3495 0.9504
-0.8653 -12.4710 -2.3497 0.9504
-0.6144 -12.4868 -2.3499 0.9504
-0.3632 -12.4976 -2.3501 0.9504
0.1396 -12.5041 -2.3504 0.9504
0.3910 -12.4997 -2.3506 0.9504
0.6430 -12.5033 -2.3532 0.9503
1.1594 -12.6220 -2.3824 0.9497
2.0108 -13.1338 -2.4974 0.9474
2.2775 -13.1082 -2.5007 0.9473
2.8072 -13.0273 -2.5048 0.9472
3.0688 -12.9691 -2.5050 0.9472
3.3292 -12.9058 -2.5052 0.9472
3.8460 -12.7633 -2.5056 0.9472
4.1021 -12.6843 -2.5057 0.9472
4.3566 -12.6001 -2.5059 0.9472
4.6094 -12.5109 -2.5061 0.9472
4.8604 -12.4165 -2.5063 0.9472
5.3564 -12.2128 -2.5066 0.9472
5.6012 -12.1034 -2.5068 0.9472
5.8438 -11.9891 -2.5069 0.9472
6.0841 -11.8700 -2.5071 0.9472
6.3220 -11.7460 -2.5073 0.9472
6.7900 -11.4837 -2.5076 0.9471
7.0199 -11.3456 -2.5077 0.9471
7.2471 -11.2028 -2.5079 0.9471
7.6925 -10.9037 -2.5082 0.9471
7.9107 -10.7474 -2.5083 0.9471
8.1256 -10.5868 -2.5085 0.9471
8.3373 -10.4218 -2.5086 0.9471
