ply
format ascii 1.0
element vertex 1550
property float32 x
property float32 y
property float32 z
property float32 I
end_header
-81.1009 1.4673 6.8665 0.7221
-81.9974 -0.1613 6.9413 0.7195
-83.6322 -1.8422 7.0814 0.7148
-84.9593 -3.5772 7.1984 0.7108
-56.1983 -26.6784 5.2662 0.7790
-37.2817 -20.5316 3.6029 0.8429
-18.1701 -14.2143 1.9529 0.9116
-43.4479 -36.8908 4.8249 0.7955
-31.3943 -27.7589 3.5475 0.8452
-24.8801 -24.8200 2.9750 0.8684
-23.2475 -24.1407 2.8371 0.8741
-21.7590 -23.5215 2.7125 0.8793
-19.1402 -22.4320 2.4962 0.8884
-13.2112 -19.9014 2.0221 0.9086
-12.4397 -19.5805 1.9638 0.9111
-11.0962 -20.0340 1.9387 0.9122
-10.6910 -20.2501 1.9385 0.9122
-10.2815 -20.4581 1.9382 0.9122
-9.8285 -20.5751 1.9303 0.9125
81.1374 30.1373 5.3672 0.7069
79.1379 34.9441 5.3645 0.7070
78.4709 36.5474 5.3679 0.7069
77.8028 38.1534 5.3734 0.7066
77.1331 39.7634 5.3812 0.7063
76.4611 41.3786 5.3912 0.7058
75.7864 43.0006 5.4033 0.7052
74.7398 44.4115 5.3911 0.7058
74.4265 46.2698 5.4344 0.7038
72.6129 49.2865 5.4420 0.7035
72.3511 51.2580 5.4983 0.7009
15.1698 19.0060 1.5080 0.9071
14.3468 18.7334 1.4632 0.9098
6.6336 9.8352 0.7356 0.9536
6.5201 10.0981 0.7454 0.9530
11.9738 19.3870 1.4130 0.9127
10.6407 18.8826 1.3440 0.9168
10.3102 19.1858 1.3506 0.9164
10.0298 19.5966 1.3651 0.9156
9.1486 20.8845 1.4139 0.9127
9.1106 28.1896 1.8371 0.8880
8.4391 28.0205 1.8147 0.8893
7.1426 27.6929 1.7735 0.8917
6.7463 28.5087 1.8167 0.8892
-2.5791 19.9355 1.2465 0.9226
-2.9623 19.7722 1.2398 0.9230
-4.0892 19.2903 1.2228 0.9240
-4.3930 18.8514 1.2003 0.9254
-5.5721 20.2075 1.2998 0.9194
-5.6810 17.7853 1.1578 0.9279
-6.1446 17.9842 1.1785 0.9267
-7.1115 18.3708 1.2216 0.9241
-8.0857 19.7041 1.3207 0.9182
-30.6992 26.9298 2.5323 0.8490
-12.1480 9.4264 0.9535 0.9402
-10.8054 7.7108 0.8232 0.9482
-71.6755 40.9925 5.1202 0.7183
-70.7304 38.5904 4.9964 0.7240
-66.2658 27.9521 4.4598 0.7496
-49.7660 19.8262 3.3219 0.8068
-64.0764 22.5943 4.2132 0.7616
-62.7999 19.3497 4.0749 0.7685
-61.4434 16.2646 3.9414 0.7751
-60.9716 14.8378 3.8912 0.7776
-62.2478 12.5277 3.9374 0.7753
-64.0511 11.5592 4.0360 0.7704
-69.1898 9.6397 4.3319 0.7558
-71.8273 8.5425 4.4854 0.7483
-33.5776 3.3120 2.0923 0.8735
-77.4826 6.0763 4.8195 0.7324
-79.5251 3.0351 4.9350 0.7269
-81.9979 -0.1613 5.0847 0.7199
-83.2492 -1.8338 5.1636 0.7163
-84.5703 -3.5609 5.2489 0.7123
-49.4744 -5.0765 3.0840 0.8193
-55.4123 -29.0835 3.8807 0.7782
-36.2797 -22.9259 2.6613 0.8420
-18.1692 -14.2136 1.4305 0.9117
-26.6796 -25.5682 2.2915 0.8623
-20.1831 -21.8179 1.8430 0.8877
-18.9181 -21.2916 1.7662 0.8921
-17.7539 -20.8073 1.6961 0.8962
-15.7565 -20.0415 1.5809 0.9029
-15.5289 -20.5888 1.5991 0.9018
-14.9054 -20.6093 1.5772 0.9031
-14.1755 -20.4517 1.5431 0.9051
-13.9447 -21.0064 1.5635 0.9039
-13.7077 -21.5762 1.5851 0.9026
-12.9370 -21.2950 1.5451 0.9050
-11.3967 -20.5764 1.4586 0.9100
-10.6340 -20.1422 1.4124 0.9128
-9.2951 -19.4584 1.3372 0.9172
79.4867 33.2095 3.3968 0.7083
76.8436 35.7895 3.3425 0.7122
76.8058 39.5946 3.4073 0.7076
74.8095 44.4529 3.4313 0.7059
72.7576 49.3846 3.4674 0.7033
70.8646 50.2049 3.4244 0.7063
69.4854 53.5389 3.4589 0.7039
69.7072 68.5239 3.8543 0.6762
61.2393 65.2312 3.5280 0.6990
15.4809 19.3958 0.9785 0.9054
14.6321 19.1060 0.9489 0.9082
6.8560 9.7379 0.4696 0.9534
6.6365 9.8396 0.4680 0.9536
6.5231 10.1027 0.4742 0.9530
10.4379 19.4235 0.8695 0.9155
9.8550 19.2552 0.8529 0.9171
9.2674 21.1555 0.9107 0.9117
9.2288 28.5553 1.1833 0.8868
6.8981 29.1501 1.1812 0.8870
3.1218 33.8496 1.3404 0.8728
-2.9958 19.9954 0.7972 0.9223
-3.3790 19.8305 0.7932 0.9226
-4.1347 19.5051 0.7862 0.9233
-4.7372 18.6296 0.7580 0.9259
-4.9914 18.1012 0.7404 0.9276
-5.3253 17.9030 0.7365 0.9280
-5.7829 18.1043 0.7494 0.9267
-6.6201 18.1759 0.7628 0.9255
-6.7479 17.4315 0.7370 0.9279
-7.2582 16.7243 0.7189 0.9296
-7.6881 16.7849 0.7280 0.9288
-19.4839 24.5829 1.2369 0.8820
-12.1656 9.4401 0.6072 0.9402
-12.2458 9.1148 0.6019 0.9407
-70.7312 38.5909 3.1771 0.7243
-69.7646 36.2671 3.1004 0.7300
-67.9631 31.9365 2.9610 0.7404
-64.7944 24.3192 2.7290 0.7580
-62.7697 19.3404 2.5899 0.7688
-62.0701 17.7699 2.5458 0.7722
-64.0522 11.5594 2.5664 0.7706
-77.5661 6.0828 3.0679 0.7324
-78.7106 4.5865 3.1089 0.7293
-81.9984 -0.1613 3.2333 0.7202
-83.6278 -1.8421 3.2983 0.7154
-52.6390 -5.4013 2.0865 0.8091
-68.0311 -12.5539 2.7278 0.7581
-67.4721 -13.8555 2.7160 0.7590
-54.9054 -30.2371 2.4716 0.7781
-18.1679 -14.2125 0.9095 0.9118
-38.2908 -31.2123 1.9479 0.8206
-30.9910 -26.3138 1.6031 0.8498
-24.7472 -23.7163 1.3516 0.8718
-23.0775 -23.0217 1.2853 0.8777
-21.6097 -22.4400 1.2284 0.8828
-20.3057 -21.9505 1.1791 0.8872
-19.6499 -22.1152 1.1665 0.8883
-19.1978 -22.4994 1.1662 0.8883
-18.7381 -22.8744 1.1660 0.8884
-18.2710 -23.2398 1.1657 0.8884
-17.7969 -23.5958 1.1654 0.8884
-14.9052 -20.6089 1.0029 0.9032
-13.3790 -20.1541 0.9539 0.9077
-11.7067 -19.2699 0.8891 0.9137
-8.9638 -17.8362 0.7871 0.9232
81.4792 28.4180 1.4576 0.7081
84.8703 39.5279 1.5815 0.6876
77.7496 38.1273 1.4628 0.7072
75.7265 42.9666 1.4707 0.7059
74.8090 44.4525 1.4699 0.7060
80.4960 50.0431 1.6011 0.6844
72.7570 49.3843 1.4854 0.7034
70.6541 54.4395 1.5067 0.6999
69.7026 68.5194 1.6510 0.6764
15.8045 19.8012 0.4280 0.9036
6.6395 9.8440 0.2006 0.9536
11.2544 18.2222 0.3618 0.9179
10.8423 18.3690 0.3603 0.9182
10.4333 18.5147 0.3590 0.9185
10.0271 18.6591 0.3578 0.9187
10.0095 19.5571 0.3711 0.9159
9.9595 20.4610 0.3844 0.9130
9.4703 20.4907 0.3813 0.9137
9.3594 21.3657 0.3940 0.9109
13.1862 38.1670 0.6821 0.8508
12.3412 38.1859 0.6779 0.8517
8.6580 28.7472 0.5071 0.8868
7.3236 28.3944 0.4953 0.8893
7.0566 29.8198 0.5176 0.8846
2.4405 33.8809 0.5738 0.8729
-0.2763 33.2151 0.5611 0.8756
-0.9522 33.5445 0.5669 0.8744
-3.1184 18.3009 0.3136 0.9284
-3.4229 17.9104 0.3080 0.9296
-4.8200 18.9552 0.3304 0.9247
-6.3449 18.5706 0.3315 0.9245
-6.7472 18.5250 0.3330 0.9242
-6.8969 17.8163 0.3227 0.9264
-7.3521 16.9409 0.3119 0.9288
-19.7858 27.1319 0.5672 0.8743
-22.1264 24.7062 0.5602 0.8757
-12.1833 9.4538 0.2605 0.9402
-12.2477 9.1162 0.2579 0.9407
-10.7990 7.7063 0.2241 0.9483
-71.7481 41.0340 1.3962 0.7184
-64.7951 24.3194 1.1691 0.7581
-20.0100 7.0558 0.3584 0.9186
-20.0900 6.6341 0.3574 0.9188
-20.3352 5.8217 0.3573 0.9189
-21.9715 4.8824 0.3802 0.9139
-22.8732 4.6034 0.3941 0.9109
-64.0931 11.5667 1.1001 0.7706
-66.7281 10.6651 1.1415 0.7631
-69.1922 9.6401 1.1801 0.7562
-71.7980 8.5390 1.2214 0.7488
-33.5243 3.3067 0.5690 0.8739
-77.2115 6.0550 1.3082 0.7336
-78.3509 4.5655 1.3257 0.7305
-79.5216 3.0350 1.3442 0.7273
-81.9663 -0.1612 1.3846 0.7204
-84.4241 -3.5547 1.4274 0.7132
-75.9111 -14.0080 1.3039 0.7343
-35.1022 -28.6131 0.7650 0.8343
-31.0411 -28.5761 0.7127 0.8447
-30.3384 -30.2651 0.7239 0.8425
-15.6214 -19.0697 0.4164 0.9061
-15.1812 -20.1278 0.4259 0.9041
-14.9049 -20.6086 0.4296 0.9033
-12.8023 -19.2854 0.3910 0.9116
-12.0547 -18.9744 0.3797 0.9140
-9.4441 -17.8884 0.3417 0.9223
-9.8281 -20.5743 0.3852 0.9128
60.2124 19.6554 -0.3566 0.7762
59.7236 20.8302 -0.3561 0.7765
79.0676 34.9130 -0.4866 0.7077
85.1029 39.6362 -0.5286 0.6869
77.7438 38.1244 -0.4875 0.7073
82.9232 44.8758 -0.5308 0.6858
74.8084 44.4522 -0.4899 0.7060
72.7565 49.3839 -0.4951 0.7035
72.2832 51.2099 -0.4988 0.7016
33.7814 26.0288 -0.2401 0.8432
31.0178 25.9467 -0.2277 0.8506
69.6976 68.5145 -0.5503 0.6764
28.6123 31.7293 -0.2405 0.8429
28.2445 32.6135 -0.2429 0.8415
6.8522 9.7324 -0.0670 0.9535
11.5275 18.6643 -0.1235 0.9160
11.1043 18.8129 -0.1230 0.9163
10.2677 19.1068 -0.1221 0.9169
9.1449 19.7865 -0.1227 0.9165
14.4732 39.3189 -0.2359 0.8457
13.5413 39.1948 -0.2335 0.8472
9.3913 29.0582 -0.1719 0.8850
7.7750 27.8246 -0.1627 0.8909
7.2539 28.1242 -0.1635 0.8903
6.7270 28.4272 -0.1645 0.8897
6.4012 29.6963 -0.1710 0.8856
6.5165 42.5021 -0.2421 0.8420
1.7627 33.9654 -0.1915 0.8728
1.0661 33.5201 -0.1888 0.8745
0.4037 34.3896 -0.1936 0.8715
-2.6615 20.5718 -0.1168 0.9204
-4.8893 19.2279 -0.1117 0.9237
-5.0471 18.3032 -0.1069 0.9269
-5.3935 18.1322 -0.1065 0.9271
-7.0158 17.0968 -0.1040 0.9287
-7.8924 17.2309 -0.1067 0.9270
-20.0238 25.2641 -0.1815 0.8790
-21.2117 24.6626 -0.1831 0.8780
-21.8083 24.3509 -0.1840 0.8774
-30.7232 26.9508 -0.2301 0.8492
-10.7959 7.7040 -0.0747 0.9483
-74.8039 48.9754 -0.5034 0.6993
-70.9163 38.6918 -0.4548 0.7239
-69.7022 36.2347 -0.4422 0.7303
-69.1854 34.2213 -0.4346 0.7344
-67.4548 30.0611 -0.4158 0.7442
-20.2541 7.1419 -0.1209 0.9177
-63.7000 21.0350 -0.3777 0.7646
-22.3405 6.3958 -0.1313 0.9112
-23.2795 5.6652 -0.1349 0.9086
-64.5378 11.6470 -0.3692 0.7693
-66.9755 10.7047 -0.3819 0.7624
-69.4488 9.6758 -0.3948 0.7554
-72.3373 8.6031 -0.4102 0.7472
-33.4977 3.3041 -0.1895 0.8740
-78.8438 6.1830 -0.4453 0.7288
-78.5218 4.5754 -0.4428 0.7301
-79.5226 3.0350 -0.4481 0.7274
-80.9343 1.4642 -0.4557 0.7234
-77.1905 -14.2441 -0.4419 0.7305
-47.9613 -27.6808 -0.3118 0.8013
-47.1239 -29.7786 -0.3138 0.8001
-33.7231 -24.2657 -0.2339 0.8469
-30.5991 -22.9631 -0.2154 0.8581
-54.7455 -44.6252 -0.3977 0.7539
-38.0898 -32.3413 -0.2813 0.8188
-21.8931 -19.3579 -0.1645 0.8897
-30.6927 -29.4142 -0.2393 0.8436
-27.5321 -29.7621 -0.2283 0.8503
-15.8345 -18.5578 -0.1373 0.9070
-15.6215 -19.0698 -0.1388 0.9061
-15.4039 -19.5929 -0.1403 0.9051
-15.1813 -20.1280 -0.1419 0.9041
-14.9047 -20.6083 -0.1432 0.9033
-14.1759 -20.4522 -0.1401 0.9053
-13.7080 -21.5768 -0.1439 0.9028
-12.6132 -21.7327 -0.1415 0.9044
-11.8647 -21.4213 -0.1379 0.9067
-10.4751 -20.8433 -0.1313 0.9109
53.6952 15.1740 -1.5712 0.7999
53.2700 16.2144 -1.5679 0.8003
52.2897 17.0691 -1.5488 0.8024
52.4199 18.2829 -1.5632 0.8008
83.5307 32.9473 -2.5284 0.6982
44.3906 18.5464 -1.3546 0.8249
44.0196 19.4373 -1.3550 0.8248
51.5784 24.0224 -1.6021 0.7964
54.6918 28.1945 -1.7326 0.7817
54.2153 29.3398 -1.7358 0.7814
47.1810 32.0244 -1.6057 0.7960
33.7764 26.0249 -1.2006 0.8431
31.0055 25.9364 -1.1382 0.8506
44.0675 39.9737 -1.6753 0.7881
43.5773 41.1520 -1.6877 0.7868
63.6945 62.6132 -2.5150 0.6995
32.0295 32.7745 -1.2904 0.8325
29.9975 31.9529 -1.2341 0.8391
14.7726 18.5083 -0.6668 0.9096
14.5155 18.9538 -0.6722 0.9089
6.5319 10.1164 -0.3391 0.9530
11.7956 19.0985 -0.6321 0.9141
11.3622 19.2499 -0.6294 0.9144
10.9268 19.3902 -0.6267 0.9148
10.3748 19.3062 -0.6171 0.9160
9.4679 21.6133 -0.6644 0.9099
19.9922 48.2489 -1.4706 0.8114
14.6705 39.8548 -1.1958 0.8437
8.4256 27.9757 -0.8227 0.8897
7.7647 27.7877 -0.8124 0.8910
6.4624 29.9804 -0.8636 0.8845
8.8533 50.9053 -1.4549 0.8132
6.5136 42.4831 -1.2102 0.8420
6.6407 49.9852 -1.4198 0.8173
5.5721 49.5324 -1.4036 0.8192
1.8016 34.7145 -0.9788 0.8701
-3.0841 18.0996 -0.5170 0.9292
-3.4498 18.0515 -0.5175 0.9291
-4.1842 17.9552 -0.5191 0.9289
-4.6251 18.1888 -0.5285 0.9277
-4.9793 18.0574 -0.5274 0.9278
-5.6846 17.7966 -0.5261 0.9280
-6.3591 18.6121 -0.5538 0.9243
-6.7738 18.5980 -0.5573 0.9239
-7.0725 17.2351 -0.5246 0.9282
-7.3707 16.9837 -0.5213 0.9286
-20.0240 25.2643 -0.9077 0.8790
-21.0340 25.4720 -0.9302 0.8762
-37.5196 31.6041 -1.3813 0.8218
-12.2187 9.4813 -0.4355 0.9400
-46.5666 27.8862 -1.5284 0.8048
-49.1469 26.8145 -1.5765 0.7993
-50.5380 26.2722 -1.6038 0.7962
-44.0738 21.8003 -1.3845 0.8214
-54.9901 24.5063 -1.6952 0.7859
-20.1447 6.6522 -0.5974 0.9186
-22.3409 6.3959 -0.6547 0.9112
-23.3032 5.6710 -0.6753 0.9085
-60.1714 13.3709 -1.7356 0.7814
-69.0191 9.6159 -1.9622 0.7567
-71.6503 8.5214 -2.0317 0.7492
-78.4844 4.5732 -2.2137 0.7301
-81.9686 -0.1612 -2.3081 0.7204
-83.2479 -1.8337 -2.3446 0.7166
-81.7463 -11.7171 -2.3253 0.7186
-81.2093 -13.3074 -2.3172 0.7194
-73.6664 -15.1275 -2.1176 0.7401
-80.3147 -18.1787 -2.3187 0.7193
-84.7185 -22.7827 -2.4702 0.7039
-84.2649 -24.4832 -2.4708 0.7039
-83.7769 -26.1745 -2.4714 0.7038
-83.2560 -27.8563 -2.4721 0.7038
-82.7017 -29.5281 -2.4727 0.7037
-82.1135 -31.1886 -2.4733 0.7036
-81.4933 -32.8380 -2.4740 0.7036
-77.9035 -40.8881 -2.4774 0.7032
-51.3246 -28.2652 -1.6499 0.7910
-47.9617 -27.6810 -1.5593 0.8012
-45.4304 -28.7085 -1.5132 0.8065
-40.3434 -26.6408 -1.3613 0.8241
-36.0876 -24.8841 -1.2343 0.8391
-32.2610 -23.2137 -1.1191 0.8530
-29.5284 -22.1596 -1.0395 0.8627
-22.9140 -19.4558 -0.8464 0.8867
-21.1688 -18.7174 -0.7957 0.8931
-17.0921 -17.0507 -0.6798 0.9079
-15.8934 -16.5040 -0.6452 0.9124
-14.0585 -15.8223 -0.5960 0.9188
-13.8790 -16.2660 -0.6021 0.9180
-15.6216 -19.0700 -0.6941 0.9061
-15.4040 -19.5931 -0.7018 0.9051
-14.9044 -20.6079 -0.7161 0.9032
-13.9452 -21.0071 -0.7100 0.9040
-13.7081 -21.5770 -0.7198 0.9028
-12.8562 -21.1621 -0.6972 0.9057
-11.5297 -20.8166 -0.6701 0.9092
-10.8108 -20.4771 -0.6520 0.9115
-9.8279 -20.5738 -0.6420 0.9128
26.9039 9.3835 -1.4450 0.8922
24.3794 10.1857 -1.3400 0.8996
23.4601 10.3590 -1.3006 0.9024
22.0383 10.8072 -1.2448 0.9064
22.5063 12.7699 -1.3123 0.9016
21.9757 13.0583 -1.2964 0.9027
21.6283 13.4460 -1.2916 0.9030
24.9861 18.4653 -1.5756 0.8830
24.6964 19.0287 -1.5811 0.8826
24.3777 19.5748 -1.5855 0.8823
23.9684 20.8810 -1.6121 0.8805
23.1455 22.7526 -1.6460 0.8781
22.7853 23.3153 -1.6533 0.8776
22.5420 24.0114 -1.6702 0.8764
21.9697 25.3681 -1.7019 0.8742
6.8484 9.7270 -0.6033 0.9535
6.6484 9.8572 -0.6030 0.9535
6.5349 10.1210 -0.6110 0.9529
11.9722 19.3844 -1.1554 0.9128
11.4768 19.4440 -1.1450 0.9135
10.4867 19.5143 -1.1235 0.9151
9.5496 20.6621 -1.1544 0.9129
16.6658 38.0449 -2.1064 0.8467
14.7729 37.7780 -2.0572 0.8500
12.7881 37.0149 -1.9861 0.8548
11.8119 36.5482 -1.9479 0.8574
8.6201 28.6213 -1.5159 0.8872
7.9153 28.3265 -1.4916 0.8889
6.7887 28.6878 -1.4951 0.8886
6.4964 30.1381 -1.5635 0.8838
6.6951 34.3948 -1.7770 0.8691
5.9479 34.2000 -1.7605 0.8702
5.1892 33.8458 -1.7365 0.8718
4.4431 33.4443 -1.7110 0.8736
3.7295 33.1536 -1.6920 0.8749
3.0372 32.9329 -1.6773 0.8759
2.3540 32.6794 -1.6616 0.8770
1.6786 32.3457 -1.6426 0.8783
0.3740 31.8612 -1.6159 0.8802
-0.8838 31.1351 -1.5796 0.8827
-1.5012 30.9706 -1.5725 0.8832
-3.3183 30.4332 -1.5525 0.8846
-3.1370 18.4101 -0.9471 0.9279
-3.5090 18.3614 -0.9480 0.9279
-3.8820 18.3129 -0.9494 0.9278
-4.7348 18.6202 -0.9744 0.9259
-5.4586 18.3512 -0.9710 0.9262
-5.7481 17.9956 -0.9581 0.9271
-6.5771 16.9902 -0.9240 0.9296
-7.1775 16.5385 -0.9143 0.9303
-7.7886 17.0044 -0.9485 0.9278
-13.2945 26.1961 -1.4898 0.8890
-13.8193 25.9281 -1.4900 0.8890
-14.4338 25.8196 -1.5001 0.8883
-16.5686 24.7472 -1.5104 0.8876
-20.0497 23.3116 -1.5593 0.8841
-20.7269 23.1434 -1.5756 0.8830
-24.0080 21.0603 -1.6196 0.8799
-23.4464 19.7497 -1.5547 0.8845
-22.9260 18.5382 -1.4952 0.8886
-10.7895 7.6995 -0.6722 0.9483
-21.3277 13.9637 -1.2928 0.9029
-42.1556 23.0000 -2.4354 0.8250
-42.5371 22.1129 -2.4313 0.8253
-43.2389 20.3184 -2.4229 0.8258
-43.5596 19.4123 -2.4185 0.8261
-43.8603 18.5011 -2.4141 0.8264
-44.1409 17.5852 -2.4097 0.8267
-44.4020 16.6653 -2.4052 0.8270
-20.2545 7.1421 -1.0892 0.9176
-19.9885 6.1588 -1.0607 0.9196
-22.3412 6.3960 -1.1788 0.9111
-23.2596 6.1570 -1.2202 0.9081
-23.3034 5.6710 -1.2163 0.9084
-45.7615 9.2098 -2.3673 0.8295
-45.8415 8.2729 -2.3624 0.8298
-45.9016 7.3364 -2.3574 0.8301
-33.4447 3.2989 -1.7043 0.8741
-34.6301 2.0179 -1.7592 0.8703
-45.9258 -1.0116 -2.3297 0.8319
-45.9009 -1.9327 -2.3299 0.8319
-45.8574 -2.8531 -2.3301 0.8319
-45.7955 -3.7726 -2.3304 0.8319
-46.1894 -4.7395 -2.3548 0.8303
-48.4915 -5.9607 -2.4777 0.8223
-48.4523 -6.9449 -2.4823 0.8220
-48.3088 -7.9161 -2.4826 0.8220
-48.1460 -8.8845 -2.4829 0.8219
-47.5424 -11.7680 -2.4838 0.8219
-46.1567 -16.4799 -2.4855 0.8218
-45.8234 -17.4048 -2.4859 0.8217
-45.1019 -19.2341 -2.4866 0.8217
-43.4423 -22.8010 -2.4882 0.8216
-39.9174 -23.0383 -2.3373 0.8314
-39.4538 -23.8381 -2.3377 0.8314
-34.4802 -23.7757 -2.1241 0.8456
-24.6939 -20.1289 -1.6157 0.8802
-22.5909 -19.1815 -1.5030 0.8881
-20.9604 -18.5332 -1.4189 0.8940
-18.0995 -17.3456 -1.2714 0.9045
-17.0795 -17.0382 -1.2235 0.9079
-15.8312 -16.4395 -1.1574 0.9126
-14.9675 -16.1798 -1.1178 0.9155
-14.0454 -15.8075 -1.0724 0.9188
-13.6287 -15.9726 -1.0648 0.9193
-15.4041 -19.5933 -1.2640 0.9050
-14.1761 -20.4525 -1.2620 0.9051
-12.2095 -20.0975 -1.1926 0.9101
-11.4906 -19.7985 -1.1609 0.9124
-10.8087 -19.5148 -1.1313 0.9145
-10.1604 -19.2451 -1.1037 0.9165
-8.9533 -18.7430 -1.0534 0.9202
25.9627 6.7777 -1.9674 0.8980
28.6126 8.7091 -2.1930 0.8870
24.0949 10.0668 -1.9147 0.9006
23.2687 10.2745 -1.8650 0.9030
22.3731 10.4202 -1.8096 0.9058
21.9011 10.7400 -1.7885 0.9068
17.3260 11.7601 -1.5354 0.9194
16.8660 11.9489 -1.5156 0.9204
15.9682 12.3036 -1.4781 0.9223
15.4589 12.4130 -1.4537 0.9236
13.7486 12.9834 -1.3865 0.9270
13.0697 12.8478 -1.3438 0.9291
12.6248 12.9185 -1.3244 0.9301
10.2001 13.3188 -1.2300 0.9349
6.8465 9.7243 -0.8720 0.9534
6.5379 10.1256 -0.8837 0.9528
10.9955 19.5121 -1.6422 0.9141
10.4986 19.5365 -1.6262 0.9149
9.5784 19.6781 -1.6047 0.9160
9.6855 20.9561 -1.6927 0.9116
13.2310 30.2038 -2.4178 0.8761
12.6239 30.4664 -2.4180 0.8761
6.7916 28.7001 -2.1625 0.8884
6.5046 30.1760 -2.2634 0.8835
5.6655 32.5758 -2.4244 0.8758
5.0127 32.6940 -2.4252 0.8758
4.3582 32.8050 -2.4265 0.8757
3.0421 32.9854 -2.4288 0.8756
2.3690 32.8882 -2.4177 0.8761
1.6901 32.5671 -2.3911 0.8774
1.0316 32.4370 -2.3795 0.8780
0.3782 32.2187 -2.3625 0.8788
-0.2639 31.7202 -2.3259 0.8805
-1.5083 31.1171 -2.2842 0.8825
-2.1211 30.9207 -2.2725 0.8831
-2.7231 30.6720 -2.2578 0.8838
-2.6981 20.8546 -1.5418 0.9191
-3.1619 18.5558 -1.3802 0.9273
-3.5544 18.5986 -1.3884 0.9269
-4.7284 18.5950 -1.4068 0.9259
-5.1669 18.7375 -1.4251 0.9250
-5.9054 18.4880 -1.4231 0.9251
-6.7743 18.5992 -1.4514 0.9237
-6.7517 17.4412 -1.3713 0.9277
-7.0604 17.2055 -1.3636 0.9281
-7.9313 17.3158 -1.3965 0.9265
-13.3353 26.2765 -2.1606 0.8885
-13.7853 25.8642 -2.1490 0.8891
-14.3906 25.7424 -2.1624 0.8884
-14.9016 25.4446 -2.1621 0.8885
-8.6253 14.0727 -1.2102 0.9359
-8.9611 13.9832 -1.2177 0.9356
-9.7178 13.9032 -1.2437 0.9342
-10.1067 13.8591 -1.2577 0.9335
-10.9688 13.8394 -1.2948 0.9316
-11.2757 13.6548 -1.2984 0.9314
-11.5898 13.4753 -1.3032 0.9312
-12.0525 13.4576 -1.3246 0.9301
-12.4190 13.3195 -1.3353 0.9296
-12.8316 13.2201 -1.3508 0.9288
-14.9600 12.6013 -1.4342 0.9245
-12.2555 9.1220 -1.1202 0.9406
-10.7882 7.6986 -0.9718 0.9482
-19.7447 11.2924 -1.6678 0.9128
-28.3636 15.4752 -2.3691 0.8785
-29.3641 13.0861 -2.3572 0.8790
-20.2547 7.1421 -1.5747 0.9175
-20.1451 6.6523 -1.5555 0.9184
-19.9887 6.1589 -1.5336 0.9195
-22.3415 6.3961 -1.7040 0.9110
-23.2802 5.6654 -1.7568 0.9084
-31.2113 6.2814 -2.3344 0.8801
-31.4406 5.0251 -2.3346 0.8801
-31.5364 4.3938 -2.3347 0.8801
-32.2731 1.2317 -2.3681 0.8785
-33.9194 -0.0667 -2.4871 0.8728
-33.9135 -0.7470 -2.4872 0.8728
-33.8939 -1.4271 -2.4874 0.8728
-33.8608 -2.1067 -2.4875 0.8728
-33.7539 -3.4635 -2.4879 0.8728
-33.1101 -7.4943 -2.4891 0.8727
-32.4148 -10.1274 -2.4900 0.8727
-31.7565 -12.0618 -2.4908 0.8726
-31.5114 -12.6976 -2.4910 0.8726
-31.2536 -13.3284 -2.4913 0.8726
-30.7005 -14.5741 -2.4918 0.8726
-30.4053 -15.1885 -2.4921 0.8726
-30.0979 -15.7971 -2.4923 0.8726
-29.4468 -16.9952 -2.4929 0.8725
-29.0898 -17.5762 -2.4920 0.8726
-27.2778 -17.2374 -2.3659 0.8786
-26.2972 -18.1331 -2.3421 0.8798
-25.9313 -18.6591 -2.3424 0.8797
-18.0984 -14.1582 -1.6848 0.9120
-20.2215 -17.8798 -1.9792 0.8974
-15.7892 -16.3958 -1.6690 0.9127
-14.9029 -16.1100 -1.6091 0.9157
-14.0042 -15.7612 -1.5459 0.9189
-13.6228 -15.9657 -1.5389 0.9193
-13.6888 -16.7105 -1.5839 0.9170
-14.9039 -20.6072 -1.8647 0.9030
-13.9454 -21.0075 -1.8488 0.9038
-12.2093 -20.0972 -1.7242 0.9100
-11.4905 -19.7982 -1.6784 0.9123
-10.1603 -19.2449 -1.5957 0.9164
23.7672 6.2046 -2.3582 0.9060
23.4959 7.1517 -2.3579 0.9060
23.0182 8.5497 -2.3574 0.9060
22.8403 9.0090 -2.3572 0.9060
22.4571 9.9161 -2.3568 0.9061
21.9432 10.7606 -2.3463 0.9065
19.7312 11.1954 -2.1780 0.9129
19.1564 11.3831 -2.1393 0.9143
16.5296 12.2157 -1.9732 0.9207
16.0123 12.3375 -1.9406 0.9220
15.1354 12.6609 -1.8944 0.9238
14.3781 12.5261 -1.8307 0.9262
13.4853 12.7348 -1.7807 0.9282
12.4337 12.7229 -1.7079 0.9310
12.0742 12.8612 -1.6936 0.9316
11.5607 12.8201 -1.6573 0.9330
11.1438 12.8676 -1.6342 0.9339
10.8429 13.0396 -1.6281 0.9341
10.4305 13.0682 -1.6052 0.9350
7.1169 9.6895 -1.1542 0.9528
6.8446 9.7216 -1.1414 0.9533
6.6544 9.8660 -1.1425 0.9533
6.5409 10.1302 -1.1577 0.9527
8.3350 13.4953 -1.5228 0.9383
5.4725 13.9945 -1.4426 0.9414
3.3893 14.3229 -1.4130 0.9426
2.1581 14.0760 -1.3672 0.9444
1.8989 14.2934 -1.3843 0.9437
1.3268 14.3861 -1.3870 0.9436
1.0276 14.2661 -1.3732 0.9441
0.7436 14.3288 -1.3775 0.9440
0.1688 14.3769 -1.3804 0.9439
-0.1187 14.2629 -1.3694 0.9443
-0.7113 14.6741 -1.4104 0.9427
-0.9797 14.2825 -1.3744 0.9441
-1.5562 14.2726 -1.3784 0.9439
-2.1073 14.0656 -1.3654 0.9445
-2.6995 14.1254 -1.3806 0.9438
-2.9931 14.1195 -1.3857 0.9437
-3.5821 14.0873 -1.3955 0.9433
-3.8629 14.0091 -1.3951 0.9433
-6.7273 13.9418 -1.4862 0.9397
-7.4809 14.0358 -1.5270 0.9381
-7.7381 13.8422 -1.5225 0.9383
-9.9201 13.6032 -1.6163 0.9346
-10.2961 13.5398 -1.6330 0.9339
-10.5985 13.3722 -1.6381 0.9337
-11.8396 13.2199 -1.7038 0.9312
-12.5849 12.9661 -1.7347 0.9300
-13.0520 12.9185 -1.7630 0.9289
-14.3765 12.6113 -1.8360 0.9260
-14.8259 12.4884 -1.8610 0.9251
-12.2575 9.1235 -1.4670 0.9404
-10.7871 7.6977 -1.2723 0.9481
-17.9511 11.7529 -2.0599 0.9174
-21.3836 11.6668 -2.3386 0.9068
-21.6020 11.2298 -2.3374 0.9068
-22.0352 10.3545 -2.3374 0.9068
-22.2385 9.9105 -2.3374 0.9068
-22.4330 9.4626 -2.3374 0.9068
-22.6185 9.0109 -2.3375 0.9068
-22.7949 8.5556 -2.3375 0.9068
-22.3418 6.3962 -2.2317 0.9108
-23.5391 6.2310 -2.3377 0.9068
-23.7712 5.2823 -2.3378 0.9068
-23.8731 4.8046 -2.3379 0.9068
-24.9691 3.9908 -2.4276 0.9034
-25.6383 3.5720 -2.4852 0.9012
-25.7534 3.0629 -2.4899 0.9010
-25.8106 2.5458 -2.4900 0.9010
-25.8575 2.0278 -2.4901 0.9010
-25.8940 1.5088 -2.4902 0.9010
-25.9365 -0.5713 -2.4906 0.9010
-25.9211 -1.0914 -2.4908 0.9010
-25.8954 -1.6112 -2.4909 0.9010
-25.7559 -3.1660 -2.4913 0.9010
-25.6114 -4.1968 -2.4916 0.9010
-25.4257 -5.2212 -2.4919 0.9010
-25.3175 -5.7304 -2.4921 0.9009
-25.0707 -6.7421 -2.4924 0.9009
-24.4569 -8.7322 -2.4932 0.9009
-24.2787 -9.2216 -2.4933 0.9009
-24.0907 -9.7074 -2.4935 0.9009
-23.6859 -10.6674 -2.4939 0.9009
-23.4691 -11.1412 -2.4941 0.9009
-22.5083 -12.9906 -2.4950 0.9008
-22.2452 -13.4406 -2.4952 0.9008
-21.9731 -13.8853 -2.4954 0.9008
-21.6921 -14.3245 -2.4956 0.9008
-21.3433 -14.7172 -2.4890 0.9011
-18.0805 -14.1442 -2.2039 0.9119
-18.6188 -15.8089 -2.3449 0.9065
-18.2998 -16.1807 -2.3451 0.9065
-17.4695 -16.7418 -2.3230 0.9073
-16.2960 -16.2566 -2.2099 0.9117
-15.2311 -15.8163 -2.1081 0.9155
-13.5645 -15.8973 -2.0063 0.9195
-13.3827 -16.3368 -2.0275 0.9186
-13.2489 -16.8519 -2.0580 0.9175
-14.3308 -19.8148 -2.3477 0.9064
-11.8556 -21.4051 -2.3491 0.9064
-10.0498 -19.0356 -2.0666 0.9171
20.3573 5.3144 -2.4992 0.9187
18.9766 5.7761 -2.3563 0.9232
18.7274 6.5317 -2.3560 0.9232
18.5915 6.9055 -2.3558 0.9232
18.4481 7.2766 -2.3557 0.9232
18.2973 7.6446 -2.3555 0.9232
17.9737 8.3711 -2.3552 0.9232
17.8010 8.7293 -2.3551 0.9232
17.6211 9.0840 -2.3549 0.9232
17.4342 9.4349 -2.3547 0.9233
17.2403 9.7820 -2.3546 0.9233
16.6173 10.7987 -2.3541 0.9233
16.1684 11.4547 -2.3537 0.9233
15.9343 11.7758 -2.3536 0.9233
15.6937 12.0921 -2.3534 0.9233
15.4469 12.4035 -2.3532 0.9233
14.2168 12.8961 -2.2800 0.9256
13.5014 12.7500 -2.2059 0.9279
12.4579 12.7477 -2.1173 0.9307
11.2057 12.9390 -2.0332 0.9334
10.4678 13.1149 -1.9932 0.9346
6.6574 9.8705 -1.4142 0.9532
6.5439 10.1348 -1.4330 0.9526
7.6901 13.6466 -1.8607 0.9389
6.9892 13.6560 -1.8223 0.9401
6.4063 13.8611 -1.8139 0.9403
6.0646 13.8443 -1.7954 0.9409
5.8012 14.0007 -1.8002 0.9408
4.8377 14.0024 -1.7598 0.9421
4.5087 13.9506 -1.7415 0.9427
4.1999 13.9450 -1.7300 0.9430
3.3486 14.1509 -1.7274 0.9431
2.1520 14.0358 -1.6867 0.9444
1.8717 14.0887 -1.6883 0.9444
0.7330 14.1235 -1.6799 0.9446
0.4521 14.2159 -1.6895 0.9443
0.1661 14.1501 -1.6809 0.9446
-0.6860 14.1540 -1.6833 0.9445
-1.5103 13.8523 -1.6552 0.9454
-1.8039 13.9430 -1.6700 0.9449
-2.0896 13.9474 -1.6752 0.9448
-2.3880 14.0142 -1.6887 0.9443
-2.6802 14.0247 -1.6961 0.9441
-2.9665 13.9941 -1.6992 0.9440
-3.5590 13.9963 -1.7155 0.9435
-4.1460 13.9386 -1.7274 0.9431
-5.6812 13.8446 -1.7776 0.9415
-6.3906 13.9522 -1.8229 0.9401
-7.1142 14.0181 -1.8673 0.9386
-7.7773 13.9124 -1.8933 0.9378
-8.0741 13.7865 -1.8978 0.9377
-8.4638 13.8092 -1.9239 0.9368
-8.7994 13.7308 -1.9372 0.9364
-9.5524 13.6666 -1.9806 0.9350
-10.5898 13.3612 -2.0252 0.9336
-11.0824 13.4207 -2.0675 0.9323
-11.9034 13.2912 -2.1194 0.9307
-12.2338 13.1208 -2.1310 0.9303
-12.5993 12.9809 -2.1488 0.9297
-13.3991 12.7402 -2.1962 0.9282
-11.6340 10.2055 -1.8383 0.9396
-12.2594 9.1249 -1.8154 0.9403
-13.6560 9.3374 -1.9651 0.9355
-16.4791 10.7892 -2.3397 0.9237
-13.0299 8.1623 -1.8264 0.9399
-17.4762 9.0850 -2.3397 0.9237
-17.6549 8.7327 -2.3397 0.9237
-17.8266 8.3769 -2.3397 0.9237
-18.8247 5.8002 -2.3399 0.9237
-20.2187 5.3520 -2.4844 0.9192
-20.3697 4.9571 -2.4903 0.9190
-20.7160 3.3110 -2.4920 0.9190
-20.9172 1.6403 -2.4923 0.9190
-20.9466 1.2206 -2.4924 0.9190
-20.9802 0.3796 -2.4926 0.9189
-20.9676 -0.8829 -2.4929 0.9189
-20.9465 -1.3032 -2.4930 0.9189
-20.8331 -2.5608 -2.4933 0.9189
-20.7786 -2.9783 -2.4934 0.9189
-20.6445 -3.8096 -2.4937 0.9189
-20.5650 -4.2231 -2.4938 0.9189
-20.4772 -4.6349 -2.4939 0.9189
-20.3813 -5.0449 -2.4941 0.9189
-20.1648 -5.8589 -2.4944 0.9189
-20.0445 -6.2625 -2.4945 0.9189
-19.9160 -6.6636 -2.4947 0.9189
-19.7795 -7.0621 -2.4948 0.9189
-19.6351 -7.4579 -2.4950 0.9189
-18.9792 -9.0098 -2.4956 0.9189
-18.4068 -10.1369 -2.4961 0.9188
-17.9880 -10.8684 -2.4965 0.9188
-17.3056 -11.9330 -2.4970 0.9188
-17.0640 -12.2786 -2.4972 0.9188
-16.0528 -13.0852 -2.4601 0.9200
-15.1569 -12.8694 -2.3619 0.9230
-14.7953 -13.0820 -2.3460 0.9235
-14.5310 -13.3771 -2.3461 0.9235
-13.1240 -14.7706 -2.3471 0.9235
-12.5231 -15.2875 -2.3474 0.9235
-12.2150 -15.5369 -2.3476 0.9235
-11.5840 -16.0168 -2.3480 0.9235
-10.2665 -16.8993 -2.3488 0.9234
-9.5821 -17.3002 -2.3492 0.9234
-6.5871 -13.7894 -1.8153 0.9403
17.1278 4.4713 -2.5082 0.9310
17.0339 4.8137 -2.5080 0.9310
16.8255 5.4924 -2.5078 0.9310
16.5529 6.1483 -2.5019 0.9311
16.1407 6.3664 -2.4584 0.9323
15.5478 6.4959 -2.3875 0.9342
15.2008 6.7120 -2.3544 0.9351
15.0622 7.0152 -2.3543 0.9351
14.9177 7.3154 -2.3541 0.9351
14.4483 8.1978 -2.3537 0.9351
14.1062 8.7696 -2.3535 0.9351
13.9267 9.0502 -2.3533 0.9351
13.5508 9.6003 -2.3530 0.9351
13.3547 9.8695 -2.3529 0.9351
9.3824 8.1738 -1.7631 0.9510
12.0686 11.3969 -2.3520 0.9351
11.6003 11.8702 -2.3517 0.9351
11.3592 12.0996 -2.3515 0.9352
11.1135 12.3241 -2.3513 0.9352
10.8634 12.5437 -2.3512 0.9352
7.1128 9.6840 -1.7025 0.9526
6.8407 9.7161 -1.6836 0.9531
6.6604 9.8750 -1.6877 0.9530
6.5469 10.1395 -1.7101 0.9524
8.3758 13.5613 -2.2584 0.9376
8.0346 13.6122 -2.2396 0.9381
7.7010 13.6659 -2.2226 0.9386
6.0002 11.1657 -1.7960 0.9501
6.9816 13.6411 -2.1712 0.9400
5.1263 13.9265 -2.1027 0.9418
4.8466 14.0283 -2.1029 0.9418
3.9209 14.0320 -2.0643 0.9428
3.0537 14.1668 -2.0534 0.9431
2.1477 14.0082 -2.0080 0.9444
1.5983 14.2080 -2.0258 0.9439
1.0161 14.1065 -2.0039 0.9445
0.7365 14.1902 -2.0133 0.9442
0.4532 14.2501 -2.0201 0.9440
0.1665 14.1872 -2.0103 0.9443
-0.4006 14.1150 -2.0008 0.9445
-0.6864 14.1606 -2.0088 0.9443
-0.9653 14.0720 -1.9985 0.9446
-1.5217 13.9561 -1.9891 0.9449
-2.0973 13.9986 -2.0056 0.9444
-2.3857 14.0010 -2.0124 0.9442
-2.6606 13.9221 -2.0083 0.9443
-2.9613 13.9698 -2.0234 0.9439
-3.2530 13.9594 -2.0309 0.9437
-4.1351 13.9018 -2.0550 0.9431
-4.4466 13.9209 -2.0706 0.9427
-4.7585 13.9272 -2.0853 0.9423
-5.7246 13.9503 -2.1366 0.9409
-6.3983 13.9690 -2.1770 0.9398
-6.7043 13.8941 -2.1858 0.9396
-8.1825 13.9716 -2.2941 0.9367
-8.5423 13.9373 -2.3162 0.9361
-9.1985 13.7391 -2.3427 0.9354
-9.4699 13.5485 -2.3421 0.9354
-9.7394 13.3554 -2.3421 0.9354
-10.7772 12.5305 -2.3418 0.9354
-11.9762 11.3874 -2.3415 0.9354
-11.6587 10.2272 -2.1974 0.9393
-11.5062 8.9284 -2.0636 0.9429
-11.4593 8.5294 -2.0241 0.9439
-12.1251 8.2906 -2.0812 0.9424
-12.5812 8.2371 -2.1307 0.9411
-14.6610 7.6215 -2.3412 0.9354
-14.8110 7.3260 -2.3412 0.9354
-14.9549 7.0275 -2.3412 0.9354
-15.3798 6.4875 -2.3651 0.9348
-16.4330 6.1678 -2.4870 0.9315
-16.8165 5.1815 -2.4933 0.9314
-17.0113 4.5030 -2.4933 0.9314
-17.1788 3.8173 -2.4934 0.9314
-17.2522 3.4721 -2.4935 0.9314
-17.3187 3.1255 -2.4935 0.9314
-17.4309 2.4285 -2.4936 0.9314
-17.5152 1.7276 -2.4938 0.9314
-17.5468 1.3760 -2.4938 0.9314
-17.5889 0.6713 -2.4940 0.9314
-17.5993 0.3184 -2.4940 0.9314
-17.5991 -0.3877 -2.4942 0.9314
-17.5706 -1.0932 -2.4944 0.9313
-17.5458 -1.4454 -2.4945 0.9313
-17.5140 -1.7971 -2.4946 0.9313
-17.4751 -2.1481 -2.4947 0.9313
-17.4292 -2.4982 -2.4948 0.9313
-17.3763 -2.8474 -2.4949 0.9313
-17.3164 -3.1954 -2.4950 0.9313
-17.2496 -3.5422 -2.4951 0.9313
-17.0952 -4.2315 -2.4953 0.9313
-17.0077 -4.5738 -2.4954 0.9313
-16.9134 -4.9142 -2.4955 0.9313
-16.8123 -5.2527 -2.4957 0.9313
-16.7044 -5.5891 -2.4958 0.9313
-16.4685 -6.2551 -2.4961 0.9313
-16.3406 -6.5845 -2.4962 0.9313
-16.2061 -6.9112 -2.4963 0.9313
-16.0651 -7.2353 -2.4965 0.9313
-15.7638 -7.8746 -2.4967 0.9313
-15.4371 -8.5014 -2.4970 0.9313
-15.0855 -9.1147 -2.4973 0.9313
-14.9005 -9.4160 -2.4975 0.9313
-14.7096 -9.7135 -2.4976 0.9313
-14.5127 -10.0072 -2.4978 0.9313
-13.8873 -10.8638 -2.4982 0.9312
-13.4422 -11.4135 -2.4986 0.9312
-13.2114 -11.6815 -2.4987 0.9312
-12.9695 -11.9396 -2.4978 0.9313
-12.7037 -12.1746 -2.4931 0.9314
-11.6346 -12.0816 -2.3765 0.9345
-10.2417 -13.0269 -2.3479 0.9352
-9.9790 -13.2306 -2.3481 0.9352
-9.7124 -13.4290 -2.3482 0.9352
-8.8891 -13.9917 -2.3487 0.9352
-8.6073 -14.1681 -2.3489 0.9352
-7.7413 -14.6631 -2.3494 0.9352
-7.4462 -14.8165 -2.3495 0.9352
14.7261 3.8443 -2.5073 0.9402
14.6454 4.1387 -2.5072 0.9402
14.5588 4.4314 -2.5071 0.9402
14.2641 5.2982 -2.5067 0.9402
14.1544 5.5829 -2.5066 0.9402
14.0389 5.8654 -2.5065 0.9402
13.7838 6.4197 -2.5049 0.9402
13.6299 6.6839 -2.5008 0.9403
12.8723 6.9662 -2.4112 0.9424
12.1295 7.5407 -2.3529 0.9437
11.9753 7.7821 -2.3528 0.9437
11.8162 8.0203 -2.3526 0.9438
11.6523 8.2552 -2.3525 0.9438
11.4838 8.4868 -2.3524 0.9438
11.3106 8.7149 -2.3523 0.9438
11.1330 8.9395 -2.3521 0.9438
9.3697 8.1628 -2.0472 0.9509
10.5735 9.5912 -2.3517 0.9438
10.3784 9.8008 -2.3516 0.9438
10.1792 10.0064 -2.3515 0.9438
9.9759 10.2079 -2.3513 0.9438
7.9980 8.8693 -1.9675 0.9527
7.6960 8.8864 -1.9366 0.9535
6.8918 8.9991 -1.8673 0.9551
6.6321 9.0295 -1.8457 0.9556
6.3783 9.0593 -1.8252 0.9561
6.1299 9.0885 -1.8060 0.9565
5.8193 9.4222 -1.8244 0.9561
5.8833 9.9675 -1.9067 0.9542
5.9533 10.5646 -1.9977 0.9520
6.0304 11.2218 -2.0987 0.9497
6.4971 12.6944 -2.3492 0.9438
6.2408 12.8214 -2.3491 0.9438
5.7209 13.0598 -2.3488 0.9438
5.1920 13.2771 -2.3485 0.9438
4.9243 13.3778 -2.3484 0.9438
4.6548 13.4731 -2.3483 0.9439
4.3834 13.5629 -2.3481 0.9439
4.1102 13.6473 -2.3480 0.9439
3.5592 13.7995 -2.3477 0.9439
2.4413 14.0371 -2.3472 0.9439
1.3083 14.1859 -2.3469 0.9439
0.7383 14.2263 -2.3468 0.9439
-0.1185 14.2432 -2.3465 0.9439
-0.4041 14.2371 -2.3463 0.9439
-0.6895 14.2250 -2.3462 0.9439
-0.9723 14.1748 -2.3406 0.9440
-1.2540 14.1253 -2.3361 0.9441
-1.5234 13.9717 -2.3153 0.9446
-2.3911 14.0329 -2.3451 0.9439
-2.6720 13.9814 -2.3450 0.9439
-2.9517 13.9244 -2.3449 0.9439
-4.3300 13.5559 -2.3444 0.9439
-4.8698 13.3703 -2.3442 0.9439
-5.1367 13.2694 -2.3441 0.9439
-5.9247 12.9350 -2.3438 0.9440
-6.6911 12.5541 -2.3436 0.9440
-7.9132 11.8192 -2.3432 0.9440
-8.1484 11.6578 -2.3431 0.9440
-8.3803 11.4918 -2.3431 0.9440
-9.0556 10.9662 -2.3429 0.9440
-9.2735 10.7822 -2.3428 0.9440
-9.4876 10.5938 -2.3428 0.9440
-10.1069 10.0035 -2.3427 0.9440
-10.6897 9.3772 -2.3426 0.9440
-10.8755 9.1608 -2.3425 0.9440
-11.0569 8.9408 -2.3425 0.9440
-10.6883 7.6272 -2.1631 0.9482
-12.1986 7.3051 -2.3424 0.9440
-12.3426 7.0590 -2.3424 0.9440
-12.7443 6.9533 -2.3916 0.9428
-13.2052 6.8647 -2.4518 0.9414
-13.8299 6.1633 -2.4943 0.9405
-14.0661 5.6038 -2.4944 0.9405
-14.2797 5.0353 -2.4944 0.9405
-14.3780 4.7479 -2.4944 0.9405
-14.5572 4.1675 -2.4945 0.9405
-14.6380 3.8748 -2.4945 0.9405
-14.7130 3.5805 -2.4945 0.9405
-14.7821 3.2848 -2.4946 0.9405
-14.8452 2.9877 -2.4946 0.9405
-14.9536 2.3900 -2.4947 0.9405
-14.9988 2.0897 -2.4948 0.9405
-15.0381 1.7885 -2.4948 0.9405
-15.0712 1.4866 -2.4949 0.9405
-15.0984 1.1840 -2.4949 0.9405
-15.1345 0.5776 -2.4951 0.9404
-15.1434 0.2740 -2.4951 0.9404
-15.1463 -0.0298 -2.4952 0.9404
-15.1338 -0.6372 -2.4953 0.9404
-15.1184 -0.9406 -2.4954 0.9404
-15.0970 -1.2437 -2.4955 0.9404
-15.0695 -1.5463 -2.4956 0.9404
-14.9964 -2.1495 -2.4957 0.9404
-14.9508 -2.4499 -2.4958 0.9404
-14.8992 -2.7494 -2.4959 0.9404
-14.6332 -3.9352 -2.4963 0.9404
-14.2732 -5.0962 -2.4967 0.9404
-14.1688 -5.3816 -2.4968 0.9404
-14.0586 -5.6650 -2.4970 0.9404
-13.9428 -5.9461 -2.4971 0.9404
-13.8214 -6.2248 -2.4972 0.9404
-13.4240 -7.0457 -2.4976 0.9404
-13.2807 -7.3138 -2.4977 0.9404
-13.1320 -7.5791 -2.4978 0.9404
-12.9780 -7.8414 -2.4979 0.9404
-12.4849 -8.6089 -2.4983 0.9404
-11.9466 -9.3456 -2.4987 0.9404
-11.7574 -9.5839 -2.4989 0.9404
-11.5634 -9.8183 -2.4990 0.9404
-11.3648 -10.0488 -2.4991 0.9404
-10.9539 -10.4977 -2.4994 0.9403
-10.7418 -10.7159 -2.4996 0.9403
-10.3046 -11.1393 -2.4999 0.9403
-10.0784 -11.3429 -2.4997 0.9403
-9.5841 -11.6997 -2.4915 0.9405
-9.1544 -11.6440 -2.4401 0.9417
-8.3544 -11.5514 -2.3485 0.9438
-7.8850 -11.8780 -2.3487 0.9438
-6.9093 -12.4746 -2.3492 0.9438
-6.1478 -12.8699 -2.3497 0.9438
12.9032 3.3685 -2.5066 0.9472
12.8326 3.6264 -2.5065 0.9472
12.7568 3.8829 -2.5064 0.9472
12.6759 4.1378 -2.5063 0.9472
12.5899 4.3911 -2.5062 0.9472
12.4988 4.6425 -2.5061 0.9472
12.3016 5.1396 -2.5059 0.9472
11.8481 6.1079 -2.5055 0.9472
11.7228 6.3440 -2.5054 0.9472
11.4507 6.8042 -2.5036 0.9472
11.0991 7.2127 -2.4880 0.9476
10.0634 7.4371 -2.3520 0.9503
9.2660 8.4052 -2.3514 0.9504
8.7425 8.9459 -2.3511 0.9504
8.5609 9.1189 -2.3510 0.9504
7.9087 8.7702 -2.2197 0.9531
7.6587 8.8434 -2.1989 0.9535
7.1578 8.9679 -2.1567 0.9544
6.6322 9.0296 -2.1058 0.9554
6.1300 9.0885 -2.0605 0.9564
5.8867 9.1171 -2.0398 0.9568
5.8901 10.9607 -2.3388 0.9506
5.2431 11.3444 -2.3490 0.9504
4.7834 11.5443 -2.3488 0.9504
4.5507 11.6373 -2.3486 0.9504
3.3619 12.0313 -2.3480 0.9504
3.1197 12.0957 -2.3479 0.9504
2.8764 12.1552 -2.3478 0.9504
2.1399 12.3043 -2.3474 0.9504
1.6446 12.3790 -2.3472 0.9504
1.3959 12.4089 -2.3471 0.9504
0.3969 12.4785 -2.3467 0.9505
0.1465 12.4834 -2.3465 0.9505
-0.3542 12.4780 -2.3463 0.9505
-0.6043 12.4678 -2.3462 0.9505
-0.8542 12.4527 -2.3461 0.9505
-1.1037 12.4325 -2.3460 0.9505
-1.8491 12.3420 -2.3457 0.9505
-2.0962 12.3019 -2.3456 0.9505
-2.3424 12.2569 -2.3455 0.9505
-2.8318 12.1521 -2.3453 0.9505
-3.0749 12.0924 -2.3452 0.9505
-3.3166 12.0279 -2.3451 0.9505
-4.0335 11.8054 -2.3449 0.9505
-4.2693 11.7216 -2.3448 0.9505
-4.7356 11.5402 -2.3446 0.9505
-4.9659 11.4425 -2.3446 0.9505
-5.6445 11.1222 -2.3443 0.9505
-6.3026 10.7617 -2.3441 0.9505
-6.7287 10.4997 -2.3440 0.9505
-6.9378 10.3624 -2.3440 0.9505
-7.3474 10.0753 -2.3438 0.9505
-7.5478 9.9257 -2.3438 0.9505
-7.7452 9.7721 -2.3437 0.9505
-7.9395 9.6146 -2.3437 0.9505
-8.1306 9.4533 -2.3436 0.9505
-8.3183 9.2882 -2.3436 0.9505
-8.5028 9.1193 -2.3436 0.9505
-8.6838 8.9468 -2.3435 0.9505
-8.8614 8.7707 -2.3435 0.9505
-9.2057 8.4081 -2.3434 0.9505
-9.3724 8.2216 -2.3434 0.9505
-9.5353 8.0319 -2.3434 0.9505
-9.8495 7.6429 -2.3433 0.9505
-10.0008 7.4437 -2.3433 0.9505
-10.6163 7.2589 -2.4173 0.9490
-10.9950 7.1986 -2.4702 0.9479
-11.2260 7.0323 -2.4899 0.9475
-11.8992 5.8857 -2.4952 0.9474
-12.1257 5.4038 -2.4952 0.9474
-12.2317 5.1596 -2.4953 0.9474
-12.3328 4.9132 -2.4953 0.9474
-12.4289 4.6649 -2.4953 0.9474
-12.9604 2.8800 -2.4955 0.9474
-13.0157 2.6195 -2.4955 0.9474
-13.1504 1.8321 -2.4956 0.9474
-13.1847 1.5681 -2.4957 0.9474
-13.2137 1.3033 -2.4957 0.9474
-13.2375 1.0381 -2.4958 0.9474
-13.2559 0.7724 -2.4958 0.9474
-13.2683 -0.5587 -2.4961 0.9474
-13.2359 -1.0904 -2.4963 0.9474
-13.1476 -1.8845 -2.4965 0.9474
-13.0622 -2.4104 -2.4966 0.9474
-13.0117 -2.6720 -2.4967 0.9474
-12.5995 -4.2156 -2.4973 0.9474
-12.5129 -4.4677 -2.4974 0.9474
-12.4213 -4.7179 -2.4975 0.9474
-11.8890 -5.9390 -2.4980 0.9473
-11.7680 -6.1765 -2.4981 0.9473
-11.0929 -7.3253 -2.4986 0.9473
-10.9443 -7.5466 -2.4987 0.9473
-10.7913 -7.7650 -2.4989 0.9473
-10.4722 -8.1923 -2.4991 0.9473
-10.1362 -8.6065 -2.4993 0.9473
-9.7839 -9.0069 -2.4996 0.9473
-9.6017 -9.2018 -2.4997 0.9473
-9.0324 -9.7640 -2.5001 0.9473
-8.8352 -9.9437 -2.5002 0.9473
-8.6344 -10.1194 -2.5003 0.9473
-8.4302 -10.2911 -2.5005 0.9473
-8.2225 -10.4586 -2.5006 0.9473
-8.0115 -10.6220 -2.5007 0.9473
-7.7973 -10.7811 -2.5009 0.9473
-7.3524 -11.0758 -2.4988 0.9473
-6.8859 -11.3346 -2.4928 0.9475
-6.2458 -11.2766 -2.4230 0.9489
-5.6442 -11.2308 -2.3625 0.9501
-5.3882 -11.2797 -2.3496 0.9504
11.4085 3.2240 -2.5060 0.9527
11.3412 3.4520 -2.5059 0.9527
11.2693 3.6787 -2.5058 0.9527
11.1119 4.1273 -2.5056 0.9527
11.0265 4.3492 -2.5055 0.9527
10.9367 4.5693 -2.5054 0.9527
10.8424 4.7876 -2.5054 0.9527
10.7438 5.0039 -2.5053 0.9527
10.6409 5.2181 -2.5052 0.9527
10.5337 5.4303 -2.5051 0.9527
10.4223 5.6403 -2.5050 0.9527
10.1869 6.0532 -2.5048 0.9527
9.9352 6.4563 -2.5046 0.9527
9.6675 6.8490 -2.5044 0.9527
9.5227 7.0375 -2.5029 0.9527
8.3389 7.5642 -2.3798 0.9550
7.9316 7.7969 -2.3510 0.9555
7.6119 8.1080 -2.3508 0.9556
7.2799 8.4060 -2.3506 0.9556
7.1095 8.5499 -2.3505 0.9556
6.3071 8.9582 -2.3158 0.9562
6.0615 8.9870 -2.2914 0.9566
5.8209 9.0152 -2.2684 0.9571
5.6838 9.2027 -2.2864 0.9567
4.8639 9.9926 -2.3492 0.9556
3.6281 10.5013 -2.3485 0.9556
3.2037 10.6374 -2.3483 0.9556
2.9896 10.6990 -2.3482 0.9556
2.1222 10.9022 -2.3478 0.9556
1.9030 10.9421 -2.3477 0.9556
1.6831 10.9776 -2.3476 0.9556
0.7978 11.0753 -2.3471 0.9556
0.5755 11.0885 -2.3470 0.9556
0.3530 11.0974 -2.3470 0.9556
-0.5374 11.0881 -2.3466 0.9556
-0.7597 11.0747 -2.3465 0.9556
-2.3014 10.8566 -2.3459 0.9556
-4.6198 10.0862 -2.3450 0.9557
-5.2176 9.7893 -2.3448 0.9557
-5.4127 9.6825 -2.3448 0.9557
-5.6057 9.5717 -2.3447 0.9557
-5.7964 9.4571 -2.3447 0.9557
-6.1707 9.2167 -2.3446 0.9557
-6.3542 9.0909 -2.3445 0.9557
-6.5351 8.9614 -2.3445 0.9557
-7.0617 8.5517 -2.3443 0.9557
-7.2317 8.4082 -2.3443 0.9557
-7.5628 8.1112 -2.3442 0.9557
-8.0366 7.6414 -2.3441 0.9557
-8.5616 7.5104 -2.4074 0.9545
-8.8655 7.4677 -2.4502 0.9537
-9.6118 6.8590 -2.4960 0.9529
-9.8790 6.4679 -2.4960 0.9529
-10.3655 5.6554 -2.4960 0.9529
-10.5839 5.2351 -2.4960 0.9529
-10.6868 5.0218 -2.4960 0.9529
-10.7854 4.8065 -2.4960 0.9529
-10.9696 4.3701 -2.4960 0.9529
-11.2128 3.7027 -2.4960 0.9529
-11.2849 3.4771 -2.4961 0.9529
-11.4155 3.0218 -2.4961 0.9529
-11.4739 2.7922 -2.4961 0.9529
-11.5277 2.5616 -2.4962 0.9529
-11.6215 2.0973 -2.4962 0.9529
-11.6614 1.8638 -2.4963 0.9529
-11.6966 1.6296 -2.4963 0.9529
-11.7271 1.3947 -2.4963 0.9529
-11.7740 0.9233 -2.4964 0.9529
-11.8020 0.4504 -2.4965 0.9529
-11.8012 -0.4969 -2.4967 0.9529
-11.7892 -0.7335 -2.4968 0.9529
-11.6937 -1.6761 -2.4971 0.9529
-11.6580 -1.9104 -2.4971 0.9528
-11.6177 -2.1439 -2.4972 0.9528
-11.5727 -2.3765 -2.4973 0.9528
-11.4099 -3.0684 -2.4975 0.9528
-11.1288 -3.9735 -2.4978 0.9528
-11.0472 -4.1960 -2.4979 0.9528
-10.9612 -4.4169 -2.4980 0.9528
-10.7761 -4.8532 -2.4982 0.9528
-10.6769 -5.0686 -2.4983 0.9528
-10.5736 -5.2819 -2.4984 0.9528
-10.4659 -5.4931 -2.4985 0.9528
-10.2380 -5.9089 -2.4987 0.9528
-9.9936 -6.3152 -2.4989 0.9528
-9.8653 -6.5146 -2.4990 0.9528
-9.5969 -6.9056 -2.4992 0.9528
-9.3130 -7.2855 -2.4994 0.9528
-9.1654 -7.4711 -2.4995 0.9528
-9.0142 -7.6538 -2.4996 0.9528
-8.7007 -8.0098 -2.4998 0.9528
-8.5387 -8.1831 -2.4999 0.9528
-8.0323 -8.6829 -2.5003 0.9528
-7.8569 -8.8426 -2.5004 0.9528
-7.6783 -8.9988 -2.5005 0.9528
-7.1242 -9.4456 -2.5008 0.9528
-6.9337 -9.5870 -2.5010 0.9528
-6.5442 -9.8583 -2.5012 0.9528
-6.3455 -9.9880 -2.5013 0.9528
-6.1442 -10.1137 -2.5014 0.9528
-5.9404 -10.2354 -2.5015 0.9528
-5.7342 -10.3529 -2.5017 0.9528
-5.3149 -10.5755 -2.5019 0.9528
-5.1019 -10.6805 -2.5020 0.9528
10.2591 2.8992 -2.5055 0.9571
10.1985 3.1042 -2.5055 0.9571
10.0652 3.5105 -2.5053 0.9571
9.9925 3.7116 -2.5052 0.9571
9.7503 4.3053 -2.5050 0.9571
9.5691 4.6925 -2.5048 0.9572
9.3726 5.0722 -2.5047 0.9572
8.8161 5.9840 -2.5042 0.9572
8.6940 6.1594 -2.5041 0.9572
8.4394 6.5026 -2.5039 0.9572
8.1712 6.8353 -2.5037 0.9572
7.8887 7.1558 -2.5032 0.9572
7.7362 7.3056 -2.5008 0.9572
7.5810 7.4523 -2.4984 0.9573
7.4233 7.5960 -2.4962 0.9573
6.9315 7.6865 -2.4325 0.9584
6.4332 7.7365 -2.3647 0.9595
6.2383 7.8158 -2.3503 0.9597
6.0800 7.9390 -2.3502 0.9597
5.7563 8.1758 -2.3500 0.9597
5.4233 8.3993 -2.3498 0.9598
5.0817 8.6093 -2.3496 0.9598
4.9078 8.7092 -2.3495 0.9598
4.5542 8.8982 -2.3493 0.9598
4.1933 9.0729 -2.3491 0.9598
3.4521 9.3783 -2.3487 0.9598
2.4953 9.6748 -2.3482 0.9598
2.3007 9.7225 -2.3481 0.9598
1.9088 9.8061 -2.3479 0.9598
1.7117 9.8421 -2.3478 0.9598
1.5139 9.8740 -2.3477 0.9598
1.3155 9.9020 -2.3476 0.9598
0.7176 9.9620 -2.3474 0.9598
-0.4834 9.9739 -2.3468 0.9598
-0.6833 9.9618 -2.3468 0.9598
-1.0822 9.9257 -2.3466 0.9598
-1.2810 9.9017 -2.3465 0.9598
-2.0702 9.7659 -2.3462 0.9598
-2.2655 9.7221 -2.3461 0.9598
-4.1559 9.0732 -2.3455 0.9598
-4.3369 8.9878 -2.3454 0.9598
-4.5161 8.8988 -2.3453 0.9598
-4.6936 8.8062 -2.3453 0.9598
-5.0427 8.6105 -2.3452 0.9598
-5.2143 8.5075 -2.3451 0.9598
-5.3838 8.4010 -2.3451 0.9598
-5.7161 8.1780 -2.3450 0.9598
-6.1972 7.8191 -2.3449 0.9598
-6.8720 7.6732 -2.4209 0.9586
-7.3772 7.6006 -2.4894 0.9574
-7.6894 7.3113 -2.4937 0.9573
-7.8415 7.1620 -2.4959 0.9573
-7.9859 7.0054 -2.4967 0.9573
-8.1247 6.8437 -2.4967 0.9573
-8.5214 6.3426 -2.4966 0.9573
-8.6468 6.1704 -2.4966 0.9573
-8.7688 5.9957 -2.4966 0.9573
-9.2210 5.2737 -2.4965 0.9573
-9.3249 5.0877 -2.4965 0.9573
-9.5214 4.7096 -2.4965 0.9573
-9.7027 4.3240 -2.4965 0.9573
-9.8683 3.9314 -2.4966 0.9573
-9.9453 3.7327 -2.4966 0.9573
-10.0182 3.5325 -2.4966 0.9573
-10.0871 3.3309 -2.4966 0.9573
-10.2127 2.9238 -2.4967 0.9573
-10.2694 2.7184 -2.4967 0.9573
-10.3219 2.5119 -2.4967 0.9573
-10.3704 2.3044 -2.4967 0.9573
-10.5222 1.4660 -2.4969 0.9573
-10.5497 1.2547 -2.4969 0.9573
-10.5729 1.0429 -2.4969 0.9573
-10.6170 0.4052 -2.4971 0.9573
-10.6228 -0.2340 -2.4972 0.9573
-10.6162 -0.4470 -2.4973 0.9573
-10.5901 -0.8724 -2.4974 0.9573
-10.5193 -1.5078 -2.4975 0.9573
-10.4872 -1.7185 -2.4976 0.9573
-10.4509 -1.9285 -2.4977 0.9573
-10.4104 -2.1378 -2.4977 0.9573
-10.3657 -2.3462 -2.4978 0.9573
-10.3168 -2.5537 -2.4979 0.9573
-10.1455 -3.1698 -2.4981 0.9573
-10.0802 -3.3727 -2.4982 0.9573
-10.0108 -3.5743 -2.4982 0.9573
-9.8600 -3.9731 -2.4984 0.9573
-9.7787 -4.1702 -2.4985 0.9573
-9.4143 -4.9412 -2.4988 0.9573
-9.2092 -5.3151 -2.4990 0.9573
-8.8739 -5.8599 -2.4993 0.9572
-8.7549 -6.0369 -2.4993 0.9572
-8.6324 -6.2115 -2.4994 0.9572
-8.5064 -6.3836 -2.4995 0.9572
-8.2442 -6.7201 -2.4997 0.9572
-8.1080 -6.8844 -2.4998 0.9572
-7.6803 -7.3604 -2.5001 0.9572
-7.5314 -7.5132 -2.5002 0.9572
-7.2246 -7.8098 -2.5004 0.9572
-7.0669 -7.9535 -2.5005 0.9572
-6.7428 -8.2312 -2.5007 0.9572
-6.5766 -8.3651 -2.5008 0.9572
-6.4078 -8.4957 -2.5009 0.9572
-6.0624 -8.7465 -2.5011 0.9572
-5.8860 -8.8667 -2.5012 0.9572
-5.3428 -9.2058 -2.5016 0.9572
-5.1573 -9.3115 -2.5017 0.9572
-4.5887 -9.6060 -2.5020 0.9572
9.3621 2.4440 -2.5053 0.9608
9.1351 3.1862 -2.5050 0.9608
8.9263 3.7294 -2.5048 0.9608
8.8494 3.9075 -2.5047 0.9608
8.6850 4.2590 -2.5045 0.9608
8.5976 4.4322 -2.5045 0.9608
8.4124 4.7731 -2.5043 0.9608
8.3147 4.9407 -2.5042 0.9608
8.1094 5.2699 -2.5041 0.9608
7.7770 5.7474 -2.5038 0.9608
7.6599 5.9020 -2.5037 0.9608
7.1613 6.4960 -2.5034 0.9608
7.0293 6.6381 -2.5033 0.9608
6.6167 7.0480 -2.5030 0.9608
6.4737 7.1790 -2.5029 0.9608
6.1742 7.4250 -2.5003 0.9609
6.0195 7.5417 -2.4984 0.9609
5.0522 7.8246 -2.4115 0.9622
4.6375 7.8569 -2.3622 0.9630
4.4548 7.9054 -2.3495 0.9632
4.1339 8.0771 -2.3493 0.9632
3.9709 8.1580 -2.3492 0.9632
3.8064 8.2357 -2.3491 0.9632
3.6403 8.3101 -2.3490 0.9632
3.4728 8.3811 -2.3489 0.9632
3.1336 8.5130 -2.3488 0.9632
2.9621 8.5738 -2.3487 0.9632
2.7895 8.6312 -2.3486 0.9632
2.6157 8.6851 -2.3485 0.9632
2.2652 8.7823 -2.3483 0.9632
2.0885 8.8257 -2.3482 0.9632
0.8327 9.0288 -2.3476 0.9632
0.4699 9.0543 -2.3475 0.9632
0.2882 9.0616 -2.3474 0.9632
-0.0754 9.0652 -2.3472 0.9632
-0.2572 9.0616 -2.3472 0.9632
-0.8016 9.0289 -2.3469 0.9632
-0.9824 9.0107 -2.3469 0.9632
-1.1629 8.9889 -2.3468 0.9632
-1.3429 8.9635 -2.3467 0.9632
-1.5224 8.9345 -2.3466 0.9632
-1.7012 8.9019 -2.3466 0.9632
-1.8793 8.8657 -2.3465 0.9632
-2.0567 8.8260 -2.3464 0.9632
-2.4089 8.7359 -2.3463 0.9632
-2.9296 8.5745 -2.3461 0.9633
-3.1009 8.5138 -2.3460 0.9633
-3.2710 8.4497 -2.3460 0.9633
-3.4397 8.3822 -2.3459 0.9633
-3.7729 8.2371 -2.3458 0.9633
-4.2611 7.9948 -2.3457 0.9633
-5.2208 7.7979 -2.4297 0.9620
-5.6556 7.7554 -2.4852 0.9611
-5.9805 7.5456 -2.4929 0.9610
-6.1349 7.4293 -2.4946 0.9610
-6.2871 7.3100 -2.4964 0.9609
-6.5774 7.0544 -2.4973 0.9609
-6.9895 6.6458 -2.4972 0.9609
-7.3763 6.2133 -2.4971 0.9609
-7.4994 6.0641 -2.4971 0.9609
-7.7364 5.7584 -2.4971 0.9609
-7.8503 5.6020 -2.4971 0.9609
-8.0686 5.2827 -2.4970 0.9609
-8.1729 5.1198 -2.4970 0.9609
-8.3716 4.7879 -2.4970 0.9609
-8.6444 4.2758 -2.4970 0.9609
-8.7284 4.1016 -2.4970 0.9609
-8.9593 3.5693 -2.4970 0.9609
-9.2168 2.8399 -2.4971 0.9609
-9.3234 2.4680 -2.4971 0.9609
-9.4150 2.0921 -2.4972 0.9609
-9.4916 1.7129 -2.4972 0.9609
-9.5241 1.5222 -2.4973 0.9609
-9.5529 1.3309 -2.4973 0.9609
-9.5778 1.1391 -2.4973 0.9609
-9.6444 0.1745 -2.4975 0.9609
-9.6281 -0.5990 -2.4977 0.9609
-9.5968 -0.9847 -2.4978 0.9609
-9.5753 -1.1770 -2.4979 0.9609
-9.5500 -1.3688 -2.4979 0.9609
-9.5208 -1.5601 -2.4980 0.9609
-9.3660 -2.3184 -2.4982 0.9609
-9.3179 -2.5058 -2.4983 0.9609
-9.2660 -2.6922 -2.4984 0.9609
-9.2104 -2.8776 -2.4984 0.9609
-9.1511 -3.0618 -2.4985 0.9609
-9.0881 -3.2449 -2.4986 0.9609
-8.7998 -3.9632 -2.4989 0.9609
-8.6344 -4.3132 -2.4990 0.9609
-8.4550 -4.6563 -2.4992 0.9609
-8.1605 -5.1568 -2.4994 0.9609
-7.9476 -5.4803 -2.4996 0.9609
-7.8364 -5.6388 -2.4997 0.9609
-7.6045 -5.9489 -2.4998 0.9609
-7.3603 -6.2495 -2.5000 0.9609
-7.2337 -6.3961 -2.5001 0.9609
-6.6988 -6.9562 -2.5005 0.9609
-6.5582 -7.0895 -2.5005 0.9609
-6.4150 -7.2198 -2.5006 0.9609
-6.2691 -7.3473 -2.5007 0.9609
-6.1207 -7.4718 -2.5008 0.9609
-5.9698 -7.5934 -2.5009 0.9609
-5.6609 -7.8273 -2.5011 0.9609
-5.3429 -8.0486 -2.5013 0.9609
-5.1806 -8.1545 -2.5014 0.9609
-5.0162 -8.2570 -2.5015 0.9609
-4.5111 -8.5447 -2.5018 0.9609
-4.3390 -8.6338 -2.5019 0.9609
8.5616 2.2351 -2.5050 0.9639
8.2938 3.0806 -2.5046 0.9639
8.2301 3.2462 -2.5046 0.9639
7.9426 3.8949 -2.5043 0.9639
7.7796 4.2101 -2.5042 0.9639
7.6934 4.3651 -2.5041 0.9639
7.6040 4.5184 -2.5040 0.9639
7.5117 4.6699 -2.5039 0.9639
7.4163 4.8194 -2.5039 0.9639
7.3179 4.9671 -2.5038 0.9639
7.1124 5.2562 -2.5036 0.9639
7.0053 5.3976 -2.5036 0.9639
6.7828 5.6738 -2.5034 0.9639
6.6674 5.8086 -2.5033 0.9639
6.4287 6.0709 -2.5031 0.9639
6.3054 6.1984 -2.5031 0.9639
6.1796 6.3234 -2.5030 0.9639
5.9207 6.5657 -2.5028 0.9639
5.6522 6.7974 -2.5026 0.9639
5.5146 6.9091 -2.5026 0.9639
5.2327 7.1242 -2.5024 0.9639
5.0886 7.2275 -2.5023 0.9639
4.1731 7.7657 -2.4957 0.9640
4.0145 7.8438 -2.4945 0.9640
3.8351 7.8790 -2.4807 0.9642
3.6465 7.8897 -2.4605 0.9645
3.2776 7.9102 -2.4239 0.9650
2.5685 7.9475 -2.3645 0.9659
2.0718 8.0326 -2.3484 0.9661
1.9102 8.0723 -2.3483 0.9661
1.7479 8.1087 -2.3482 0.9661
1.4212 8.1717 -2.3481 0.9661
1.2570 8.1983 -2.3480 0.9661
0.7616 8.2583 -2.3478 0.9661
0.5958 8.2716 -2.3477 0.9661
0.4298 8.2817 -2.3476 0.9661
0.0973 8.2917 -2.3475 0.9661
-0.2353 8.2884 -2.3473 0.9661
-0.4014 8.2818 -2.3473 0.9661
-0.7332 8.2586 -2.3471 0.9661
-0.8986 8.2420 -2.3471 0.9661
-1.2284 8.1988 -2.3469 0.9661
-1.3925 8.1723 -2.3469 0.9661
-1.5561 8.1425 -2.3468 0.9661
-1.7190 8.1094 -2.3467 0.9661
-1.8813 8.0731 -2.3467 0.9661
-2.0428 8.0336 -2.3466 0.9661
-2.5366 7.9414 -2.3600 0.9659
-2.7102 7.9324 -2.3730 0.9658
-2.8857 7.9230 -2.3871 0.9656
-3.4256 7.8933 -2.4359 0.9649
-3.7980 7.8710 -2.4741 0.9643
-3.9818 7.8459 -2.4908 0.9641
-4.1402 7.7680 -2.4919 0.9641
-4.2972 7.6870 -2.4931 0.9641
-4.9090 7.3321 -2.4979 0.9640
-5.1989 7.1292 -2.4979 0.9640
-5.3407 7.0233 -2.4978 0.9640
-5.4804 6.9147 -2.4978 0.9640
-5.7532 6.6892 -2.4977 0.9640
