ply
format ascii 1.0
element vertex 1592
property float32 x
property float32 y
property float32 z
property float32 I
end_header
-1.2218 12.4263 -2.3469 0.9505
-1.7198 12.3661 -2.3467 0.9505
-1.9677 12.3285 -2.3466 0.9505
-2.4610 12.2384 -2.3464 0.9505
-3.1931 12.0665 -2.3461 0.9505
-3.6749 11.9275 -2.3459 0.9505
-3.9135 11.8508 -2.3458 0.9505
-4.1506 11.7693 -2.3457 0.9505
-4.3860 11.6831 -2.3456 0.9505
-4.6195 11.5922 -2.3455 0.9505
-4.8513 11.4967 -2.3454 0.9505
-5.3087 11.2917 -2.3453 0.9505
-5.7574 11.0686 -2.3451 0.9505
-5.9784 10.9503 -2.3450 0.9505
-6.8370 10.4338 -2.3447 0.9505
-7.0450 10.2941 -2.3446 0.9505
-7.4523 10.0022 -2.3445 0.9505
-7.6514 9.8502 -2.3444 0.9505
-8.0404 9.5345 -2.3443 0.9505
-8.2301 9.3708 -2.3442 0.9505
-8.4164 9.2034 -2.3442 0.9505
-8.7788 8.8575 -2.3440 0.9505
-9.1270 8.4974 -2.3439 0.9505
-9.6216 7.9319 -2.3438 0.9505
-9.9321 7.5388 -2.3437 0.9505
-10.7224 7.1638 -2.4238 0.9489
-11.1368 7.1213 -2.4847 0.9476
-11.5959 6.4659 -2.4955 0.9474
-11.8460 5.9948 -2.4955 0.9474
-11.9639 5.7557 -2.4954 0.9474
-12.1853 5.2704 -2.4954 0.9474
-12.3870 4.7768 -2.4954 0.9474
-12.5688 4.2754 -2.4954 0.9474
-12.7303 3.7672 -2.4954 0.9474
-12.8034 3.5108 -2.4954 0.9474
-12.8714 3.2529 -2.4954 0.9474
-12.9342 2.9938 -2.4954 0.9474
-12.9917 2.7334 -2.4954 0.9474
-13.0912 2.2094 -2.4954 0.9474
-13.1695 1.6819 -2.4955 0.9474
-13.2267 1.1517 -2.4955 0.9474
-13.2473 0.8858 -2.4955 0.9474
-13.2626 0.6196 -2.4956 0.9474
-13.2725 0.3531 -2.4956 0.9474
-13.2771 0.0864 -2.4956 0.9474
-13.2588 -0.7133 -2.4957 0.9474
-13.1925 -1.5106 -2.4959 0.9474
-13.1598 -1.7753 -2.4959 0.9474
-13.1218 -2.0393 -2.4960 0.9474
-13.0785 -2.3024 -2.4960 0.9474
-12.9761 -2.8260 -2.4962 0.9474
-12.9170 -3.0861 -2.4962 0.9474
-12.8528 -3.3450 -2.4963 0.9474
-12.4544 -4.6174 -2.4966 0.9474
-12.3595 -4.8668 -2.4967 0.9474
-12.0451 -5.6028 -2.4970 0.9474
-6.2490 -10.0422 -2.5001 0.9528
-6.0463 -10.1661 -2.5002 0.9528
-5.8411 -10.2859 -2.5004 0.9528
-5.6336 -10.4016 -2.5005 0.9528
-5.4238 -10.5131 -2.5006 0.9528
-4.7815 -10.8221 -2.5009 0.9528
-4.3396 -10.9970 -2.4990 0.9528
-3.8899 -11.1493 -2.4961 0.9529
-3.4262 -11.2545 -2.4868 0.9530
-3.1764 -11.2391 -2.4688 0.9534
-2.9299 -11.2238 -2.4520 0.9537
-1.9737 -11.1625 -2.3961 0.9547
-1.7408 -11.1472 -2.3849 0.9549
-1.5101 -11.1318 -2.3746 0.9551
-1.2812 -11.1164 -2.3653 0.9553
-0.8286 -11.0909 -2.3509 0.9555
-0.6056 -11.1028 -2.3504 0.9556
0.0642 -11.1205 -2.3507 0.9556
0.5108 -11.1099 -2.3509 0.9555
0.7338 -11.0979 -2.3510 0.9555
0.9566 -11.0813 -2.3511 0.9555
1.1790 -11.0603 -2.3512 0.9555
2.0728 -10.9824 -2.3625 0.9553
2.5354 -10.9909 -2.3843 0.9549
3.0090 -11.0056 -2.4117 0.9544
3.4976 -11.0305 -2.4460 0.9538
3.7482 -11.0457 -2.4656 0.9534
4.0029 -11.0610 -2.4865 0.9530
4.6908 -10.8671 -2.5020 0.9528
5.1303 -10.6842 -2.5053 0.9527
5.3440 -10.5793 -2.5054 0.9527
5.7649 -10.3568 -2.5055 0.9527
6.1766 -10.1176 -2.5057 0.9527
6.3787 -9.9917 -2.5057 0.9527
6.5783 -9.8619 -2.5058 0.9527
6.9694 -9.5903 -2.5060 0.9527
7.5349 -9.1539 -2.5062 0.9527
7.8968 -8.8443 -2.5063 0.9527
8.0731 -8.6841 -2.5063 0.9527
8.2460 -8.5204 -2.5064 0.9527
8.4157 -8.3532 -2.5064 0.9527
8.7447 -8.0088 -2.5065 0.9527
9.6451 -6.9001 -2.5068 0.9527
9.7819 -6.7051 -2.5068 0.9527
10.0435 -6.3070 -2.5069 0.9527
10.2889 -5.8987 -2.5069 0.9527
10.4054 -5.6909 -2.5070 0.9527
10.5177 -5.4808 -2.5070 0.9527
10.6257 -5.2685 -2.5070 0.9527
10.8289 -4.8375 -2.5070 0.9527
11.0145 -4.3988 -2.5071 0.9527
11.1007 -4.1767 -2.5071 0.9527
11.1824 -3.9529 -2.5071 0.9527
11.3321 -3.5006 -2.5071 0.9527
11.5765 -2.5798 -2.5071 0.9527
11.6259 -2.3468 -2.5070 0.9527
11.6706 -2.1128 -2.5070 0.9527
11.7459 -1.6424 -2.5070 0.9527
11.8022 -1.1693 -2.5070 0.9527
11.8593 0.0199 -2.5068 0.9527
11.8564 0.2581 -2.5068 0.9527
11.8361 0.7340 -2.5067 0.9527
11.8188 0.9716 -2.5067 0.9527
11.6607 2.1514 -2.5064 0.9527
11.6149 2.3851 -2.5064 0.9527
11.5645 2.6179 -2.5063 0.9527
11.3850 3.3093 -2.5062 0.9527
11.1642 3.9887 -2.5060 0.9527
11.0815 4.2120 -2.5059 0.9527
10.9944 4.4336 -2.5058 0.9527
10.9028 4.6533 -2.5058 0.9527
10.8069 4.8712 -2.5057 0.9527
10.7065 5.0872 -2.5056 0.9527
10.4930 5.5127 -2.5055 0.9527
10.2624 5.9293 -2.5053 0.9527
10.1410 6.1340 -2.5052 0.9527
9.8858 6.5359 -2.5051 0.9527
9.7521 6.7329 -2.5050 0.9527
8.7103 7.4066 -2.4168 0.9543
7.8694 7.8636 -2.3516 0.9555
7.2118 8.4685 -2.3512 0.9555
7.0399 8.6112 -2.3511 0.9555
6.5078 9.0184 -2.3508 0.9556
6.1398 9.2717 -2.3506 0.9556
5.7620 9.5100 -2.3504 0.9556
4.9793 9.9401 -2.3500 0.9556
4.5757 10.1312 -2.3498 0.9556
4.1648 10.3058 -2.3496 0.9556
3.9567 10.3870 -2.3495 0.9556
3.7472 10.4639 -2.3494 0.9556
3.5361 10.5366 -2.3493 0.9556
3.3236 10.6050 -2.3492 0.9556
2.4803 8.5094 -1.8736 0.9644
2.6786 10.7845 -2.3489 0.9556
2.2431 10.8824 -2.3487 0.9556
1.8041 10.9627 -2.3485 0.9556
1.3622 11.0254 -2.3483 0.9556
1.1405 11.0500 -2.3482 0.9556
0.4729 11.0972 -2.3479 0.9556
0.2499 11.1040 -2.3478 0.9556
0.0268 11.1063 -2.3477 0.9556
-0.4192 11.0975 -2.3475 0.9556
-0.6420 11.0864 -2.3474 0.9556
-1.5294 10.9973 -2.3470 0.9556
-1.7499 10.9639 -2.3469 0.9556
-2.1886 10.8839 -2.3467 0.9556
-2.6238 10.7864 -2.3465 0.9556
-2.8398 10.7312 -2.3464 0.9556
-3.0546 10.6715 -2.3463 0.9556
-3.2682 10.6076 -2.3463 0.9556
-3.4805 10.5395 -2.3462 0.9556
-4.1084 10.3097 -2.3459 0.9556
-4.3145 10.2247 -2.3458 0.9556
-4.7214 10.0425 -2.3457 0.9556
-4.9220 9.9454 -2.3456 0.9556
-5.3171 9.7390 -2.3455 0.9556
-5.8934 9.4003 -2.3453 0.9557
-6.2658 9.1555 -2.3451 0.9557
-6.4483 9.0276 -2.3451 0.9557
-6.6281 8.8960 -2.3450 0.9557
-7.1513 8.4801 -2.3448 0.9557
-7.4857 8.1857 -2.3447 0.9557
-7.6484 8.0335 -2.3447 0.9557
-7.8081 7.8781 -2.3446 0.9557
-9.1877 7.2692 -2.4764 0.9532
-9.5385 6.9426 -2.4938 0.9529
-9.6859 6.7565 -2.4963 0.9529
-9.9492 6.3619 -2.4963 0.9529
-10.0749 6.1607 -2.4962 0.9529
-10.1965 5.9571 -2.4962 0.9529
-10.4273 5.5427 -2.4962 0.9529
-10.6413 5.1194 -2.4961 0.9529
-10.9301 4.4692 -2.4961 0.9529
-11.0176 4.2487 -2.4961 0.9529
-11.1793 3.8028 -2.4961 0.9529
-11.2534 3.5775 -2.4961 0.9529
-11.3880 3.1227 -2.4961 0.9529
-11.5555 2.4312 -2.4961 0.9529
-11.6021 2.1986 -2.4961 0.9529
-11.7644 1.0244 -2.4962 0.9529
-11.7963 0.5511 -2.4962 0.9529
-11.8092 0.0769 -2.4963 0.9529
-11.7780 -0.8712 -2.4964 0.9529
-11.7047 -1.5790 -2.4966 0.9529
-11.5891 -2.2811 -2.4967 0.9529
-11.4886 -2.7448 -2.4968 0.9529
-11.3696 -3.2042 -2.4969 0.9529
-11.2323 -3.6584 -2.4971 0.9529
-11.1569 -3.8833 -2.4971 0.9529
-11.0769 -4.1068 -2.4972 0.9528
-10.9925 -4.3285 -2.4972 0.9528
-10.9037 -4.5486 -2.4973 0.9528
-5.4383 -9.1439 -2.5004 0.9572
-5.2538 -9.2516 -2.5005 0.9572
-5.0671 -9.3556 -2.5006 0.9572
-4.6876 -9.5523 -2.5008 0.9572
-4.4950 -9.6449 -2.5009 0.9572
-3.9065 -9.8993 -2.5012 0.9572
-3.3036 -10.1178 -2.5015 0.9572
-3.0999 -10.1825 -2.5016 0.9572
-2.4814 -10.3519 -2.5019 0.9572
-2.2730 -10.4001 -2.5020 0.9572
-1.6428 -10.5193 -2.5023 0.9572
-1.2191 -10.5776 -2.5024 0.9572
-1.0064 -10.6004 -2.5025 0.9572
-0.5798 -10.6301 -2.5020 0.9572
-0.3661 -10.6384 -2.5017 0.9572
-0.1524 -10.6428 -2.5016 0.9572
0.0614 -10.6432 -2.5014 0.9572
0.4888 -10.6320 -2.5014 0.9572
0.7023 -10.6208 -2.5016 0.9572
0.9156 -10.6057 -2.5018 0.9572
1.1285 -10.5865 -2.5022 0.9572
1.3411 -10.5634 -2.5026 0.9572
1.9759 -10.4688 -2.5039 0.9572
2.1858 -10.4274 -2.5039 0.9572
2.3949 -10.3817 -2.5040 0.9572
2.6030 -10.3319 -2.5041 0.9572
3.4243 -10.0910 -2.5044 0.9572
3.6264 -10.0205 -2.5045 0.9572
3.8270 -9.9460 -2.5046 0.9572
4.0261 -9.8674 -2.5047 0.9572
4.2236 -9.7849 -2.5048 0.9572
4.4194 -9.6983 -2.5048 0.9572
5.5543 -9.0982 -2.5053 0.9571
6.2672 -8.6240 -2.5055 0.9571
6.7756 -8.2315 -2.5057 0.9571
6.9398 -8.0939 -2.5057 0.9571
8.1466 -6.8803 -2.5061 0.9571
8.4166 -6.5478 -2.5062 0.9571
8.7960 -6.0293 -2.5063 0.9571
9.2519 -5.3041 -2.5064 0.9571
9.3566 -5.1173 -2.5064 0.9571
9.4576 -4.9283 -2.5064 0.9571
9.5547 -4.7375 -2.5064 0.9571
9.8228 -4.1535 -2.5065 0.9571
9.9043 -3.9554 -2.5065 0.9571
10.1246 -3.3518 -2.5065 0.9571
10.2510 -2.9425 -2.5065 0.9571
10.3080 -2.7360 -2.5065 0.9571
10.3609 -2.5284 -2.5065 0.9571
10.4096 -2.3198 -2.5065 0.9571
10.4942 -1.8998 -2.5065 0.9571
10.5620 -1.4768 -2.5065 0.9571
10.5894 -1.2644 -2.5064 0.9571
10.6315 -0.8381 -2.5064 0.9571
10.6461 -0.6244 -2.5064 0.9571
10.6614 0.2321 -2.5063 0.9571
10.6544 0.4461 -2.5062 0.9571
10.6276 0.8736 -2.5062 0.9571
10.6078 1.0869 -2.5061 0.9571
10.4856 1.9346 -2.5060 0.9571
10.4445 2.1448 -2.5059 0.9571
10.3991 2.3541 -2.5059 0.9571
10.2378 2.9759 -2.5057 0.9571
10.1757 3.1808 -2.5056 0.9571
10.1096 3.3845 -2.5056 0.9571
10.0393 3.5867 -2.5055 0.9571
9.8043 4.1845 -2.5053 0.9571
9.6279 4.5747 -2.5052 0.9571
9.1194 5.5161 -2.5049 0.9572
8.8900 5.8776 -2.5047 0.9572
8.7699 6.0547 -2.5046 0.9572
8.6462 6.2295 -2.5046 0.9572
8.2546 6.7382 -2.5043 0.9572
7.8251 7.2150 -2.5015 0.9572
7.6718 7.3642 -2.4993 0.9572
7.0459 7.6303 -2.4409 0.9582
6.3312 7.7443 -2.3509 0.9597
6.1741 7.8696 -2.3508 0.9597
5.8527 8.1106 -2.3507 0.9597
5.6884 8.2262 -2.3506 0.9597
5.3530 8.4474 -2.3504 0.9597
5.1821 8.5529 -2.3503 0.9597
4.6571 8.8484 -2.3500 0.9597
4.4782 8.9398 -2.3499 0.9597
4.2976 9.0276 -2.3498 0.9597
4.1153 9.1117 -2.3497 0.9598
3.9313 9.1922 -2.3497 0.9598
3.5586 9.3419 -2.3495 0.9598
3.1803 9.4765 -2.3493 0.9598
2.2138 9.7457 -2.3488 0.9598
2.0175 9.7878 -2.3487 0.9598
1.6227 9.8602 -2.3485 0.9598
1.2253 9.9166 -2.3483 0.9598
1.0258 9.9388 -2.3483 0.9598
0.8259 9.9570 -2.3482 0.9598
0.6258 9.9712 -2.3481 0.9598
0.2248 9.9875 -2.3479 0.9598
-0.1765 9.9877 -2.3477 0.9598
-0.3770 9.9818 -2.3476 0.9598
-0.7776 9.9579 -2.3475 0.9598
-1.1768 9.9179 -2.3473 0.9598
-1.5740 9.8619 -2.3471 0.9598
-1.9687 9.7900 -2.3469 0.9598
-2.3601 9.7024 -2.3468 0.9598
-2.7477 9.5991 -2.3466 0.9598
-3.6956 9.2738 -2.3462 0.9598
-4.0649 9.1174 -2.3461 0.9598
-4.2470 9.0336 -2.3460 0.9598
-4.4275 8.9462 -2.3460 0.9598
-4.6061 8.8552 -2.3459 0.9598
-4.9578 8.6626 -2.3458 0.9598
-5.1306 8.5611 -2.3457 0.9598
-5.4700 8.3477 -2.3456 0.9598
-5.8006 8.1208 -2.3455 0.9598
-5.9624 8.0025 -2.3454 0.9598
-6.2787 7.7562 -2.3453 0.9598
-6.4330 7.6284 -2.3453 0.9598
-6.5848 7.4975 -2.3452 0.9598
-6.8266 7.4649 -2.3774 0.9593
-7.0823 7.4389 -2.4140 0.9587
-7.3461 7.4119 -2.4526 0.9580
-7.7605 7.2252 -2.4920 0.9574
-7.9114 7.0744 -2.4943 0.9573
-8.1979 6.7582 -2.4970 0.9573
-8.3318 6.5921 -2.4969 0.9573
-8.5896 6.2520 -2.4969 0.9573
-8.7134 6.0781 -2.4968 0.9573
-8.8336 5.9018 -2.4968 0.9573
-8.9502 5.7231 -2.4968 0.9573
-9.0633 5.5422 -2.4968 0.9573
-9.1727 5.3590 -2.4967 0.9573
-9.2784 5.1736 -2.4967 0.9573
-9.3803 4.9862 -2.4967 0.9573
-9.5729 4.6054 -2.4967 0.9573
-9.6634 4.4121 -2.4967 0.9573
-9.9114 3.8221 -2.4966 0.9573
-9.9862 3.6223 -2.4966 0.9573
-10.0569 3.4210 -2.4966 0.9573
-10.3493 2.3955 -2.4966 0.9573
-10.3953 2.1871 -2.4966 0.9573
-10.4372 1.9779 -2.4966 0.9573
-10.4749 1.7679 -2.4966 0.9573
-10.5083 1.5571 -2.4967 0.9573
-10.5375 1.3458 -2.4967 0.9573
-10.5832 0.9215 -2.4967 0.9573
-10.5997 0.7088 -2.4967 0.9573
-10.6235 0.0692 -2.4968 0.9573
-10.6228 -0.1442 -2.4968 0.9573
-10.6179 -0.3576 -2.4969 0.9573
-10.5953 -0.7837 -2.4969 0.9573
-10.5776 -0.9964 -2.4970 0.9573
-10.5294 -1.4204 -2.4971 0.9573
-10.4989 -1.6317 -2.4971 0.9573
-10.3348 -2.4692 -2.4973 0.9573
-10.2278 -2.8824 -2.4974 0.9573
-10.1042 -3.2909 -2.4975 0.9573
-10.0363 -3.4933 -2.4976 0.9573
-9.7245 -4.2880 -2.4978 0.9573
-5.2656 -8.0948 -2.5003 0.9609
-4.9366 -8.3004 -2.5005 0.9609
-4.7691 -8.3981 -2.5006 0.9609
-4.5996 -8.4925 -2.5007 0.9609
-4.4283 -8.5835 -2.5007 0.9609
-4.2551 -8.6710 -2.5008 0.9609
-3.5460 -8.9858 -2.5012 0.9609
-3.3649 -9.0555 -2.5013 0.9609
-2.9988 -9.1840 -2.5015 0.9609
-2.6277 -9.2977 -2.5016 0.9609
-2.4405 -9.3490 -2.5017 0.9609
-2.2523 -9.3965 -2.5018 0.9609
-1.8733 -9.4800 -2.5020 0.9609
-1.4912 -9.5483 -2.5022 0.9609
-1.1066 -9.6011 -2.5024 0.9609
-0.9135 -9.6218 -2.5025 0.9609
-0.7201 -9.6385 -2.5025 0.9609
0.0558 -9.6666 -2.5029 0.9608
0.2499 -9.6638 -2.5030 0.9608
0.4440 -9.6572 -2.5031 0.9608
0.6379 -9.6467 -2.5031 0.9608
0.8315 -9.6322 -2.5032 0.9608
1.2178 -9.5917 -2.5034 0.9608
1.6021 -9.5357 -2.5036 0.9608
1.7934 -9.5019 -2.5036 0.9608
1.9839 -9.4642 -2.5037 0.9608
2.7374 -9.2756 -2.5040 0.9608
2.9233 -9.2191 -2.5041 0.9608
3.1079 -9.1588 -2.5042 0.9608
3.4734 -9.0271 -2.5043 0.9608
3.6542 -8.9557 -2.5044 0.9608
3.8334 -8.8808 -2.5045 0.9608
4.0111 -8.8023 -2.5045 0.9608
4.8740 -8.3568 -2.5049 0.9608
5.2060 -8.1547 -2.5050 0.9608
5.5295 -7.9394 -2.5051 0.9608
5.9980 -7.5925 -2.5053 0.9608
6.2983 -7.3458 -2.5054 0.9608
6.5885 -7.0872 -2.5054 0.9608
6.7296 -6.9536 -2.5055 0.9608
6.8681 -6.8171 -2.5055 0.9608
7.0037 -6.6779 -2.5056 0.9608
7.2665 -6.3914 -2.5057 0.9608
7.5175 -6.0946 -2.5057 0.9608
7.6385 -5.9425 -2.5058 0.9608
7.7564 -5.7879 -2.5058 0.9608
7.8712 -5.6311 -2.5058 0.9608
7.9828 -5.4719 -2.5058 0.9608
8.0912 -5.3105 -2.5059 0.9608
8.1963 -5.1470 -2.5059 0.9608
8.3965 -4.8138 -2.5059 0.9608
8.4916 -4.6442 -2.5060 0.9608
8.5832 -4.4727 -2.5060 0.9608
8.6714 -4.2995 -2.5060 0.9608
8.7560 -4.1244 -2.5060 0.9608
8.8371 -3.9478 -2.5060 0.9608
8.9886 -3.5897 -2.5060 0.9608
9.1256 -3.2258 -2.5061 0.9608
9.1885 -3.0419 -2.5061 0.9608
9.2478 -2.8567 -2.5061 0.9608
9.3550 -2.4830 -2.5061 0.9608
9.4030 -2.2946 -2.5060 0.9608
9.4875 -1.9151 -2.5060 0.9608
9.5240 -1.7242 -2.5060 0.9608
9.5567 -1.5326 -2.5060 0.9608
9.6104 -1.1475 -2.5060 0.9608
9.6315 -0.9542 -2.5060 0.9608
9.6619 -0.5666 -2.5059 0.9608
9.6712 -0.3725 -2.5059 0.9608
9.6758 0.2106 -2.5058 0.9608
9.6452 0.7929 -2.5057 0.9608
9.5795 1.3722 -2.5056 0.9608
9.5499 1.5643 -2.5056 0.9608
9.4790 1.9465 -2.5055 0.9608
9.3929 2.3256 -2.5054 0.9608
9.2915 2.7008 -2.5053 0.9608
9.2352 2.8868 -2.5053 0.9608
9.1752 3.0717 -2.5052 0.9608
9.1115 3.2553 -2.5052 0.9608
8.9730 3.6184 -2.5051 0.9608
8.8983 3.7978 -2.5050 0.9608
8.6528 4.3265 -2.5048 0.9608
8.5640 4.4993 -2.5048 0.9608
7.8474 5.6539 -2.5043 0.9608
7.4920 6.1157 -2.5041 0.9608
7.3675 6.2648 -2.5040 0.9608
7.2400 6.4113 -2.5039 0.9608
7.1095 6.5552 -2.5038 0.9608
6.9762 6.6964 -2.5037 0.9608
6.8401 6.8350 -2.5037 0.9608
6.7012 6.9708 -2.5036 0.9608
6.5596 7.1037 -2.5035 0.9608
6.4154 7.2338 -2.5034 0.9608
6.2643 7.3559 -2.5016 0.9609
6.1109 7.4748 -2.4998 0.9609
5.6088 7.7727 -2.4817 0.9612
4.9654 7.8358 -2.4019 0.9624
4.7596 7.8556 -2.3782 0.9628
4.3877 7.9453 -2.3500 0.9632
4.0648 8.1145 -2.3499 0.9632
3.9009 8.1942 -2.3498 0.9632
3.7354 8.2706 -2.3497 0.9632
3.5684 8.3437 -2.3496 0.9632
3.2302 8.4796 -2.3494 0.9632
3.0591 8.5425 -2.3494 0.9632
2.8868 8.6019 -2.3493 0.9632
2.7134 8.6578 -2.3492 0.9632
2.1868 8.8046 -2.3489 0.9632
1.8313 8.8847 -2.3488 0.9632
1.1122 9.0017 -2.3484 0.9632
0.9312 9.0219 -2.3483 0.9632
0.7497 9.0385 -2.3483 0.9632
0.3861 9.0607 -2.3481 0.9632
0.2041 9.0663 -2.3480 0.9632
0.0219 9.0682 -2.3479 0.9632
-0.3423 9.0612 -2.3478 0.9632
-0.5242 9.0521 -2.3477 0.9632
-1.0682 9.0033 -2.3475 0.9632
-1.4289 8.9525 -2.3473 0.9632
-1.7871 8.8873 -2.3471 0.9632
-2.4943 8.7141 -2.3469 0.9632
-3.1853 8.4848 -2.3466 0.9632
-3.5233 8.3496 -2.3464 0.9632
-3.6902 8.2769 -2.3464 0.9632
-3.8556 8.2009 -2.3463 0.9632
-4.0194 8.1216 -2.3463 0.9632
-4.1816 8.0390 -2.3462 0.9633
-4.3421 7.9532 -2.3461 0.9633
-4.5008 7.8642 -2.3461 0.9633
-4.8128 7.6767 -2.3460 0.9633
-5.8431 7.5223 -2.4662 0.9614
-6.0524 7.4768 -2.4906 0.9610
-6.2057 7.3589 -2.4924 0.9610
-6.5058 7.1141 -2.4961 0.9610
-6.6516 6.9865 -2.4976 0.9609
-7.0599 6.5729 -2.4975 0.9609
-7.1904 6.4297 -2.4975 0.9609
-7.3179 6.2838 -2.4974 0.9609
-7.5642 5.9847 -2.4974 0.9609
-7.6828 5.8315 -2.4973 0.9609
-7.7983 5.6760 -2.4973 0.9609
-7.9106 5.5181 -2.4973 0.9609
-8.2283 5.0316 -2.4972 0.9609
-8.4236 4.6970 -2.4972 0.9609
-8.5162 4.5268 -2.4971 0.9609
-8.6053 4.3548 -2.4971 0.9609
-8.6910 4.1811 -2.4971 0.9609
-8.7732 4.0057 -2.4971 0.9609
-8.8518 3.8286 -2.4971 0.9609
-8.9269 3.6501 -2.4971 0.9609
-9.1910 2.9218 -2.4971 0.9609
-9.2478 2.7367 -2.4971 0.9609
-9.3503 2.3630 -2.4971 0.9609
-9.4757 1.7957 -2.4971 0.9609
-9.5403 1.4137 -2.4971 0.9609
-9.5668 1.2218 -2.4971 0.9609
-9.5894 1.0294 -2.4971 0.9609
-9.6343 0.4501 -2.4972 0.9609
-9.6442 -0.1309 -2.4973 0.9609
-9.6314 -0.5182 -2.4973 0.9609
-9.5315 -1.4813 -2.4975 0.9609
-9.4255 -2.0527 -2.4976 0.9609
-9.2853 -2.6168 -2.4978 0.9609
-9.2310 -2.8028 -2.4978 0.9609
-9.1731 -2.9877 -2.4979 0.9609
-9.1114 -3.1714 -2.4979 0.9609
-9.0461 -3.3538 -2.4980 0.9609
-8.9771 -3.5349 -2.4980 0.9609
-8.8283 -3.8928 -2.4982 0.9609
-4.8162 -7.4039 -2.5004 0.9639
-4.5152 -7.5918 -2.5006 0.9639
-4.2070 -7.7675 -2.5007 0.9639
-3.4075 -8.1515 -2.5011 0.9639
-3.2432 -8.2186 -2.5012 0.9639
-2.9107 -8.3427 -2.5014 0.9639
-2.7427 -8.3998 -2.5015 0.9639
-2.5735 -8.4534 -2.5016 0.9639
-2.2321 -8.5506 -2.5017 0.9639
-1.5388 -8.7033 -2.5021 0.9639
-1.3638 -8.7327 -2.5021 0.9639
-1.1881 -8.7586 -2.5022 0.9639
-1.0120 -8.7810 -2.5023 0.9639
-0.8355 -8.7998 -2.5024 0.9639
-0.6586 -8.8151 -2.5025 0.9639
-0.4814 -8.8268 -2.5025 0.9639
-0.3041 -8.8350 -2.5026 0.9639
0.2286 -8.8382 -2.5029 0.9639
0.4060 -8.8321 -2.5029 0.9639
0.5834 -8.8224 -2.5030 0.9639
1.1137 -8.7721 -2.5032 0.9639
1.2897 -8.7482 -2.5033 0.9639
1.4652 -8.7208 -2.5034 0.9639
1.8144 -8.6554 -2.5035 0.9639
1.9879 -8.6175 -2.5036 0.9639
2.1606 -8.5760 -2.5037 0.9639
2.3325 -8.5311 -2.5038 0.9639
2.5035 -8.4828 -2.5038 0.9639
2.6734 -8.4311 -2.5039 0.9639
2.8423 -8.3759 -2.5040 0.9639
3.3418 -8.1902 -2.5042 0.9639
3.6682 -8.0498 -2.5043 0.9639
3.9887 -7.8963 -2.5044 0.9639
4.1466 -7.8148 -2.5045 0.9639
4.6100 -7.5514 -2.5046 0.9639
4.7608 -7.4575 -2.5047 0.9639
5.0567 -7.2606 -2.5048 0.9639
5.8936 -6.6007 -2.5051 0.9639
6.0251 -6.4811 -2.5051 0.9639
6.1541 -6.3589 -2.5052 0.9639
6.5262 -5.9770 -2.5053 0.9639
6.6450 -5.8448 -2.5053 0.9639
6.7612 -5.7102 -2.5053 0.9639
6.8746 -5.5734 -2.5054 0.9639
6.9852 -5.4342 -2.5054 0.9639
7.1980 -5.1494 -2.5055 0.9639
7.3000 -5.0039 -2.5055 0.9639
7.4952 -4.7068 -2.5055 0.9639
7.5883 -4.5553 -2.5055 0.9639
7.6783 -4.4020 -2.5056 0.9639
8.0812 -3.6101 -2.5056 0.9639
8.2198 -3.2827 -2.5057 0.9639
8.3450 -2.9499 -2.5057 0.9639
8.4026 -2.7817 -2.5057 0.9639
8.5075 -2.4420 -2.5057 0.9639
8.6760 -1.7514 -2.5057 0.9639
8.7094 -1.5767 -2.5056 0.9639
8.7393 -1.4015 -2.5056 0.9639
8.7884 -1.0493 -2.5056 0.9639
8.8076 -0.8726 -2.5056 0.9639
8.8354 -0.5182 -2.5056 0.9639
8.8440 -0.3406 -2.5055 0.9639
8.8504 0.0148 -2.5055 0.9639
8.8425 0.3703 -2.5054 0.9639
8.8332 0.5478 -2.5054 0.9639
8.7838 1.0787 -2.5053 0.9639
8.7602 1.2549 -2.5053 0.9639
8.7332 1.4306 -2.5052 0.9639
8.6308 1.9538 -2.5051 0.9639
8.5896 2.1267 -2.5051 0.9639
7.7474 4.2710 -2.5044 0.9639
7.6598 4.4256 -2.5044 0.9639
7.4756 4.7294 -2.5042 0.9639
7.3789 4.8785 -2.5042 0.9639
7.2792 5.0256 -2.5041 0.9639
6.9628 5.4544 -2.5039 0.9639
6.7378 5.7293 -2.5038 0.9639
6.3800 6.1241 -2.5036 0.9639
6.2555 6.2509 -2.5035 0.9639
6.1285 6.3751 -2.5034 0.9639
5.8672 6.6156 -2.5033 0.9639
5.5964 6.8455 -2.5031 0.9639
5.4576 6.9563 -2.5030 0.9639
5.0283 7.2717 -2.5028 0.9639
4.7294 7.4634 -2.5013 0.9639
4.4211 7.6389 -2.4986 0.9640
4.2645 7.7222 -2.4973 0.9640
3.9469 7.8790 -2.4947 0.9640
3.7586 7.8954 -2.4755 0.9643
3.5711 7.9069 -2.4561 0.9646
3.3863 7.9179 -2.4379 0.9648
3.0243 7.9391 -2.4050 0.9653
2.6702 7.9564 -2.3759 0.9657
2.0001 8.0528 -2.3489 0.9661
1.6750 8.1261 -2.3488 0.9661
1.3472 8.1862 -2.3486 0.9661
1.1825 8.2114 -2.3486 0.9661
0.8517 8.2517 -2.3484 0.9661
0.5195 8.2787 -2.3483 0.9661
0.3531 8.2872 -2.3482 0.9661
-0.1465 8.2927 -2.3480 0.9661
-0.3130 8.2878 -2.3479 0.9661
-0.4794 8.2796 -2.3478 0.9661
-0.6456 8.2680 -2.3477 0.9661
-0.8115 8.2531 -2.3477 0.9661
-1.1422 8.2134 -2.3475 0.9661
-1.3069 8.1885 -2.3475 0.9661
-1.6346 8.1290 -2.3473 0.9661
-1.7975 8.0943 -2.3473 0.9661
-2.1210 8.0151 -2.3471 0.9661
-2.2815 7.9707 -2.3471 0.9661
-2.5996 7.8722 -2.3469 0.9661
-2.7572 7.8181 -2.3469 0.9661
-2.9163 7.7682 -2.3490 0.9661
-3.0879 7.7486 -2.3613 0.9659
-3.2630 7.7328 -2.3760 0.9657
-3.4403 7.7165 -2.3918 0.9655
-3.6200 7.6999 -2.4087 0.9652
-3.9872 7.6654 -2.4460 0.9647
-4.3662 7.6291 -2.4884 0.9641
-4.5251 7.5507 -2.4920 0.9641
-4.6782 7.4620 -2.4933 0.9640
-4.9794 7.2758 -2.4959 0.9640
-5.1274 7.1784 -2.4973 0.9640
-5.2725 7.0766 -2.4982 0.9640
-5.4135 6.9691 -2.4982 0.9640
-5.6888 6.7458 -2.4981 0.9640
-5.8230 6.6301 -2.4981 0.9640
-6.2114 6.2671 -2.4979 0.9640
-6.4579 6.0124 -2.4979 0.9640
-6.5773 5.8814 -2.4978 0.9640
-6.8080 5.6124 -2.4978 0.9640
-7.1334 5.1920 -2.4977 0.9640
-7.3360 4.9012 -2.4976 0.9640
-7.4329 4.7529 -2.4976 0.9640
-7.7901 4.1409 -2.4975 0.9640
-7.9500 3.8246 -2.4975 0.9640
-8.0252 3.6642 -2.4975 0.9640
-8.1658 3.3389 -2.4975 0.9640
-8.2312 3.1742 -2.4975 0.9640
-8.2933 3.0082 -2.4975 0.9640
-8.3520 2.8410 -2.4974 0.9640
-8.4074 2.6727 -2.4974 0.9640
-8.4594 2.5033 -2.4974 0.9640
-8.5948 1.9894 -2.4975 0.9640
-8.6991 1.4682 -2.4975 0.9640
-8.7269 1.2932 -2.4975 0.9640
-8.7719 0.9417 -2.4975 0.9640
-8.8027 0.5886 -2.4976 0.9640
-8.8194 0.2346 -2.4976 0.9640
-8.8224 0.0574 -2.4976 0.9640
-8.8219 -0.1198 -2.4976 0.9640
-8.8178 -0.2969 -2.4977 0.9640
-8.7989 -0.6508 -2.4977 0.9640
-8.7659 -1.0037 -2.4978 0.9640
-8.7188 -1.3550 -2.4979 0.9640
-8.5824 -2.0505 -2.4980 0.9640
-8.5397 -2.2225 -2.4981 0.9640
-8.4935 -2.3936 -2.4981 0.9640
-8.3344 -2.9009 -2.4982 0.9640
-8.2115 -3.2334 -2.4983 0.9640
-8.1450 -3.3978 -2.4984 0.9640
-8.0753 -3.5608 -2.4984 0.9640
-4.1559 -6.9877 -2.5007 0.9665
-3.8722 -7.1493 -2.5008 0.9665
-3.4349 -7.3702 -2.5010 0.9665
-2.9851 -7.5644 -2.5013 0.9665
-2.5244 -7.7311 -2.5015 0.9665
-2.3686 -7.7805 -2.5016 0.9665
-2.0544 -7.8698 -2.5017 0.9665
-1.8960 -7.9097 -2.5018 0.9665
-1.5769 -7.9800 -2.5019 0.9665
-0.7690 -8.0991 -2.5023 0.9665
-0.6062 -8.1131 -2.5024 0.9665
-0.4431 -8.1239 -2.5025 0.9665
-0.1165 -8.1356 -2.5026 0.9665
0.2104 -8.1342 -2.5028 0.9665
0.6999 -8.1075 -2.5030 0.9665
0.8626 -8.0920 -2.5030 0.9665
1.0250 -8.0733 -2.5031 0.9665
1.1870 -8.0513 -2.5032 0.9665
1.8295 -7.9309 -2.5034 0.9665
2.3040 -7.8070 -2.5036 0.9665
2.6158 -7.7085 -2.5038 0.9665
2.7702 -7.6546 -2.5038 0.9665
2.9234 -7.5976 -2.5039 0.9665
3.0755 -7.5375 -2.5039 0.9665
3.2263 -7.4744 -2.5040 0.9665
3.5241 -7.3392 -2.5041 0.9665
3.8161 -7.1920 -2.5042 0.9665
4.2426 -6.9496 -2.5044 0.9665
4.3814 -6.8631 -2.5044 0.9665
4.5185 -6.7739 -2.5045 0.9665
4.6537 -6.6819 -2.5045 0.9665
4.7870 -6.5872 -2.5046 0.9665
4.9185 -6.4898 -2.5046 0.9665
5.0479 -6.3898 -2.5047 0.9665
5.3006 -6.1822 -2.5048 0.9665
5.6636 -5.8520 -2.5049 0.9665
5.8942 -5.6200 -2.5049 0.9665
6.0060 -5.5005 -2.5050 0.9665
6.2222 -5.2550 -2.5050 0.9665
6.4284 -5.0010 -2.5051 0.9665
6.5276 -4.8709 -2.5051 0.9665
6.8092 -4.4691 -2.5052 0.9665
6.9833 -4.1921 -2.5052 0.9665
7.2233 -3.7641 -2.5053 0.9665
7.3687 -3.4710 -2.5053 0.9665
7.4369 -3.3223 -2.5053 0.9665
7.5644 -3.0209 -2.5053 0.9665
7.6797 -2.7147 -2.5053 0.9665
7.7825 -2.4041 -2.5053 0.9665
7.8728 -2.0896 -2.5053 0.9665
7.9131 -1.9311 -2.5053 0.9665
7.9503 -1.7717 -2.5053 0.9665
8.0150 -1.4510 -2.5053 0.9665
8.0425 -1.2897 -2.5053 0.9665
8.1199 -0.6401 -2.5053 0.9665
8.1448 0.0137 -2.5052 0.9665
8.1375 0.3407 -2.5051 0.9665
8.0619 1.1548 -2.5050 0.9665
8.0370 1.3165 -2.5049 0.9665
8.0088 1.4776 -2.5049 0.9665
7.9774 1.6382 -2.5049 0.9665
7.9428 1.7980 -2.5048 0.9665
7.7723 2.4296 -2.5047 0.9665
7.7219 2.5851 -2.5046 0.9665
7.6115 2.8931 -2.5045 0.9665
7.5517 3.0453 -2.5045 0.9665
7.4231 3.3460 -2.5044 0.9665
7.3542 3.4943 -2.5043 0.9665
7.2076 3.7867 -2.5042 0.9665
7.1300 3.9306 -2.5042 0.9665
7.0494 4.0729 -2.5041 0.9665
6.9660 4.2136 -2.5041 0.9665
6.6048 4.7586 -2.5038 0.9665
6.5077 4.8902 -2.5038 0.9665
6.4080 5.0198 -2.5037 0.9665
6.2009 5.2728 -2.5036 0.9665
5.9839 5.5173 -2.5035 0.9665
5.7572 5.7529 -2.5033 0.9665
5.6403 5.8672 -2.5033 0.9665
5.3998 6.0887 -2.5031 0.9665
5.1506 6.3003 -2.5030 0.9665
4.8932 6.5017 -2.5028 0.9665
4.7615 6.5984 -2.5028 0.9665
4.6279 6.6925 -2.5027 0.9665
4.3551 6.8726 -2.5026 0.9665
4.2161 6.9585 -2.5025 0.9665
3.3483 7.4136 -2.5020 0.9665
3.1983 7.4784 -2.5017 0.9665
3.0463 7.5382 -2.5008 0.9665
2.8932 7.5950 -2.4998 0.9666
2.2712 7.7919 -2.4964 0.9666
1.7963 7.9078 -2.4942 0.9666
1.6367 7.9404 -2.4936 0.9666
1.1446 7.9488 -2.4701 0.9670
0.9818 7.9461 -2.4626 0.9670
0.8198 7.9433 -2.4562 0.9671
0.6586 7.9403 -2.4506 0.9672
0.4981 7.9371 -2.4461 0.9673
0.3381 7.9338 -2.4425 0.9673
-0.2991 7.9186 -2.4373 0.9674
-0.6169 7.9001 -2.4373 0.9674
-1.0946 7.8709 -2.4442 0.9673
-1.2546 7.8608 -2.4484 0.9672
-1.5765 7.8399 -2.4597 0.9671
-1.9014 7.8167 -2.4744 0.9669
-2.3859 7.7440 -2.4924 0.9667
-2.5415 7.6962 -2.4929 0.9666
-2.6963 7.6455 -2.4935 0.9666
-3.3050 7.4131 -2.4964 0.9666
-3.4544 7.3477 -2.4973 0.9666
-3.6026 7.2795 -2.4982 0.9666
-3.7491 7.2077 -2.4989 0.9666
-3.8931 7.1308 -2.4988 0.9666
-4.0354 7.0510 -2.4988 0.9666
-4.1761 6.9684 -2.4987 0.9666
-4.3152 6.8829 -2.4987 0.9666
-4.5879 6.7038 -2.4986 0.9666
-4.7216 6.6102 -2.4986 0.9666
-5.1108 6.3135 -2.4984 0.9666
-5.2365 6.2095 -2.4984 0.9666
-5.3600 6.1030 -2.4983 0.9666
-5.4815 5.9940 -2.4983 0.9666
-5.6006 5.8826 -2.4983 0.9666
-5.7176 5.7688 -2.4982 0.9666
-6.0544 5.4138 -2.4981 0.9666
-6.2668 5.1662 -2.4981 0.9666
-6.6609 4.6464 -2.4980 0.9666
-6.8420 4.3751 -2.4979 0.9666
-7.0121 4.0967 -2.4979 0.9666
-7.0929 3.9550 -2.4979 0.9666
-7.1709 3.8117 -2.4978 0.9666
-7.3181 3.5206 -2.4978 0.9666
-7.3873 3.3729 -2.4978 0.9666
-7.4535 3.2238 -2.4978 0.9666
-7.5167 3.0735 -2.4978 0.9666
-7.6341 2.7691 -2.4978 0.9666
-7.7870 2.3043 -2.4978 0.9666
-7.8317 2.1475 -2.4978 0.9666
-7.9468 1.6720 -2.4978 0.9666
-7.9788 1.5120 -2.4978 0.9666
-8.0076 1.3515 -2.4978 0.9666
-8.0332 1.1904 -2.4978 0.9666
-8.0555 1.0288 -2.4978 0.9666
-8.0746 0.8668 -2.4978 0.9666
-8.0904 0.7045 -2.4979 0.9666
-8.1206 -0.1102 -2.4980 0.9666
-8.1168 -0.2733 -2.4980 0.9666
-8.1098 -0.4363 -2.4980 0.9666
-8.0691 -0.9239 -2.4981 0.9666
-8.0256 -1.2473 -2.4982 0.9666
-7.9991 -1.4082 -2.4982 0.9666
-7.9363 -1.7284 -2.4983 0.9666
-7.9001 -1.8875 -2.4983 0.9666
-7.7725 -2.3599 -2.4984 0.9666
-7.6717 -2.6703 -2.4985 0.9666
-7.4974 -3.1276 -2.4986 0.9666
-7.4332 -3.2776 -2.4987 0.9666
-7.3660 -3.4263 -2.4987 0.9666
-4.1020 -6.3059 -2.5006 0.9688
-3.9746 -6.3872 -2.5007 0.9688
-3.8456 -6.4659 -2.5007 0.9688
-3.7151 -6.5420 -2.5008 0.9688
-3.5830 -6.6155 -2.5009 0.9688
-3.4495 -6.6863 -2.5009 0.9688
-3.3146 -6.7545 -2.5010 0.9688
-3.1784 -6.8199 -2.5011 0.9688
-3.0409 -6.8825 -2.5011 0.9688
-2.9021 -6.9424 -2.5012 0.9688
-2.7621 -6.9995 -2.5013 0.9688
-2.4790 -7.1051 -2.5014 0.9688
-2.3358 -7.1537 -2.5015 0.9688
-1.9009 -7.2820 -2.5017 0.9688
-1.7543 -7.3189 -2.5018 0.9688
-1.6070 -7.3529 -2.5018 0.9688
-1.4591 -7.3839 -2.5019 0.9688
-1.3105 -7.4119 -2.5020 0.9688
-0.8619 -7.4780 -2.5022 0.9688
-0.4100 -7.5170 -2.5024 0.9688
-0.2589 -7.5239 -2.5025 0.9688
-0.1078 -7.5278 -2.5025 0.9688
0.3458 -7.5212 -2.5027 0.9688
0.4968 -7.5129 -2.5028 0.9688
1.0983 -7.4496 -2.5031 0.9688
1.2477 -7.4262 -2.5031 0.9688
1.3966 -7.3999 -2.5032 0.9688
1.6928 -7.3382 -2.5033 0.9688
1.8399 -7.3028 -2.5034 0.9688
1.9862 -7.2646 -2.5034 0.9688
2.1318 -7.2234 -2.5035 0.9688
2.2765 -7.1793 -2.5035 0.9688
2.9851 -6.9157 -2.5038 0.9687
3.3964 -6.7238 -2.5040 0.9687
3.5308 -6.6543 -2.5040 0.9687
3.7954 -6.5074 -2.5041 0.9687
4.0538 -6.3500 -2.5042 0.9687
4.4291 -6.0946 -2.5044 0.9687
4.5507 -6.0045 -2.5044 0.9687
4.7883 -5.8171 -2.5045 0.9687
4.9043 -5.7199 -2.5045 0.9687
5.0182 -5.6203 -2.5045 0.9687
5.2400 -5.4144 -2.5046 0.9687
5.5568 -5.0892 -2.5047 0.9687
5.6580 -4.9766 -2.5047 0.9687
5.7569 -4.8620 -2.5048 0.9687
5.8534 -4.7455 -2.5048 0.9687
6.1287 -4.3845 -2.5049 0.9687
6.2156 -4.2605 -2.5049 0.9687
6.3000 -4.1349 -2.5049 0.9687
6.5377 -3.7481 -2.5050 0.9687
6.6830 -3.4825 -2.5050 0.9687
6.7517 -3.3476 -2.5050 0.9687
6.8176 -3.2113 -2.5050 0.9687
6.9986 -2.7950 -2.5050 0.9687
7.1053 -2.5117 -2.5051 0.9687
7.2004 -2.2243 -2.5051 0.9687
7.3213 -1.7866 -2.5051 0.9687
7.3871 -1.4912 -2.5050 0.9687
7.4155 -1.3425 -2.5050 0.9687
7.4634 -1.0436 -2.5050 0.9687
7.4992 -0.7430 -2.5050 0.9687
7.5229 -0.4412 -2.5050 0.9687
7.5345 -0.1387 -2.5049 0.9687
7.5290 0.3153 -2.5049 0.9687
7.5210 0.4664 -2.5048 0.9687
7.5101 0.6174 -2.5048 0.9687
7.4590 1.0685 -2.5047 0.9687
7.4099 1.3672 -2.5047 0.9687
7.2350 2.1030 -2.5045 0.9687
7.0949 2.5348 -2.5044 0.9687
6.9290 2.9573 -2.5042 0.9687
6.6688 3.5036 -2.5040 0.9687
6.2832 4.1541 -2.5038 0.9687
6.1984 4.2794 -2.5037 0.9687
6.0213 4.5247 -2.5036 0.9688
5.7375 4.8787 -2.5034 0.9688
5.6382 4.9929 -2.5034 0.9688
5.4328 5.2150 -2.5033 0.9688
5.1085 5.5323 -2.5031 0.9688
4.7657 5.8295 -2.5029 0.9688
4.5276 6.0158 -2.5027 0.9688
4.1567 6.2771 -2.5025 0.9688
4.0297 6.3591 -2.5025 0.9688
3.9011 6.4386 -2.5024 0.9688
3.3714 6.7302 -2.5021 0.9688
3.2354 6.7963 -2.5021 0.9688
2.9597 6.9204 -2.5019 0.9688
2.8200 6.9783 -2.5019 0.9688
2.6792 7.0333 -2.5018 0.9688
2.5374 7.0855 -2.5017 0.9688
2.3945 7.1348 -2.5016 0.9688
2.2506 7.1813 -2.5016 0.9688
2.1059 7.2248 -2.5015 0.9688
1.9603 7.2654 -2.5014 0.9688
1.8139 7.3032 -2.5014 0.9688
1.6668 7.3379 -2.5013 0.9688
1.3707 7.3985 -2.5012 0.9688
0.7724 7.4838 -2.5009 0.9688
0.6219 7.4968 -2.5006 0.9688
0.4711 7.5069 -2.5003 0.9688
-0.4347 7.5065 -2.4994 0.9688
-0.5853 7.4961 -2.4993 0.9688
-0.8859 7.4668 -2.4994 0.9688
-1.1852 7.4260 -2.4997 0.9688
-1.4826 7.3730 -2.4999 0.9688
-2.3580 7.1403 -2.4995 0.9688
-2.5008 7.0913 -2.4995 0.9688
-2.9231 6.9274 -2.4993 0.9688
-3.4694 6.6699 -2.4991 0.9688
-3.6026 6.5987 -2.4991 0.9688
-3.7343 6.5249 -2.4990 0.9688
-3.8645 6.4484 -2.4990 0.9688
-4.2456 6.2037 -2.4988 0.9688
-4.6113 5.9364 -2.4987 0.9688
-4.7295 5.8425 -2.4987 0.9688
-4.8458 5.7463 -2.4986 0.9688
-4.9602 5.6477 -2.4986 0.9688
-5.0725 5.5469 -2.4985 0.9688
-5.1829 5.4438 -2.4985 0.9688
-5.3972 5.2311 -2.4984 0.9688
-5.6028 5.0100 -2.4984 0.9688
-5.7022 4.8964 -2.4983 0.9688
-5.7993 4.7808 -2.4983 0.9688
-5.8941 4.6633 -2.4983 0.9688
-6.1641 4.2998 -2.4982 0.9688
-6.3317 4.0487 -2.4982 0.9688
-6.4117 3.9207 -2.4982 0.9688
-6.6360 3.5274 -2.4981 0.9688
-6.7055 3.3934 -2.4981 0.9688
-6.7723 3.2580 -2.4981 0.9688
-6.8976 2.9834 -2.4981 0.9688
-6.9561 2.8442 -2.4981 0.9688
-7.2062 2.1325 -2.4981 0.9688
-7.4340 1.1016 -2.4981 0.9688
-7.4547 0.9521 -2.4981 0.9688
-7.4723 0.8022 -2.4981 0.9688
-7.4870 0.6519 -2.4981 0.9688
-7.4986 0.5014 -2.4981 0.9688
-7.5072 0.3507 -2.4982 0.9688
-7.5128 0.1999 -2.4982 0.9688
-7.5154 0.0489 -2.4982 0.9688
-7.4953 -0.5544 -2.4983 0.9688
-7.4827 -0.7049 -2.4983 0.9688
-7.4486 -1.0048 -2.4984 0.9688
-7.4270 -1.1542 -2.4984 0.9688
-7.3108 -1.7467 -2.4985 0.9688
-7.2349 -2.0389 -2.4986 0.9688
-7.1474 -2.3279 -2.4987 0.9688
-7.0484 -2.6132 -2.4988 0.9688
-6.9946 -2.7543 -2.4988 0.9688
-6.8786 -3.0331 -2.4989 0.9688
-2.9544 -6.3393 -2.5011 0.9707
-2.8266 -6.3975 -2.5012 0.9707
-2.3043 -6.6044 -2.5014 0.9707
-2.1712 -6.6496 -2.5015 0.9707
-2.0373 -6.6920 -2.5016 0.9707
-1.9025 -6.7318 -2.5016 0.9707
-1.7670 -6.7688 -2.5017 0.9707
-1.4938 -6.8346 -2.5018 0.9707
-1.3562 -6.8634 -2.5019 0.9707
-1.2181 -6.8895 -2.5019 0.9707
-1.0796 -6.9127 -2.5020 0.9707
-0.9405 -6.9332 -2.5021 0.9707
-0.6614 -6.9657 -2.5022 0.9707
-0.5213 -6.9778 -2.5023 0.9707
0.1809 -6.9958 -2.5026 0.9707
0.8815 -6.9432 -2.5029 0.9707
1.7101 -6.7879 -2.5032 0.9707
2.3823 -6.5829 -2.5035 0.9707
2.5141 -6.5339 -2.5036 0.9707
2.7746 -6.4279 -2.5037 0.9707
3.1568 -6.2495 -2.5038 0.9707
3.2818 -6.1850 -2.5039 0.9707
3.5277 -6.0484 -2.5039 0.9707
3.6485 -5.9764 -2.5040 0.9707
4.1166 -5.6647 -2.5042 0.9707
4.3410 -5.4950 -2.5042 0.9707
4.4505 -5.4067 -2.5043 0.9707
4.9705 -4.9336 -2.5044 0.9707
5.1647 -4.7301 -2.5045 0.9707
5.3507 -4.5190 -2.5045 0.9707
5.5279 -4.3005 -2.5046 0.9707
5.6133 -4.1887 -2.5046 0.9707
5.7770 -3.9599 -2.5047 0.9707
5.8554 -3.8431 -2.5047 0.9707
6.0052 -3.6049 -2.5047 0.9707
6.0764 -3.4836 -2.5047 0.9707
6.1452 -3.3609 -2.5047 0.9707
6.2115 -3.2368 -2.5048 0.9707
6.2752 -3.1114 -2.5048 0.9707
6.3365 -2.9848 -2.5048 0.9707
6.3952 -2.8569 -2.5048 0.9707
6.4513 -2.7279 -2.5048 0.9707
6.5048 -2.5978 -2.5048 0.9707
6.6039 -2.3344 -2.5048 0.9707
6.6495 -2.2013 -2.5048 0.9707
6.6923 -2.0673 -2.5048 0.9707
6.7325 -1.9325 -2.5048 0.9707
6.7699 -1.7969 -2.5048 0.9707
6.9368 -0.9699 -2.5048 0.9707
6.9548 -0.8304 -2.5048 0.9707
6.9701 -0.6906 -2.5047 0.9707
6.9825 -0.5504 -2.5047 0.9707
6.9921 -0.4101 -2.5047 0.9707
7.0040 0.0117 -2.5047 0.9707
6.9904 0.4335 -2.5046 0.9707
6.9802 0.5738 -2.5046 0.9707
6.9514 0.8537 -2.5045 0.9707
6.9327 0.9931 -2.5045 0.9707
6.9113 1.1321 -2.5045 0.9707
6.8871 1.2707 -2.5044 0.9707
6.8601 1.4087 -2.5044 0.9707
6.8303 1.5462 -2.5044 0.9707
6.7625 1.8192 -2.5043 0.9707
6.6838 2.0893 -2.5042 0.9707
6.6404 2.2231 -2.5042 0.9707
6.5943 2.3560 -2.5042 0.9707
6.5456 2.4879 -2.5041 0.9707
6.3836 2.8774 -2.5040 0.9707
6.3244 3.0050 -2.5040 0.9707
6.1984 3.2565 -2.5039 0.9707
5.9907 3.6236 -2.5037 0.9707
5.9166 3.7431 -2.5037 0.9707
5.8401 3.8611 -2.5036 0.9707
5.7612 3.9776 -2.5036 0.9707
5.5966 4.2056 -2.5035 0.9707
5.5109 4.3170 -2.5034 0.9707
5.1462 4.7450 -2.5032 0.9707
5.0497 4.8472 -2.5031 0.9707
4.9512 4.9476 -2.5031 0.9707
4.7483 5.1422 -2.5030 0.9707
4.6440 5.2364 -2.5029 0.9707
4.5378 5.3285 -2.5028 0.9707
4.2083 5.5917 -2.5027 0.9707
4.0951 5.6749 -2.5026 0.9707
3.9802 5.7559 -2.5025 0.9707
3.5050 6.0562 -2.5023 0.9707
3.3826 6.1252 -2.5022 0.9707
3.1337 6.2558 -2.5021 0.9707
2.8798 6.3762 -2.5020 0.9707
2.7511 6.4326 -2.5019 0.9707
2.3585 6.5861 -2.5017 0.9707
2.2257 6.6320 -2.5016 0.9707
1.9575 6.7157 -2.5015 0.9707
1.4120 6.8504 -2.5012 0.9707
1.2741 6.8772 -2.5012 0.9707
1.1357 6.9012 -2.5011 0.9707
0.9968 6.9225 -2.5011 0.9707
0.8576 6.9409 -2.5010 0.9707
0.5781 6.9694 -2.5009 0.9707
0.4380 6.9794 -2.5008 0.9707
0.2977 6.9866 -2.5007 0.9707
0.1573 6.9910 -2.5007 0.9707
-0.2639 6.9873 -2.5005 0.9707
-0.6842 6.9582 -2.5003 0.9707
-0.9630 6.9248 -2.5002 0.9707
-1.3782 6.8537 -2.5000 0.9707
-2.0582 6.6803 -2.4997 0.9707
-2.1919 6.6374 -2.4997 0.9707
-2.3247 6.5919 -2.4996 0.9707
-2.5875 6.4930 -2.4995 0.9707
-2.7173 6.4396 -2.4995 0.9707
-2.9736 6.3250 -2.4994 0.9707
-3.2251 6.2002 -2.4993 0.9707
-3.3489 6.1341 -2.4992 0.9707
-3.7121 5.9210 -2.4991 0.9707
-3.8302 5.8451 -2.4991 0.9707
-3.9467 5.7669 -2.4990 0.9708
-4.0617 5.6864 -2.4990 0.9708
-4.2867 5.5185 -2.4989 0.9708
-4.6110 5.2501 -2.4988 0.9708
-4.7154 5.1564 -2.4988 0.9708
-4.8180 5.0606 -2.4987 0.9708
-5.0172 4.8629 -2.4987 0.9708
-5.1138 4.7611 -2.4986 0.9708
-5.3911 4.4443 -2.4985 0.9708
-5.4792 4.3351 -2.4985 0.9708
-5.5651 4.2241 -2.4985 0.9708
-5.8093 3.8812 -2.4984 0.9708
-5.8860 3.7638 -2.4984 0.9708
-5.9604 3.6448 -2.4984 0.9708
-6.0323 3.5243 -2.4984 0.9708
-6.1019 3.4024 -2.4984 0.9708
-6.3552 2.9017 -2.4983 0.9708
-6.5183 2.5137 -2.4983 0.9708
-6.6578 2.1165 -2.4983 0.9708
-6.7375 1.8474 -2.4983 0.9708
-6.7732 1.7118 -2.4983 0.9708
-6.8365 1.4383 -2.4983 0.9708
-6.9108 1.0241 -2.4983 0.9708
-6.9300 0.8850 -2.4983 0.9708
-6.9600 0.6060 -2.4984 0.9708
-6.9864 0.0455 -2.4984 0.9708
-6.9827 -0.2351 -2.4985 0.9708
-6.9766 -0.3753 -2.4985 0.9708
-6.9677 -0.5154 -2.4985 0.9708
-6.9560 -0.6552 -2.4985 0.9708
-6.9416 -0.7948 -2.4986 0.9708
-6.9243 -0.9341 -2.4986 0.9708
-6.9042 -1.0730 -2.4986 0.9708
-6.8813 -1.2115 -2.4987 0.9708
-6.7622 -1.7599 -2.4988 0.9708
-6.7256 -1.8954 -2.4988 0.9708
-6.5996 -2.2971 -2.4989 0.9708
-6.5022 -2.5604 -2.4990 0.9708
-6.3365 -2.9474 -2.4991 0.9707
-3.5583 -5.4701 -2.5007 0.9724
-3.3358 -5.6088 -2.5008 0.9724
-3.2226 -5.6748 -2.5009 0.9724
-3.1081 -5.7386 -2.5009 0.9724
-2.6377 -5.9701 -2.5012 0.9724
-2.5173 -6.0220 -2.5013 0.9724
-2.3959 -6.0715 -2.5013 0.9724
-2.2736 -6.1185 -2.5014 0.9724
-2.0261 -6.2052 -2.5015 0.9724
-1.7754 -6.2819 -2.5016 0.9724
-1.6489 -6.3164 -2.5017 0.9724
-1.3939 -6.3778 -2.5018 0.9724
-1.2656 -6.4047 -2.5019 0.9724
-1.1367 -6.4290 -2.5019 0.9724
-0.8777 -6.4698 -2.5020 0.9724
-0.7476 -6.4862 -2.5021 0.9724
-0.4865 -6.5113 -2.5022 0.9724
-0.3556 -6.5200 -2.5023 0.9724
-0.0935 -6.5293 -2.5024 0.9724
0.0377 -6.5300 -2.5025 0.9724
0.1688 -6.5281 -2.5025 0.9724
0.4309 -6.5163 -2.5026 0.9724
0.5617 -6.5065 -2.5027 0.9724
1.0822 -6.4410 -2.5029 0.9724
1.2113 -6.4181 -2.5030 0.9724
1.3400 -6.3926 -2.5030 0.9724
1.5958 -6.3339 -2.5031 0.9724
1.7227 -6.3007 -2.5032 0.9724
1.8489 -6.2650 -2.5032 0.9724
2.0991 -6.1859 -2.5033 0.9724
2.3460 -6.0969 -2.5034 0.9724
2.4680 -6.0486 -2.5035 0.9724
2.7090 -5.9449 -2.5036 0.9724
2.8279 -5.8894 -2.5036 0.9724
2.9457 -5.8315 -2.5037 0.9724
3.2917 -5.6438 -2.5038 0.9724
3.5158 -5.5072 -2.5039 0.9724
3.6258 -5.4356 -2.5039 0.9724
3.9467 -5.2076 -2.5040 0.9724
4.1528 -5.0450 -2.5041 0.9724
4.2533 -4.9607 -2.5041 0.9724
4.3521 -4.8743 -2.5042 0.9724
4.4492 -4.7860 -2.5042 0.9724
4.5445 -4.6957 -2.5042 0.9724
4.6380 -4.6035 -2.5042 0.9724
4.9927 -4.2166 -2.5043 0.9724
5.0764 -4.1155 -2.5044 0.9724
5.1581 -4.0128 -2.5044 0.9724
5.2377 -3.9084 -2.5044 0.9724
5.3152 -3.8025 -2.5044 0.9724
5.6033 -3.3637 -2.5045 0.9724
5.7340 -3.1360 -2.5045 0.9724
5.7958 -3.0202 -2.5045 0.9724
6.1620 -2.1782 -2.5046 0.9724
6.2045 -2.0540 -2.5046 0.9724
6.2445 -1.9290 -2.5046 0.9724
6.2820 -1.8032 -2.5046 0.9724
6.3792 -1.4216 -2.5046 0.9724
6.4532 -1.0349 -2.5046 0.9724
6.5037 -0.6443 -2.5045 0.9724
6.5132 0.5354 -2.5044 0.9724
6.5010 0.6661 -2.5044 0.9724
6.4863 0.7966 -2.5043 0.9724
6.4489 1.0564 -2.5043 0.9724
6.4011 1.3145 -2.5042 0.9724
6.3734 1.4428 -2.5042 0.9724
6.2747 1.8239 -2.5041 0.9724
6.2367 1.9495 -2.5041 0.9724
6.0598 2.4436 -2.5039 0.9724
6.0094 2.5648 -2.5039 0.9724
5.9566 2.6850 -2.5038 0.9724
5.9013 2.8040 -2.5038 0.9724
5.7215 3.1541 -2.5037 0.9724
5.6569 3.2684 -2.5036 0.9724
5.5208 3.4928 -2.5035 0.9724
5.4495 3.6029 -2.5035 0.9724
5.3759 3.7115 -2.5034 0.9724
5.1423 4.0283 -2.5033 0.9724
4.9762 4.2314 -2.5032 0.9724
4.8901 4.3304 -2.5031 0.9724
4.6202 4.6167 -2.5030 0.9724
4.5264 4.7085 -2.5029 0.9724
4.3335 4.8863 -2.5028 0.9724
4.0311 5.1380 -2.5026 0.9724
3.9270 5.2178 -2.5026 0.9724
3.7141 5.3711 -2.5025 0.9724
3.3836 5.5846 -2.5023 0.9724
3.2707 5.6513 -2.5022 0.9724
3.1565 5.7157 -2.5022 0.9724
3.0410 5.7778 -2.5021 0.9724
2.5672 6.0027 -2.5019 0.9724
2.3239 6.1006 -2.5018 0.9724
2.0770 6.1888 -2.5016 0.9724
1.9522 6.2291 -2.5016 0.9724
1.7004 6.3021 -2.5015 0.9724
1.1890 6.4176 -2.5012 0.9724
1.0598 6.4401 -2.5011 0.9724
0.8003 6.4771 -2.5010 0.9724
0.6700 6.4917 -2.5010 0.9724
0.4087 6.5131 -2.5008 0.9724
-0.1153 6.5243 -2.5006 0.9724
-0.2463 6.5205 -2.5006 0.9724
-0.3772 6.5141 -2.5005 0.9724
-0.5079 6.5051 -2.5004 0.9724
-0.8987 6.4622 -2.5003 0.9724
-1.1575 6.4206 -2.5002 0.9724
-1.2862 6.3960 -2.5001 0.9724
-1.7952 6.2716 -2.4999 0.9724
-1.9207 6.2341 -2.4998 0.9724
-2.0455 6.1942 -2.4998 0.9724
-2.4147 6.0594 -2.4997 0.9724
-2.5359 6.0096 -2.4996 0.9724
-2.6560 5.9573 -2.4996 0.9724
-3.1253 5.7245 -2.4994 0.9724
-3.2396 5.6605 -2.4993 0.9724
-3.4642 5.5256 -2.4993 0.9724
-3.8963 5.2295 -2.4991 0.9725
-4.1030 5.0686 -2.4990 0.9725
-4.3032 4.8996 -2.4990 0.9725
-4.4964 4.7227 -2.4989 0.9725
-4.5903 4.6314 -2.4989 0.9725
-4.6823 4.5383 -2.4989 0.9725
-4.7725 4.4432 -2.4988 0.9725
-5.1135 4.0457 -2.4987 0.9725
-5.2717 3.8370 -2.4987 0.9725
-5.3477 3.7303 -2.4987 0.9725
-5.4931 3.5125 -2.4986 0.9725
-5.6297 3.2890 -2.4986 0.9725
-5.6946 3.1753 -2.4986 0.9725
-5.8174 2.9440 -2.4986 0.9725
-5.9309 2.7080 -2.4985 0.9725
-6.0349 2.4676 -2.4985 0.9725
-6.0832 2.3459 -2.4985 0.9725
-6.1725 2.0997 -2.4985 0.9725
-6.2134 1.9753 -2.4985 0.9725
-6.3802 1.3424 -2.4985 0.9725
-6.4495 0.9557 -2.4986 0.9725
-6.4674 0.8260 -2.4986 0.9725
-6.4954 0.5656 -2.4986 0.9725
-6.5196 -0.0885 -2.4987 0.9725
-6.5109 -0.3503 -2.4987 0.9725
-6.4917 -0.6115 -2.4987 0.9725
-6.4782 -0.7418 -2.4988 0.9725
-6.3715 -1.3876 -2.4989 0.9725
-6.3424 -1.5153 -2.4989 0.9725
-6.2766 -1.7689 -2.4990 0.9725
-6.2007 -2.0196 -2.4991 0.9725
-6.1589 -2.1437 -2.4991 0.9725
-6.1147 -2.2670 -2.4991 0.9725
-5.9674 -2.6313 -2.4993 0.9724
-5.9134 -2.7506 -2.4993 0.9724
-3.2283 -5.1879 -2.5008 0.9739
-2.9102 -5.3733 -2.5010 0.9739
-2.6922 -5.4861 -2.5011 0.9739
-2.5815 -5.5392 -2.5012 0.9739
-2.3571 -5.6386 -2.5013 0.9739
-2.1288 -5.7290 -2.5014 0.9739
-1.8971 -5.8101 -2.5015 0.9739
-1.7801 -5.8472 -2.5016 0.9739
-1.5439 -5.9142 -2.5017 0.9739
-1.4248 -5.9442 -2.5017 0.9739
-1.0643 -6.0196 -2.5019 0.9739
-0.9432 -6.0399 -2.5020 0.9739
-0.8218 -6.0578 -2.5020 0.9739
-0.5778 -6.0862 -2.5021 0.9739
-0.4555 -6.0967 -2.5022 0.9739
-0.0875 -6.1135 -2.5023 0.9739
0.1581 -6.1123 -2.5025 0.9739
0.4034 -6.1013 -2.5026 0.9739
0.5259 -6.0921 -2.5026 0.9739
0.6482 -6.0804 -2.5027 0.9739
0.8919 -6.0497 -2.5028 0.9739
1.1342 -6.0093 -2.5029 0.9739
1.3747 -5.9591 -2.5030 0.9739
1.4941 -5.9304 -2.5030 0.9739
1.8486 -5.8300 -2.5032 0.9739
1.9654 -5.7918 -2.5032 0.9739
2.0814 -5.7513 -2.5033 0.9739
2.1965 -5.7084 -2.5033 0.9739
2.3107 -5.6633 -2.5034 0.9739
2.7580 -5.4599 -2.5035 0.9739
2.9751 -5.3449 -2.5036 0.9739
3.0819 -5.2842 -2.5036 0.9739
3.2918 -5.1563 -2.5037 0.9739
3.3947 -5.0892 -2.5038 0.9739
3.6952 -4.8757 -2.5039 0.9739
4.1657 -4.4810 -2.5040 0.9739
4.2549 -4.3965 -2.5040 0.9739
4.3424 -4.3102 -2.5041 0.9739
4.5942 -4.0410 -2.5041 0.9739
4.6745 -3.9479 -2.5042 0.9739
4.7529 -3.8533 -2.5042 0.9739
4.9039 -3.6593 -2.5042 0.9739
5.1819 -3.2540 -2.5043 0.9739
5.2462 -3.1493 -2.5043 0.9739
5.4264 -2.8277 -2.5044 0.9739
5.4821 -2.7182 -2.5044 0.9739
5.5869 -2.4958 -2.5044 0.9739
5.6827 -2.2694 -2.5044 0.9739
5.8091 -1.9231 -2.5044 0.9739
5.9446 -1.4507 -2.5044 0.9739
6.0601 -0.8474 -2.5044 0.9739
6.0758 -0.7255 -2.5044 0.9739
6.0892 -0.6033 -2.5043 0.9739
6.1000 -0.4808 -2.5043 0.9739
6.1084 -0.3583 -2.5043 0.9739
6.1178 -0.1126 -2.5043 0.9739
6.1188 0.0103 -2.5043 0.9739
6.1173 0.1331 -2.5043 0.9739
6.1134 0.2560 -2.5042 0.9739
6.1069 0.3787 -2.5042 0.9739
6.0867 0.6237 -2.5042 0.9739
6.0566 0.8676 -2.5041 0.9739
6.0379 0.9891 -2.5041 0.9739
6.0168 1.1101 -2.5041 0.9739
5.9388 1.4704 -2.5040 0.9739
5.8748 1.7077 -2.5039 0.9739
5.8393 1.8253 -2.5039 0.9739
5.7185 2.1735 -2.5038 0.9739
5.6736 2.2879 -2.5038 0.9739
5.6264 2.4014 -2.5037 0.9739
5.5770 2.5139 -2.5037 0.9739
5.3569 2.9532 -2.5035 0.9739
5.1691 3.2702 -2.5034 0.9739
5.1023 3.3733 -2.5034 0.9739
5.0334 3.4751 -2.5033 0.9739
4.9625 3.5754 -2.5033 0.9739
4.7379 3.8675 -2.5031 0.9739
4.6592 3.9618 -2.5031 0.9739
4.5786 4.0546 -2.5030 0.9739
4.2381 4.4086 -2.5028 0.9739
4.1486 4.4927 -2.5028 0.9739
3.9647 4.6555 -2.5027 0.9739
3.8703 4.7341 -2.5026 0.9739
3.4775 5.0290 -2.5024 0.9739
3.0624 5.2914 -2.5022 0.9739
2.9555 5.3517 -2.5021 0.9739
2.8473 5.4099 -2.5021 0.9739
2.7380 5.4659 -2.5020 0.9739
2.5162 5.5712 -2.5019 0.9739
2.4037 5.6205 -2.5019 0.9739
2.2903 5.6675 -2.5018 0.9739
2.1760 5.7122 -2.5017 0.9739
2.0608 5.7546 -2.5017 0.9739
1.8279 5.8325 -2.5016 0.9739
1.7104 5.8679 -2.5015 0.9739
1.3538 5.9598 -2.5013 0.9739
0.5051 6.0898 -2.5009 0.9739
0.3827 6.0985 -2.5009 0.9739
0.1375 6.1087 -2.5008 0.9739
0.0148 6.1101 -2.5007 0.9739
-0.3532 6.0995 -2.5006 0.9739
-0.4756 6.0911 -2.5005 0.9739
-0.5979 6.0802 -2.5005 0.9739
-0.7198 6.0668 -2.5004 0.9739
-0.8415 6.0510 -2.5004 0.9739
-0.9629 6.0328 -2.5003 0.9739
-1.0838 6.0121 -2.5003 0.9739
-1.2043 5.9890 -2.5002 0.9739
-1.3243 5.9635 -2.5002 0.9739
-1.4438 5.9355 -2.5001 0.9739
-1.6810 5.8725 -2.5000 0.9739
-1.7985 5.8375 -2.5000 0.9739
-1.9154 5.8001 -2.4999 0.9739
-2.2611 5.6739 -2.4998 0.9739
-2.5985 5.5271 -2.4996 0.9739
-2.8183 5.4181 -2.4996 0.9739
-2.9265 5.3604 -2.4995 0.9739
-3.1393 5.2383 -2.4994 0.9740
-3.4489 5.0396 -2.4993 0.9740
-3.5494 4.9692 -2.4993 0.9740
-3.6484 4.8968 -2.4993 0.9740
-3.7460 4.8225 -2.4992 0.9740
-3.9366 4.6680 -2.4992 0.9740
-4.1208 4.5061 -2.4991 0.9740
-4.2104 4.4224 -2.4991 0.9740
-4.2983 4.3369 -2.4990 0.9740
-4.3845 4.2496 -2.4990 0.9740
-4.4689 4.1606 -2.4990 0.9740
-4.7882 3.7884 -2.4989 0.9740
-4.8633 3.6914 -2.4989 0.9740
-4.9365 3.5930 -2.4989 0.9740
-5.0076 3.4931 -2.4988 0.9740
-5.0767 3.3918 -2.4988 0.9740
-5.3324 2.9733 -2.4988 0.9740
-5.3910 2.8656 -2.4988 0.9740
-5.4475 2.7568 -2.4988 0.9740
-5.5017 2.6468 -2.4987 0.9740
-5.5538 2.5358 -2.4987 0.9740
-5.6511 2.3106 -2.4987 0.9740
-5.6963 2.1967 -2.4987 0.9740
-5.7800 1.9661 -2.4987 0.9740
-5.8183 1.8496 -2.4987 0.9740
-5.8543 1.7324 -2.4987 0.9740
-5.9744 1.2570 -2.4987 0.9740
-6.0393 0.8949 -2.4987 0.9740
-6.0988 0.2849 -2.4988 0.9740
-6.1033 0.1624 -2.4988 0.9740
-6.1050 -0.0829 -2.4988 0.9740
-6.1021 -0.2055 -2.4989 0.9740
-6.0891 -0.4504 -2.4989 0.9740
-6.0788 -0.5726 -2.4989 0.9740
-6.0662 -0.6946 -2.4989 0.9740
-6.0510 -0.8163 -2.4990 0.9740
-6.0335 -0.9377 -2.4990 0.9740
-5.9662 -1.2994 -2.4991 0.9740
-5.8774 -1.6564 -2.4992 0.9740
-5.8430 -1.7741 -2.4992 0.9740
-5.5878 -2.4639 -2.4994 0.9740
-3.1289 -4.8101 -2.5008 0.9753
-2.9334 -4.9321 -2.5009 0.9753
-2.8338 -4.9901 -2.5010 0.9753
-2.5283 -5.1520 -2.5011 0.9753
-2.4243 -5.2019 -2.5012 0.9753
-2.3194 -5.2496 -2.5012 0.9753
-2.2135 -5.2953 -2.5013 0.9753
-1.9992 -5.3801 -2.5014 0.9753
-1.8908 -5.4193 -2.5014 0.9753
-1.6717 -5.4911 -2.5016 0.9753
-1.5611 -5.5237 -2.5016 0.9753
-1.4499 -5.5540 -2.5017 0.9753
-1.3380 -5.5822 -2.5017 0.9753
-1.2257 -5.6080 -2.5018 0.9753
-1.1128 -5.6316 -2.5018 0.9753
-0.9995 -5.6530 -2.5019 0.9753
-0.7717 -5.6888 -2.5020 0.9753
-0.3127 -5.7329 -2.5022 0.9753
0.0331 -5.7416 -2.5023 0.9753
0.1484 -5.7399 -2.5024 0.9753
0.2637 -5.7359 -2.5024 0.9753
0.3789 -5.7296 -2.5025 0.9753
0.4939 -5.7209 -2.5025 0.9753
0.6087 -5.7100 -2.5026 0.9753
0.7233 -5.6967 -2.5026 0.9753
0.8376 -5.6811 -2.5027 0.9753
0.9515 -5.6633 -2.5027 0.9753
1.0651 -5.6431 -2.5028 0.9753
1.7360 -5.4748 -2.5031 0.9753
1.8456 -5.4389 -2.5031 0.9753
2.3818 -5.2269 -2.5033 0.9752
2.4864 -5.1781 -2.5034 0.9752
2.6924 -5.0742 -2.5034 0.9752
2.8941 -4.9621 -2.5035 0.9752
3.1878 -4.7790 -2.5036 0.9752
3.2832 -4.7141 -2.5037 0.9752
3.5613 -4.5080 -2.5037 0.9752
3.7395 -4.3614 -2.5038 0.9752
3.8264 -4.2855 -2.5038 0.9752
3.9117 -4.2078 -2.5039 0.9752
4.0777 -4.0474 -2.5039 0.9752
4.3141 -3.7946 -2.5040 0.9752
4.4631 -3.6183 -2.5040 0.9752
4.5349 -3.5280 -2.5041 0.9752
4.6730 -3.3431 -2.5041 0.9752
4.8036 -3.1527 -2.5041 0.9752
4.9264 -2.9573 -2.5041 0.9752
4.9848 -2.8578 -2.5042 0.9752
5.0412 -2.7571 -2.5042 0.9752
5.1982 -2.4486 -2.5042 0.9752
5.2463 -2.3437 -2.5042 0.9752
5.2923 -2.2378 -2.5042 0.9752
5.3362 -2.1311 -2.5042 0.9752
5.3780 -2.0235 -2.5042 0.9752
5.4901 -1.6959 -2.5042 0.9752
5.5230 -1.5853 -2.5042 0.9752
5.5822 -1.3622 -2.5042 0.9752
5.6085 -1.2498 -2.5042 0.9752
5.6541 -1.0236 -2.5042 0.9752
5.7054 -0.6812 -2.5042 0.9752
5.7179 -0.5665 -2.5042 0.9752
5.7281 -0.4516 -2.5042 0.9752
5.7448 -0.1058 -2.5041 0.9752
5.7346 0.3556 -2.5041 0.9752
5.7263 0.4707 -2.5040 0.9752
5.6698 0.9287 -2.5039 0.9752
5.6500 1.0424 -2.5039 0.9752
5.6279 1.1557 -2.5039 0.9752
5.5167 1.6036 -2.5038 0.9752
5.4099 1.9328 -2.5037 0.9752
5.3700 2.0411 -2.5037 0.9752
5.2835 2.2550 -2.5036 0.9752
5.2371 2.3606 -2.5036 0.9752
5.0852 2.6716 -2.5035 0.9752
5.0304 2.7732 -2.5034 0.9752
4.9148 2.9729 -2.5033 0.9752
4.7913 3.1678 -2.5033 0.9752
4.7267 3.2633 -2.5032 0.9752
4.3753 3.7204 -2.5030 0.9753
4.2996 3.8075 -2.5029 0.9753
4.0623 4.0592 -2.5028 0.9753
3.8958 4.2190 -2.5027 0.9753
3.8102 4.2963 -2.5027 0.9753
3.6345 4.4457 -2.5026 0.9753
3.4529 4.5879 -2.5025 0.9753
3.3599 4.6562 -2.5024 0.9753
3.2657 4.7227 -2.5024 0.9753
2.9752 4.9104 -2.5022 0.9753
2.8759 4.9691 -2.5022 0.9753
2.6739 5.0804 -2.5021 0.9753
2.4676 5.1834 -2.5019 0.9753
2.3629 5.2318 -2.5019 0.9753
2.0434 5.3643 -2.5017 0.9753
1.9352 5.4042 -2.5017 0.9753
1.4952 5.5416 -2.5015 0.9753
1.3835 5.5704 -2.5014 0.9753
1.0455 5.6432 -2.5012 0.9753
0.8180 5.6804 -2.5011 0.9753
0.7037 5.6955 -2.5011 0.9753
0.4744 5.7190 -2.5010 0.9753
0.1291 5.7368 -2.5008 0.9753
-0.1014 5.7371 -2.5007 0.9753
-0.2166 5.7338 -2.5007 0.9753
-0.3317 5.7282 -2.5006 0.9753
-0.4467 5.7203 -2.5006 0.9753
-0.5615 5.7100 -2.5005 0.9753
-0.7903 5.6826 -2.5004 0.9753
-1.0178 5.6461 -2.5003 0.9753
-1.1310 5.6244 -2.5003 0.9753
-1.2437 5.6005 -2.5002 0.9753
-1.5786 5.5151 -2.5001 0.9753
-1.7988 5.4471 -2.5000 0.9753
-2.1235 5.3286 -2.4999 0.9753
-2.3357 5.2388 -2.4998 0.9753
-2.7484 5.0342 -2.4996 0.9753
-2.9483 4.9196 -2.4996 0.9753
-3.1434 4.7971 -2.4995 0.9753
-3.3334 4.6668 -2.4994 0.9753
-3.4264 4.5989 -2.4994 0.9753
-3.5181 4.5291 -2.4994 0.9753
