ply
format ascii 1.0
element vertex 1542
property float32 x
property float32 y
property float32 z
property float32 I
end_header
55.3719 -17.6651 -1.6366 0.7925
54.7989 -16.2734 -1.6096 0.7955
54.2442 -14.9262 -1.5842 0.7984
53.7066 -13.6205 -1.5601 0.8011
53.1759 -12.3512 -1.5372 0.8038
49.7989 -5.3654 -1.4103 0.8184
49.1972 -4.2998 -1.3906 0.8207
47.5889 -3.1946 -1.3430 0.8262
47.2076 -2.2147 -1.3307 0.8277
46.8321 -1.2522 -1.3192 0.8291
46.4313 -0.3056 -1.3074 0.8304
46.6302 0.6327 -1.3131 0.8298
47.0506 1.5870 -1.3256 0.8283
46.9746 2.5328 -1.3246 0.8284
52.2743 4.9370 -1.4785 0.8105
56.2005 6.4526 -1.5929 0.7974
71.0605 12.5466 -2.0319 0.7492
26.5938 5.2500 -0.7633 0.8972
86.9289 20.8320 -2.5170 0.6993
-42.3932 21.6248 -2.4135 0.8265
-42.7583 20.7362 -2.4100 0.8267
-43.1033 19.8410 -2.4064 0.8269
-43.7341 18.0333 -2.3991 0.8274
-44.0204 17.1220 -2.3954 0.8276
-19.7885 6.7924 -1.0610 0.9196
-21.8993 6.5434 -1.1591 0.9125
-22.9637 5.8649 -1.2020 0.9094
-22.7569 5.3261 -1.1851 0.9106
-45.7748 7.8320 -2.3552 0.8303
-45.8403 6.8957 -2.3509 0.8306
-45.8861 5.9598 -2.3466 0.8308
-33.1049 2.9495 -1.6855 0.8754
-45.9045 3.1591 -2.3335 0.8317
-45.9624 -0.5463 -2.3311 0.8319
-45.9599 -1.4728 -2.3320 0.8318
-45.9389 -2.3995 -2.3329 0.8317
-47.7569 -5.4018 -2.4374 0.8249
-48.6318 -6.4956 -2.4882 0.8216
-48.5107 -7.4771 -2.4892 0.8215
-48.3698 -8.4564 -2.4902 0.8215
-48.0293 -10.4068 -2.4923 0.8213
-47.3719 -13.3058 -2.4954 0.8211
-46.8365 -15.2162 -2.4975 0.8210
-46.5398 -16.1636 -2.4985 0.8209
-45.8893 -18.0405 -2.5006 0.8208
-43.9346 -22.6119 -2.5059 0.8205
-43.4883 -23.5024 -2.5069 0.8204
-40.4030 -22.8986 -2.3552 0.8303
-36.3580 -21.5853 -2.1443 0.8442
-38.9948 -25.3293 -2.3582 0.8301
-35.8437 -24.3232 -2.1968 0.8407
-27.6614 -21.3204 -1.7712 0.8695
-17.4344 -17.1630 -1.2407 0.9067
-16.3382 -16.7453 -1.1865 0.9106
-14.3086 -15.8992 -1.0848 0.9179
-15.2238 -19.1235 -1.2396 0.9067
-14.8287 -20.2507 -1.2729 0.9044
-13.8268 -20.5728 -1.2571 0.9055
-12.4774 -20.2850 -1.2078 0.9090
-11.7432 -19.9828 -1.1754 0.9113
-11.0470 -19.6962 -1.1453 0.9135
-10.3855 -19.4238 -1.1170 0.9156
-9.7742 -19.2013 -1.0927 0.9173
-6.0594 -13.9261 -0.7702 0.9410
-5.3265 -13.7287 -0.7468 0.9427
-5.1143 -14.0125 -0.7565 0.9420
-4.7969 -14.0134 -0.7512 0.9424
-4.4043 -13.7656 -0.7330 0.9438
-4.0601 -13.6301 -0.7213 0.9446
-3.6026 -14.1554 -0.7408 0.9432
-3.1852 -13.6612 -0.7114 0.9454
-2.6011 -13.6156 -0.7030 0.9460
-2.3625 -13.8781 -0.7139 0.9452
-2.0498 -13.7052 -0.7028 0.9460
-1.7799 -13.7949 -0.7054 0.9458
-1.2081 -13.6900 -0.6970 0.9464
-0.9567 -14.0743 -0.7154 0.9451
-0.1026 -13.8266 -0.7012 0.9461
0.7415 -13.9699 -0.7095 0.9455
1.0184 -13.8932 -0.7065 0.9457
1.2996 -13.8857 -0.7073 0.9457
1.5876 -13.9313 -0.7111 0.9454
2.1761 -14.0399 -0.7205 0.9447
2.3913 -13.6104 -0.7008 0.9462
3.5830 -13.7722 -0.7217 0.9446
4.2190 -13.8935 -0.7364 0.9435
4.5749 -14.0414 -0.7489 0.9426
5.8602 -14.0339 -0.7713 0.9409
6.3132 -14.3015 -0.7928 0.9393
6.9113 -14.0906 -0.7959 0.9391
7.6788 -14.1801 -0.8178 0.9375
8.5511 -14.3758 -0.8483 0.9352
8.9770 -14.4223 -0.8615 0.9342
10.3542 -14.5897 -0.9073 0.9309
10.8573 -14.6633 -0.9253 0.9295
12.5793 -15.0016 -0.9929 0.9246
13.2100 -15.1240 -1.0184 0.9227
13.8950 -15.2759 -1.0472 0.9206
17.7211 -16.5786 -1.2307 0.9074
19.4203 -17.4480 -1.3240 0.9007
39.3406 -31.2643 -2.5484 0.8177
41.6932 -27.9708 -2.5462 0.8178
42.2380 -27.1185 -2.5456 0.8179
42.7653 -26.2556 -2.5449 0.8179
43.2747 -25.3822 -2.5443 0.8180
43.7660 -24.4988 -2.5436 0.8180
45.1289 -21.7922 -2.5415 0.8181
45.9437 -19.9449 -2.5401 0.8182
46.3224 -19.0094 -2.5393 0.8183
46.1018 -11.6918 -2.4120 0.8266
45.6831 -10.6108 -2.3785 0.8287
42.4271 -5.4380 -2.1693 0.8426
43.2555 -4.6604 -2.2064 0.8401
46.8107 -1.2516 -2.3748 0.8290
46.7969 4.4196 -2.3838 0.8284
46.7140 5.3634 -2.3846 0.8283
37.1628 5.7920 -1.9074 0.8602
36.2543 7.9193 -1.8820 0.8619
-28.3348 15.1807 -2.3570 0.8790
-28.8626 13.9973 -2.3520 0.8793
-29.7657 11.5775 -2.3418 0.8798
-29.9594 10.9632 -2.3391 0.8799
-19.7885 6.7925 -1.5340 0.9195
-22.7103 6.2902 -1.7279 0.9098
-22.9443 5.8600 -1.7363 0.9094
-22.7580 5.3264 -1.7135 0.9105
-31.0838 6.6174 -2.3302 0.8803
-31.4496 4.7309 -2.3319 0.8802
-31.6304 3.4618 -2.3331 0.8802
-31.7019 2.8245 -2.3337 0.8802
-33.9341 -0.4033 -2.4883 0.8727
-33.9086 -1.7711 -2.4896 0.8727
-33.8283 -3.1375 -2.4910 0.8726
-33.7676 -3.8194 -2.4917 0.8726
-33.6931 -4.5003 -2.4924 0.8726
-33.6050 -5.1796 -2.4931 0.8725
-33.3880 -6.5330 -2.4945 0.8725
-33.1166 -7.8773 -2.4959 0.8724
-32.9606 -8.5454 -2.4966 0.8723
-32.6084 -9.8721 -2.4981 0.8723
-31.7445 -12.4798 -2.5010 0.8721
-30.6724 -15.0124 -2.5039 0.8720
-30.0602 -16.2454 -2.5054 0.8719
-26.9402 -17.4992 -2.3555 0.8791
-26.5898 -18.0436 -2.3561 0.8791
-25.8560 -19.1111 -2.3575 0.8790
-22.5644 -18.8887 -2.1576 0.8887
-20.8647 -18.1932 -2.0298 0.8949
-19.3546 -17.5753 -1.9169 0.9005
-18.0787 -17.0938 -1.8243 0.9050
-17.5283 -17.2554 -1.8035 0.9061
-14.3361 -15.9296 -1.5713 0.9176
-13.5922 -15.7292 -1.5242 0.9200
-13.1997 -16.5808 -1.5539 0.9185
-14.3465 -20.4440 -1.8313 0.9047
-13.5950 -21.1356 -1.8426 0.9041
-9.7742 -19.2013 -1.5798 0.9172
-9.1540 -18.9163 -1.5409 0.9192
-6.0660 -13.9413 -1.1148 0.9408
-5.3717 -13.8451 -1.0889 0.9422
-4.7566 -13.8956 -1.0769 0.9428
-4.4165 -13.8036 -1.0627 0.9435
-2.8729 -13.5508 -1.0157 0.9460
-2.0507 -13.7111 -1.0165 0.9459
-1.7760 -13.7648 -1.0176 0.9459
-1.4766 -13.5978 -1.0029 0.9466
-1.2055 -13.6609 -1.0055 0.9465
-0.9249 -13.6069 -1.0000 0.9468
0.1742 -13.6865 -1.0036 0.9466
0.4503 -13.6929 -1.0045 0.9465
0.7315 -13.7815 -1.0119 0.9462
1.5691 -13.7684 -1.0161 0.9459
1.8597 -13.8348 -1.0235 0.9456
2.1140 -13.6390 -1.0120 0.9461
2.7049 -13.7623 -1.0284 0.9453
3.6178 -13.9059 -1.0535 0.9440
4.2376 -13.9548 -1.0693 0.9432
5.5124 -13.9872 -1.1023 0.9415
6.5210 -14.0017 -1.1325 0.9399
6.8868 -14.0406 -1.1467 0.9392
7.6625 -14.1501 -1.1799 0.9375
8.4912 -14.2751 -1.2178 0.9356
8.9771 -14.4226 -1.2456 0.9341
9.4241 -14.4818 -1.2669 0.9330
9.8748 -14.5257 -1.2879 0.9320
10.8805 -14.6948 -1.3407 0.9293
15.3827 -15.5997 -1.6064 0.9159
16.4474 -16.0205 -1.6835 0.9120
24.5795 -21.2040 -2.3802 0.8779
24.9984 -20.7017 -2.3798 0.8779
28.2702 -19.8031 -2.5308 0.8707
29.7755 -17.4645 -2.5310 0.8707
30.1160 -16.8580 -2.5306 0.8707
30.4439 -16.2448 -2.5301 0.8708
30.7593 -15.6252 -2.5296 0.8708
31.0618 -14.9994 -2.5292 0.8708
31.6283 -13.7303 -2.5281 0.8708
32.6034 -11.1299 -2.5260 0.8709
32.8138 -10.4685 -2.5254 0.8710
33.5191 -7.7854 -2.5231 0.8711
33.7892 -6.4257 -2.5219 0.8711
33.9035 -5.7422 -2.5213 0.8712
34.0038 -5.0567 -2.5206 0.8712
34.0902 -4.3694 -2.5200 0.8712
34.1626 -3.6808 -2.5194 0.8713
32.2131 0.4371 -2.3622 0.8788
32.1890 1.0857 -2.3615 0.8788
32.1518 1.7335 -2.3609 0.8789
31.8723 4.3116 -2.3582 0.8790
27.0415 4.2146 -2.0067 0.8960
25.6448 5.0627 -1.9166 0.9005
26.1817 6.2743 -1.9741 0.8976
-22.0503 10.1500 -2.3305 0.9071
-22.2537 9.7052 -2.3308 0.9070
-22.4482 9.2563 -2.3312 0.9070
-22.6337 8.8035 -2.3315 0.9070
-22.8101 8.3470 -2.3319 0.9070
-23.1355 7.4237 -2.3327 0.9070
-23.5539 6.0157 -2.3339 0.9069
-22.7590 5.3266 -2.2440 0.9103
-23.7856 5.0637 -2.3347 0.9069
-23.8872 4.5842 -2.3351 0.9069
-25.3706 3.8165 -2.4631 0.9020
-25.8694 1.7803 -2.4895 0.9010
-25.9453 0.2144 -2.4910 0.9010
-25.9496 -0.3084 -2.4915 0.9010
-25.9435 -0.8314 -2.4920 0.9010
-25.9269 -1.3542 -2.4925 0.9009
-25.8997 -1.8767 -2.4930 0.9009
-25.8621 -2.3986 -2.4935 0.9009
-25.6864 -3.9591 -2.4951 0.9008
-25.6070 -4.4768 -2.4957 0.9008
-25.1853 -6.5296 -2.4979 0.9007
-24.5996 -8.5436 -2.5001 0.9006
-24.4279 -9.0395 -2.5006 0.9006
-24.2462 -9.5320 -2.5012 0.9006
-24.0546 -10.0207 -2.5017 0.9006
-23.8531 -10.5057 -2.5023 0.9006
-23.1903 -11.9354 -2.5040 0.9005
-22.9502 -12.4030 -2.5045 0.9005
-21.5780 -14.6426 -2.5035 0.9005
-18.1836 -16.5121 -2.3581 0.9060
-17.8510 -16.8786 -2.3586 0.9060
-16.7843 -16.5231 -2.2612 0.9097
-15.6809 -16.0716 -2.1557 0.9137
-13.7545 -15.2834 -1.9740 0.9207
-13.4060 -15.5137 -1.9684 0.9209
-13.0475 -16.3896 -2.0112 0.9193
-12.9110 -16.9063 -2.0423 0.9181
-14.1401 -20.1499 -2.3633 0.9058
-13.4618 -20.0298 -2.3169 0.9076
-13.3218 -20.7109 -2.3642 0.9058
-12.9042 -20.9790 -2.3646 0.9058
-11.7710 -20.0300 -2.2305 0.9109
-9.2103 -19.0326 -2.0299 0.9185
-8.0948 -17.6244 -1.8620 0.9250
-5.6538 -13.7444 -1.4268 0.9420
-5.3642 -13.8258 -1.4237 0.9421
-4.7539 -13.8877 -1.4092 0.9427
-4.4105 -13.7849 -1.3895 0.9435
-3.5644 -14.0054 -1.3874 0.9436
-3.1869 -13.6684 -1.3474 0.9452
-2.0526 -13.7238 -1.3322 0.9458
-1.7671 -13.6955 -1.3257 0.9460
-0.9295 -13.6748 -1.3159 0.9464
-0.6595 -13.8089 -1.3272 0.9460
0.1752 -13.7653 -1.3216 0.9462
0.7333 -13.8159 -1.3283 0.9459
1.2834 -13.7116 -1.3221 0.9462
1.5706 -13.7818 -1.3317 0.9458
1.8458 -13.7309 -1.3301 0.9458
2.1229 -13.6969 -1.3307 0.9458
3.0182 -13.8732 -1.3630 0.9445
3.8943 -13.8200 -1.3785 0.9439
4.2148 -13.8796 -1.3926 0.9434
4.8469 -13.9181 -1.4149 0.9425
5.8254 -13.9507 -1.4514 0.9411
6.1814 -14.0028 -1.4695 0.9403
6.8847 -14.0365 -1.5009 0.9391
8.0796 -14.2280 -1.5708 0.9364
8.9334 -14.3522 -1.6230 0.9343
9.4331 -14.4956 -1.6604 0.9329
9.8792 -14.5320 -1.6870 0.9318
10.3733 -14.6166 -1.7207 0.9305
10.9254 -14.7554 -1.7626 0.9289
11.4584 -14.8404 -1.8000 0.9274
11.9799 -14.8859 -1.8344 0.9261
13.0843 -14.9801 -1.9095 0.9232
14.3856 -15.1889 -2.0084 0.9194
15.5075 -15.7263 -2.1204 0.9151
18.3870 -16.5196 -2.3731 0.9054
18.7143 -16.1443 -2.3728 0.9055
19.0338 -15.7623 -2.3726 0.9055
19.6491 -14.9795 -2.3721 0.9055
21.5236 -15.0771 -2.5229 0.8998
21.8414 -14.6528 -2.5250 0.8997
22.4083 -13.7575 -2.5244 0.8997
22.6779 -13.3014 -2.5241 0.8997
23.1890 -12.3736 -2.5234 0.8998
23.4302 -11.9021 -2.5230 0.8998
23.6618 -11.4260 -2.5226 0.8998
23.8836 -10.9453 -2.5223 0.8998
24.0956 -10.4603 -2.5219 0.8998
24.2976 -9.9711 -2.5215 0.8998
24.4897 -9.4780 -2.5211 0.8999
24.8435 -8.4809 -2.5202 0.8999
25.4280 -6.4488 -2.5185 0.9000
25.7571 -4.8982 -2.5171 0.9000
25.8456 -4.3774 -2.5166 0.9000
26.0940 -2.2806 -2.5147 0.9001
26.1294 -1.7541 -2.5142 0.9001
26.1718 -0.1722 -2.5127 0.9002
26.1645 0.3550 -2.5122 0.9002
26.1181 1.4082 -2.5111 0.9002
26.0789 1.9337 -2.5106 0.9002
25.9537 2.9798 -2.5080 0.9003
-17.3140 9.2762 -2.3332 0.9239
-17.4995 8.9265 -2.3335 0.9239
-17.6778 8.5731 -2.3338 0.9239
-17.8491 8.2162 -2.3341 0.9239
-18.0132 7.8558 -2.3343 0.9239
-18.1701 7.4922 -2.3346 0.9239
-18.3196 7.1255 -2.3349 0.9239
-18.4619 6.7559 -2.3352 0.9239
-19.7500 5.4703 -2.4343 0.9208
-20.4005 4.7746 -2.4888 0.9191
-20.4955 4.3632 -2.4891 0.9191
-20.5823 3.9500 -2.4895 0.9190
-20.6608 3.5350 -2.4899 0.9190
-20.7310 3.1185 -2.4903 0.9190
-20.7928 2.7006 -2.4906 0.9190
-20.8913 1.8613 -2.4914 0.9190
-20.9560 1.0185 -2.4922 0.9190
-20.9757 0.5961 -2.4926 0.9189
-20.9868 0.1735 -2.4930 0.9189
-20.8757 -2.3612 -2.4956 0.9189
-20.7708 -3.2015 -2.4964 0.9188
-20.7057 -3.6200 -2.4969 0.9188
-20.5503 -4.4528 -2.4977 0.9188
-20.3614 -5.2789 -2.4986 0.9188
-20.2545 -5.6891 -2.4991 0.9187
-20.0160 -6.5028 -2.4999 0.9187
-19.8845 -6.9060 -2.5004 0.9187
-19.7448 -7.3065 -2.5008 0.9187
-19.2778 -8.4906 -2.5022 0.9186
-19.1062 -8.8788 -2.5026 0.9186
-18.3425 -10.3957 -2.5044 0.9186
-18.1326 -10.7651 -2.5049 0.9186
-17.4584 -11.8471 -2.5062 0.9185
-17.2192 -12.1986 -2.5067 0.9185
-16.4114 -13.1849 -2.5006 0.9187
-14.9491 -13.0350 -2.3560 0.9232
-14.1415 -13.9214 -2.3572 0.9232
-13.8604 -14.2058 -2.3576 0.9232
-13.5737 -14.4846 -2.3580 0.9232
-13.2812 -14.7576 -2.3584 0.9231
-12.9833 -15.0246 -2.3587 0.9231
-12.6800 -15.2856 -2.3591 0.9231
-12.3714 -15.5404 -2.3595 0.9231
-12.0577 -15.7890 -2.3599 0.9231
-11.7390 -16.0313 -2.3602 0.9231
-11.4154 -16.2670 -2.3606 0.9231
-11.0870 -16.4962 -2.3610 0.9231
-10.7540 -16.7188 -2.3613 0.9230
-9.3785 -17.5404 -2.3627 0.9230
-9.0244 -17.7283 -2.3630 0.9230
-8.6666 -17.9090 -2.3633 0.9230
-5.9534 -13.6823 -1.7725 0.9417
-5.6990 -13.8542 -1.7795 0.9414
-5.1250 -14.0420 -1.7756 0.9416
-3.1423 -13.4773 -1.6439 0.9458
-2.0366 -13.6166 -1.6355 0.9461
-1.4903 -13.7236 -1.6398 0.9459
-0.9165 -13.4823 -1.6052 0.9470
-0.3750 -13.5973 -1.6158 0.9467
-0.1019 -13.7305 -1.6310 0.9462
0.1707 -13.4097 -1.5930 0.9474
0.7307 -13.7671 -1.6376 0.9460
1.8434 -13.7134 -1.6436 0.9458
2.4343 -13.8552 -1.6710 0.9449
3.5817 -13.7672 -1.6898 0.9443
3.9027 -13.8496 -1.7092 0.9437
4.2105 -13.8657 -1.7213 0.9433
4.5628 -14.0045 -1.7496 0.9424
6.2260 -14.1039 -1.8313 0.9398
8.0677 -14.2071 -1.9407 0.9363
8.4894 -14.2721 -1.9726 0.9353
9.3765 -14.4087 -2.0420 0.9331
11.3611 -14.7143 -2.2082 0.9279
11.9098 -14.7988 -2.2565 0.9263
12.4834 -14.8872 -2.3078 0.9247
13.4213 -14.7550 -2.3693 0.9228
13.7150 -14.4807 -2.3691 0.9228
14.8321 -13.3257 -2.3685 0.9228
15.0963 -13.0232 -2.3683 0.9228
15.7071 -13.0074 -2.4225 0.9211
16.5788 -13.1753 -2.5155 0.9182
16.8797 -12.8682 -2.5213 0.9181
17.3812 -12.1754 -2.5208 0.9181
17.6212 -11.8216 -2.5206 0.9181
18.0795 -11.0998 -2.5200 0.9181
18.5080 -10.3602 -2.5195 0.9181
18.7108 -9.9840 -2.5192 0.9181
19.0934 -9.2199 -2.5186 0.9181
19.4446 -8.4412 -2.5180 0.9182
20.1817 -6.4385 -2.5163 0.9182
20.3045 -6.0297 -2.5160 0.9182
20.6228 -4.7901 -2.5149 0.9183
20.7121 -4.3729 -2.5145 0.9183
20.7929 -3.9542 -2.5142 0.9183
20.9289 -3.1123 -2.5134 0.9183
20.9841 -2.6896 -2.5130 0.9183
21.0688 -1.8414 -2.5122 0.9183
21.0982 -1.4163 -2.5118 0.9183
21.1190 -0.9908 -2.5114 0.9184
21.1163 0.7122 -2.5097 0.9184
21.0239 1.9855 -2.5085 0.9185
20.9196 2.8299 -2.5076 0.9185
20.6996 4.0864 -2.5063 0.9185
20.6094 4.5018 -2.5058 0.9185
20.5004 4.9128 -2.5041 0.9186
-14.5315 7.7854 -2.3358 0.9356
-14.6868 7.4918 -2.3361 0.9356
-14.8362 7.1950 -2.3363 0.9356
-16.1670 6.2882 -2.4579 0.9323
-16.9379 4.6914 -2.4903 0.9315
-17.1173 4.0062 -2.4909 0.9314
-17.1966 3.6609 -2.4912 0.9314
-17.2690 3.3141 -2.4915 0.9314
-17.3344 2.9659 -2.4918 0.9314
-17.3929 2.6164 -2.4921 0.9314
-17.4887 1.9140 -2.4928 0.9314
-17.5794 0.8544 -2.4938 0.9314
-17.6062 -0.2093 -2.4948 0.9313
-17.5422 -1.6270 -2.4962 0.9313
-17.3643 -3.0358 -2.4976 0.9313
-17.1567 -4.0810 -2.4988 0.9312
-16.8864 -5.1123 -2.4999 0.9312
-16.7825 -5.4523 -2.5002 0.9312
-16.6718 -5.7902 -2.5006 0.9312
-16.5542 -6.1258 -2.5010 0.9312
-16.4299 -6.4591 -2.5014 0.9312
-16.1612 -7.1179 -2.5021 0.9311
-15.5450 -8.4010 -2.5036 0.9311
-15.1985 -9.0232 -2.5044 0.9311
-15.0158 -9.3289 -2.5048 0.9311
-14.4313 -10.2235 -2.5059 0.9310
-14.0118 -10.7998 -2.5066 0.9310
-13.7933 -11.0816 -2.5070 0.9310
-13.5692 -11.3588 -2.5073 0.9310
-13.3395 -11.6316 -2.5077 0.9310
-12.4430 -12.2494 -2.4740 0.9319
-11.8438 -12.1389 -2.4030 0.9338
-11.3728 -12.1361 -2.3566 0.9350
-11.1275 -12.3645 -2.3569 0.9350
-10.8776 -12.5879 -2.3572 0.9350
-10.6232 -12.8062 -2.3575 0.9350
-10.3644 -13.0193 -2.3579 0.9350
-10.1014 -13.2273 -2.3582 0.9350
-9.8341 -13.4299 -2.3585 0.9350
-9.5627 -13.6271 -2.3588 0.9350
-9.0083 -14.0048 -2.3594 0.9349
-8.7253 -14.1852 -2.3597 0.9349
-8.4388 -14.3599 -2.3600 0.9349
-8.1487 -14.5287 -2.3602 0.9349
-7.8553 -14.6917 -2.3605 0.9349
-5.6482 -13.7309 -2.1037 0.9418
-4.6906 -13.7028 -2.0521 0.9432
-4.3813 -13.6937 -2.0371 0.9436
-4.0764 -13.6847 -2.0232 0.9439
-3.4783 -13.6672 -1.9982 0.9446
-3.1845 -13.6585 -1.9872 0.9449
-2.8939 -13.6500 -1.9770 0.9452
-2.0378 -13.6249 -1.9520 0.9459
-1.2002 -13.6002 -1.9345 0.9463
-0.9239 -13.5921 -1.9303 0.9464
-0.6487 -13.5840 -1.9269 0.9465
0.4457 -13.5519 -1.9212 0.9467
0.9923 -13.5358 -1.9230 0.9466
1.2661 -13.5277 -1.9251 0.9466
1.5407 -13.5197 -1.9280 0.9465
1.8163 -13.5116 -1.9317 0.9464
2.0930 -13.5034 -1.9361 0.9463
2.6508 -13.4870 -1.9475 0.9460
2.9324 -13.4787 -1.9545 0.9458
4.4471 -13.6492 -2.0340 0.9437
5.1013 -13.7500 -2.0780 0.9425
5.4394 -13.8020 -2.1020 0.9418
6.5044 -13.9660 -2.1829 0.9397
6.8784 -14.0237 -2.2131 0.9388
7.6592 -14.1439 -2.2790 0.9371
8.0675 -14.2068 -2.3149 0.9361
8.4892 -14.2717 -2.3528 0.9351
8.8273 -14.1817 -2.3669 0.9347
9.6670 -13.6214 -2.3667 0.9347
9.9392 -13.4234 -2.3666 0.9347
10.2072 -13.2199 -2.3665 0.9348
11.2364 -12.3530 -2.3661 0.9348
11.4824 -12.1235 -2.3659 0.9348
13.2232 -11.8802 -2.5187 0.9307
13.9145 -11.0579 -2.5183 0.9307
14.3465 -10.4868 -2.5179 0.9307
14.5537 -10.1948 -2.5177 0.9307
14.9502 -9.5986 -2.5173 0.9307
15.3220 -8.9870 -2.5168 0.9308
16.1404 -7.3967 -2.5156 0.9308
16.2844 -7.0693 -2.5154 0.9308
16.4218 -6.7390 -2.5151 0.9308
16.7934 -5.7328 -2.5143 0.9308
17.0068 -5.0504 -2.5137 0.9308
17.1924 -4.3601 -2.5131 0.9309
17.3498 -3.6630 -2.5125 0.9309
17.4789 -2.9604 -2.5118 0.9309
17.6189 -1.8983 -2.5109 0.9309
17.6512 -1.5427 -2.5105 0.9309
17.6764 -1.1866 -2.5102 0.9309
17.6943 -0.8301 -2.5098 0.9309
17.7085 -0.1165 -2.5092 0.9310
17.7048 0.2402 -2.5088 0.9310
17.6939 0.5968 -2.5085 0.9310
17.6179 1.6639 -2.5074 0.9310
17.5783 2.0182 -2.5070 0.9310
17.5315 2.3716 -2.5067 0.9310
17.4776 2.7239 -2.5063 0.9310
17.4166 3.0751 -2.5059 0.9310
17.3486 3.4249 -2.5055 0.9311
17.2735 3.7732 -2.5052 0.9311
-12.8877 6.9047 -2.4086 0.9425
-13.3584 6.8141 -2.4704 0.9410
-13.7277 6.3191 -2.4896 0.9406
-13.8558 6.0427 -2.4902 0.9406
-13.9760 5.7628 -2.4904 0.9406
-14.1994 5.1961 -2.4909 0.9405
-14.3026 4.9094 -2.4911 0.9405
-14.4916 4.3300 -2.4916 0.9405
-14.6573 3.7435 -2.4921 0.9405
-14.7993 3.1506 -2.4927 0.9405
-14.9174 2.5523 -2.4932 0.9405
-15.0114 1.9497 -2.4937 0.9405
-15.1069 1.0396 -2.4946 0.9405
-15.1401 0.4303 -2.4952 0.9404
-15.1487 -0.1801 -2.4958 0.9404
-15.1438 -0.4853 -2.4961 0.9404
-15.1157 -1.0953 -2.4967 0.9404
-15.0924 -1.3998 -2.4970 0.9404
-15.0630 -1.7038 -2.4973 0.9404
-14.9859 -2.3098 -2.4979 0.9404
-14.8246 -3.2121 -2.4989 0.9404
-14.6869 -3.8077 -2.4995 0.9403
-14.6090 -4.1034 -2.4998 0.9403
-14.5253 -4.3975 -2.5001 0.9403
-14.4356 -4.6899 -2.5005 0.9403
-14.3400 -4.9804 -2.5008 0.9403
-14.1314 -5.5555 -2.5014 0.9403
-13.8997 -6.1219 -2.5021 0.9403
-13.7753 -6.4015 -2.5024 0.9403
-13.6453 -6.6786 -2.5027 0.9403
-13.5097 -6.9531 -2.5031 0.9403
-12.7501 -8.2819 -2.5047 0.9402
-12.5823 -8.5382 -2.5050 0.9402
-12.4092 -8.7911 -2.5053 0.9402
-12.2311 -9.0404 -2.5056 0.9402
-12.0480 -9.2862 -2.5059 0.9402
-11.8600 -9.5283 -2.5062 0.9402
-11.6670 -9.7665 -2.5066 0.9402
-11.4693 -10.0008 -2.5069 0.9402
-11.0598 -10.4573 -2.5075 0.9402
-10.8482 -10.6794 -2.5078 0.9402
-10.4116 -11.1104 -2.5084 0.9401
-8.8802 -11.6283 -2.4104 0.9424
-8.2201 -11.7138 -2.3575 0.9436
-7.9833 -11.8784 -2.3577 0.9436
-7.2535 -12.3429 -2.3585 0.9436
-7.0041 -12.4878 -2.3587 0.9436
-6.4966 -12.7624 -2.3592 0.9436
-5.4501 -13.2491 -2.3601 0.9436
-5.1825 -13.3574 -2.3603 0.9436
-4.9128 -13.4604 -2.3605 0.9436
-4.6410 -13.5578 -2.3607 0.9436
-3.4782 -13.6668 -2.3232 0.9444
-2.3207 -13.6329 -2.2782 0.9455
-2.0378 -13.6246 -2.2695 0.9457
-1.4777 -13.6081 -2.2550 0.9460
-0.9239 -13.5918 -2.2443 0.9463
-0.3744 -13.5757 -2.2373 0.9464
-0.1007 -13.5676 -2.2352 0.9465
0.1726 -13.5596 -2.2340 0.9465
0.4457 -13.5516 -2.2337 0.9465
0.9922 -13.5355 -2.2358 0.9465
2.0929 -13.5031 -2.2510 0.9461
2.3710 -13.4949 -2.2572 0.9460
2.6507 -13.4867 -2.2643 0.9458
3.5135 -13.5051 -2.2989 0.9450
4.1299 -13.6000 -2.3415 0.9440
4.4464 -13.6472 -2.3645 0.9435
4.9927 -13.4572 -2.3646 0.9435
5.2628 -13.3539 -2.3646 0.9435
6.3208 -12.8867 -2.3646 0.9435
6.5791 -12.7566 -2.3645 0.9435
6.8347 -12.6213 -2.3645 0.9435
7.0875 -12.4809 -2.3645 0.9435
7.3374 -12.3354 -2.3644 0.9435
7.8281 -12.0292 -2.3643 0.9435
8.0687 -11.8688 -2.3643 0.9435
8.5441 -11.5392 -2.3653 0.9435
8.9406 -11.5794 -2.4100 0.9424
9.3609 -11.6315 -2.4596 0.9413
10.5061 -11.0927 -2.5169 0.9399
10.7269 -10.8782 -2.5168 0.9399
11.1553 -10.4362 -2.5166 0.9400
11.7634 -9.7415 -2.5161 0.9400
12.1448 -9.2586 -2.5158 0.9400
13.0098 -7.9873 -2.5149 0.9400
13.1671 -7.7230 -2.5147 0.9400
13.3190 -7.4555 -2.5145 0.9400
13.7416 -6.6356 -2.5139 0.9400
13.8713 -6.3569 -2.5137 0.9400
14.1136 -5.7918 -2.5132 0.9400
14.2261 -5.5058 -2.5130 0.9400
14.3328 -5.2175 -2.5128 0.9400
14.4336 -4.9272 -2.5125 0.9400
14.5285 -4.6350 -2.5123 0.9401
14.6175 -4.3409 -2.5120 0.9401
14.7005 -4.0451 -2.5118 0.9401
14.8485 -3.4489 -2.5112 0.9401
14.9722 -2.8472 -2.5107 0.9401
15.0714 -2.2412 -2.5101 0.9401
15.1118 -1.9369 -2.5099 0.9401
15.1741 -1.3262 -2.5093 0.9401
15.2125 0.5131 -2.5075 0.9402
15.1972 0.8194 -2.5072 0.9402
15.1758 1.1253 -2.5069 0.9402
15.1144 1.7353 -2.5063 0.9402
15.0744 2.0392 -2.5060 0.9402
15.0284 2.3422 -2.5057 0.9402
14.9763 2.6442 -2.5053 0.9402
14.9181 2.9450 -2.5050 0.9402
14.8538 3.2446 -2.5047 0.9402
-11.6813 6.2584 -2.4909 0.9475
-11.8059 6.0222 -2.4911 0.9475
-12.1509 5.2992 -2.4916 0.9475
-12.3565 4.8061 -2.4920 0.9475
-12.4518 4.5566 -2.4922 0.9475
-12.5422 4.3051 -2.4925 0.9475
-12.7827 3.5405 -2.4931 0.9474
-13.0800 2.2379 -2.4943 0.9474
-13.1237 1.9742 -2.4945 0.9474
-13.1621 1.7095 -2.4947 0.9474
-13.1951 1.4441 -2.4950 0.9474
-13.2229 1.1781 -2.4952 0.9474
-13.2453 0.9115 -2.4955 0.9474
-13.2766 -0.4255 -2.4968 0.9474
-13.2309 -1.2271 -2.4976 0.9474
-13.1736 -1.7596 -2.4981 0.9473
-13.1369 -2.0248 -2.4984 0.9473
-13.0949 -2.2894 -2.4987 0.9473
-12.9949 -2.8157 -2.4992 0.9473
-12.9370 -3.0773 -2.4995 0.9473
-12.8738 -3.3377 -2.4998 0.9473
-12.8054 -3.5968 -2.5001 0.9473
-12.5690 -4.3653 -2.5009 0.9473
-12.3858 -4.8692 -2.5015 0.9473
-12.2865 -5.1184 -2.5018 0.9473
-11.0260 -7.4822 -2.5046 0.9472
-10.7180 -7.9221 -2.5051 0.9472
-10.5574 -8.1373 -2.5054 0.9472
-10.3924 -8.3493 -2.5057 0.9472
-10.0498 -8.7631 -2.5062 0.9472
-9.1223 -9.7346 -2.5076 0.9471
-8.7246 -10.0962 -2.5081 0.9471
-8.5202 -10.2710 -2.5083 0.9471
-7.8865 -10.7702 -2.5091 0.9471
-7.4421 -11.0730 -2.5077 0.9471
-6.9760 -11.3412 -2.5027 0.9472
-6.3383 -11.3008 -2.4354 0.9486
-6.0272 -11.2726 -2.4027 0.9493
-5.4651 -11.2933 -2.3582 0.9502
-5.0065 -11.5062 -2.3586 0.9502
-4.3033 -11.7905 -2.3591 0.9502
-4.0652 -11.8757 -2.3593 0.9502
-3.5840 -12.0316 -2.3597 0.9502
-3.0968 -12.1680 -2.3600 0.9502
-2.8512 -12.2287 -2.3602 0.9502
-2.6044 -12.2845 -2.3603 0.9502
-2.1076 -12.3810 -2.3606 0.9502
-1.3561 -12.4879 -2.3610 0.9502
-1.1043 -12.5134 -2.3612 0.9502
-0.5993 -12.5490 -2.3614 0.9502
-0.0932 -12.5641 -2.3616 0.9501
0.4131 -12.5588 -2.3618 0.9501
0.6660 -12.5484 -2.3619 0.9501
2.4239 -12.3328 -2.3624 0.9501
2.6720 -12.2817 -2.3625 0.9501
3.1647 -12.1645 -2.3626 0.9501
3.4092 -12.0985 -2.3626 0.9501
3.8940 -11.9516 -2.3627 0.9501
4.1340 -11.8708 -2.3627 0.9501
4.3724 -11.7852 -2.3627 0.9501
4.6089 -11.6947 -2.3627 0.9501
5.0763 -11.4996 -2.3627 0.9501
5.3070 -11.3949 -2.3627 0.9501
5.5355 -11.2856 -2.3627 0.9501
6.0882 -11.2429 -2.4032 0.9493
6.3982 -11.2671 -2.4354 0.9486
6.7167 -11.2919 -2.4695 0.9479
7.0470 -11.3217 -2.5066 0.9472
7.5178 -11.0585 -2.5134 0.9470
7.7459 -10.9145 -2.5156 0.9470
7.9641 -10.7559 -2.5156 0.9470
8.8030 -10.0785 -2.5152 0.9470
9.0040 -9.8987 -2.5151 0.9470
9.2012 -9.7150 -2.5150 0.9470
9.5843 -9.3356 -2.5148 0.9470
9.9517 -8.9410 -2.5146 0.9470
10.1294 -8.7383 -2.5145 0.9470
10.3028 -8.5320 -2.5143 0.9470
10.4721 -8.3222 -2.5142 0.9470
10.7976 -7.8927 -2.5139 0.9470
10.9538 -7.6730 -2.5138 0.9470
11.5330 -6.7645 -2.5131 0.9470
11.7945 -6.2935 -2.5128 0.9470
11.9181 -6.0542 -2.5126 0.9470
12.1504 -5.5682 -2.5122 0.9471
12.2592 -5.3219 -2.5120 0.9471
12.5553 -4.5705 -2.5114 0.9471
12.8780 -3.5436 -2.5105 0.9471
12.9456 -3.2831 -2.5103 0.9471
13.0079 -3.0213 -2.5101 0.9471
13.2040 -1.9635 -2.5091 0.9471
13.2697 -1.4297 -2.5086 0.9471
13.2945 -1.1620 -2.5084 0.9471
13.3139 -0.8937 -2.5081 0.9471
13.3278 -0.6253 -2.5079 0.9471
13.3363 -0.3566 -2.5076 0.9471
13.3394 -0.0878 -2.5073 0.9472
13.3371 0.1810 -2.5071 0.9472
13.3293 0.4496 -2.5068 0.9472
13.3161 0.7180 -2.5065 0.9472
13.2441 1.5206 -2.5057 0.9472
13.2094 1.7869 -2.5055 0.9472
13.1237 2.3171 -2.5049 0.9472
13.0729 2.5808 -2.5046 0.9472
12.9554 3.1047 -2.5041 0.9472
-10.3922 5.5677 -2.4921 0.9529
-10.5029 5.3575 -2.4923 0.9529
-10.6094 5.1452 -2.4924 0.9529
-10.8096 4.7142 -2.4928 0.9529
-10.9031 4.4958 -2.4929 0.9529
-10.9923 4.2755 -2.4931 0.9529
-11.3708 3.1495 -2.4941 0.9529
-11.4903 2.6892 -2.4945 0.9529
-11.5431 2.4574 -2.4947 0.9529
-11.5913 2.2245 -2.4949 0.9529
-11.6347 1.9907 -2.4951 0.9529
-11.6735 1.7560 -2.4953 0.9529
-11.7368 1.2845 -2.4957 0.9529
-11.7613 1.0479 -2.4960 0.9529
-11.7811 0.8108 -2.4962 0.9529
-11.7961 0.5733 -2.4964 0.9529
-11.8063 0.3355 -2.4966 0.9529
-11.8118 0.0976 -2.4969 0.9529
-11.7994 -0.6163 -2.4976 0.9528
-11.7857 -0.8540 -2.4978 0.9528
-11.7673 -1.0914 -2.4980 0.9528
-11.7440 -1.3284 -2.4983 0.9528
-11.7160 -1.5649 -2.4985 0.9528
-11.6832 -1.8007 -2.4988 0.9528
-11.5565 -2.5040 -2.4995 0.9528
-11.4485 -2.9682 -2.5000 0.9528
-11.3219 -3.4277 -2.5005 0.9528
-11.1769 -3.8818 -2.5010 0.9528
-11.0137 -4.3298 -2.5015 0.9528
-10.9253 -4.5513 -2.5018 0.9528
-10.8325 -4.7710 -2.5020 0.9528
-10.7352 -4.9888 -2.5023 0.9528
-10.6336 -5.2046 -2.5025 0.9528
-10.3029 -5.8392 -2.5033 0.9527
-10.0613 -6.2508 -2.5038 0.9527
-9.8032 -6.6524 -2.5043 0.9527
-9.5291 -7.0433 -2.5048 0.9527
-9.3862 -7.2346 -2.5050 0.9527
-9.2395 -7.4230 -2.5053 0.9527
-9.0889 -7.6083 -2.5055 0.9527
-8.9346 -7.7907 -2.5057 0.9527
-8.7767 -7.9699 -2.5060 0.9527
-8.2815 -8.4879 -2.5067 0.9527
-8.1096 -8.6539 -2.5069 0.9527
-7.0105 -9.5739 -2.5083 0.9526
-6.8168 -9.7140 -2.5085 0.9526
-6.6202 -9.8502 -2.5087 0.9526
-6.4210 -9.9825 -2.5089 0.9526
-6.2191 -10.1106 -2.5091 0.9526
-6.0146 -10.2347 -2.5093 0.9526
-5.8076 -10.3547 -2.5095 0.9526
-5.5983 -10.4704 -2.5097 0.9526
-5.3866 -10.5819 -2.5099 0.9526
-5.1727 -10.6890 -2.5101 0.9526
-4.7325 -10.8765 -2.5073 0.9527
-4.5096 -10.9628 -2.5057 0.9527
-4.2853 -11.0449 -2.5042 0.9527
-3.7913 -11.0755 -2.4745 0.9533
-3.5399 -11.0638 -2.4555 0.9536
-3.2927 -11.0539 -2.4380 0.9539
-1.6511 -11.0396 -2.3595 0.9554
-0.9814 -11.1208 -2.3599 0.9554
-0.7571 -11.1388 -2.3600 0.9554
-0.0829 -11.1656 -2.3603 0.9554
0.5919 -11.1515 -2.3605 0.9554
0.8165 -11.1377 -2.3606 0.9554
1.0417 -11.1304 -2.3630 0.9553
1.4879 -11.0690 -2.3608 0.9554
1.7107 -11.0371 -2.3609 0.9554
2.6292 -11.0121 -2.3932 0.9548
2.8668 -11.0193 -2.4068 0.9545
3.8506 -11.0570 -2.4749 0.9533
4.1065 -11.0684 -2.4955 0.9529
5.2382 -10.6795 -2.5144 0.9525
5.6641 -10.4597 -2.5143 0.9525
6.0807 -10.2227 -2.5143 0.9525
6.4874 -9.9691 -2.5142 0.9525
6.6869 -9.8362 -2.5141 0.9525
6.8835 -9.6993 -2.5141 0.9525
7.0774 -9.5584 -2.5140 0.9525
7.2684 -9.4136 -2.5140 0.9525
7.6413 -9.1127 -2.5138 0.9525
7.8231 -8.9566 -2.5137 0.9525
8.0017 -8.7969 -2.5137 0.9525
8.1770 -8.6336 -2.5136 0.9525
9.1563 -7.5825 -2.5129 0.9526
9.3067 -7.3961 -2.5128 0.9526
9.5962 -7.0145 -2.5126 0.9526
9.7350 -6.8193 -2.5124 0.9526
10.1275 -6.2177 -2.5120 0.9526
10.3685 -5.8040 -2.5117 0.9526
10.6981 -5.1660 -2.5112 0.9526
10.8961 -4.7301 -2.5109 0.9526
10.9884 -4.5093 -2.5107 0.9526
11.0762 -4.2867 -2.5105 0.9526
11.3124 -3.6090 -2.5099 0.9526
11.3819 -3.3800 -2.5098 0.9526
11.5070 -2.9183 -2.5094 0.9526
11.5625 -2.6856 -2.5091 0.9526
11.7373 -1.7454 -2.5083 0.9526
11.7690 -1.5085 -2.5081 0.9526
11.7960 -1.2709 -2.5079 0.9527
11.8557 -0.3170 -2.5070 0.9527
11.8567 0.1609 -2.5065 0.9527
11.8499 0.3997 -2.5063 0.9527
11.8383 0.6383 -2.5060 0.9527
11.8219 0.8766 -2.5058 0.9527
11.8007 1.1145 -2.5055 0.9527
11.7440 1.5887 -2.5050 0.9527
11.6681 2.0602 -2.5046 0.9527
11.6231 2.2946 -2.5043 0.9527
11.5734 2.5280 -2.5041 0.9527
11.5189 2.7604 -2.5038 0.9527
-9.4499 4.8204 -2.4932 0.9573
-9.5457 4.6293 -2.4934 0.9573
-9.9661 3.6469 -2.4941 0.9573
-10.0382 3.4456 -2.4943 0.9573
-10.1062 3.2429 -2.4945 0.9573
-10.2301 2.8335 -2.4948 0.9573
-10.2859 2.6270 -2.4950 0.9573
-10.3849 2.2108 -2.4954 0.9573
-10.4281 2.0013 -2.4956 0.9573
-10.4671 1.7909 -2.4958 0.9573
-10.5324 1.3680 -2.4961 0.9573
-10.6256 0.0878 -2.4974 0.9573
-10.6261 -0.1263 -2.4976 0.9573
-10.5388 -1.4076 -2.4989 0.9573
-10.5092 -1.6198 -2.4991 0.9572
-10.4372 -2.0422 -2.4995 0.9572
-10.3949 -2.2523 -2.4997 0.9572
-10.2976 -2.6698 -2.5002 0.9572
-10.2426 -2.8770 -2.5004 0.9572
-10.1202 -3.2879 -2.5009 0.9572
-9.8262 -4.0935 -2.5018 0.9572
-9.5636 -4.6808 -2.5024 0.9572
-9.2659 -5.2515 -2.5031 0.9572
-9.1590 -5.4376 -2.5034 0.9572
-8.8162 -5.9826 -2.5040 0.9572
-8.4409 -6.5060 -2.5047 0.9572
-8.1733 -6.8420 -2.5051 0.9571
-7.4470 -7.6325 -2.5062 0.9571
-7.2923 -7.7817 -2.5064 0.9571
-7.1346 -7.9277 -2.5066 0.9571
-6.9740 -8.0705 -2.5068 0.9571
-6.6443 -8.3462 -2.5072 0.9571
-6.3036 -8.6085 -2.5076 0.9571
-6.1294 -8.7344 -2.5078 0.9571
-5.9526 -8.8568 -2.5080 0.9571
-4.6508 -9.6105 -2.5093 0.9571
-4.4565 -9.7029 -2.5094 0.9571
-4.0625 -9.8759 -2.5098 0.9571
-3.8629 -9.9564 -2.5099 0.9571
-3.6618 -10.0328 -2.5101 0.9571
-3.4591 -10.1052 -2.5102 0.9571
-3.0496 -10.2376 -2.5105 0.9571
-2.6349 -10.3533 -2.5108 0.9571
-2.4259 -10.4048 -2.5110 0.9570
-2.0050 -10.4952 -2.5112 0.9570
-1.5802 -10.5652 -2.5107 0.9571
-1.3668 -10.5928 -2.5102 0.9571
-0.2943 -10.6718 -2.5091 0.9571
0.1359 -10.6755 -2.5092 0.9571
1.4235 -10.5901 -2.5113 0.9570
1.6370 -10.5618 -2.5119 0.9570
1.8500 -10.5296 -2.5126 0.9570
2.0620 -10.4913 -2.5129 0.9570
2.4831 -10.4001 -2.5130 0.9570
2.6922 -10.3481 -2.5130 0.9570
2.9002 -10.2919 -2.5130 0.9570
3.1069 -10.2315 -2.5131 0.9570
3.3125 -10.1669 -2.5131 0.9570
3.7194 -10.0253 -2.5131 0.9570
4.5145 -9.6933 -2.5131 0.9570
5.6502 -9.0776 -2.5130 0.9570
5.8319 -8.9618 -2.5129 0.9570
6.0112 -8.8423 -2.5129 0.9570
6.1880 -8.7193 -2.5128 0.9570
6.5340 -8.4625 -2.5127 0.9570
6.8692 -8.1920 -2.5126 0.9570
7.0327 -8.0517 -2.5125 0.9570
7.5056 -7.6114 -2.5123 0.9570
7.6571 -7.4584 -2.5122 0.9570
7.8056 -7.3023 -2.5121 0.9570
7.9508 -7.1433 -2.5120 0.9570
8.0928 -6.9814 -2.5119 0.9570
8.2315 -6.8167 -2.5118 0.9570
8.3668 -6.6491 -2.5117 0.9570
8.8733 -5.9528 -2.5112 0.9570
9.1049 -5.5899 -2.5110 0.9570
9.3217 -5.2180 -2.5107 0.9571
9.7093 -4.4495 -2.5101 0.9571
9.7964 -4.2527 -2.5100 0.9571
9.8794 -4.0542 -2.5098 0.9571
10.1043 -3.4493 -2.5093 0.9571
10.2921 -2.8320 -2.5088 0.9571
10.3963 -2.4147 -2.5084 0.9571
10.4421 -2.2046 -2.5082 0.9571
10.4836 -1.9937 -2.5080 0.9571
10.5208 -1.7819 -2.5078 0.9571
10.5537 -1.5694 -2.5076 0.9571
10.5824 -1.3564 -2.5074 0.9571
10.6268 -0.9287 -2.5070 0.9571
10.6608 -0.2850 -2.5064 0.9571
10.6456 0.5740 -2.5056 0.9571
10.6120 1.0022 -2.5052 0.9571
10.5611 1.4287 -2.5047 0.9572
10.5293 1.6410 -2.5045 0.9572
10.4932 1.8527 -2.5043 0.9572
10.4528 2.0635 -2.5041 0.9572
10.3593 2.4825 -2.5036 0.9572
-8.5805 4.3769 -2.4940 0.9610
-8.6675 4.2034 -2.4941 0.9610
-8.9798 3.4927 -2.4947 0.9610
-9.0489 3.3113 -2.4949 0.9610
-9.1143 3.1285 -2.4950 0.9610
-9.1760 2.9444 -2.4952 0.9610
-9.2884 2.5727 -2.4955 0.9610
-9.3389 2.3852 -2.4956 0.9610
-9.3857 2.1967 -2.4958 0.9610
-9.5032 1.6260 -2.4963 0.9609
-9.5861 1.0491 -2.4968 0.9609
-9.6060 0.8558 -2.4970 0.9609
-9.6220 0.6622 -2.4972 0.9609
-9.6341 0.4682 -2.4974 0.9609
-9.6423 0.2740 -2.4976 0.9609
-9.6466 0.0797 -2.4978 0.9609
-9.6470 -0.1147 -2.4980 0.9609
-9.6434 -0.3090 -2.4981 0.9609
-9.6360 -0.5033 -2.4983 0.9609
-9.6247 -0.6974 -2.4985 0.9609
-9.6094 -0.8913 -2.4987 0.9609
-9.5903 -1.0848 -2.4989 0.9609
-9.5672 -1.2779 -2.4991 0.9609
-9.5095 -1.6625 -2.4995 0.9609
-9.3940 -2.2345 -2.5001 0.9609
-9.2978 -2.6116 -2.5005 0.9609
-9.2441 -2.7986 -2.5007 0.9609
-8.9917 -3.5349 -2.5016 0.9609
-8.5941 -4.4232 -2.5026 0.9608
-8.5040 -4.5958 -2.5028 0.9608
-8.3133 -4.9355 -2.5032 0.9608
-8.2128 -5.1024 -2.5034 0.9608
-8.1090 -5.2673 -2.5036 0.9608
-7.8915 -5.5906 -2.5040 0.9608
-7.7779 -5.7489 -2.5042 0.9608
-7.6611 -5.9049 -2.5044 0.9608
-7.5411 -6.0586 -2.5046 0.9608
-7.2921 -6.3584 -2.5050 0.9608
-7.1631 -6.5046 -2.5052 0.9608
-6.8963 -6.7889 -2.5056 0.9608
-6.7586 -6.9270 -2.5058 0.9608
-6.6182 -7.0623 -2.5060 0.9608
-6.1808 -7.4509 -2.5065 0.9608
-6.0299 -7.5745 -2.5067 0.9608
-5.8765 -7.6950 -2.5069 0.9608
-5.7206 -7.8124 -2.5071 0.9608
-5.5625 -7.9266 -2.5073 0.9608
-5.0745 -8.2499 -2.5078 0.9608
-4.7386 -8.4487 -2.5081 0.9608
-4.5678 -8.5430 -2.5083 0.9608
-4.2204 -8.7212 -2.5086 0.9608
-4.0441 -8.8050 -2.5087 0.9608
-3.5054 -9.0348 -2.5092 0.9607
-3.1389 -9.1697 -2.5095 0.9607
-2.7672 -9.2898 -2.5097 0.9607
-2.5796 -9.3441 -2.5099 0.9607
-2.3910 -9.3947 -2.5100 0.9607
-2.0107 -9.4843 -2.5102 0.9607
-1.4343 -9.5898 -2.5106 0.9607
-1.2408 -9.6171 -2.5107 0.9607
-1.0469 -9.6405 -2.5108 0.9607
-0.6577 -9.6756 -2.5110 0.9607
-0.4626 -9.6873 -2.5111 0.9607
-0.2674 -9.6950 -2.5112 0.9607
0.5141 -9.6862 -2.5115 0.9607
0.7092 -9.6741 -2.5115 0.9607
0.9040 -9.6581 -2.5116 0.9607
1.2924 -9.6143 -2.5117 0.9607
1.4859 -9.5865 -2.5118 0.9607
1.8710 -9.5192 -2.5119 0.9607
2.0624 -9.4797 -2.5119 0.9607
2.2530 -9.4364 -2.5119 0.9607
2.4427 -9.3892 -2.5120 0.9607
2.6314 -9.3382 -2.5120 0.9607
3.5574 -9.0265 -2.5121 0.9607
3.9181 -8.8758 -2.5121 0.9607
4.0962 -8.7951 -2.5121 0.9607
4.4471 -8.6228 -2.5120 0.9607
4.6199 -8.5314 -2.5120 0.9607
5.2915 -8.1314 -2.5119 0.9607
5.4542 -8.0230 -2.5119 0.9607
5.7728 -7.7965 -2.5118 0.9607
5.9286 -7.6784 -2.5117 0.9607
6.0819 -7.5572 -2.5117 0.9607
6.3067 -7.2205 -2.4822 0.9612
6.6699 -7.0423 -2.5114 0.9607
6.8103 -6.9063 -2.5113 0.9607
6.9478 -6.7675 -2.5112 0.9607
7.5919 -6.0333 -2.5108 0.9607
7.7116 -5.8789 -2.5107 0.9607
7.8281 -5.7221 -2.5106 0.9607
8.1584 -5.2380 -2.5102 0.9607
8.8896 -3.8591 -2.5092 0.9607
8.9650 -3.6790 -2.5091 0.9608
9.1693 -3.1301 -2.5086 0.9608
9.2299 -2.9446 -2.5084 0.9608
9.2867 -2.7578 -2.5083 0.9608
9.3398 -2.5700 -2.5081 0.9608
9.3891 -2.3812 -2.5080 0.9608
9.5477 -1.6171 -2.5073 0.9608
9.6259 -1.0371 -2.5067 0.9608
9.6442 -0.8429 -2.5066 0.9608
9.6585 -0.6484 -2.5064 0.9608
9.6689 -0.4536 -2.5062 0.9608
9.6753 -0.2587 -2.5060 0.9608
9.6711 0.3262 -2.5054 0.9608
9.6618 0.5210 -2.5052 0.9608
9.6486 0.7154 -2.5050 0.9608
9.6314 0.9096 -2.5048 0.9608
9.6104 1.1034 -2.5046 0.9608
9.5854 1.2967 -2.5044 0.9608
9.5566 1.4895 -2.5042 0.9608
9.5239 1.6816 -2.5040 0.9608
9.4469 2.0635 -2.5036 0.9608
-7.8499 4.0042 -2.4947 0.9640
-7.9294 3.8454 -2.4948 0.9640
-8.1484 3.3599 -2.4952 0.9640
-8.2149 3.1953 -2.4953 0.9640
-8.2781 3.0292 -2.4954 0.9640
-8.3379 2.8620 -2.4956 0.9640
-8.3943 2.6936 -2.4957 0.9640
-8.4474 2.5241 -2.4959 0.9640
-8.4970 2.3535 -2.4960 0.9640
-8.6933 1.4874 -2.4968 0.9640
-8.7221 1.3120 -2.4969 0.9640
-8.7473 1.1361 -2.4971 0.9640
-8.7690 0.9597 -2.4973 0.9640
-8.8017 0.6057 -2.4976 0.9640
-8.8202 0.2507 -2.4979 0.9640
-8.8210 -0.2827 -2.4985 0.9640
-8.8142 -0.4604 -2.4986 0.9640
-8.7897 -0.8152 -2.4990 0.9640
-8.7721 -0.9922 -2.4992 0.9640
-8.7510 -1.1688 -2.4994 0.9640
-8.7263 -1.3450 -2.4995 0.9640
-8.6663 -1.6957 -2.4999 0.9640
-8.5922 -2.0438 -2.5003 0.9639
-8.5500 -2.2167 -2.5005 0.9639
-8.1577 -3.3984 -2.5018 0.9639
-8.0882 -3.5623 -2.5020 0.9639
-7.6918 -4.3594 -2.5029 0.9639
-7.4160 -4.8172 -2.5035 0.9639
-7.0062 -5.4002 -2.5042 0.9639
-6.8965 -5.5406 -2.5044 0.9639
-6.6687 -5.8148 -2.5047 0.9639
-6.5506 -5.9484 -2.5049 0.9639
-6.4299 -6.0796 -2.5051 0.9639
-6.1806 -6.3346 -2.5054 0.9639
-6.0521 -6.4583 -2.5056 0.9639
-5.7878 -6.6978 -2.5060 0.9639
-5.6521 -6.8135 -2.5061 0.9639
-5.5140 -6.9265 -2.5063 0.9639
-5.2312 -7.1440 -2.5066 0.9639
-4.7910 -7.4483 -2.5071 0.9639
-4.6402 -7.5438 -2.5073 0.9639
-4.3330 -7.7256 -2.5076 0.9638
-4.1768 -7.8118 -2.5077 0.9638
-4.0187 -7.8948 -2.5079 0.9638
-3.5351 -8.1245 -2.5083 0.9638
-3.2052 -8.2612 -2.5085 0.9638
-2.8701 -8.3845 -2.5088 0.9638
-2.3587 -8.5438 -2.5092 0.9638
-2.1862 -8.5900 -2.5093 0.9638
-1.8385 -8.6719 -2.5095 0.9638
-1.4878 -8.7396 -2.5097 0.9638
-1.3114 -8.7682 -2.5098 0.9638
-1.1345 -8.7932 -2.5099 0.9638
-0.4230 -8.8572 -2.5103 0.9638
-0.2444 -8.8642 -2.5103 0.9638
0.2915 -8.8636 -2.5106 0.9638
0.4700 -8.8561 -2.5106 0.9638
0.6484 -8.8451 -2.5107 0.9638
1.0043 -8.8122 -2.5108 0.9638
1.1816 -8.7903 -2.5109 0.9638
1.5349 -8.7359 -2.5110 0.9638
1.8856 -8.6672 -2.5110 0.9638
2.4059 -8.5378 -2.5111 0.9638
2.9173 -8.3770 -2.5112 0.9638
3.2524 -8.2528 -2.5112 0.9638
3.4181 -8.1855 -2.5112 0.9638
3.7451 -8.0412 -2.5112 0.9638
3.9063 -7.9641 -2.5112 0.9638
4.0659 -7.8837 -2.5112 0.9638
4.2239 -7.8001 -2.5111 0.9638
4.3802 -7.7134 -2.5111 0.9638
5.1334 -7.2333 -2.5110 0.9638
5.4205 -7.0203 -2.5109 0.9638
5.8343 -6.6796 -2.5107 0.9638
5.9675 -6.5605 -2.5106 0.9638
7.1575 -5.2318 -2.5098 0.9638
7.2611 -5.0864 -2.5097 0.9638
7.3619 -4.9388 -2.5096 0.9638
7.5542 -4.6379 -2.5094 0.9638
7.6458 -4.4845 -2.5093 0.9638
7.8195 -4.1725 -2.5091 0.9638
7.9016 -4.0139 -2.5089 0.9638
7.9805 -3.8537 -2.5088 0.9638
8.0561 -3.6919 -2.5087 0.9638
8.2631 -3.1980 -2.5083 0.9638
8.3254 -3.0307 -2.5082 0.9638
8.4918 -2.5218 -2.5077 0.9638
8.5855 -2.1773 -2.5074 0.9638
8.6271 -2.0038 -2.5073 0.9639
8.6652 -1.8295 -2.5071 0.9639
8.7308 -1.4787 -2.5068 0.9639
8.8024 -0.9484 -2.5063 0.9639
8.8192 -0.7708 -2.5062 0.9639
8.8323 -0.5929 -2.5060 0.9639
8.8419 -0.4148 -2.5058 0.9639
8.8478 -0.2366 -2.5056 0.9639
8.8441 0.2983 -2.5051 0.9639
8.8357 0.4764 -2.5049 0.9639
8.8080 0.8318 -2.5046 0.9639
8.7398 1.3621 -2.5040 0.9639
8.7099 1.5379 -2.5039 0.9639
8.5992 2.0607 -2.5033 0.9639
-7.2997 3.5401 -2.4953 0.9666
-7.4371 3.2435 -2.4956 0.9666
-7.5013 3.0931 -2.4957 0.9666
-7.6206 2.7887 -2.4959 0.9666
-7.7276 2.4796 -2.4962 0.9666
-7.8645 2.0086 -2.4966 0.9666
-7.9038 1.8498 -2.4967 0.9666
-7.9400 1.6903 -2.4969 0.9666
-7.9729 1.5301 -2.4970 0.9666
-8.0025 1.3692 -2.4972 0.9666
-8.0521 1.0458 -2.4975 0.9666
-8.0887 0.7207 -2.4978 0.9666
-8.1021 0.5576 -2.4979 0.9666
-8.1225 0.0671 -2.4984 0.9666
-8.1228 -0.0965 -2.4986 0.9666
-8.1197 -0.2602 -2.4987 0.9666
-8.0907 -0.7504 -2.4992 0.9666
-8.0745 -0.9133 -2.4994 0.9666
-8.0062 -1.3997 -2.4999 0.9666
-7.9769 -1.5609 -2.5001 0.9666
-7.9444 -1.7213 -2.5002 0.9666
-7.9086 -1.8812 -2.5004 0.9666
-7.8696 -2.0403 -2.5006 0.9665
-7.6820 -2.6680 -2.5013 0.9665
-7.2341 -3.7232 -2.5025 0.9665
-7.1581 -3.8685 -2.5026 0.9665
-6.8253 -4.4334 -2.5033 0.9665
-6.7351 -4.5704 -2.5035 0.9665
-6.2433 -5.2263 -2.5043 0.9665
-6.1372 -5.3514 -2.5045 0.9665
-6.0285 -5.4744 -2.5047 0.9665
-5.9174 -5.5951 -2.5048 0.9665
-5.6879 -5.8297 -2.5052 0.9665
-5.5697 -5.9434 -2.5053 0.9665
-5.4491 -6.0548 -2.5055 0.9665
-5.0743 -6.3742 -2.5059 0.9665
-4.9452 -6.4755 -2.5061 0.9665
-4.8140 -6.5742 -2.5062 0.9665
-4.5458 -6.7636 -2.5065 0.9665
-4.4088 -6.8542 -2.5067 0.9665
-4.1296 -7.0271 -2.5070 0.9665
-3.9874 -7.1092 -2.5071 0.9665
-3.8435 -7.1885 -2.5072 0.9665
-3.2530 -7.4762 -2.5078 0.9665
-3.1019 -7.5406 -2.5079 0.9665
-2.7958 -7.6602 -2.5081 0.9665
-2.6410 -7.7153 -2.5082 0.9664
-2.3283 -7.8162 -2.5085 0.9664
-2.1704 -7.8618 -2.5086 0.9664
-2.0116 -7.9043 -2.5087 0.9664
-1.6917 -7.9796 -2.5089 0.9664
-1.0440 -8.0911 -2.5093 0.9664
-0.8807 -8.1107 -2.5094 0.9664
-0.7172 -8.1271 -2.5094 0.9664
-0.5533 -8.1402 -2.5095 0.9664
-0.3892 -8.1499 -2.5096 0.9664
-0.0606 -8.1594 -2.5097 0.9664
0.1039 -8.1592 -2.5098 0.9664
0.4325 -8.1488 -2.5099 0.9664
0.5966 -8.1386 -2.5100 0.9664
0.7605 -8.1252 -2.5100 0.9664
0.9240 -8.1083 -2.5101 0.9664
1.0872 -8.0882 -2.5101 0.9664
1.5740 -8.0081 -2.5103 0.9664
2.0549 -7.8987 -2.5103 0.9664
2.2137 -7.8558 -2.5104 0.9664
2.3715 -7.8096 -2.5104 0.9664
2.5284 -7.7604 -2.5104 0.9664
2.6843 -7.7079 -2.5104 0.9664
2.9926 -7.5935 -2.5104 0.9664
3.1450 -7.5317 -2.5104 0.9664
3.2961 -7.4668 -2.5104 0.9664
3.4459 -7.3988 -2.5104 0.9664
3.7411 -7.2539 -2.5104 0.9664
4.0303 -7.0972 -2.5104 0.9664
4.1724 -7.0145 -2.5103 0.9664
4.3129 -6.9290 -2.5103 0.9664
4.7234 -6.6555 -2.5102 0.9664
4.8564 -6.5589 -2.5102 0.9664
5.1166 -6.3577 -2.5101 0.9664
5.3683 -6.1461 -2.5100 0.9664
5.4909 -6.0366 -2.5099 0.9664
5.6113 -5.9246 -2.5099 0.9664
5.9585 -5.5743 -2.5097 0.9664
6.0694 -5.4530 -2.5096 0.9664
6.2838 -5.2037 -2.5094 0.9664
6.3871 -5.0759 -2.5094 0.9664
6.4879 -4.9460 -2.5093 0.9664
6.6814 -4.6803 -2.5091 0.9664
6.7741 -4.5446 -2.5090 0.9664
6.8640 -4.4070 -2.5089 0.9664
7.0354 -4.1265 -2.5087 0.9664
7.1168 -3.9838 -2.5086 0.9664
7.1953 -3.8394 -2.5085 0.9664
7.2709 -3.6935 -2.5084 0.9664
7.3435 -3.5461 -2.5083 0.9664
7.4131 -3.3972 -2.5081 0.9664
7.5433 -3.0955 -2.5079 0.9665
7.6037 -2.9428 -2.5078 0.9665
7.7153 -2.6338 -2.5075 0.9665
7.7664 -2.4777 -2.5074 0.9665
7.9006 -2.0037 -2.5070 0.9665
7.9740 -1.6835 -2.5067 0.9665
8.0059 -1.5225 -2.5066 0.9665
8.0344 -1.3608 -2.5064 0.9665
8.0598 -1.1986 -2.5063 0.9665
8.0818 -1.0359 -2.5061 0.9665
8.1005 -0.8728 -2.5060 0.9665
8.1436 0.1105 -2.5050 0.9665
8.1392 0.2745 -2.5049 0.9665
8.1315 0.4384 -2.5047 0.9665
8.1204 0.6021 -2.5045 0.9665
8.0885 0.9287 -2.5042 0.9665
7.9853 1.5764 -2.5035 0.9665
-6.6882 3.4116 -2.4957 0.9688
-6.7558 3.2763 -2.4958 0.9688
-6.8208 3.1397 -2.4959 0.9688
-7.0527 2.5808 -2.4964 0.9688
-7.1516 2.2948 -2.4966 0.9688
-7.1967 2.1503 -2.4967 0.9688
-7.2783 1.8589 -2.4970 0.9688
-7.3146 1.7119 -2.4971 0.9688
-7.3480 1.5643 -2.4973 0.9688
-7.3784 1.4160 -2.4974 0.9688
-7.4059 1.2671 -2.4975 0.9688
-7.4701 0.8176 -2.4979 0.9688
-7.4855 0.6669 -2.4981 0.9688
-7.4978 0.5160 -2.4982 0.9688
-7.5071 0.3648 -2.4984 0.9688
-7.5134 0.2135 -2.4985 0.9688
-7.5168 -0.0893 -2.4988 0.9688
-7.5080 -0.3922 -2.4991 0.9688
-7.4870 -0.6944 -2.4994 0.9688
-7.4720 -0.8452 -2.4996 0.9688
-7.4539 -0.9956 -2.4997 0.9688
-7.4328 -1.1456 -2.4999 0.9688
-7.4086 -1.2952 -2.5000 0.9688
-7.3182 -1.7408 -2.5005 0.9688
-7.2821 -1.8880 -2.5007 0.9688
-7.2431 -2.0345 -2.5008 0.9688
-7.2011 -2.1801 -2.5010 0.9688
-7.1083 -2.4688 -2.5013 0.9688
-6.9475 -2.8942 -2.5018 0.9688
-6.8262 -3.1722 -2.5021 0.9688
-6.6937 -3.4451 -2.5024 0.9688
-6.4746 -3.8439 -2.5029 0.9688
-6.3962 -3.9738 -2.5031 0.9688
-6.3153 -4.1021 -2.5032 0.9688
-6.2317 -4.2288 -2.5034 0.9688
-6.0570 -4.4770 -2.5037 0.9687
-5.9660 -4.5984 -2.5038 0.9687
-5.8725 -4.7180 -2.5040 0.9687
-5.7766 -4.8356 -2.5041 0.9687
-5.6784 -4.9513 -2.5043 0.9687
-5.5778 -5.0650 -2.5045 0.9687
-5.4749 -5.1767 -2.5046 0.9687
-5.3698 -5.2863 -2.5048 0.9687
-5.2625 -5.3937 -2.5049 0.9687
-5.1531 -5.4990 -2.5051 0.9687
-4.8123 -5.8012 -2.5055 0.9687
-4.4538 -6.0824 -2.5059 0.9687
-3.9505 -6.4226 -2.5064 0.9687
-3.8205 -6.5012 -2.5066 0.9687
-3.4213 -6.7212 -2.5070 0.9687
-3.2854 -6.7891 -2.5071 0.9687
-2.8697 -6.9761 -2.5074 0.9687
-2.7286 -7.0329 -2.5075 0.9687
-2.2991 -7.1858 -2.5079 0.9687
-2.1539 -7.2309 -2.5080 0.9687
-2.0079 -7.2732 -2.5081 0.9687
-1.8610 -7.3124 -2.5082 0.9687
-1.7134 -7.3487 -2.5083 0.9687
-1.5650 -7.3820 -2.5084 0.9687
-1.4160 -7.4123 -2.5085 0.9687
-0.8148 -7.5032 -2.5088 0.9687
-0.6635 -7.5184 -2.5089 0.9687
-0.3600 -7.5395 -2.5090 0.9687
0.2481 -7.5447 -2.5093 0.9687
0.5519 -7.5289 -2.5094 0.9687
0.7035 -7.5164 -2.5094 0.9687
1.1564 -7.4606 -2.5096 0.9687
1.7533 -7.3437 -2.5097 0.9687
2.0478 -7.2672 -2.5097 0.9687
2.1938 -7.2245 -2.5097 0.9687
2.4831 -7.1303 -2.5098 0.9687
3.0491 -6.9073 -2.5098 0.9687
3.7283 -6.5655 -2.5097 0.9687
4.2446 -6.2437 -2.5096 0.9687
4.3695 -6.1569 -2.5096 0.9687
4.4926 -6.0675 -2.5096 0.9687
4.6139 -5.9756 -2.5095 0.9687
4.7332 -5.8814 -2.5095 0.9687
4.8507 -5.7847 -2.5094 0.9687
4.9661 -5.6857 -2.5094 0.9687
5.0796 -5.5844 -2.5093 0.9687
5.3002 -5.3749 -2.5092 0.9687
5.6148 -5.0445 -2.5090 0.9687
5.8131 -4.8140 -2.5089 0.9687
6.0928 -4.4536 -2.5086 0.9687
6.1810 -4.3298 -2.5086 0.9687
6.2668 -4.2042 -2.5085 0.9687
6.3500 -4.0770 -2.5084 0.9687
6.5839 -3.6855 -2.5081 0.9687
6.6566 -3.5519 -2.5080 0.9687
6.7265 -3.4170 -2.5079 0.9687
6.7937 -3.2806 -2.5078 0.9687
6.9198 -3.0040 -2.5076 0.9687
7.0346 -2.7225 -2.5073 0.9687
7.0876 -2.5801 -2.5072 0.9687
7.1378 -2.4367 -2.5071 0.9687
7.2295 -2.1469 -2.5068 0.9687
7.3774 -1.5576 -2.5063 0.9687
7.4068 -1.4086 -2.5062 0.9687
7.4568 -1.1089 -2.5059 0.9687
7.4946 -0.8075 -2.5056 0.9687
7.5089 -0.6563 -2.5055 0.9687
7.5202 -0.5048 -2.5054 0.9687
7.5335 -0.2014 -2.5051 0.9687
7.5356 -0.0496 -2.5049 0.9687
7.5306 0.2540 -2.5046 0.9687
7.5235 0.4056 -2.5045 0.9687
7.5133 0.5571 -2.5043 0.9687
7.5001 0.7083 -2.5042 0.9687
7.4169 1.3095 -2.5035 0.9688
7.3885 1.4586 -2.5034 0.9688
7.3572 1.6071 -2.5032 0.9688
-6.2808 3.0459 -2.4962 0.9708
-6.3411 2.9189 -2.4963 0.9708
-6.5067 2.5308 -2.4967 0.9708
-6.5566 2.3993 -2.4968 0.9708
-6.6486 2.1334 -2.4970 0.9708
-6.6905 1.9991 -2.4971 0.9708
-6.7662 1.7281 -2.4973 0.9708
-6.8310 1.4542 -2.4976 0.9708
-6.8593 1.3164 -2.4977 0.9708
-6.9075 1.0391 -2.4979 0.9708
-6.9273 0.8997 -2.4981 0.9708
-6.9587 0.6200 -2.4983 0.9708
-6.9787 0.3392 -2.4986 0.9708
-6.9845 0.1985 -2.4987 0.9708
-6.9875 0.0578 -2.4989 0.9708
-6.9849 -0.2239 -2.4992 0.9707
-6.9794 -0.3646 -2.4993 0.9707
-6.9710 -0.5051 -2.4994 0.9707
-6.9093 -1.0650 -2.5000 0.9707
-6.8616 -1.3426 -2.5003 0.9707
-6.8336 -1.4807 -2.5004 0.9707
-6.8027 -1.6182 -2.5006 0.9707
-6.6520 -2.1611 -2.5012 0.9707
-6.6074 -2.2948 -2.5013 0.9707
-6.5104 -2.5595 -2.5016 0.9707
-6.4579 -2.6903 -2.5018 0.9707
-6.4028 -2.8200 -2.5019 0.9707
-6.3450 -2.9486 -2.5021 0.9707
-6.2847 -3.0761 -2.5022 0.9707
-6.1564 -3.3271 -2.5025 0.9707
-6.0885 -3.4507 -2.5027 0.9707
-6.0181 -3.5729 -2.5028 0.9707
-5.7123 -4.0468 -2.5034 0.9707
-5.6299 -4.1613 -2.5036 0.9707
-5.5452 -4.2741 -2.5037 0.9707
-5.0887 -4.8115 -2.5044 0.9707
-4.9910 -4.9133 -2.5045 0.9707
-4.6858 -5.2067 -2.5050 0.9707
-4.4727 -5.3918 -2.5052 0.9707
-4.3634 -5.4812 -2.5054 0.9707
-4.1395 -5.6531 -2.5056 0.9707
-4.0250 -5.7356 -2.5057 0.9707
-3.9088 -5.8158 -2.5059 0.9707
-3.7910 -5.8937 -2.5060 0.9707
-3.5508 -6.0423 -2.5062 0.9707
-3.3048 -6.1810 -2.5065 0.9707
-3.1798 -6.2466 -2.5066 0.9707
-3.0534 -6.3097 -2.5067 0.9707
-2.2707 -6.6336 -2.5073 0.9707
-2.1367 -6.6782 -2.5074 0.9707
-1.7296 -6.7959 -2.5077 0.9706
-1.5924 -6.8296 -2.5078 0.9706
-1.3160 -6.8887 -2.5080 0.9706
-1.0375 -6.9365 -2.5081 0.9706
-0.8975 -6.9562 -2.5082 0.9706
-0.7572 -6.9731 -2.5083 0.9706
-0.1934 -7.0122 -2.5086 0.9706
-0.0521 -7.0148 -2.5086 0.9706
0.2306 -7.0116 -2.5087 0.9706
0.6538 -6.9852 -2.5089 0.9706
0.7944 -6.9707 -2.5089 0.9706
1.0746 -6.9333 -2.5090 0.9706
1.3531 -6.8846 -2.5091 0.9706
1.7666 -6.7904 -2.5091 0.9706
2.1736 -6.6715 -2.5092 0.9706
2.4407 -6.5785 -2.5092 0.9706
2.5727 -6.5280 -2.5092 0.9706
2.8336 -6.4191 -2.5092 0.9706
3.8270 -5.8808 -2.5091 0.9706
4.0607 -5.7217 -2.5090 0.9706
4.5079 -5.3759 -2.5089 0.9706
4.6152 -5.2839 -2.5088 0.9706
4.7206 -5.1897 -2.5088 0.9706
5.2180 -4.6881 -2.5085 0.9706
5.4024 -4.4738 -2.5084 0.9706
5.5779 -4.2523 -2.5082 0.9706
5.7444 -4.0239 -2.5081 0.9706
5.8241 -3.9072 -2.5080 0.9706
6.0488 -3.5479 -2.5077 0.9706
6.1189 -3.4252 -2.5076 0.9707
6.3139 -3.0489 -2.5074 0.9707
6.4311 -2.7918 -2.5072 0.9707
6.4858 -2.6616 -2.5070 0.9707
6.5871 -2.3979 -2.5068 0.9707
6.6778 -2.1304 -2.5066 0.9707
6.8264 -1.5855 -2.5061 0.9707
6.8840 -1.3091 -2.5059 0.9707
6.9495 -0.8907 -2.5055 0.9707
6.9790 -0.6100 -2.5052 0.9707
6.9895 -0.4692 -2.5051 0.9707
6.9971 -0.3283 -2.5050 0.9707
7.0019 -0.1872 -2.5048 0.9707
7.0039 -0.0461 -2.5047 0.9707
6.9993 0.2361 -2.5044 0.9707
6.9560 0.7986 -2.5039 0.9707
6.9381 0.9386 -2.5037 0.9707
6.9174 1.0781 -2.5036 0.9707
6.8939 1.2172 -2.5034 0.9707
-6.0236 2.4838 -2.4969 0.9725
-6.0727 2.3620 -2.4970 0.9725
-6.1634 2.1156 -2.4972 0.9725
-6.2808 1.7396 -2.4975 0.9725
-6.3463 1.4853 -2.4977 0.9725
-6.3752 1.3572 -2.4979 0.9725
-6.4016 1.2285 -2.4980 0.9725
-6.5211 -0.0775 -2.4992 0.9725
-6.5186 -0.2089 -2.4993 0.9724
-6.5056 -0.4714 -2.4996 0.9724
-6.4951 -0.6024 -2.4997 0.9724
-6.4662 -0.8637 -2.5000 0.9724
-6.4479 -0.9938 -2.5001 0.9724
-6.3771 -1.3818 -2.5005 0.9724
-6.3483 -1.5101 -2.5007 0.9724
-6.3169 -1.6377 -2.5008 0.9724
-6.2465 -1.8911 -2.5011 0.9724
-6.1219 -2.2654 -2.5015 0.9724
-6.0753 -2.3884 -2.5016 0.9724
-6.0263 -2.5105 -2.5018 0.9724
-5.9209 -2.7515 -2.5021 0.9724
-5.8646 -2.8704 -2.5022 0.9724
-5.8059 -2.9882 -2.5023 0.9724
-5.6815 -3.2200 -2.5026 0.9724
-5.5477 -3.4467 -2.5029 0.9724
-5.4050 -3.6678 -2.5032 0.9724
-5.1744 -3.9882 -2.5036 0.9724
-5.0932 -4.0919 -2.5037 0.9724
-4.8375 -4.3928 -2.5041 0.9724
-4.7483 -4.4896 -2.5042 0.9724
-4.6571 -4.5846 -2.5044 0.9724
-4.4691 -4.7690 -2.5046 0.9724
-4.3723 -4.8583 -2.5047 0.9724
-3.7556 -5.3518 -2.5055 0.9724
-3.5372 -5.4992 -2.5057 0.9724
-3.3131 -5.6378 -2.5059 0.9724
-3.0836 -5.7672 -2.5062 0.9724
-2.9669 -5.8284 -2.5063 0.9724
-2.8490 -5.8872 -2.5064 0.9724
-2.6097 -5.9977 -2.5066 0.9724
-2.1187 -6.1893 -2.5070 0.9724
-1.6137 -6.3407 -2.5073 0.9724
-1.4857 -6.3721 -2.5074 0.9724
-1.2278 -6.4272 -2.5076 0.9724
-1.0981 -6.4508 -2.5076 0.9724
-0.9680 -6.4718 -2.5077 0.9724
-0.8374 -6.4902 -2.5078 0.9724
-0.4438 -6.5295 -2.5080 0.9724
-0.3122 -6.5373 -2.5080 0.9724
