ply
format ascii 1.0
element vertex 1571
property float32 x
property float32 y
property float32 z
property float32 I
end_header
6.9238 -12.3035 -2.3258 0.9444
7.1674 -12.1568 -2.3249 0.9444
7.4081 -12.0053 -2.3240 0.9444
7.6456 -11.8492 -2.3231 0.9444
7.8798 -11.6884 -2.3222 0.9445
8.1128 -11.5260 -2.3220 0.9445
8.4907 -11.5608 -2.3630 0.9435
8.8870 -11.6030 -2.4077 0.9425
9.5658 -11.4983 -2.4640 0.9412
10.0322 -11.1158 -2.4667 0.9411
10.4651 -10.6957 -2.4651 0.9411
11.0818 -10.0346 -2.4628 0.9412
11.2783 -9.8065 -2.4621 0.9412
11.4703 -9.5744 -2.4614 0.9412
12.3584 -8.3611 -2.4581 0.9413
12.6790 -7.8526 -2.4569 0.9413
12.9791 -7.3321 -2.4558 0.9414
13.1213 -7.0676 -2.4552 0.9414
13.3898 -6.5306 -2.4542 0.9414
13.8621 -5.4275 -2.4524 0.9414
13.9663 -5.1462 -2.4520 0.9414
14.2455 -4.2913 -2.4510 0.9415
14.4032 -3.7130 -2.4504 0.9415
14.4735 -3.4218 -2.4501 0.9415
14.5967 -2.8354 -2.4496 0.9415
14.8028 -1.3525 -2.4488 0.9415
14.8442 -0.7550 -2.4486 0.9415
14.8620 0.1431 -2.4485 0.9415
14.8562 0.4424 -2.4485 0.9415
14.8444 0.7416 -2.4485 0.9415
14.8268 1.0406 -2.4486 0.9415
14.8032 1.3391 -2.4486 0.9415
14.7385 1.9346 -2.4488 0.9415
14.6973 2.2312 -2.4490 0.9415
14.6503 2.5270 -2.4491 0.9415
-4.7908 11.6482 -2.3674 0.9500
-5.2600 11.4541 -2.3691 0.9500
-5.4917 11.3499 -2.3699 0.9500
-5.7212 11.2409 -2.3708 0.9500
-6.6168 10.7588 -2.3741 0.9499
-5.2302 8.1323 -1.8174 0.9614
-6.7315 9.5938 -2.2029 0.9534
-6.7206 8.8017 -2.0815 0.9559
-7.4037 8.5690 -2.1286 0.9550
-8.0206 8.5603 -2.2049 0.9534
-8.2733 8.4808 -2.2269 0.9529
-9.5629 8.3399 -2.3850 0.9497
-10.0570 7.7530 -2.3868 0.9496
-10.2136 7.5507 -2.3874 0.9496
-10.3662 7.3451 -2.3880 0.9496
-11.0038 7.1490 -2.4665 0.9480
-11.6212 6.9008 -2.5404 0.9465
-11.7770 6.6762 -2.5445 0.9464
-12.0460 6.2012 -2.5466 0.9464
-12.4051 5.4651 -2.5479 0.9463
-13.0630 3.6707 -2.5504 0.9463
-13.1358 3.4072 -2.5507 0.9463
-13.2031 3.1422 -2.5510 0.9463
-13.4176 2.0697 -2.5518 0.9462
-13.4574 1.7991 -2.5520 0.9462
-13.4917 1.5277 -2.5521 0.9462
-13.5204 1.2556 -2.5522 0.9462
-13.5434 0.9830 -2.5523 0.9462
-13.5609 0.7100 -2.5524 0.9462
-13.5727 0.4366 -2.5525 0.9462
-13.5477 -0.9305 -2.5524 0.9462
-13.4268 -2.0179 -2.5521 0.9462
-13.3330 -2.5568 -2.5517 0.9462
-13.1510 -3.3567 -2.5511 0.9463
-13.0025 -3.8830 -2.5506 0.9463
-12.9201 -4.1437 -2.5503 0.9463
-12.8325 -4.4026 -2.5500 0.9463
-12.7396 -4.6597 -2.5497 0.9463
-12.6414 -4.9147 -2.5493 0.9463
-12.5380 -5.1677 -2.5490 0.9463
-12.3158 -5.6668 -2.5482 0.9463
-12.0735 -6.1563 -2.5473 0.9463
-11.6730 -6.8705 -2.5459 0.9464
-11.2296 -7.5584 -2.5443 0.9464
-10.7452 -8.2173 -2.5426 0.9464
-9.8519 -9.2446 -2.5394 0.9465
-9.4663 -9.6287 -2.5380 0.9465
-9.2677 -9.8147 -2.5373 0.9465
-9.0655 -9.9965 -2.5365 0.9466
-8.8597 -10.1742 -2.5358 0.9466
-8.4375 -10.5165 -2.5343 0.9466
-8.2214 -10.6810 -2.5335 0.9466
-7.0764 -11.4067 -2.5231 0.9468
-5.8573 -11.3986 -2.4088 0.9492
-5.5594 -11.3771 -2.3801 0.9498
-4.1225 -11.8943 -2.3661 0.9501
-3.6373 -12.0418 -2.3644 0.9501
-3.3926 -12.1080 -2.3635 0.9501
-3.1468 -12.1693 -2.3626 0.9501
-2.8999 -12.2256 -2.3617 0.9501
-2.1536 -12.3642 -2.3590 0.9502
-1.6525 -12.4312 -2.3571 0.9502
-1.4012 -12.4571 -2.3562 0.9503
-0.8975 -12.4937 -2.3544 0.9503
-0.6454 -12.5044 -2.3535 0.9503
0.1111 -12.5058 -2.3507 0.9504
0.6143 -12.4814 -2.3488 0.9504
0.8653 -12.4616 -2.3479 0.9504
1.1157 -12.4368 -2.3470 0.9504
1.3655 -12.4069 -2.3461 0.9505
1.4932 -11.4423 -2.1689 0.9541
2.1100 -12.2875 -2.3434 0.9505
2.3562 -12.2377 -2.3425 0.9505
2.6013 -12.1831 -2.3416 0.9506
2.8452 -12.1236 -2.3407 0.9506
3.5683 -11.9161 -2.3380 0.9506
3.8062 -11.8373 -2.3371 0.9507
4.5093 -11.5730 -2.3346 0.9507
4.7398 -11.4756 -2.3337 0.9507
5.4660 -11.2542 -2.3516 0.9504
5.7580 -11.2717 -2.3791 0.9498
6.0589 -11.2931 -2.4089 0.9492
6.6783 -11.3271 -2.4716 0.9479
7.7941 -10.6124 -2.4749 0.9478
8.0039 -10.4499 -2.4741 0.9478
8.2102 -10.2834 -2.4734 0.9479
8.4132 -10.1128 -2.4726 0.9479
8.6126 -9.9383 -2.4719 0.9479
9.1893 -9.3918 -2.4697 0.9479
9.3740 -9.2022 -2.4690 0.9479
9.7319 -8.8123 -2.4677 0.9480
9.9049 -8.6122 -2.4671 0.9480
10.2386 -8.2021 -2.4658 0.9480
10.7078 -7.5633 -2.4641 0.9480
11.1378 -6.8981 -2.4625 0.9481
11.2722 -6.6709 -2.4620 0.9481
11.5273 -6.2090 -2.4610 0.9481
11.7639 -5.7375 -2.4601 0.9481
11.9814 -5.2572 -2.4593 0.9481
12.1798 -4.7688 -2.4585 0.9482
12.2716 -4.5218 -2.4582 0.9482
12.3586 -4.2731 -2.4579 0.9482
12.7185 -3.0068 -2.4565 0.9482
12.7753 -2.7497 -2.4563 0.9482
12.8737 -2.2325 -2.4559 0.9482
12.9152 -1.9726 -2.4557 0.9482
12.9516 -1.7119 -2.4556 0.9482
13.0296 -0.9262 -2.4552 0.9482
13.0452 -0.6635 -2.4552 0.9482
13.0557 -0.4006 -2.4551 0.9482
13.0609 0.1257 -2.4551 0.9482
13.0558 0.3888 -2.4551 0.9482
13.0454 0.6518 -2.4551 0.9482
12.9832 1.4387 -2.4553 0.9482
12.9159 1.9608 -2.4555 0.9482
12.8745 2.2207 -2.4556 0.9482
-4.2566 10.3494 -2.3655 0.9553
-4.6731 10.1761 -2.3670 0.9553
-4.8787 10.0831 -2.3678 0.9552
-5.6817 9.6697 -2.3707 0.9552
-5.8772 9.5562 -2.3714 0.9552
-5.2185 8.1142 -2.0393 0.9613
-5.3769 8.0014 -2.0377 0.9614
-6.4495 9.1919 -2.3735 0.9551
-6.6309 9.0568 -2.3727 0.9551
-7.3249 8.4778 -2.3683 0.9552
-8.0210 7.8974 -2.3794 0.9550
-8.1805 7.7361 -2.3800 0.9550
-8.3367 7.5716 -2.3805 0.9550
-8.7837 7.3542 -2.4215 0.9542
-9.7886 6.9359 -2.5359 0.9521
-9.9379 6.7451 -2.5388 0.9521
-10.0738 6.5448 -2.5393 0.9521
-10.5758 5.7168 -2.5412 0.9520
-10.9072 5.0700 -2.5425 0.9520
-11.1059 4.6279 -2.5432 0.9520
-11.1984 4.4038 -2.5436 0.9520
-11.2863 4.1778 -2.5439 0.9520
-11.3696 3.9501 -2.5442 0.9520
-11.5221 3.4896 -2.5448 0.9520
-11.7153 2.7881 -2.5455 0.9520
-11.7701 2.5517 -2.5458 0.9520
-11.8651 2.0758 -2.5461 0.9519
-11.9052 1.8364 -2.5463 0.9519
-11.9405 1.5963 -2.5464 0.9519
-11.9708 1.3555 -2.5466 0.9519
-11.9962 1.1141 -2.5467 0.9519
-12.0425 0.3874 -2.5469 0.9519
-12.0481 0.1447 -2.5469 0.9519
-12.0442 -0.3407 -2.5469 0.9519
-11.9767 -1.3091 -2.5467 0.9519
-11.9133 -1.7904 -2.5465 0.9519
-11.8302 -2.2686 -2.5462 0.9519
-11.7813 -2.5063 -2.5461 0.9519
-11.7276 -2.7430 -2.5459 0.9520
-11.6056 -3.2127 -2.5455 0.9520
-11.5375 -3.4455 -2.5452 0.9520
-11.4646 -3.6769 -2.5450 0.9520
-11.3870 -3.9067 -2.5447 0.9520
-11.0300 -4.8084 -2.5434 0.9520
-10.9294 -5.0289 -2.5431 0.9520
-10.6008 -5.6773 -2.5419 0.9520
-9.9672 -6.7087 -2.5396 0.9521
-9.8281 -6.9068 -2.5392 0.9521
-9.5380 -7.2941 -2.5381 0.9521
-9.3871 -7.4832 -2.5376 0.9521
-8.9119 -8.0311 -2.5359 0.9521
-8.7462 -8.2071 -2.5353 0.9521
-8.5770 -8.3796 -2.5347 0.9522
-8.4044 -8.5486 -2.5340 0.9522
-8.0491 -8.8758 -2.5327 0.9522
-7.1061 -9.6273 -2.5293 0.9523
-6.7087 -9.9001 -2.5279 0.9523
-6.5060 -10.0303 -2.5272 0.9523
-6.3007 -10.1564 -2.5264 0.9523
-6.0930 -10.2782 -2.5257 0.9523
-5.8829 -10.3957 -2.5249 0.9523
-5.4560 -10.6178 -2.5234 0.9524
-4.7976 -10.9119 -2.5196 0.9524
-4.1175 -11.1489 -2.5122 0.9526
-3.8860 -11.2120 -2.5083 0.9526
-3.6296 -11.1964 -2.4879 0.9530
-3.1304 -11.1722 -2.4525 0.9537
-2.4060 -11.1381 -2.4087 0.9545
-2.1706 -11.1302 -2.3970 0.9547
-1.7060 -11.1141 -2.3768 0.9551
-1.4763 -11.1059 -2.3682 0.9552
-1.2486 -11.1011 -2.3613 0.9554
-1.0225 -11.1001 -2.3563 0.9554
-0.7979 -11.1074 -2.3539 0.9555
-0.1254 -11.1237 -2.3515 0.9555
0.7695 -11.0823 -2.3482 0.9556
1.2187 -11.0731 -2.3548 0.9555
1.4453 -11.0750 -2.3609 0.9554
1.9024 -11.0786 -2.3761 0.9551
2.3669 -11.0855 -2.3961 0.9547
2.6028 -11.0909 -2.4081 0.9545
3.0820 -11.1016 -2.4354 0.9540
3.5744 -11.1164 -2.4683 0.9534
4.2657 -10.9478 -2.4836 0.9531
4.7066 -10.7747 -2.4854 0.9531
5.5536 -10.3513 -2.4831 0.9531
6.3612 -9.8587 -2.4801 0.9532
6.5567 -9.7257 -2.4794 0.9532
6.7493 -9.5889 -2.4787 0.9532
7.1262 -9.3040 -2.4773 0.9532
7.3101 -9.1560 -2.4766 0.9532
7.4911 -9.0045 -2.4759 0.9532
7.6689 -8.8494 -2.4753 0.9533
8.0151 -8.5288 -2.4740 0.9533
8.1832 -8.3635 -2.4733 0.9533
8.3480 -8.1949 -2.4727 0.9533
8.9722 -7.4892 -2.4704 0.9533
9.1192 -7.3053 -2.4699 0.9534
9.2625 -7.1186 -2.4693 0.9534
9.6697 -6.5420 -2.4678 0.9534
9.7976 -6.3447 -2.4673 0.9534
9.9216 -6.1448 -2.4669 0.9534
10.1574 -5.7381 -2.4660 0.9534
10.2692 -5.5313 -2.4656 0.9534
10.6746 -4.6838 -2.4640 0.9535
10.7653 -4.4671 -2.4637 0.9535
10.9336 -4.0288 -2.4631 0.9535
11.0113 -3.8072 -2.4628 0.9535
11.0845 -3.5842 -2.4625 0.9535
11.2176 -3.1341 -2.4620 0.9535
11.3327 -2.6792 -2.4615 0.9535
11.3834 -2.4501 -2.4613 0.9535
11.4713 -1.9893 -2.4610 0.9535
11.5083 -1.7577 -2.4608 0.9535
11.5408 -1.5254 -2.4607 0.9535
11.6385 -0.1225 -2.4603 0.9535
11.6385 0.1120 -2.4603 0.9535
11.5692 1.2820 -2.4605 0.9535
11.5090 1.7472 -2.4607 0.9535
11.4721 1.9788 -2.4608 0.9535
-3.8259 9.3023 -2.3639 0.9595
-4.0138 9.2260 -2.3646 0.9595
-4.5677 8.9745 -2.3667 0.9595
-4.9283 8.7881 -2.3680 0.9594
-5.1057 8.6894 -2.3687 0.9594
-5.2067 8.0959 -2.2623 0.9612
-5.3707 7.9922 -2.2631 0.9612
-5.7949 8.2590 -2.3712 0.9594
-6.6045 7.6440 -2.3742 0.9593
-6.7833 7.5385 -2.3834 0.9592
-7.0362 7.5096 -2.4186 0.9586
-7.8032 7.3793 -2.5241 0.9568
-7.9593 7.2288 -2.5270 0.9568
-8.1127 7.0752 -2.5299 0.9567
-8.2627 6.9179 -2.5327 0.9567
-8.5382 6.5821 -2.5337 0.9567
-8.6707 6.4100 -2.5342 0.9567
-9.3904 5.3232 -2.5369 0.9566
-9.6992 4.7485 -2.5381 0.9566
-9.8854 4.3551 -2.5388 0.9566
-10.0554 3.9543 -2.5394 0.9566
-10.2089 3.5468 -2.5400 0.9566
-10.3456 3.1333 -2.5405 0.9566
-10.4653 2.7145 -2.5410 0.9565
-10.5187 2.5033 -2.5412 0.9565
-10.6126 2.0778 -2.5415 0.9565
-10.6529 1.8637 -2.5417 0.9565
-10.7205 1.4332 -2.5420 0.9565
-10.7477 1.2170 -2.5421 0.9565
-10.7704 1.0002 -2.5422 0.9565
-10.8025 0.5656 -2.5423 0.9565
-10.8119 0.3478 -2.5424 0.9565
-10.8169 0.1299 -2.5424 0.9565
-10.8174 -0.0880 -2.5424 0.9565
-10.8049 -0.5237 -2.5424 0.9565
-10.7267 -1.3917 -2.5421 0.9565
-10.6961 -1.6075 -2.5420 0.9565
-10.6216 -2.0369 -2.5418 0.9565
-10.2938 -3.3014 -2.5407 0.9566
-10.2243 -3.5078 -2.5404 0.9566
-9.9904 -4.1177 -2.5396 0.9566
-9.7198 -4.7119 -2.5386 0.9566
-9.6216 -4.9061 -2.5383 0.9566
-9.3035 -5.4758 -2.5372 0.9566
-8.9513 -6.0249 -2.5359 0.9566
-8.1501 -7.0523 -2.5330 0.9567
-8.0047 -7.2137 -2.5325 0.9567
-7.7043 -7.5270 -2.5314 0.9567
-7.3916 -7.8278 -2.5303 0.9567
-7.0669 -8.1154 -2.5291 0.9567
-6.9004 -8.2542 -2.5285 0.9568
-6.5591 -8.5213 -2.5273 0.9568
-6.3844 -8.6496 -2.5266 0.9568
-6.2073 -8.7742 -2.5260 0.9568
-5.6615 -9.1260 -2.5240 0.9568
-5.4750 -9.2357 -2.5234 0.9568
-5.0958 -9.4437 -2.5220 0.9569
-4.9031 -9.5418 -2.5213 0.9569
-4.1143 -9.8942 -2.5184 0.9569
-2.4672 -10.4015 -2.5124 0.9570
-2.0450 -10.4860 -2.5109 0.9571
-1.8327 -10.5218 -2.5101 0.9571
-0.9785 -10.6217 -2.5069 0.9571
-0.7640 -10.6346 -2.5058 0.9571
-0.3346 -10.6484 -2.5039 0.9572
-0.1200 -10.6493 -2.5030 0.9572
0.5231 -10.6284 -2.5009 0.9572
1.1633 -10.5698 -2.4991 0.9572
1.3756 -10.5409 -2.4984 0.9573
1.7980 -10.4705 -2.4968 0.9573
2.8376 -10.2209 -2.4930 0.9574
3.4467 -10.0218 -2.4908 0.9574
3.6468 -9.9474 -2.4900 0.9574
3.8454 -9.8690 -2.4893 0.9574
4.0422 -9.7867 -2.4886 0.9574
4.2373 -9.7005 -2.4879 0.9574
4.6221 -9.5165 -2.4864 0.9575
4.8115 -9.4188 -2.4857 0.9575
5.3672 -9.1034 -2.4837 0.9575
6.0763 -8.6327 -2.4811 0.9575
6.5817 -8.2436 -2.4792 0.9576
6.7448 -8.1074 -2.4786 0.9576
7.0626 -7.8254 -2.4774 0.9576
7.3687 -7.5311 -2.4763 0.9576
7.5173 -7.3794 -2.4757 0.9576
8.0801 -6.7446 -2.4736 0.9577
8.2127 -6.5791 -2.4731 0.9577
8.3419 -6.4111 -2.4727 0.9577
8.4678 -6.2405 -2.4722 0.9577
9.0446 -5.3526 -2.4700 0.9577
9.1491 -5.1685 -2.4696 0.9577
9.2500 -4.9824 -2.4693 0.9577
9.4405 -4.6043 -2.4686 0.9578
9.8495 -3.6293 -2.4670 0.9578
9.9195 -3.4298 -2.4667 0.9578
9.9856 -3.2289 -2.4665 0.9578
10.1057 -2.8235 -2.4660 0.9578
10.1596 -2.6191 -2.4658 0.9578
10.2095 -2.4137 -2.4656 0.9578
10.2554 -2.2074 -2.4654 0.9578
10.2971 -2.0002 -2.4653 0.9578
10.3346 -1.7922 -2.4651 0.9578
10.3681 -1.5835 -2.4650 0.9578
10.3974 -1.3743 -2.4649 0.9578
10.4225 -1.1645 -2.4648 0.9578
10.4435 -0.9542 -2.4647 0.9578
10.4603 -0.7436 -2.4646 0.9578
10.4729 -0.5327 -2.4646 0.9578
10.4813 -0.3216 -2.4645 0.9578
10.4856 -0.1104 -2.4645 0.9578
10.4856 0.1009 -2.4645 0.9578
10.4731 0.5233 -2.4645 0.9578
10.4606 0.7342 -2.4645 0.9578
10.4439 0.9448 -2.4646 0.9578
10.3355 1.7827 -2.4649 0.9578
-3.6413 8.3699 -2.3633 0.9630
-4.1435 8.1410 -2.3652 0.9630
-4.3078 8.0580 -2.3658 0.9629
-4.4704 7.9716 -2.3664 0.9629
-4.6312 7.8819 -2.3670 0.9629
-4.7902 7.7889 -2.3676 0.9629
-5.1530 7.6682 -2.3921 0.9625
-5.3651 7.6465 -2.4185 0.9621
-6.2105 7.4878 -2.5188 0.9606
-6.5195 7.2453 -2.5236 0.9605
-6.8163 6.9873 -2.5274 0.9605
-6.9572 6.8500 -2.5279 0.9605
-7.0952 6.7098 -2.5284 0.9605
-7.2304 6.5668 -2.5289 0.9604
-7.3626 6.4210 -2.5294 0.9604
-7.4919 6.2726 -2.5299 0.9604
-7.6182 6.1215 -2.5304 0.9604
-7.7414 5.9679 -2.5308 0.9604
-7.9783 5.6531 -2.5317 0.9604
-8.2023 5.3289 -2.5326 0.9604
-8.3093 5.1634 -2.5330 0.9604
-8.4129 4.9957 -2.5334 0.9604
-8.7031 4.4803 -2.5344 0.9604
-8.7927 4.3046 -2.5348 0.9604
-8.9612 3.9479 -2.5354 0.9603
-9.1151 3.5845 -2.5360 0.9603
-9.2540 3.2151 -2.5365 0.9603
-9.3178 3.0283 -2.5368 0.9603
-9.3778 2.8402 -2.5370 0.9603
-9.5789 2.0767 -2.5378 0.9603
-9.6885 1.4945 -2.5382 0.9603
-9.7171 1.2991 -2.5383 0.9603
-9.7417 1.1031 -2.5384 0.9603
-9.7999 0.3153 -2.5387 0.9603
-9.7935 -0.4747 -2.5387 0.9603
-9.7818 -0.6719 -2.5387 0.9603
-9.6949 -1.4570 -2.5384 0.9603
-9.6275 -1.8462 -2.5382 0.9603
-9.5442 -2.2323 -2.5379 0.9603
-9.4453 -2.6147 -2.5375 0.9603
-9.3900 -2.8042 -2.5373 0.9603
-9.3308 -2.9926 -2.5371 0.9603
-9.2678 -3.1796 -2.5369 0.9603
-9.2010 -3.3654 -2.5367 0.9603
-8.8111 -4.2714 -2.5353 0.9603
-8.7222 -4.4475 -2.5350 0.9604
-8.6297 -4.6217 -2.5346 0.9604
-8.5337 -4.7940 -2.5343 0.9604
-8.1153 -5.4622 -2.5328 0.9604
-7.7667 -5.9395 -2.5316 0.9604
-7.6441 -6.0937 -2.5311 0.9604
-7.5185 -6.2454 -2.5307 0.9604
-7.3898 -6.3944 -2.5302 0.9604
-7.2581 -6.5408 -2.5297 0.9604
-6.9860 -6.8252 -2.5288 0.9604
-6.8457 -6.9631 -2.5282 0.9605
-6.2576 -7.4854 -2.5261 0.9605
-5.7902 -7.8445 -2.5244 0.9605
-5.3020 -8.1742 -2.5227 0.9605
-5.1350 -8.2773 -2.5221 0.9606
-4.9660 -8.3771 -2.5214 0.9606
-4.7951 -8.4733 -2.5208 0.9606
-4.4476 -8.6553 -2.5196 0.9606
-3.9136 -8.9013 -2.5176 0.9606
-3.5500 -9.0470 -2.5163 0.9606
-3.1809 -9.1777 -2.5150 0.9607
-2.2387 -9.4382 -2.5115 0.9607
-2.0476 -9.4788 -2.5108 0.9607
-1.8557 -9.5154 -2.5101 0.9607
-1.6631 -9.5482 -2.5094 0.9607
-1.4700 -9.5771 -2.5087 0.9608
-1.2764 -9.6021 -2.5080 0.9608
-0.6935 -9.6534 -2.5059 0.9608
-0.3038 -9.6680 -2.5045 0.9608
0.0858 -9.6669 -2.5030 0.9608
0.8628 -9.6177 -2.5002 0.9609
1.6324 -9.5063 -2.4974 0.9609
2.3898 -9.3336 -2.4946 0.9610
2.5766 -9.2810 -2.4939 0.9610
2.9468 -9.1647 -2.4925 0.9610
3.6711 -8.8882 -2.4899 0.9610
3.8484 -8.8101 -2.4892 0.9611
4.0241 -8.7285 -2.4886 0.9611
4.1980 -8.6434 -2.4879 0.9611
4.3702 -8.5549 -2.4873 0.9611
4.7089 -8.3677 -2.4861 0.9611
4.8753 -8.2691 -2.4854 0.9611
5.0397 -8.1672 -2.4848 0.9611
5.3621 -7.9538 -2.4836 0.9611
5.5199 -7.8423 -2.4831 0.9611
5.6755 -7.7277 -2.4825 0.9612
5.8287 -7.6101 -2.4819 0.9612
6.1278 -7.3658 -2.4808 0.9612
6.2736 -7.2392 -2.4803 0.9612
6.4168 -7.1099 -2.4797 0.9612
6.6952 -6.8427 -2.4787 0.9612
7.2187 -6.2766 -2.4768 0.9612
7.3423 -6.1288 -2.4763 0.9613
7.8064 -5.5139 -2.4746 0.9613
8.0196 -5.1933 -2.4738 0.9613
8.2198 -4.8645 -2.4730 0.9613
8.3150 -4.6973 -2.4727 0.9613
8.4951 -4.3573 -2.4720 0.9613
8.5801 -4.1847 -2.4717 0.9613
8.7396 -3.8347 -2.4711 0.9613
8.8140 -3.6575 -2.4708 0.9613
8.8850 -3.4788 -2.4705 0.9613
8.9523 -3.2987 -2.4703 0.9613
9.0161 -3.1174 -2.4700 0.9613
9.2346 -2.3806 -2.4692 0.9614
9.2801 -2.1940 -2.4690 0.9614
9.4244 -1.4394 -2.4684 0.9614
9.5275 -0.2923 -2.4680 0.9614
9.5314 -0.1003 -2.4680 0.9614
9.5314 0.0917 -2.4680 0.9614
9.5087 0.6673 -2.4680 0.9614
9.4745 1.0499 -2.4681 0.9614
9.3948 1.6205 -2.4684 0.9614
9.3606 1.8095 -2.4685 0.9614
-3.7484 7.7470 -2.4364 0.9649
-4.1253 7.7167 -2.4771 0.9643
-4.3186 7.7009 -2.4995 0.9640
-4.4951 7.6502 -2.5119 0.9638
-5.6903 6.8606 -2.5233 0.9636
-5.8285 6.7459 -2.5238 0.9636
-6.2290 6.3853 -2.5253 0.9636
-6.4836 6.1314 -2.5262 0.9636
-6.7278 5.8674 -2.5271 0.9636
-6.9611 5.5935 -2.5280 0.9636
-7.0736 5.4530 -2.5284 0.9636
-7.3935 5.0182 -2.5296 0.9635
-7.4942 4.8689 -2.5300 0.9635
-7.5919 4.7176 -2.5304 0.9635
-7.6865 4.5644 -2.5307 0.9635
-7.7779 4.4092 -2.5311 0.9635
-7.9513 4.0933 -2.5317 0.9635
-8.1117 3.7706 -2.5323 0.9635
-8.3273 3.2747 -2.5331 0.9635
-8.5123 2.7665 -2.5338 0.9635
-8.5670 2.5946 -2.5340 0.9635
-8.7100 2.0729 -2.5346 0.9635
-8.7505 1.8971 -2.5347 0.9635
-8.8766 1.1867 -2.5352 0.9635
-8.9329 0.6484 -2.5355 0.9635
-8.9443 0.4683 -2.5355 0.9635
-8.9521 0.2880 -2.5356 0.9635
-8.9561 0.1076 -2.5356 0.9634
-8.9462 -0.4336 -2.5356 0.9634
-8.9212 -0.7937 -2.5355 0.9635
-8.7947 -1.6865 -2.5351 0.9635
-8.5780 -2.5617 -2.5344 0.9635
-8.4666 -2.9048 -2.5340 0.9635
-8.4056 -3.0745 -2.5337 0.9635
-8.3412 -3.2429 -2.5335 0.9635
-8.2734 -3.4100 -2.5333 0.9635
-7.8842 -4.2224 -2.5319 0.9635
-7.7966 -4.3799 -2.5316 0.9635
-7.6119 -4.6892 -2.5309 0.9635
-7.2055 -5.2837 -2.5295 0.9635
-6.7524 -5.8429 -2.5278 0.9636
-6.5093 -6.1080 -2.5270 0.9636
-6.2557 -6.3630 -2.5261 0.9636
-5.9920 -6.6074 -2.5251 0.9636
-5.7187 -6.8407 -2.5241 0.9636
-5.1452 -7.2729 -2.5220 0.9636
-4.8460 -7.4711 -2.5210 0.9637
-4.6934 -7.5655 -2.5204 0.9637
-4.5391 -7.6568 -2.5198 0.9637
-4.2250 -7.8299 -2.5187 0.9637
-4.0654 -7.9117 -2.5181 0.9637
-3.9043 -7.9901 -2.5175 0.9637
-3.5776 -8.1370 -2.5164 0.9637
-2.3942 -8.5445 -2.5120 0.9638
-2.2210 -8.5888 -2.5114 0.9638
-1.8722 -8.6670 -2.5101 0.9638
-1.6968 -8.7007 -2.5095 0.9638
-1.3442 -8.7575 -2.5082 0.9638
-0.9898 -8.8000 -2.5069 0.9639
-0.8121 -8.8159 -2.5063 0.9639
-0.6342 -8.8282 -2.5056 0.9639
-0.4561 -8.8369 -2.5050 0.9639
-0.2779 -8.8419 -2.5043 0.9639
0.2565 -8.8357 -2.5024 0.9639
0.4344 -8.8264 -2.5017 0.9639
0.6120 -8.8136 -2.5011 0.9639
1.1424 -8.7537 -2.4991 0.9640
1.3182 -8.7267 -2.4985 0.9640
1.4933 -8.6961 -2.4978 0.9640
1.6678 -8.6620 -2.4972 0.9640
1.8415 -8.6245 -2.4966 0.9640
2.0143 -8.5834 -2.4959 0.9640
2.3573 -8.4910 -2.4947 0.9640
2.5273 -8.4397 -2.4940 0.9640
2.8638 -8.3269 -2.4928 0.9641
3.1953 -8.2008 -2.4916 0.9641
3.3591 -8.1328 -2.4910 0.9641
3.5214 -8.0615 -2.4904 0.9641
3.6822 -7.9870 -2.4898 0.9641
4.1551 -7.7446 -2.4880 0.9641
4.4617 -7.5675 -2.4869 0.9641
4.9074 -7.2793 -2.4853 0.9642
5.0520 -7.1774 -2.4847 0.9642
5.1944 -7.0727 -2.4842 0.9642
5.6087 -6.7418 -2.4827 0.9642
6.1285 -6.2635 -2.4808 0.9642
6.2523 -6.1377 -2.4803 0.9642
6.3735 -6.0094 -2.4798 0.9642
6.6081 -5.7457 -2.4790 0.9643
6.7214 -5.6105 -2.4786 0.9643
6.9397 -5.3334 -2.4777 0.9643
7.0446 -5.1917 -2.4773 0.9643
7.3421 -4.7545 -2.4762 0.9643
7.6127 -4.3006 -2.4752 0.9643
7.8557 -3.8314 -2.4743 0.9643
8.0702 -3.3488 -2.4735 0.9643
8.2554 -2.8544 -2.4728 0.9643
8.3623 -2.5191 -2.4724 0.9643
8.5356 -1.8372 -2.4717 0.9644
8.5704 -1.6647 -2.4716 0.9644
8.6297 -1.3180 -2.4713 0.9644
8.6752 -0.9692 -2.4712 0.9644
8.6927 -0.7942 -2.4711 0.9644
8.7067 -0.6189 -2.4710 0.9644
8.7243 -0.2677 -2.4709 0.9644
8.7244 0.2598 -2.4709 0.9644
8.7175 0.4355 -2.4709 0.9644
8.6931 0.7864 -2.4710 0.9644
8.6757 0.9614 -2.4711 0.9644
8.6548 1.1360 -2.4711 0.9644
8.6026 1.4838 -2.4713 0.9644
-3.1039 7.5467 -2.5099 0.9664
-3.7103 7.2900 -2.5160 0.9663
-3.8574 7.2155 -2.5166 0.9663
-4.1467 7.0572 -2.5176 0.9663
-4.2889 6.9737 -2.5182 0.9663
-4.7052 6.7060 -2.5197 0.9663
-4.9735 6.5136 -2.5207 0.9663
-5.2339 6.3103 -2.5217 0.9663
-5.3610 6.2048 -2.5221 0.9663
-5.6086 5.9859 -2.5230 0.9663
-6.0765 5.5188 -2.5248 0.9662
-6.1874 5.3961 -2.5252 0.9662
-6.2959 5.2712 -2.5256 0.9662
-6.4018 5.1441 -2.5260 0.9662
-6.5051 5.0149 -2.5264 0.9662
-6.6058 4.8835 -2.5267 0.9662
-6.7039 4.7501 -2.5271 0.9662
-6.7992 4.6147 -2.5275 0.9662
-7.2334 3.9101 -2.5291 0.9662
-7.3116 3.7640 -2.5294 0.9662
-7.5941 3.1645 -2.5305 0.9662
-7.6570 3.0111 -2.5307 0.9662
-7.7168 2.8565 -2.5309 0.9662
-7.7734 2.7007 -2.5311 0.9661
-7.8772 2.3857 -2.5315 0.9661
-7.9242 2.2267 -2.5317 0.9661
-7.9680 2.0668 -2.5319 0.9661
-8.0797 1.5819 -2.5323 0.9661
-8.1821 0.9265 -2.5327 0.9661
-8.1993 0.7615 -2.5328 0.9661
-8.2132 0.5961 -2.5329 0.9661
-8.2025 -0.7297 -2.5329 0.9661
-8.1860 -0.8948 -2.5328 0.9661
-8.1661 -1.0595 -2.5328 0.9661
-8.0863 -1.5507 -2.5325 0.9661
-8.0531 -1.7132 -2.5324 0.9661
-8.0166 -1.8750 -2.5323 0.9661
-7.8872 -2.3554 -2.5318 0.9661
-7.7289 -2.8269 -2.5313 0.9661
-7.6697 -2.9818 -2.5311 0.9661
-7.6074 -3.1355 -2.5308 0.9662
-7.5420 -3.2878 -2.5306 0.9662
-7.4735 -3.4388 -2.5304 0.9662
-7.4020 -3.5883 -2.5301 0.9662
-7.0859 -4.1706 -2.5290 0.9662
-6.8185 -4.5894 -2.5280 0.9662
-6.6263 -4.8590 -2.5273 0.9662
-6.4233 -5.1205 -2.5266 0.9662
-6.0994 -5.4966 -2.5254 0.9662
-5.9865 -5.6175 -2.5250 0.9662
-5.8711 -5.7360 -2.5246 0.9662
-5.2599 -6.2919 -2.5224 0.9663
-5.1311 -6.3954 -2.5219 0.9663
-5.0003 -6.4962 -2.5215 0.9663
-4.5961 -6.7825 -2.5200 0.9663
-4.3174 -6.9594 -2.5190 0.9663
-4.1754 -7.0435 -2.5185 0.9663
-4.0319 -7.1247 -2.5180 0.9663
-3.7400 -7.2783 -2.5169 0.9663
-3.5918 -7.3506 -2.5164 0.9663
-3.4423 -7.4198 -2.5158 0.9663
-3.1392 -7.5492 -2.5147 0.9664
-2.9858 -7.6092 -2.5142 0.9664
-2.8313 -7.6661 -2.5136 0.9664
-2.6756 -7.7199 -2.5130 0.9664
-2.5190 -7.7704 -2.5125 0.9664
-2.0436 -7.9029 -2.5107 0.9664
-1.7228 -7.9752 -2.5096 0.9664
-1.3994 -8.0343 -2.5084 0.9664
-0.7474 -8.1132 -2.5060 0.9665
-0.5836 -8.1246 -2.5054 0.9665
-0.0917 -8.1392 -2.5036 0.9665
0.2361 -8.1324 -2.5024 0.9665
0.5633 -8.1124 -2.5012 0.9665
0.7264 -8.0975 -2.5006 0.9665
1.3746 -8.0051 -2.4982 0.9666
1.6952 -7.9395 -2.4971 0.9666
1.8544 -7.9019 -2.4965 0.9666
2.0127 -7.8611 -2.4959 0.9666
2.1702 -7.8171 -2.4953 0.9666
2.4822 -7.7198 -2.4942 0.9666
2.6366 -7.6665 -2.4936 0.9666
2.9420 -7.5506 -2.4925 0.9667
3.5372 -7.2829 -2.4903 0.9667
3.6824 -7.2086 -2.4898 0.9667
3.9682 -7.0514 -2.4887 0.9667
4.2472 -6.8830 -2.4877 0.9667
4.5193 -6.7036 -2.4867 0.9667
4.6525 -6.6099 -2.4862 0.9667
4.9131 -6.4146 -2.4852 0.9668
5.0403 -6.3131 -2.4847 0.9668
5.1655 -6.2091 -2.4843 0.9668
5.4095 -5.9938 -2.4834 0.9668
5.6446 -5.7690 -2.4825 0.9668
5.8704 -5.5350 -2.4817 0.9668
6.1911 -5.1678 -2.4805 0.9668
6.4891 -4.7823 -2.4794 0.9668
6.5831 -4.6499 -2.4790 0.9668
6.7633 -4.3797 -2.4783 0.9668
6.8493 -4.2420 -2.4780 0.9668
7.0904 -3.8192 -2.4771 0.9669
7.3058 -3.3828 -2.4763 0.9669
7.3717 -3.2346 -2.4760 0.9669
7.4946 -2.9344 -2.4756 0.9669
7.5516 -2.7826 -2.4754 0.9669
7.6055 -2.6297 -2.4752 0.9669
7.6563 -2.4757 -2.4750 0.9669
7.7041 -2.3208 -2.4748 0.9669
7.7902 -2.0083 -2.4745 0.9669
7.8286 -1.8508 -2.4743 0.9669
7.8639 -1.6926 -2.4742 0.9669
7.8960 -1.5338 -2.4740 0.9669
7.9733 -1.0539 -2.4737 0.9669
8.0217 -0.5703 -2.4735 0.9669
8.0314 -0.4085 -2.4735 0.9669
8.0412 0.0774 -2.4734 0.9669
8.0092 0.7245 -2.4735 0.9669
7.9931 0.8858 -2.4736 0.9669
7.9257 1.3671 -2.4738 0.9669
7.8969 1.5266 -2.4739 0.9669
-2.8757 6.9917 -2.5130 0.9686
-3.1563 6.8730 -2.5140 0.9686
-3.2948 6.8094 -2.5145 0.9686
-3.7023 6.6019 -2.5160 0.9686
-3.8353 6.5272 -2.5165 0.9686
-4.0967 6.3699 -2.5175 0.9686
-4.4765 6.1142 -2.5189 0.9686
-4.7209 5.9310 -2.5198 0.9686
-4.8403 5.8357 -2.5202 0.9685
-4.9577 5.7380 -2.5207 0.9685
-5.1866 5.5355 -2.5215 0.9685
-5.2979 5.4308 -2.5219 0.9685
-5.4071 5.3238 -2.5223 0.9685
-5.5142 5.2146 -2.5227 0.9685
-5.6190 5.1033 -2.5231 0.9685
-5.8217 4.8742 -2.5239 0.9685
-6.1081 4.5155 -2.5249 0.9685
-6.2867 4.2669 -2.5256 0.9685
-6.3722 4.1399 -2.5259 0.9685
-6.6130 3.7488 -2.5268 0.9685
-6.8296 3.3435 -2.5276 0.9685
-6.8962 3.2056 -2.5279 0.9685
-7.0792 2.7839 -2.5286 0.9684
-7.1345 2.6409 -2.5288 0.9684
-7.2826 2.2057 -2.5294 0.9684
-7.3665 1.9107 -2.5297 0.9684
-7.4696 1.4625 -2.5301 0.9684
-7.5231 1.1605 -2.5303 0.9684
-7.5643 0.8565 -2.5305 0.9684
-7.6127 0.0915 -2.5307 0.9684
-7.6130 -0.0619 -2.5307 0.9684
-7.6102 -0.2153 -2.5307 0.9684
-7.6043 -0.3686 -2.5307 0.9684
-7.5952 -0.5217 -2.5306 0.9684
-7.5494 -0.9795 -2.5305 0.9684
-7.5280 -1.1314 -2.5304 0.9684
-7.3347 -2.0304 -2.5298 0.9684
-7.2919 -2.1776 -2.5296 0.9684
-7.2460 -2.3240 -2.5295 0.9684
-7.1973 -2.4693 -2.5293 0.9684
-7.0333 -2.8989 -2.5287 0.9684
-6.9729 -3.0397 -2.5285 0.9684
-6.9097 -3.1793 -2.5283 0.9684
-6.8436 -3.3176 -2.5280 0.9685
-6.7747 -3.4544 -2.5278 0.9685
-6.4718 -3.9869 -2.5267 0.9685
-6.0343 -4.6147 -2.5252 0.9685
-5.5357 -5.1945 -2.5234 0.9685
-5.3203 -5.4116 -2.5226 0.9685
-5.2094 -5.5168 -2.5222 0.9685
-5.0964 -5.6197 -2.5218 0.9685
-4.8642 -5.8186 -2.5209 0.9685
-4.6243 -6.0077 -2.5201 0.9685
-4.3769 -6.1869 -2.5192 0.9686
-3.9930 -6.4365 -2.5178 0.9686
-3.5948 -6.6621 -2.5163 0.9686
-3.1839 -6.8630 -2.5148 0.9686
-2.9037 -6.9829 -2.5138 0.9686
-2.6190 -7.0912 -2.5128 0.9686
-2.4751 -7.1411 -2.5123 0.9686
-2.3302 -7.1880 -2.5117 0.9687
-2.0379 -7.2729 -2.5107 0.9687
-1.8905 -7.3110 -2.5101 0.9687
-1.5938 -7.3780 -2.5091 0.9687
-1.2947 -7.4330 -2.5080 0.9687
-1.1444 -7.4559 -2.5074 0.9687
-0.8428 -7.4927 -2.5063 0.9687
-0.6915 -7.5065 -2.5058 0.9687
-0.5400 -7.5172 -2.5052 0.9687
-0.3884 -7.5249 -2.5047 0.9687
-0.2366 -7.5296 -2.5041 0.9687
-0.0849 -7.5311 -2.5035 0.9688
0.0669 -7.5296 -2.5030 0.9688
0.3700 -7.5175 -2.5019 0.9688
0.5212 -7.5069 -2.5013 0.9688
0.6722 -7.4932 -2.5008 0.9688
0.8229 -7.4765 -2.5002 0.9688
0.9731 -7.4567 -2.4997 0.9688
1.1229 -7.4340 -2.4991 0.9688
1.2721 -7.4082 -2.4986 0.9688
1.4208 -7.3795 -2.4980 0.9688
1.5689 -7.3478 -2.4975 0.9688
1.8628 -7.2754 -2.4964 0.9688
2.0086 -7.2349 -2.4959 0.9688
2.1535 -7.1914 -2.4953 0.9689
2.2974 -7.1451 -2.4948 0.9689
2.7231 -6.9888 -2.4932 0.9689
2.8628 -6.9312 -2.4927 0.9689
3.2742 -6.7415 -2.4912 0.9689
3.4087 -6.6728 -2.4907 0.9689
3.5418 -6.6015 -2.4902 0.9689
4.0586 -6.2901 -2.4883 0.9689
4.3071 -6.1192 -2.4874 0.9689
4.5485 -5.9386 -2.4865 0.9690
4.8964 -5.6501 -2.4852 0.9690
5.0084 -5.5494 -2.4848 0.9690
5.2262 -5.3413 -2.4840 0.9690
5.3319 -5.2342 -2.4836 0.9690
5.5367 -5.0135 -2.4829 0.9690
5.6358 -4.9003 -2.4825 0.9690
5.8269 -4.6679 -2.4818 0.9690
5.9190 -4.5490 -2.4814 0.9690
6.0958 -4.3057 -2.4808 0.9690
6.2627 -4.0556 -2.4801 0.9690
6.3424 -3.9281 -2.4798 0.9690
6.4940 -3.6686 -2.4793 0.9690
6.6351 -3.4033 -2.4788 0.9691
6.7017 -3.2686 -2.4785 0.9691
6.8849 -2.8570 -2.4778 0.9691
7.0432 -2.4353 -2.4772 0.9691
7.0903 -2.2927 -2.4770 0.9691
7.1346 -2.1492 -2.4769 0.9691
7.1760 -2.0050 -2.4767 0.9691
7.2828 -1.5675 -2.4763 0.9691
7.3394 -1.2728 -2.4761 0.9691
7.3632 -1.1246 -2.4760 0.9691
7.3841 -0.9760 -2.4759 0.9691
7.4171 -0.6777 -2.4757 0.9691
7.4291 -0.5281 -2.4757 0.9691
7.4441 -0.2284 -2.4756 0.9691
7.4471 -0.0784 -2.4756 0.9691
7.4472 0.0717 -2.4756 0.9691
7.4442 0.2217 -2.4756 0.9691
7.4026 0.8203 -2.4757 0.9691
7.3847 0.9693 -2.4758 0.9691
7.3639 1.1179 -2.4758 0.9691
-2.6722 6.4972 -2.5123 0.9706
-2.9329 6.3867 -2.5132 0.9706
-3.5636 6.0649 -2.5156 0.9706
-3.9256 5.8417 -2.5169 0.9705
-4.1592 5.6808 -2.5178 0.9705
-4.2735 5.5967 -2.5182 0.9705
-4.3861 5.5104 -2.5186 0.9705
-4.7132 5.2379 -2.5198 0.9705
-4.8185 5.1427 -2.5202 0.9705
-5.3152 4.6354 -2.5220 0.9705
-5.4083 4.5280 -2.5224 0.9705
-5.5877 4.3076 -2.5231 0.9705
-5.6741 4.1947 -2.5234 0.9705
-5.9962 3.7261 -2.5246 0.9705
-6.0708 3.6049 -2.5249 0.9705
-6.1428 3.4822 -2.5251 0.9704
-6.2794 3.2326 -2.5256 0.9704
-6.3438 3.1058 -2.5259 0.9704
-6.4057 2.9776 -2.5261 0.9704
-6.4650 2.8482 -2.5263 0.9704
-6.5216 2.7176 -2.5266 0.9704
-6.7643 2.0487 -2.5275 0.9704
-6.9379 1.3584 -2.5281 0.9704
-6.9641 1.2184 -2.5282 0.9704
-6.9875 1.0779 -2.5283 0.9704
-7.0257 0.7955 -2.5285 0.9704
-7.0405 0.6539 -2.5286 0.9704
-7.0524 0.5119 -2.5286 0.9704
-7.0614 0.3697 -2.5286 0.9704
-7.0675 0.2274 -2.5287 0.9704
-7.0684 -0.2000 -2.5287 0.9704
-7.0545 -0.4846 -2.5287 0.9704
-7.0290 -0.7683 -2.5286 0.9704
-6.9920 -1.0508 -2.5285 0.9704
-6.9692 -1.1914 -2.5284 0.9704
-6.9435 -1.3315 -2.5283 0.9704
-6.8837 -1.6101 -2.5281 0.9704
-6.8126 -1.8859 -2.5279 0.9704
-6.7729 -2.0226 -2.5277 0.9704
-6.6851 -2.2936 -2.5274 0.9704
-6.6371 -2.4276 -2.5272 0.9704
-6.5863 -2.5607 -2.5271 0.9704
-6.4769 -2.8235 -2.5267 0.9704
-6.3568 -3.0816 -2.5263 0.9704
-6.2929 -3.2087 -2.5260 0.9704
-6.2264 -3.3346 -2.5258 0.9704
-6.0857 -3.5820 -2.5253 0.9704
-5.9352 -3.8234 -2.5248 0.9705
-5.8563 -3.9418 -2.5245 0.9705
-5.7751 -4.0585 -2.5242 0.9705
-5.2395 -4.7217 -2.5223 0.9705
-5.0436 -4.9276 -2.5215 0.9705
-4.8396 -5.1252 -2.5208 0.9705
-4.7347 -5.2209 -2.5204 0.9705
-4.6278 -5.3144 -2.5200 0.9705
-4.4086 -5.4948 -2.5193 0.9705
-4.0666 -5.7483 -2.5180 0.9705
-3.9493 -5.8281 -2.5176 0.9705
-3.7100 -5.9804 -2.5167 0.9705
-3.5882 -6.0528 -2.5163 0.9706
-2.8290 -6.4343 -2.5135 0.9706
-2.5665 -6.5406 -2.5126 0.9706
-2.4337 -6.5897 -2.5121 0.9706
-1.8938 -6.7589 -2.5101 0.9706
-1.7569 -6.7943 -2.5096 0.9706
-1.4812 -6.8569 -2.5086 0.9706
-0.7833 -6.9640 -2.5061 0.9707
-0.5019 -6.9870 -2.5050 0.9707
-0.3610 -6.9943 -2.5045 0.9707
-0.2200 -6.9987 -2.5040 0.9707
0.0622 -6.9990 -2.5030 0.9707
0.6249 -6.9655 -2.5009 0.9707
1.1826 -6.8870 -2.4989 0.9708
1.3209 -6.8603 -2.4984 0.9708
1.7318 -6.7639 -2.4969 0.9708
1.8674 -6.7263 -2.4964 0.9708
2.1360 -6.6430 -2.4954 0.9708
2.2689 -6.5973 -2.4949 0.9708
2.4009 -6.5490 -2.4944 0.9708
2.5319 -6.4981 -2.4939 0.9708
2.6618 -6.4445 -2.4934 0.9708
2.9181 -6.3297 -2.4925 0.9708
3.0445 -6.2684 -2.4920 0.9708
3.1696 -6.2047 -2.4916 0.9708
3.5367 -5.9986 -2.4902 0.9709
3.6562 -5.9251 -2.4898 0.9709
3.7741 -5.8492 -2.4893 0.9709
4.0053 -5.6905 -2.4885 0.9709
4.1185 -5.6077 -2.4881 0.9709
4.4475 -5.3460 -2.4869 0.9709
4.5536 -5.2545 -2.4865 0.9709
4.8604 -4.9676 -2.4853 0.9709
5.0552 -4.7663 -2.4846 0.9709
5.1494 -4.6629 -2.4843 0.9709
5.4195 -4.3415 -2.4832 0.9709
5.5052 -4.2309 -2.4829 0.9709
5.6697 -4.0047 -2.4823 0.9709
5.7486 -3.8892 -2.4820 0.9709
5.9710 -3.5337 -2.4812 0.9710
6.0404 -3.4123 -2.4809 0.9710
6.2336 -3.0403 -2.4802 0.9710
6.2931 -2.9139 -2.4800 0.9710
6.4043 -2.6575 -2.4796 0.9710
6.4560 -2.5278 -2.4794 0.9710
6.5051 -2.3970 -2.4792 0.9710
6.5516 -2.2653 -2.4790 0.9710
6.6367 -1.9993 -2.4787 0.9710
6.7110 -1.7301 -2.4784 0.9710
6.7442 -1.5944 -2.4783 0.9710
6.7746 -1.4582 -2.4781 0.9710
6.8273 -1.1840 -2.4779 0.9710
6.8495 -1.0462 -2.4778 0.9710
6.9192 -0.3519 -2.4776 0.9710
6.9276 -0.0729 -2.4775 0.9710
6.9277 0.0667 -2.4775 0.9710
6.8280 1.1778 -2.4778 0.9710
-2.4930 6.0614 -2.5116 0.9723
-2.6151 6.0110 -2.5121 0.9723
-2.8561 5.9029 -2.5130 0.9723
-2.9750 5.8452 -2.5134 0.9723
-3.0927 5.7850 -2.5138 0.9723
-3.2092 5.7225 -2.5143 0.9723
-3.3244 5.6577 -2.5147 0.9723
-3.4382 5.5905 -2.5151 0.9723
-3.5508 5.5210 -2.5155 0.9723
-3.7715 5.3752 -2.5164 0.9723
-4.0912 5.1400 -2.5175 0.9723
-4.2963 4.9725 -2.5183 0.9722
-4.4944 4.7968 -2.5190 0.9722
-4.5908 4.7059 -2.5194 0.9722
-4.6853 4.6131 -2.5197 0.9722
-5.3704 3.8053 -2.5223 0.9722
-5.4466 3.6967 -2.5226 0.9722
-5.5923 3.4750 -2.5231 0.9722
-5.6617 3.3620 -2.5234 0.9722
-5.9162 2.8964 -2.5243 0.9722
-5.9739 2.7769 -2.5245 0.9722
-6.0292 2.6562 -2.5248 0.9722
-6.0819 2.5344 -2.5250 0.9722
-6.1322 2.4115 -2.5251 0.9722
-6.2252 2.1628 -2.5255 0.9722
-6.3457 1.7831 -2.5260 0.9722
-6.4943 1.1362 -2.5265 0.9722
-6.5161 1.0051 -2.5266 0.9722
-6.5765 0.4774 -2.5269 0.9721
-6.5849 0.3448 -2.5269 0.9721
-6.5936 0.0792 -2.5270 0.9721
-6.5914 -0.1865 -2.5270 0.9721
-6.5547 -0.7165 -2.5269 0.9721
-6.5388 -0.8484 -2.5268 0.9722
-6.5203 -0.9799 -2.5267 0.9722
-6.4193 -1.5014 -2.5264 0.9722
-6.3875 -1.6304 -2.5263 0.9722
-6.2764 -2.0130 -2.5259 0.9722
-6.1422 -2.3880 -2.5254 0.9722
-5.8687 -2.9924 -2.5245 0.9722
-5.8067 -3.1098 -2.5242 0.9722
-5.6756 -3.3406 -2.5238 0.9722
-5.3860 -3.7851 -2.5227 0.9722
-5.3081 -3.8924 -2.5225 0.9722
-5.2280 -3.9981 -2.5222 0.9722
-5.1458 -4.1021 -2.5219 0.9722
-5.0615 -4.2045 -2.5216 0.9722
-4.8868 -4.4038 -2.5209 0.9722
-4.7965 -4.5008 -2.5206 0.9722
-4.5140 -4.7804 -2.5196 0.9722
-4.4162 -4.8697 -2.5192 0.9722
-4.1121 -5.1254 -2.5182 0.9722
-4.0074 -5.2064 -2.5178 0.9722
-3.9011 -5.2852 -2.5174 0.9723
-3.7933 -5.3619 -2.5170 0.9723
-3.4608 -5.5786 -2.5158 0.9723
-3.3472 -5.6463 -2.5154 0.9723
-3.2322 -5.7116 -2.5150 0.9723
-3.1160 -5.7746 -2.5145 0.9723
-2.9985 -5.8352 -2.5141 0.9723
-2.8798 -5.8935 -2.5137 0.9723
-2.7600 -5.9492 -2.5132 0.9723
-2.5172 -6.0535 -2.5124 0.9723
-2.2705 -6.1478 -2.5115 0.9723
-2.0203 -6.2320 -2.5106 0.9723
-1.6392 -6.3391 -2.5092 0.9723
-1.5109 -6.3697 -2.5087 0.9723
-1.3820 -6.3976 -2.5082 0.9724
-1.2526 -6.4230 -2.5078 0.9724
-1.1227 -6.4457 -2.5073 0.9724
-0.7309 -6.4980 -2.5059 0.9724
-0.4683 -6.5197 -2.5049 0.9724
-0.2052 -6.5307 -2.5039 0.9724
0.3209 -6.5211 -2.5020 0.9724
0.4522 -6.5120 -2.5015 0.9724
0.5831 -6.5003 -2.5010 0.9724
0.9742 -6.4495 -2.4996 0.9724
1.1037 -6.4274 -2.4991 0.9725
1.2327 -6.4026 -2.4987 0.9725
1.4891 -6.3454 -2.4977 0.9725
1.9936 -6.2003 -2.4959 0.9725
2.2410 -6.1128 -2.4950 0.9725
2.3632 -6.0652 -2.4945 0.9725
2.8418 -5.8512 -2.4928 0.9725
3.1885 -5.6659 -2.4915 0.9725
3.3014 -5.5996 -2.4911 0.9725
3.4130 -5.5310 -2.4906 0.9725
3.5232 -5.4603 -2.4902 0.9725
3.8447 -5.2350 -2.4891 0.9726
3.9488 -5.1556 -2.4887 0.9726
4.1520 -4.9909 -2.4879 0.9726
4.2511 -4.9055 -2.4875 0.9726
4.3485 -4.8181 -2.4872 0.9726
4.5377 -4.6378 -2.4865 0.9726
4.8077 -4.3534 -2.4855 0.9726
4.8938 -4.2551 -2.4852 0.9726
5.0600 -4.0535 -2.4845 0.9726
5.1400 -3.9503 -2.4842 0.9726
5.2179 -3.8455 -2.4840 0.9726
5.3674 -3.6313 -2.4834 0.9726
5.4389 -3.5221 -2.4831 0.9726
5.5081 -3.4114 -2.4829 0.9726
5.5752 -3.2994 -2.4826 0.9726
5.7025 -3.0716 -2.4821 0.9726
5.7627 -2.9558 -2.4819 0.9726
5.8206 -2.8388 -2.4817 0.9726
5.8761 -2.7208 -2.4815 0.9726
6.0283 -2.3603 -2.4809 0.9726
6.1177 -2.1152 -2.4806 0.9727
6.1586 -1.9914 -2.4804 0.9727
6.1971 -1.8668 -2.4803 0.9727
6.2331 -1.7415 -2.4801 0.9727
6.2976 -1.4888 -2.4799 0.9727
6.3260 -1.3616 -2.4798 0.9727
6.3752 -1.1056 -2.4796 0.9727
6.3960 -0.9769 -2.4795 0.9727
6.4298 -0.7184 -2.4794 0.9727
6.4428 -0.5887 -2.4793 0.9727
6.4533 -0.4587 -2.4793 0.9727
6.4691 0.0623 -2.4792 0.9727
6.4613 0.3228 -2.4792 0.9727
6.4536 0.4529 -2.4792 0.9727
6.4303 0.7126 -2.4793 0.9727
6.4148 0.8420 -2.4793 0.9727
6.3759 1.0998 -2.4795 0.9727
6.3527 1.2280 -2.4795 0.9727
-2.3338 5.6742 -2.5111 0.9738
-2.4480 5.6270 -2.5115 0.9738
-2.5613 5.5775 -2.5119 0.9738
-3.2183 5.2329 -2.5143 0.9738
-3.7311 4.8864 -2.5162 0.9738
-3.8293 4.8109 -2.5166 0.9738
-3.9260 4.7335 -2.5170 0.9738
-4.2967 4.4045 -2.5183 0.9738
-4.3851 4.3176 -2.5187 0.9738
-4.4718 4.2289 -2.5190 0.9737
-4.6397 4.0463 -2.5196 0.9737
-4.7208 3.9525 -2.5199 0.9737
-4.8001 3.8571 -2.5202 0.9737
-4.8774 3.7600 -2.5205 0.9737
-5.0972 3.4596 -2.5213 0.9737
-5.2335 3.2521 -2.5218 0.9737
-5.3613 3.0392 -2.5223 0.9737
-5.4219 2.9309 -2.5225 0.9737
-5.4804 2.8213 -2.5227 0.9737
-5.5905 2.5986 -2.5232 0.9737
-5.6421 2.4857 -2.5233 0.9737
-5.7832 2.1408 -2.5239 0.9737
-5.8255 2.0239 -2.5240 0.9737
-5.8655 1.9063 -2.5242 0.9737
-5.9709 1.5487 -2.5246 0.9737
-6.0772 1.0632 -2.5250 0.9737
-6.0976 0.9406 -2.5251 0.9737
-6.1155 0.8176 -2.5252 0.9737
-6.1308 0.6942 -2.5252 0.9737
-6.1437 0.5706 -2.5253 0.9737
-6.1541 0.4467 -2.5253 0.9737
-6.1619 0.3226 -2.5254 0.9737
-6.1672 0.1984 -2.5254 0.9737
-6.1703 -0.0502 -2.5254 0.9737
-6.1632 -0.2987 -2.5254 0.9737
-6.1559 -0.4228 -2.5254 0.9737
-6.1460 -0.5468 -2.5253 0.9737
-6.1337 -0.6705 -2.5253 0.9737
-6.1188 -0.7939 -2.5253 0.9737
-6.0816 -1.0397 -2.5251 0.9737
-6.0344 -1.2838 -2.5250 0.9737
-6.0071 -1.4050 -2.5249 0.9737
-5.9773 -1.5257 -2.5248 0.9737
-5.9451 -1.6457 -2.5247 0.9737
-5.8339 -2.0015 -2.5243 0.9737
-5.7921 -2.1185 -2.5241 0.9737
-5.6012 -2.5773 -2.5235 0.9737
-5.5477 -2.6894 -2.5233 0.9737
-5.4340 -2.9102 -2.5229 0.9737
-5.2469 -3.2323 -2.5222 0.9737
-5.1802 -3.3370 -2.5220 0.9737
-5.1115 -3.4404 -2.5217 0.9737
-5.0406 -3.5423 -2.5215 0.9737
-4.9677 -3.6428 -2.5212 0.9737
-4.8928 -3.7417 -2.5209 0.9737
-4.8159 -3.8391 -2.5207 0.9737
-4.7370 -3.9349 -2.5204 0.9737
-4.3147 -4.3887 -2.5189 0.9738
-4.2248 -4.4742 -2.5185 0.9738
-4.1333 -4.5578 -2.5182 0.9738
-4.0401 -4.6395 -2.5179 0.9738
-3.9452 -4.7193 -2.5175 0.9738
-3.8488 -4.7972 -2.5172 0.9738
-3.6514 -4.9469 -2.5165 0.9738
-3.3445 -5.1562 -2.5153 0.9738
-3.1331 -5.2851 -2.5146 0.9738
-2.9167 -5.4054 -2.5138 0.9738
-2.8068 -5.4622 -2.5134 0.9738
-2.5836 -5.5690 -2.5126 0.9738
-2.4705 -5.6190 -2.5122 0.9738
-2.3564 -5.6667 -2.5118 0.9738
-2.2414 -5.7121 -2.5113 0.9738
-1.7731 -5.8700 -2.5096 0.9738
-1.6541 -5.9035 -2.5092 0.9739
-1.4145 -5.9633 -2.5083 0.9739
-1.0511 -6.0346 -2.5070 0.9739
-0.8069 -6.0699 -2.5061 0.9739
-0.6843 -6.0838 -2.5057 0.9739
-0.5615 -6.0953 -2.5052 0.9739
-0.1922 -6.1148 -2.5039 0.9739
0.0543 -6.1154 -2.5030 0.9739
0.1775 -6.1120 -2.5025 0.9739
0.3005 -6.1060 -2.5021 0.9739
0.6684 -6.0734 -2.5007 0.9739
1.0335 -6.0187 -2.4994 0.9740
1.1544 -5.9957 -2.4989 0.9740
1.2747 -5.9701 -2.4985 0.9740
1.9833 -5.7668 -2.4959 0.9740
2.0987 -5.7247 -2.4955 0.9740
2.2133 -5.6803 -2.4950 0.9740
2.5511 -5.5335 -2.4938 0.9740
2.6616 -5.4801 -2.4934 0.9740
2.7710 -5.4244 -2.4930 0.9740
2.8793 -5.3667 -2.4926 0.9740
3.0922 -5.2446 -2.4918 0.9740
3.1967 -5.1805 -2.4914 0.9740
3.7947 -4.7530 -2.4892 0.9741
3.8892 -4.6749 -2.4889 0.9741
4.0732 -4.5132 -2.4882 0.9741
4.2506 -4.3443 -2.4875 0.9741
4.3367 -4.2572 -2.4872 0.9741
4.5036 -4.0781 -2.4866 0.9741
4.5843 -3.9860 -2.4863 0.9741
4.8881 -3.6024 -2.4852 0.9741
4.9591 -3.5028 -2.4849 0.9741
5.0952 -3.2995 -2.4844 0.9741
5.1601 -3.1958 -2.4841 0.9741
5.2836 -2.9848 -2.4837 0.9741
5.3422 -2.8775 -2.4835 0.9741
5.3987 -2.7691 -2.4832 0.9741
5.5049 -2.5489 -2.4828 0.9741
5.6477 -2.2113 -2.4823 0.9741
5.7314 -1.9817 -2.4820 0.9741
5.8059 -1.7490 -2.4817 0.9741
5.8397 -1.6316 -2.4816 0.9741
5.8711 -1.5135 -2.4814 0.9741
5.9729 -1.0358 -2.4810 0.9741
6.0094 -0.7943 -2.4809 0.9741
6.0241 -0.6730 -2.4808 0.9741
6.0583 -0.1859 -2.4807 0.9741
6.0608 -0.0638 -2.4807 0.9741
6.0585 0.1804 -2.4807 0.9741
6.0536 0.3024 -2.4807 0.9741
6.0463 0.4243 -2.4807 0.9741
6.0245 0.6676 -2.4808 0.9741
5.9736 1.0304 -2.4809 0.9741
-2.1912 5.3276 -2.5106 0.9752
-2.4048 5.2367 -2.5114 0.9752
-2.6146 5.1371 -2.5121 0.9752
-2.9215 4.9720 -2.5133 0.9752
-3.0215 4.9129 -2.5136 0.9751
-3.2179 4.7886 -2.5144 0.9751
-3.3142 4.7234 -2.5147 0.9751
-3.4091 4.6563 -2.5151 0.9751
-3.5027 4.5873 -2.5154 0.9751
-3.5949 4.5165 -2.5158 0.9751
-3.6857 4.4437 -2.5161 0.9751
-3.7750 4.3691 -2.5164 0.9751
-4.2775 3.8849 -2.5183 0.9751
-4.4315 3.7102 -2.5189 0.9751
-4.5783 3.5295 -2.5194 0.9751
-4.6490 3.4369 -2.5197 0.9751
-4.8496 3.1507 -2.5204 0.9751
-4.9125 3.0527 -2.5206 0.9751
-5.0324 2.8528 -2.5211 0.9751
-5.0893 2.7511 -2.5213 0.9751
-5.1968 2.5442 -2.5217 0.9751
-5.2474 2.4392 -2.5219 0.9751
-5.2959 2.3331 -2.5221 0.9751
-5.3863 2.1182 -2.5224 0.9751
-5.4679 1.8997 -2.5227 0.9751
-5.5054 1.7893 -2.5229 0.9751
-5.5736 1.5662 -2.5231 0.9751
-5.6588 1.2268 -2.5235 0.9751
-5.7231 0.8828 -2.5237 0.9750
-5.7399 0.7674 -2.5238 0.9750
-5.7543 0.6516 -2.5239 0.9750
-5.7664 0.5355 -2.5239 0.9750
-5.7835 0.3028 -2.5240 0.9750
-5.7884 0.1862 -2.5240 0.9750
-5.7911 0.0696 -2.5240 0.9750
-5.7778 -0.3969 -2.5240 0.9750
-5.7686 -0.5132 -2.5240 0.9750
-5.7570 -0.6293 -2.5239 0.9750
-5.6382 -1.3187 -2.5235 0.9751
-5.3950 -2.0975 -2.5227 0.9751
-5.3055 -2.3128 -2.5224 0.9751
-5.2575 -2.4191 -2.5222 0.9751
-5.1006 -2.7317 -2.5216 0.9751
-5.0441 -2.8336 -2.5214 0.9751
-4.9856 -2.9344 -2.5212 0.9751
-4.8625 -3.1324 -2.5208 0.9751
-4.7980 -3.2294 -2.5206 0.9751
-4.6631 -3.4194 -2.5201 0.9751
-4.5928 -3.5123 -2.5198 0.9751
-4.2933 -3.8690 -2.5187 0.9751
-4.2140 -3.9542 -2.5185 0.9751
-3.7927 -4.3553 -2.5169 0.9751
-3.7037 -4.4303 -2.5166 0.9751
-3.6132 -4.5034 -2.5163 0.9751
-3.5213 -4.5747 -2.5160 0.9751
-3.3332 -4.7116 -2.5153 0.9751
-3.2372 -4.7771 -2.5149 0.9751
-3.1398 -4.8407 -2.5146 0.9751
-2.8405 -5.0194 -2.5135 0.9751
-2.6352 -5.1282 -2.5127 0.9752
-2.3195 -5.2756 -2.5116 0.9752
-2.2124 -5.3204 -2.5112 0.9752
-2.1044 -5.3631 -2.5108 0.9752
-1.9956 -5.4035 -2.5104 0.9752
-1.8861 -5.4418 -2.5100 0.9752
-1.7758 -5.4778 -2.5096 0.9752
-1.6648 -5.5116 -2.5092 0.9752
-1.5532 -5.5431 -2.5088 0.9752
-1.4409 -5.5724 -2.5084 0.9752
-1.2149 -5.6240 -2.5076 0.9752
-0.9870 -5.6665 -2.5067 0.9752
-0.7577 -5.6998 -2.5059 0.9752
-0.5273 -5.7237 -2.5051 0.9752
-0.4118 -5.7323 -2.5046 0.9752
-0.2962 -5.7384 -2.5042 0.9752
-0.1805 -5.7422 -2.5038 0.9752
-0.0647 -5.7438 -2.5034 0.9752
0.0510 -5.7429 -2.5030 0.9753
0.1666 -5.7398 -2.5025 0.9753
0.3976 -5.7264 -2.5017 0.9753
0.6278 -5.7039 -2.5008 0.9753
0.7424 -5.6891 -2.5004 0.9753
0.8567 -5.6720 -2.5000 0.9753
0.9707 -5.6527 -2.4996 0.9753
1.1972 -5.6071 -2.4988 0.9753
1.5330 -5.5218 -2.4975 0.9753
1.6436 -5.4889 -2.4971 0.9753
1.8628 -5.4165 -2.4963 0.9753
2.2914 -5.2457 -2.4947 0.9753
2.3962 -5.1976 -2.4943 0.9753
2.7046 -5.0411 -2.4932 0.9753
3.0028 -4.8663 -2.4921 0.9754
3.3830 -4.6062 -2.4907 0.9754
3.6536 -4.3917 -2.4897 0.9754
3.7408 -4.3166 -2.4894 0.9754
3.8265 -4.2398 -2.4891 0.9754
3.9107 -4.1614 -2.4888 0.9754
4.0741 -3.9995 -2.4881 0.9754
4.1534 -3.9161 -2.4879 0.9754
4.3809 -3.6568 -2.4870 0.9754
4.4532 -3.5674 -2.4867 0.9754
4.5237 -3.4766 -2.4865 0.9754
4.5923 -3.3844 -2.4862 0.9754
4.6591 -3.2909 -2.4860 0.9754
4.7240 -3.1961 -2.4857 0.9754
4.8480 -3.0026 -2.4853 0.9754
4.9071 -2.9041 -2.4850 0.9754
4.9642 -2.8044 -2.4848 0.9754
5.0193 -2.7036 -2.4846 0.9754
5.0723 -2.6017 -2.4844 0.9754
5.1233 -2.4988 -2.4842 0.9754
5.1722 -2.3949 -2.4840 0.9754
5.3468 -1.9702 -2.4834 0.9754
5.3851 -1.8620 -2.4832 0.9754
5.4551 -1.6433 -2.4830 0.9754
5.4869 -1.5330 -2.4829 0.9754
5.5437 -1.3106 -2.4826 0.9755
5.6121 -0.9732 -2.4824 0.9755
5.6465 -0.7463 -2.4822 0.9755
5.6602 -0.6324 -2.4822 0.9755
5.6809 -0.4038 -2.4821 0.9755
5.6924 -0.1747 -2.4820 0.9755
5.6948 -0.0599 -2.4820 0.9755
5.6948 0.0548 -2.4820 0.9755
5.6880 0.2842 -2.4820 0.9755
5.6720 0.5131 -2.4821 0.9755
5.6469 0.7412 -2.4821 0.9755
5.6310 0.8548 -2.4822 0.9755
5.6127 0.9681 -2.4823 0.9755
5.5923 1.0811 -2.4823 0.9755
-2.0627 5.0151 -2.5101 0.9764
-2.1636 4.9733 -2.5105 0.9764
-2.2637 4.9294 -2.5109 0.9764
-2.3629 4.8835 -2.5112 0.9764
-2.5585 4.7858 -2.5119 0.9764
-2.6547 4.7339 -2.5123 0.9764
-2.8441 4.6244 -2.5130 0.9764
-2.9371 4.5668 -2.5133 0.9764
-3.2089 4.3828 -2.5143 0.9763
-3.3837 4.2511 -2.5150 0.9763
-3.6356 4.0404 -2.5159 0.9763
-3.7167 3.9668 -2.5162 0.9763
-3.7964 3.8916 -2.5165 0.9763
-3.8744 3.8147 -2.5168 0.9763
-3.9510 3.7363 -2.5171 0.9763
-4.0992 3.5749 -2.5176 0.9763
-4.2407 3.4076 -2.5182 0.9763
-4.5641 2.9652 -2.5194 0.9763
-4.6233 2.8729 -2.5196 0.9763
-4.6807 2.7795 -2.5198 0.9763
-4.8412 2.4922 -2.5204 0.9763
-5.0275 2.0950 -2.5211 0.9763
-5.0690 1.9934 -2.5213 0.9763
-5.1458 1.7878 -2.5216 0.9763
-5.1811 1.6838 -2.5217 0.9763
-5.2452 1.4739 -2.5219 0.9763
-5.2741 1.3680 -2.5221 0.9763
-5.3008 1.2615 -2.5222 0.9763
-5.4357 0.3945 -2.5227 0.9763
-5.4497 0.0654 -2.5228 0.9763
-5.4500 -0.0443 -2.5228 0.9763
-5.4437 -0.2638 -2.5228 0.9763
-5.4177 -0.5922 -2.5227 0.9763
-5.4045 -0.7012 -2.5226 0.9763
-5.3892 -0.8099 -2.5226 0.9763
-5.3717 -0.9183 -2.5225 0.9763
-5.3519 -1.0263 -2.5225 0.9763
-5.3059 -1.2410 -2.5223 0.9763
-5.0772 -1.9739 -2.5215 0.9763
-4.9478 -2.2766 -2.5211 0.9763
-4.8514 -2.4737 -2.5207 0.9763
-4.8002 -2.5708 -2.5205 0.9763
-4.7471 -2.6668 -2.5203 0.9763
-4.6921 -2.7617 -2.5201 0.9763
-4.6351 -2.8554 -2.5199 0.9763
-4.5155 -3.0393 -2.5195 0.9763
-4.4530 -3.1294 -2.5193 0.9763
-4.3886 -3.2181 -2.5191 0.9763
-4.1850 -3.4763 -2.5183 0.9763
-4.1137 -3.5596 -2.5181 0.9763
-4.0407 -3.6414 -2.5178 0.9763
-3.9661 -3.7216 -2.5175 0.9763
-3.8899 -3.8004 -2.5173 0.9763
-3.4008 -4.2388 -2.5155 0.9763
-3.3143 -4.3059 -2.5152 0.9763
-3.2265 -4.3712 -2.5149 0.9763
-3.0470 -4.4965 -2.5142 0.9763
-2.9554 -4.5564 -2.5139 0.9763
-2.8626 -4.6144 -2.5136 0.9763
-2.5776 -4.7769 -2.5125 0.9764
-2.4805 -4.8272 -2.5122 0.9764
-2.0826 -5.0083 -2.5107 0.9764
-1.9810 -5.0485 -2.5104 0.9764
-1.8786 -5.0867 -2.5100 0.9764
-1.7755 -5.1227 -2.5096 0.9764
-1.3565 -5.2458 -2.5081 0.9764
-0.7133 -5.3661 -2.5057 0.9764
-0.4964 -5.3888 -2.5049 0.9764
-0.3877 -5.3968 -2.5045 0.9764
-0.1699 -5.4063 -2.5037 0.9764
0.0480 -5.4071 -2.5029 0.9764
0.2657 -5.3990 -2.5022 0.9765
0.3744 -5.3917 -2.5018 0.9765
0.9140 -5.3225 -2.4998 0.9765
1.0209 -5.3022 -2.4994 0.9765
1.1273 -5.2797 -2.4990 0.9765
1.7542 -5.1005 -2.4967 0.9765
1.8563 -5.0634 -2.4963 0.9765
1.9576 -5.0242 -2.4959 0.9765
2.0581 -4.9830 -2.4956 0.9765
2.2565 -4.8946 -2.4948 0.9765
2.3544 -4.8475 -2.4945 0.9765
2.4512 -4.7984 -2.4941 0.9765
2.7354 -4.6396 -2.4931 0.9765
2.9193 -4.5244 -2.4924 0.9765
3.0984 -4.4020 -2.4917 0.9766
3.1860 -4.3381 -2.4914 0.9766
3.2724 -4.2725 -2.4911 0.9766
3.6832 -3.9193 -2.4896 0.9766
3.8372 -3.7669 -2.4890 0.9766
4.0564 -3.5271 -2.4882 0.9766
4.1262 -3.4443 -2.4879 0.9766
4.1944 -3.3601 -2.4877 0.9766
4.2608 -3.2746 -2.4874 0.9766
4.4495 -3.0104 -2.4867 0.9766
4.5089 -2.9198 -2.4865 0.9766
4.5664 -2.8282 -2.4863 0.9766
4.6221 -2.7354 -2.4861 0.9766
4.7777 -2.4506 -2.4855 0.9766
4.8258 -2.3537 -2.4853 0.9766
4.9983 -1.9570 -2.4847 0.9766
5.0364 -1.8558 -2.4845 0.9766
5.1065 -1.6513 -2.4843 0.9766
5.1684 -1.4440 -2.4840 0.9766
5.1962 -1.3396 -2.4839 0.9766
5.2220 -1.2346 -2.4838 0.9766
5.2456 -1.1291 -2.4837 0.9766
5.2671 -1.0231 -2.4836 0.9766
5.3037 -0.8100 -2.4835 0.9766
5.3318 -0.5957 -2.4834 0.9766
5.3426 -0.4881 -2.4833 0.9766
5.3513 -0.3804 -2.4833 0.9766
5.3578 -0.2725 -2.4833 0.9766
5.3622 -0.1645 -2.4832 0.9766
5.3580 0.2677 -2.4832 0.9766
5.3429 0.4833 -2.4833 0.9766
5.3322 0.5909 -2.4833 0.9766
5.2678 1.0183 -2.4835 0.9766
-2.2294 4.6075 -2.5108 0.9775
-2.5944 4.4154 -2.5121 0.9774
-2.6832 4.3629 -2.5124 0.9774
-2.8575 4.2523 -2.5131 0.9774
-2.9430 4.1944 -2.5134 0.9774
-3.0273 4.1348 -2.5137 0.9774
-3.1922 4.0104 -2.5143 0.9774
-3.4298 3.8116 -2.5152 0.9774
-3.5063 3.7422 -2.5155 0.9774
-3.6550 3.5987 -2.5160 0.9774
-3.7272 3.5247 -2.5163 0.9774
-3.7978 3.4492 -2.5166 0.9774
-3.9345 3.2941 -2.5171 0.9774
-4.0004 3.2145 -2.5173 0.9774
-4.2478 2.8830 -2.5182 0.9774
-4.3054 2.7971 -2.5184 0.9774
-4.3612 2.7101 -2.5187 0.9774
-4.4153 2.6218 -2.5189 0.9774
-4.5180 2.4422 -2.5192 0.9774
-4.6134 2.2586 -2.5196 0.9774
-4.6582 2.1653 -2.5198 0.9774
-4.7012 2.0711 -2.5199 0.9774
-4.8186 1.7837 -2.5204 0.9774
-4.8538 1.6863 -2.5205 0.9774
-4.8871 1.5883 -2.5206 0.9774
-4.9475 1.3903 -2.5209 0.9774
-5.0441 0.9876 -2.5212 0.9774
-5.0631 0.8858 -2.5213 0.9774
-5.0801 0.7836 -2.5214 0.9774
-5.1078 0.5784 -2.5215 0.9774
-5.1403 0.0618 -2.5216 0.9774
-5.1387 -0.1454 -2.5216 0.9774
-5.1347 -0.2489 -2.5216 0.9774
-5.1204 -0.4555 -2.5216 0.9774
-5.1101 -0.5586 -2.5216 0.9774
-5.0833 -0.7640 -2.5215 0.9774
-5.0668 -0.8662 -2.5214 0.9774
-5.0482 -0.9681 -2.5214 0.9774
-5.0048 -1.1706 -2.5212 0.9774
-4.9800 -1.2711 -2.5211 0.9774
-4.9532 -1.3712 -2.5210 0.9774
-4.9244 -1.4706 -2.5209 0.9774
-4.8259 -1.7651 -2.5206 0.9774
-4.7891 -1.8619 -2.5205 0.9774
-4.7504 -1.9579 -2.5203 0.9774
-4.6671 -2.1474 -2.5200 0.9774
-4.6226 -2.2409 -2.5199 0.9774
-4.5762 -2.3334 -2.5197 0.9774
-4.4779 -2.5155 -2.5194 0.9774
-4.4259 -2.6050 -2.5192 0.9774
-4.3722 -2.6935 -2.5190 0.9774
-4.3167 -2.7808 -2.5188 0.9774
-4.2595 -2.8670 -2.5186 0.9774
-4.2005 -2.9519 -2.5184 0.9774
-4.1398 -3.0357 -2.5181 0.9774
-4.0775 -3.1182 -2.5179 0.9774
-4.0135 -3.1994 -2.5177 0.9774
-3.9478 -3.2793 -2.5175 0.9774
-3.7414 -3.5108 -2.5167 0.9774
-3.6695 -3.5851 -2.5165 0.9774
-3.5214 -3.7292 -2.5159 0.9774
-3.4452 -3.7990 -2.5156 0.9774
-3.2083 -3.9988 -2.5148 0.9774
-3.1267 -4.0622 -2.5145 0.9774
-3.0439 -4.1238 -2.5142 0.9774
-2.7882 -4.2986 -2.5133 0.9774
-2.3402 -4.5543 -2.5116 0.9774
-1.8691 -4.7633 -2.5099 0.9775
-1.6752 -4.8333 -2.5092 0.9775
-1.5773 -4.8654 -2.5089 0.9775
-1.2799 -4.9497 -2.5078 0.9775
-1.1798 -4.9737 -2.5074 0.9775
-0.9782 -5.0158 -2.5067 0.9775
-0.6731 -5.0634 -2.5056 0.9775
-0.5709 -5.0752 -2.5052 0.9775
-0.4684 -5.0849 -2.5048 0.9775
-0.1603 -5.1016 -2.5037 0.9775
0.0453 -5.1024 -2.5029 0.9775
0.2507 -5.0949 -2.5022 0.9775
0.3533 -5.0880 -2.5018 0.9775
0.4556 -5.0791 -2.5014 0.9775
0.5578 -5.0682 -2.5011 0.9775
0.6597 -5.0552 -2.5007 0.9775
1.0639 -4.9827 -2.4992 0.9776
1.6556 -4.8138 -2.4970 0.9776
1.9425 -4.7030 -2.4960 0.9776
2.0366 -4.6623 -2.4956 0.9776
2.1298 -4.6197 -2.4953 0.9776
2.2221 -4.5752 -2.4950 0.9776
2.3135 -4.5289 -2.4946 0.9776
2.6692 -4.3257 -2.4933 0.9776
2.7555 -4.2705 -2.4930 0.9776
2.8406 -4.2136 -2.4927 0.9776
