ply
format ascii 1.0
element vertex 1539
property float32 x
property float32 y
property float32 z
property float32 I
end_header
30.5938 -23.3173 6.7827 0.8554
30.3928 -20.3866 6.4530 0.8619
34.7998 -19.4796 7.0321 0.8505
40.8147 16.1733 6.7256 0.8372
61.2323 25.7020 10.1733 0.7643
61.1823 28.6300 10.3482 0.7608
61.5441 30.3243 10.5106 0.7576
52.7545 30.0799 9.3031 0.7821
46.6797 30.4902 8.5414 0.7980
39.5012 33.2311 7.9079 0.8115
36.4064 31.9010 7.4155 0.8221
35.1608 32.0836 7.2919 0.8248
15.8519 16.9955 3.5603 0.9102
15.6345 17.4541 3.5897 0.9095
28.0874 32.6558 6.5986 0.8400
15.5875 18.8787 3.7505 0.9057
12.4086 15.6603 3.0609 0.9223
16.3974 22.4990 4.2650 0.8935
24.2391 34.7056 6.4850 0.8426
11.8753 17.7541 3.2722 0.9172
11.7301 18.3248 3.3331 0.9157
11.0588 19.8169 3.4766 0.9123
10.4660 19.6753 3.4141 0.9138
9.9998 19.7478 3.3910 0.9143
9.6307 20.0084 3.4018 0.9141
8.8949 19.4734 3.2797 0.9170
11.2428 29.1531 4.7867 0.8812
10.7742 29.7059 4.8409 0.8800
9.5998 30.2106 4.8561 0.8796
7.7742 30.7962 4.8658 0.8794
6.7013 31.9081 4.9948 0.8764
6.1511 32.5315 5.0719 0.8746
0.4384 77.1861 11.8247 0.7317
-2.9323 53.5355 8.2136 0.8050
-3.4118 45.4955 6.9892 0.8314
-4.0388 34.9290 5.3866 0.8674
-4.3450 31.9295 4.9365 0.8777
-4.7038 30.0285 4.6563 0.8843
-5.3377 30.0985 4.6829 0.8836
-6.6350 30.2699 4.7473 0.8821
-7.9958 30.5423 4.8366 0.8801
-8.6777 30.6176 4.8752 0.8792
-9.3709 30.6942 4.9164 0.8782
-10.0677 30.7458 4.9562 0.8773
-10.7854 30.8250 5.0029 0.8762
-11.5270 30.9322 5.0570 0.8750
-13.0267 31.0725 5.1615 0.8725
-19.3382 33.9499 5.9855 0.8538
-19.8845 31.8549 5.7527 0.8590
-21.8629 32.0734 5.9464 0.8546
-22.9037 32.1883 6.0520 0.8523
-23.9827 32.3075 6.1639 0.8497
-25.2223 32.5857 6.3126 0.8464
-26.2672 32.5597 6.4088 0.8443
-27.5208 32.7423 6.5525 0.8411
-34.4476 39.3471 8.0114 0.8093
-36.0317 39.5220 8.1931 0.8054
-31.5225 33.2078 7.0143 0.8309
-34.5421 33.5724 7.3792 0.8229
-90.5425 28.8144 14.5560 0.6808
-91.3873 21.1643 14.3705 0.6841
-92.0098 15.5269 14.2947 0.6855
-92.2160 13.6584 14.2811 0.6858
-93.0398 6.1976 14.2848 0.6857
-93.4532 2.4535 14.3214 0.6850
-93.6608 0.5727 14.3486 0.6845
-93.8693 -1.3160 14.3817 0.6839
-94.0788 -3.2141 14.4208 0.6832
-94.2896 -5.1234 14.4660 0.6824
-10.3177 -12.9983 2.5423 0.9350
-26.8988 -69.5693 11.4265 0.7395
-6.0471 -18.9728 3.0506 0.9226
-5.5849 -18.8246 3.0081 0.9236
-4.1978 -16.5680 2.6183 0.9332
-2.8314 -16.7340 2.6000 0.9336
-2.1530 -16.8155 2.5971 0.9337
-0.7944 -16.9546 2.6002 0.9336
0.2317 -17.0571 2.6133 0.9333
0.9235 -17.1334 2.6286 0.9329
1.2727 -17.1720 2.6379 0.9327
1.6246 -17.2108 2.6483 0.9324
1.9794 -17.2500 2.6599 0.9321
2.6958 -17.3083 2.6835 0.9316
3.8004 -17.4105 2.7300 0.9304
4.2017 -17.5459 2.7639 0.9296
4.5882 -17.5885 2.7846 0.9291
5.3797 -17.6759 2.8305 0.9280
4.3893 -11.8099 1.9301 0.9503
7.1346 -18.0737 2.9768 0.9244
8.0792 -18.2758 3.0611 0.9223
9.0267 -18.3804 3.1370 0.9205
9.4463 -18.2946 3.1542 0.9201
9.8499 -18.1693 3.1661 0.9198
13.4926 -22.6610 4.0403 0.8988
13.5844 -20.8567 3.8131 0.9042
14.7276 -20.7360 3.8963 0.9022
14.8716 -20.0702 3.8267 0.9039
16.2289 -19.3421 3.8680 0.9029
28.5688 -30.1487 6.3629 0.8453
30.4037 -28.4321 6.3769 0.8450
31.5836 -27.2369 6.3891 0.8447
29.7691 -22.6887 5.7340 0.8594
28.6883 -20.0923 5.3656 0.8679
29.1861 -19.5771 5.3839 0.8674
35.4852 -18.9353 6.1617 0.8498
42.7554 16.9423 5.9888 0.8307
61.4010 27.2394 8.7472 0.7626
57.6606 29.8682 8.4562 0.7696
50.7568 30.3107 7.6985 0.7878
50.6320 31.6362 7.7746 0.7860
46.6490 30.4701 7.2557 0.7987
41.7456 31.0170 6.7724 0.8108
40.2668 31.1957 6.6331 0.8143
39.5474 31.9329 6.6191 0.8146
39.1886 32.9682 6.6688 0.8134
36.4056 31.9003 6.3033 0.8226
34.2015 33.8299 6.2644 0.8236
31.6150 33.8959 6.0359 0.8295
29.1060 32.4934 5.6807 0.8386
26.6332 33.6126 5.5845 0.8411
13.6371 17.9414 2.9346 0.9131
15.0080 20.5926 3.3182 0.9023
12.7790 19.1050 2.9931 0.9115
12.4056 19.3801 2.9965 0.9114
11.3273 19.3711 2.9221 0.9135
11.0360 19.7761 2.9491 0.9127
10.3439 19.4458 2.8682 0.9150
13.5661 29.7000 4.2519 0.8766
13.7807 31.8514 4.5193 0.8694
11.9043 29.1089 4.0953 0.8809
11.2695 29.2225 4.0785 0.8813
10.6581 29.3859 4.0706 0.8815
7.6104 30.1472 4.0489 0.8821
7.3536 31.8160 4.2523 0.8766
6.9329 33.0109 4.3925 0.8728
10.2768 61.0605 8.0632 0.7790
0.4389 77.2650 10.0617 0.7322
-1.0034 69.4198 9.0408 0.7557
-3.4118 45.4955 5.9411 0.8319
-4.0097 34.6776 4.5458 0.8687
-4.3586 32.0294 4.2093 0.8778
-5.3729 30.2969 4.0068 0.8833
-6.0095 30.3230 4.0255 0.8828
-8.6777 30.6175 4.1441 0.8795
-10.7946 30.8512 4.2563 0.8765
-13.0377 31.0989 4.3912 0.8728
-13.8634 31.2866 4.4562 0.8711
-14.6177 31.2733 4.4953 0.8700
-15.4119 31.3133 4.5448 0.8687
-16.2343 31.3737 4.6001 0.8672
-17.0535 31.3920 4.6521 0.8658
-19.6863 32.9982 5.0037 0.8564
-19.8845 31.8549 4.8900 0.8594
-21.8443 32.0461 5.0504 0.8552
-23.9826 32.3074 5.2396 0.8502
-25.1026 32.4311 5.3405 0.8475
-27.4799 32.6936 5.5615 0.8417
-31.2583 32.9295 5.9124 0.8326
-35.8311 33.4491 6.3831 0.8206
-20.3084 5.5733 2.7424 0.9186
-91.3888 21.1646 12.2157 0.6850
-92.6294 9.9287 12.1314 0.6867
-93.4546 2.4536 12.1739 0.6858
-93.6623 0.5727 12.1970 0.6854
-93.8708 -1.3160 12.2251 0.6848
-94.2911 -5.1235 12.2968 0.6832
-25.5209 -70.1741 9.7237 0.7399
-6.0442 -18.9640 2.5919 0.9229
-5.5835 -18.8198 2.5563 0.9239
-5.1341 -18.6759 2.5222 0.9248
-3.8649 -16.6556 2.2265 0.9334
-3.5211 -16.6936 2.2217 0.9335
-3.1787 -16.7314 2.2177 0.9336
-2.8374 -16.7691 2.2147 0.9337
-2.1567 -16.8442 2.2114 0.9338
-1.4771 -16.9193 2.2116 0.9338
-0.7962 -16.9945 2.2155 0.9337
0.2324 -17.1080 2.2280 0.9333
0.5783 -17.1462 2.2341 0.9331
0.9262 -17.1846 2.2410 0.9329
1.2765 -17.2233 2.2490 0.9327
1.9853 -17.3016 2.2678 0.9322
2.7072 -17.3812 2.2907 0.9315
3.0739 -17.4214 2.3037 0.9311
3.4450 -17.4623 2.3178 0.9307
3.8208 -17.5038 2.3330 0.9303
4.5882 -17.5885 2.3670 0.9293
4.9807 -17.6319 2.3859 0.9288
5.7856 -17.7207 2.4275 0.9276
6.1990 -17.7664 2.4503 0.9269
4.3890 -11.8092 1.6406 0.9505
7.9389 -17.9585 2.5569 0.9239
9.8077 -18.0914 2.6798 0.9203
10.3053 -18.1286 2.7155 0.9193
13.6537 -22.9317 3.4754 0.8979
14.8096 -23.7709 3.6471 0.8932
14.3368 -22.0120 3.4208 0.8995
16.0287 -20.7454 3.4139 0.8996
18.1912 -20.8151 3.5998 0.8945
18.2260 -20.0265 3.5262 0.8965
28.8913 -30.4890 5.4697 0.8441
28.6570 -29.0475 5.3136 0.8482
29.1791 -28.4094 5.3032 0.8485
31.8179 -28.5758 5.5691 0.8416
33.2992 -28.7164 5.7260 0.8375
29.0380 -21.2211 4.6835 0.8650
29.5885 -20.7227 4.7040 0.8644
30.4451 -19.5446 4.7112 0.8642
61.3999 27.2389 7.2129 0.7632
61.1800 28.6290 7.2533 0.7621
61.8600 30.4799 7.4052 0.7577
57.6456 29.8604 6.9713 0.7701
56.6711 30.8181 6.9271 0.7714
52.7914 30.1009 6.5256 0.7831
50.7901 30.3307 6.3524 0.7882
50.6310 31.6356 6.4109 0.7865
46.6380 30.4630 5.9818 0.7992
44.9560 30.6729 5.8440 0.8034
39.5011 33.2311 5.5431 0.8125
34.2015 33.8299 5.1657 0.8240
32.5000 34.8447 5.1166 0.8256
28.0416 32.6027 4.6177 0.8411
27.8566 33.7383 4.6982 0.8386
24.9207 35.6815 4.6735 0.8394
22.2447 33.2567 4.2964 0.8513
21.3947 33.4229 4.2613 0.8524
20.4796 33.4581 4.2124 0.8540
20.6342 35.2869 4.3895 0.8484
21.7550 40.8979 4.9744 0.8300
22.6130 46.9800 5.5988 0.8108
12.5712 29.0558 3.3996 0.8804
11.9455 29.2097 3.3887 0.8808
11.5338 29.9076 3.4421 0.8790
11.0134 30.3656 3.4686 0.8781
8.7133 29.4630 3.2992 0.8837
8.5254 31.1180 3.4646 0.8783
7.9100 31.3343 3.4703 0.8781
11.4834 60.7325 6.6371 0.7798
-1.8837 54.4441 5.8498 0.8032
-0.8769 16.0088 1.7216 0.9375
-3.1690 42.2584 4.5505 0.8433
-3.6574 38.3895 4.1410 0.8563
-4.1028 35.4824 3.8355 0.8662
-4.3589 32.0315 3.4713 0.8781
-4.7278 30.1814 3.2804 0.8844
-8.6777 30.6175 3.4173 0.8798
-9.3849 30.7398 3.4513 0.8787
-10.0762 30.7719 3.4770 0.8779
-10.7946 30.8512 3.5098 0.8768
-13.0377 31.0989 3.6210 0.8731
-13.8638 31.2876 3.6747 0.8714
-16.2771 31.4565 3.8033 0.8672
-17.2220 31.7022 3.8741 0.8649
-18.0280 31.6498 3.9113 0.8637
-18.9421 31.7507 3.9701 0.8618
-22.9028 32.1870 4.2420 0.8531
-23.9816 32.3061 4.3204 0.8506
-25.1390 32.4781 4.4102 0.8477
-26.2661 32.5583 4.4920 0.8451
-35.8615 39.3352 5.7158 0.8072
-37.5238 33.6414 5.4116 0.8165
-39.3153 33.8450 5.5706 0.8116
-40.6635 33.6043 5.6646 0.8088
-43.4783 33.0775 5.8663 0.8027
-90.7588 26.8836 10.1644 0.6833
-91.3902 21.1650 10.0734 0.6856
-91.5985 19.2789 10.0515 0.6862
-92.0127 15.5274 10.0202 0.6870
-92.2190 13.6589 10.0107 0.6873
-92.4250 11.7933 10.0052 0.6874
-92.8367 8.0642 10.0065 0.6874
-93.2492 4.3280 10.0240 0.6869
-93.4561 2.4536 10.0389 0.6865
-93.6638 0.5727 10.0580 0.6860
-93.8723 -1.3160 10.0812 0.6854
-94.5049 -7.0457 10.1762 0.6830
-37.0939 -32.4464 5.2920 0.8202
-70.6575 -69.7683 10.6628 0.6707
-10.3169 -12.9972 1.7819 0.9354
-39.4554 -81.7889 9.7512 0.6940
-26.8987 -69.5692 8.0094 0.7408
-25.3625 -69.7388 7.9685 0.7419
-6.6058 -24.0293 2.6760 0.9046
-3.8649 -16.6556 1.8360 0.9335
-3.1787 -16.7314 1.8288 0.9338
-2.8374 -16.7691 1.8263 0.9339
-2.4968 -16.8067 1.8245 0.9339
-2.1568 -16.8442 1.8235 0.9340
-1.4771 -16.9193 1.8237 0.9340
-1.1369 -16.9568 1.8249 0.9339
-0.7962 -16.9945 1.8269 0.9338
-0.4546 -17.0322 1.8296 0.9338
0.2324 -17.1080 1.8373 0.9335
1.2765 -17.2233 1.8545 0.9329
1.9853 -17.3016 1.8701 0.9323
3.0739 -17.4214 1.8996 0.9313
3.4450 -17.4623 1.9113 0.9309
4.9807 -17.6319 1.9674 0.9289
6.1990 -17.7664 2.0206 0.9271
7.4897 -17.9089 2.0845 0.9249
9.3534 -18.1147 2.1892 0.9213
9.8500 -18.1695 2.2193 0.9202
10.3606 -18.2259 2.2512 0.9191
12.7572 -21.4259 2.6777 0.9045
13.2253 -21.2280 2.6857 0.9043
13.5293 -20.7722 2.6620 0.9051
14.2375 -20.9259 2.7178 0.9032
14.8441 -20.0332 2.6774 0.9046
15.4419 -19.9859 2.7121 0.9034
17.2657 -21.4400 2.9560 0.8952
17.6774 -21.0685 2.9532 0.8953
19.0016 -20.8787 3.0315 0.8926
30.6336 -28.6471 4.5037 0.8447
28.4638 -23.5642 3.9680 0.8619
28.0389 -22.2765 3.8454 0.8658
30.9016 -22.5831 4.1099 0.8573
30.7541 -21.5391 4.0318 0.8598
30.7544 -18.8799 3.8751 0.8649
31.5528 -18.5059 3.9280 0.8632
34.1761 -19.1305 4.2057 0.8542
35.4261 -18.9037 4.3118 0.8508
60.6724 24.0421 5.5246 0.7695
61.0061 27.0642 5.6497 0.7650
61.1789 28.6284 5.7179 0.7625
57.6305 29.8526 5.4943 0.7706
56.6711 30.8181 5.4608 0.7719
50.7502 30.3068 5.0039 0.7888
46.6622 30.4787 4.7181 0.7995
44.9422 30.6636 4.6057 0.8038
41.7291 31.0047 4.4008 0.8116
39.5011 33.2311 4.3698 0.8128
36.4057 31.9004 4.0976 0.8234
35.0555 31.9875 4.0173 0.8265
33.9054 32.2127 3.9590 0.8288
34.1493 33.7782 4.0661 0.8246
32.5000 34.8447 4.0336 0.8259
28.0799 32.6472 3.6453 0.8413
27.8558 33.7373 3.7036 0.8389
26.6137 33.5880 3.6276 0.8420
22.2010 33.1915 3.3804 0.8519
21.3629 33.3732 3.3544 0.8529
20.6334 35.2856 3.4602 0.8487
21.4711 40.3641 3.8703 0.8323
21.4050 42.2710 4.0110 0.8268
14.1971 29.4954 2.7711 0.8769
13.3460 30.8468 2.8452 0.8738
12.3134 30.1092 2.7537 0.8776
11.5820 30.0327 2.7249 0.8788
10.7917 29.7543 2.6793 0.8807
8.8712 29.9970 2.6480 0.8820
8.2778 30.2143 2.6520 0.8818
7.7893 30.8559 2.6940 0.8801
12.0587 57.4177 4.9666 0.7902
11.4173 60.3830 5.2022 0.7814
12.9616 77.0125 6.6110 0.7309
8.9126 60.3555 5.1647 0.7828
0.4389 77.2649 6.5408 0.7333
-0.5800 16.7633 1.4199 0.9349
-0.8707 15.8956 1.3476 0.9381
-3.6577 38.3925 3.2648 0.8566
-4.7278 30.1814 2.5861 0.8846
-6.6624 30.3950 2.6341 0.8826
-8.6777 30.6175 2.6939 0.8801
-9.3709 30.6940 2.7167 0.8791
-14.4417 30.8968 2.8871 0.8720
-15.2511 30.9866 2.9236 0.8705
-16.0492 31.0160 2.9563 0.8692
-17.2220 31.7022 3.0541 0.8652
-18.9421 31.7507 3.1298 0.8621
-19.8844 31.8548 3.1788 0.8601
-21.8620 32.0721 3.2858 0.8557
-22.9028 32.1870 3.3441 0.8534
-26.2661 32.5583 3.5412 0.8454
-27.6097 32.8480 3.6325 0.8418
-47.5799 54.3473 6.1146 0.7483
-48.6700 53.3845 6.1153 0.7483
-31.2583 32.9295 3.8435 0.8334
-32.7059 33.0939 3.9388 0.8296
-35.8310 33.4490 4.1495 0.8214
-37.5238 33.6414 4.2662 0.8168
-40.9361 31.1435 4.3542 0.8134
-41.5168 30.2854 4.3502 0.8136
-44.7550 31.2868 4.6226 0.8032
-48.9988 26.0916 4.6993 0.8002
-90.5469 28.8159 8.0438 0.6829
-90.7602 26.8840 8.0131 0.6839
-91.5999 19.2792 7.9241 0.6868
-91.8074 17.4005 7.9101 0.6872
-92.6323 9.9290 7.8865 0.6880
-93.4576 2.4537 7.9142 0.6871
-93.6653 0.5728 7.9292 0.6866
-93.8738 -1.3160 7.9475 0.6860
-70.6576 -69.7683 8.4059 0.6713
-68.1392 -70.0463 8.2724 0.6755
-10.3165 -12.9967 1.4047 0.9356
-60.2983 -79.1868 8.4256 0.6706
-56.3975 -77.2420 8.0959 0.6812
-54.1439 -77.3798 7.9947 0.6845
-51.4153 -80.1676 8.0622 0.6823
-45.8439 -78.2422 7.6766 0.6949
-43.9555 -78.6057 7.6239 0.6966
-35.4640 -77.4623 7.2119 0.7104
-33.4580 -77.1474 7.1185 0.7135
-32.6946 -79.7480 7.2962 0.7075
-27.0145 -69.8687 6.3413 0.7403
-25.5208 -70.1740 6.3211 0.7410
-23.8535 -69.9421 6.2556 0.7433
-4.2103 -16.6175 1.4512 0.9335
-3.8649 -16.6557 1.4474 0.9337
-3.5211 -16.6936 1.4443 0.9338
-2.5277 -17.0146 1.4561 0.9333
-1.8394 -17.0906 1.4551 0.9333
-1.4771 -16.9193 1.4377 0.9341
0.5783 -17.1462 1.4523 0.9334
0.9262 -17.1846 1.4568 0.9332
3.4450 -17.4623 1.5067 0.9310
3.8208 -17.5038 1.5166 0.9306
4.5882 -17.5886 1.5387 0.9296
4.9807 -17.6319 1.5510 0.9291
8.3987 -18.0093 1.6822 0.9233
9.3534 -18.1147 1.7258 0.9214
26.8233 -41.1831 4.1605 0.8209
16.4686 -22.2256 2.3417 0.8949
19.7223 -23.5057 2.5975 0.8841
27.1727 -31.0920 3.4955 0.8472
29.1827 -29.5804 3.5175 0.8464
30.6650 -28.6764 3.5541 0.8449
37.1970 -33.4068 4.2323 0.8182
34.1199 -29.4241 3.8140 0.8345
30.1373 -21.1071 3.1147 0.8627
32.3456 -20.7647 3.2538 0.8570
32.3986 -19.8892 3.2182 0.8585
42.4236 -22.6376 4.0707 0.8245
44.7982 17.7518 2.9881 0.8244
60.9446 27.0369 4.1344 0.7655
57.6156 29.8449 4.0238 0.7710
56.6710 30.8181 4.0002 0.7722
52.7279 30.0647 3.7638 0.7841
50.8219 30.3496 3.6706 0.7888
40.2862 31.2107 3.1601 0.8153
39.5188 31.9097 3.1498 0.8158
33.8903 32.1983 2.8988 0.8292
34.2015 33.8298 2.9831 0.8247
33.7076 34.7114 3.0004 0.8237
30.6741 32.8871 2.7887 0.8351
28.0990 32.6693 2.6721 0.8414
26.6041 33.5758 2.6563 0.8422
13.6389 17.9437 1.3976 0.9136
25.9241 35.5707 2.7294 0.8383
24.9207 35.6815 2.6988 0.8399
22.2554 33.2727 2.4823 0.8518
20.4634 33.4317 2.4306 0.8546
22.1275 39.6517 2.8156 0.8336
21.4040 42.2691 2.9380 0.8271
13.8060 31.9100 2.1560 0.8699
13.0255 31.8504 2.1338 0.8712
25.0251 68.9978 4.5513 0.7452
9.1697 31.0063 2.0050 0.8785
13.6997 59.2726 3.7724 0.7836
11.6295 61.5053 3.8815 0.7781
-1.8842 54.4560 3.3789 0.8038
-2.5009 45.6591 2.8356 0.8326
-4.1028 35.4823 2.2149 0.8666
-5.3904 30.3959 1.9143 0.8836
-6.0095 30.3229 1.9169 0.8835
-7.3424 30.5437 1.9480 0.8817
-7.9957 30.5422 1.9578 0.8811
-9.3849 30.7398 1.9930 0.8791
-12.2742 31.0146 2.0684 0.8749
-13.8184 31.1850 2.1151 0.8722
-15.4367 31.3637 2.1677 0.8693
-16.0509 31.0194 2.1658 0.8694
-18.0280 31.6498 2.2587 0.8642
-19.8844 31.8547 2.3286 0.8603
-20.8565 31.9611 2.3666 0.8582
-23.9816 32.3061 2.4949 0.8511
-13.2522 16.4269 1.3088 0.9189
-13.3949 15.9363 1.2909 0.9200
-32.7059 33.0939 2.8852 0.8299
-35.8310 33.4490 3.0396 0.8216
-37.5238 33.6414 3.1251 0.8171
-41.0679 29.9579 3.1522 0.8157
-41.1959 28.7987 3.1169 0.8176
-43.0904 28.8493 3.2156 0.8124
-45.4283 29.1075 3.3457 0.8056
-22.9483 11.6330 1.5954 0.9020
-90.5483 28.8164 5.8924 0.6833
-20.3044 5.5723 1.3056 0.9191
-91.1839 23.0607 5.8324 0.6860
-92.0156 15.5279 5.7866 0.6880
-92.8396 8.0644 5.7787 0.6883
-93.6667 0.5728 5.8084 0.6870
-93.8753 -1.3160 5.8218 0.6864
-94.7217 -8.9826 5.9001 0.6830
-68.5368 -70.4551 6.0951 0.6744
-61.9492 -71.8988 5.8851 0.6836
-10.3159 -12.9959 1.0289 0.9357
-51.9792 -77.5649 5.7900 0.6878
-47.8497 -78.0208 5.6755 0.6929
-40.0313 -78.8840 5.4854 0.7015
-7.2810 -15.9035 1.0846 0.9323
-5.8446 -16.0706 1.0604 0.9338
-5.4947 -16.1113 1.0556 0.9341
-5.1479 -16.1517 1.0512 0.9343
-4.8038 -16.1917 1.0473 0.9346
-4.4621 -16.2315 1.0439 0.9348
-4.1225 -16.2710 1.0408 0.9349
-3.7848 -16.3103 1.0383 0.9351
-3.4485 -16.3494 1.0361 0.9352
-2.7795 -16.4273 1.0331 0.9354
-2.4462 -16.4661 1.0323 0.9355
-1.7806 -16.5435 1.0318 0.9355
-1.1128 -16.5962 1.0315 0.9355
-0.7805 -16.6599 1.0342 0.9353
2.6571 -17.0599 1.0706 0.9331
3.0175 -17.1018 1.0769 0.9328
3.3822 -17.1442 1.0836 0.9324
3.7516 -17.1872 1.0909 0.9319
4.1262 -17.2308 1.0987 0.9315
5.2656 -17.3013 1.1214 0.9301
5.6738 -17.3784 1.1336 0.9294
6.0741 -17.4085 1.1433 0.9288
7.3382 -17.5468 1.1794 0.9266
7.7802 -17.5996 1.1932 0.9258
9.8500 -18.1695 1.2816 0.9205
14.4164 -24.2126 1.7474 0.8932
27.8982 -41.0039 3.0754 0.8197
16.4846 -23.2098 1.7653 0.8922
17.8820 -24.1331 1.8626 0.8866
19.1169 -24.7423 1.9389 0.8822
36.1323 -41.3440 3.4048 0.8025
36.5632 -40.1751 3.3685 0.8044
36.7204 -38.7510 3.3105 0.8074
31.8944 -32.3291 2.8161 0.8336
36.9517 -35.9770 3.1981 0.8133
37.2319 -33.4382 3.1032 0.8183
37.1588 -32.0448 3.0427 0.8215
31.4405 -22.0199 2.3802 0.8574
33.8674 -22.7172 2.5288 0.8492
33.8884 -19.8758 2.4362 0.8543
42.6002 -22.7319 2.9942 0.8241
60.6702 24.0412 2.5733 0.7701
61.0039 27.0632 2.6315 0.7656
61.3537 30.2304 2.6970 0.7605
57.6007 29.8371 2.5581 0.7713
56.6710 30.8181 2.5436 0.7724
50.7308 30.2952 2.3299 0.7894
50.6279 31.6336 2.3540 0.7874
45.6984 32.5468 2.2122 0.7988
41.7511 31.0210 2.0510 0.8120
40.2309 31.1679 2.0067 0.8157
39.5093 31.9020 2.0023 0.8160
39.5011 33.2311 2.0354 0.8133
34.2015 33.8298 1.8969 0.8248
33.7076 34.7114 1.9079 0.8239
29.2670 32.6732 1.7296 0.8390
26.5944 33.5636 1.6885 0.8425
13.6495 17.9577 0.8894 0.9137
22.7102 31.1608 1.5204 0.8570
21.4674 33.5364 1.5701 0.8527
20.5870 33.6336 1.5549 0.8540
22.5975 46.9477 2.0545 0.8117
25.3791 74.6278 3.1082 0.7294
26.0363 81.9361 3.3900 0.7088
19.8587 78.6668 3.1992 0.7227
1.6902 36.7611 1.4511 0.8630
-0.9142 63.2474 2.4942 0.7763
-1.8843 54.4619 2.1488 0.8040
-3.6583 38.3985 1.5209 0.8569
-4.1028 35.4823 1.4084 0.8668
-4.3597 32.0377 1.2749 0.8786
-4.7278 30.1814 1.2046 0.8849
-6.0095 30.3229 1.2189 0.8836
-6.6624 30.3950 1.2270 0.8829
-7.3591 30.6133 1.2415 0.8816
-11.5818 31.0794 1.3078 0.8757
-12.2742 31.0145 1.3152 0.8750
-12.8179 30.5745 1.3072 0.8757
-13.8184 31.1850 1.3450 0.8724
-15.4367 31.3637 1.3784 0.8694
-16.0027 30.9262 1.3730 0.8699
-17.2220 31.7022 1.4226 0.8655
-19.8844 31.8547 1.4807 0.8604
-22.9028 32.1870 1.5577 0.8537
-25.1390 32.4781 1.6195 0.8484
-26.2661 32.5583 1.6495 0.8458
-35.8310 33.4490 1.9328 0.8218
-39.3152 33.8449 2.0455 0.8125
-40.8034 32.3598 2.0535 0.8118
-40.9376 31.1446 2.0283 0.8139
-41.0686 29.9584 2.0045 0.8159
-90.7632 26.8849 3.7326 0.6846
-91.1853 23.0611 3.7087 0.6862
-91.3946 21.1659 3.6992 0.6869
-92.8411 8.0646 3.6746 0.6886
-93.0471 6.1981 3.6771 0.6885
-93.2536 4.3283 3.6810 0.6882
-93.6683 0.5728 3.6935 0.6873
-93.8768 -1.3160 3.7020 0.6867
-94.0864 -3.2143 3.7121 0.6860
-94.2972 -5.1238 3.7237 0.6852
-94.5094 -7.0460 3.7369 0.6843
-68.4661 -70.3824 3.8717 0.6750
-62.0841 -66.4471 3.5858 0.6949
-62.8812 -72.9805 3.7985 0.6800
-10.3149 -12.9947 0.6542 0.9357
-58.5139 -76.8434 3.8085 0.6793
-56.2860 -77.0894 3.7637 0.6824
-54.1089 -77.3298 3.7215 0.6854
-51.9792 -77.5649 3.6817 0.6881
-49.8821 -77.7769 3.6434 0.6908
-48.7693 -79.5204 3.6783 0.6884
-45.4636 -81.3027 3.6730 0.6887
-41.4567 -81.6930 3.6123 0.6930
-7.2810 -15.9035 0.6897 0.9324
-5.4947 -16.1113 0.6712 0.9341
-5.1479 -16.1517 0.6684 0.9344
-4.8038 -16.1917 0.6660 0.9346
-3.7848 -16.3103 0.6602 0.9352
-3.1135 -16.3884 0.6578 0.9354
-2.1133 -16.5048 0.6561 0.9356
-1.1127 -16.5957 0.6559 0.9356
-0.7806 -16.6599 0.6576 0.9354
-0.4457 -16.6988 0.6587 0.9353
1.5987 -16.9367 0.6708 0.9342
2.3008 -17.0184 0.6772 0.9336
2.6571 -17.0599 0.6808 0.9332
4.8925 -17.3200 0.7097 0.9305
4.3875 -11.8050 0.4966 0.9508
7.3637 -17.6076 0.7526 0.9264
8.7249 -17.7659 0.7804 0.9238
9.2020 -17.8215 0.7909 0.9228
16.4849 -23.2101 1.1225 0.8923
30.0654 -38.9126 1.9390 0.8213
32.4755 -40.3270 2.0417 0.8128
36.2891 -39.8740 2.1259 0.8059
36.4451 -38.4606 2.0893 0.8089
36.7418 -35.7726 2.0220 0.8144
37.1538 -32.0405 1.9345 0.8217
37.4098 -29.7216 1.8840 0.8259
37.9980 -24.3933 1.7805 0.8346
40.1107 -22.4524 1.8125 0.8319
60.6692 24.0408 1.1023 0.7702
68.3049 28.6707 1.2513 0.7435
61.0028 27.0627 1.1273 0.7657
61.1755 28.6269 1.1409 0.7632
61.3525 30.2299 1.1553 0.7606
54.7570 31.2217 1.0647 0.7771
52.3965 31.2900 1.0309 0.7834
45.9565 28.7148 0.9154 0.8051
38.0621 29.4876 0.8133 0.8248
36.7715 29.6914 0.7983 0.8277
30.6617 30.3286 0.7285 0.8415
29.6216 30.5037 0.7182 0.8436
24.6209 31.0729 0.6697 0.8533
13.6420 17.9477 0.3808 0.9138
21.9876 39.4009 0.7622 0.8348
22.0706 48.3187 0.8973 0.8085
23.6419 57.8102 1.0550 0.7789
27.0718 91.5404 1.6125 0.6826
-0.9153 63.3292 1.0699 0.7762
-1.8846 54.4678 0.9206 0.8041
-3.1557 42.0807 0.7128 0.8447
-3.6585 38.4014 0.6516 0.8570
-5.3649 30.2517 0.5190 0.8843
-5.9847 30.1979 0.5200 0.8841
-6.6350 30.2697 0.5235 0.8834
-7.2940 30.3425 0.5271 0.8826
-8.6777 30.6174 0.5376 0.8805
-9.3709 30.6940 0.5421 0.8795
-10.0762 30.7719 0.5470 0.8785
-10.7946 30.8512 0.5521 0.8774
-11.5269 30.9320 0.5576 0.8763
-12.8566 30.6668 0.5617 0.8754
-14.4304 30.8728 0.5757 0.8726
-14.7754 28.5544 0.5431 0.8793
-18.9421 31.7507 0.6245 0.8625
-19.8844 31.8547 0.6343 0.8605
-21.8620 32.0721 0.6556 0.8562
-22.9028 32.1870 0.6673 0.8538
-23.9816 32.3061 0.6796 0.8513
-25.1016 32.4297 0.6927 0.8487
-13.3953 15.9367 0.3517 0.9201
-31.2582 32.9294 0.7669 0.8339
-37.5237 33.6413 0.8513 0.8174
-40.9384 31.1452 0.8689 0.8140
-41.0693 29.9589 0.8587 0.8160
-47.9251 25.5198 0.9172 0.8048
-51.8277 26.2726 0.9815 0.7926
-49.5851 20.3034 0.9051 0.8071
-90.5513 28.8173 1.6052 0.6838
-91.1867 23.0614 1.5888 0.6864
-91.3960 21.1663 1.5847 0.6871
-92.2248 13.6597 1.5748 0.6887
-92.4308 11.7940 1.5740 0.6888
-92.6366 9.9295 1.5738 0.6889
-93.2550 4.3283 1.5769 0.6883
-93.4620 2.4538 1.5793 0.6880
-93.8783 -1.3161 1.5859 0.6869
-94.2987 -5.1239 1.5952 0.6854
-94.5109 -7.0462 1.6009 0.6844
-70.6575 -69.7682 1.6773 0.6722
-61.7466 -63.4749 1.4958 0.7017
-59.8945 -64.1037 1.4819 0.7040
-33.6922 -66.3925 1.2576 0.7424
-7.2810 -15.9035 0.2955 0.9324
-6.1978 -16.0295 0.2903 0.9336
-5.8446 -16.0706 0.2889 0.9339
-5.4947 -16.1113 0.2875 0.9342
-4.4621 -16.2315 0.2844 0.9349
-3.7848 -16.3103 0.2828 0.9352
-2.7795 -16.4273 0.2814 0.9355
-2.1133 -16.5048 0.2811 0.9356
-0.7806 -16.6599 0.2817 0.9355
0.5653 -16.7607 0.2833 0.9351
1.5987 -16.9368 0.2874 0.9342
1.9481 -16.9774 0.2887 0.9339
2.3008 -17.0184 0.2901 0.9336
2.6571 -17.0599 0.2916 0.9333
3.3822 -17.1443 0.2952 0.9325
3.7516 -17.1873 0.2972 0.9320
4.5064 -17.2751 0.3016 0.9311
6.0919 -17.4596 0.3124 0.9287
8.2600 -17.7119 0.3301 0.9248
8.7249 -17.7660 0.3343 0.9239
9.2020 -17.8215 0.3388 0.9229
9.8500 -18.1695 0.3491 0.9206
16.4466 -23.1563 0.4798 0.8926
35.6031 -46.0799 0.9836 0.7922
35.7846 -44.4361 0.9637 0.7959
35.9589 -42.8570 0.9450 0.7995
36.1267 -41.3375 0.9274 0.8028
36.2883 -39.8731 0.9107 0.8060
36.4444 -38.4597 0.8950 0.8090
31.8580 -32.2922 0.7663 0.8340
36.7411 -35.7719 0.8662 0.8145
36.8825 -34.4908 0.8530 0.8171
37.2828 -30.8651 0.8176 0.8240
37.4091 -29.7210 0.8071 0.8260
37.5322 -28.6054 0.7971 0.8280
33.1464 -23.2146 0.6836 0.8505
37.8848 -25.4119 0.7706 0.8332
37.9973 -24.3928 0.7627 0.8347
38.2158 -22.4138 0.7484 0.8376
60.0920 25.2233 -0.3669 0.7705
58.1374 27.2051 -0.3614 0.7736
56.1026 27.6431 -0.3521 0.7787
51.7305 28.1314 -0.3315 0.7901
47.8466 28.5729 -0.3138 0.8002
45.9556 28.7142 -0.3051 0.8051
44.3521 28.9698 -0.2983 0.8090
42.4818 28.9848 -0.2896 0.8141
36.9234 29.8141 -0.2672 0.8271
34.1585 29.9313 -0.2557 0.8339
33.1744 30.2711 -0.2528 0.8356
31.9737 30.3774 -0.2483 0.8383
27.6510 30.8691 -0.2333 0.8472
26.4934 30.8026 -0.2287 0.8500
24.8330 31.3406 -0.2251 0.8522
22.6721 31.1085 -0.2167 0.8573
22.2905 31.9155 -0.2192 0.8558
21.4673 33.5363 -0.2242 0.8528
13.4615 24.1224 -0.1555 0.8954
13.0016 24.4421 -0.1559 0.8952
21.4012 42.2634 -0.2667 0.8274
6.4448 13.3896 -0.0837 0.9423
22.6258 52.2951 -0.3208 0.7962
23.6208 57.7587 -0.3513 0.7791
25.6454 80.7058 -0.4768 0.7127
3.8400 58.0274 -0.3274 0.7925
-0.6134 42.4423 -0.2390 0.8438
-3.1529 42.0440 -0.2374 0.8448
-4.0158 34.7304 -0.1968 0.8695
-4.7278 30.1813 -0.1720 0.8850
-7.3591 30.6132 -0.1773 0.8817
-11.5818 31.0794 -0.1867 0.8758
-12.2742 31.0145 -0.1878 0.8751
-12.8566 30.6667 -0.1872 0.8755
-13.2882 29.9885 -0.1847 0.8770
-13.4275 28.7271 -0.1785 0.8809
-14.7488 28.5030 -0.1807 0.8795
-15.5309 28.5893 -0.1832 0.8780
-18.9421 31.7507 -0.2082 0.8625
-19.8844 31.8547 -0.2114 0.8605
-20.8565 31.9610 -0.2149 0.8584
-21.8620 32.0720 -0.2185 0.8562
-22.8647 32.1335 -0.2220 0.8541
-25.2212 32.5843 -0.2320 0.8480
-26.2660 32.5583 -0.2355 0.8459
-13.3955 15.9369 -0.1172 0.9201
-31.2582 32.9294 -0.2556 0.8339
-32.7058 33.0939 -0.2620 0.8302
-34.2277 33.2668 -0.2687 0.8262
-35.8309 33.4489 -0.2760 0.8220
-40.6673 33.6074 -0.2970 0.8097
-40.8049 32.3610 -0.2932 0.8119
-41.0701 29.9595 -0.2862 0.8160
-41.1981 28.8002 -0.2830 0.8179
-41.3233 27.6662 -0.2800 0.8196
-41.5661 25.4673 -0.2745 0.8228
-41.7998 23.3501 -0.2696 0.8257
-43.3485 23.0828 -0.2765 0.8216
-49.2563 23.7351 -0.3078 0.8036
-52.7455 24.1203 -0.3265 0.7929
-56.6877 24.5555 -0.3478 0.7811
-90.5527 28.8177 -0.5350 0.6838
-90.7660 26.8857 -0.5330 0.6848
-20.2959 5.5699 -0.1185 0.9193
-91.6057 19.2804 -0.5271 0.6877
-92.0199 15.5286 -0.5254 0.6885
-92.6381 9.9297 -0.5246 0.6889
-93.0501 6.1983 -0.5250 0.6886
-93.4635 2.4538 -0.5264 0.6880
-84.2251 -33.2903 -0.5099 0.6961
-56.2965 -41.7523 -0.3946 0.7555
-56.9464 -44.0386 -0.4053 0.7498
-70.6575 -69.7682 -0.5591 0.6722
-62.4766 -64.2256 -0.5042 0.6988
-10.3128 -12.9921 -0.0934 0.9358
-34.6907 -45.5575 -0.3224 0.7953
-7.5087 -15.5651 -0.0973 0.9332
-7.1580 -15.6348 -0.0968 0.9335
-6.8191 -15.7235 -0.0965 0.9337
-5.0729 -15.9163 -0.0941 0.9354
-4.0610 -16.0281 -0.0931 0.9360
-3.7278 -16.0648 -0.0929 0.9362
-3.3962 -16.1015 -0.0926 0.9363
-2.7367 -16.1743 -0.0924 0.9365
-2.0699 -16.1656 -0.0918 0.9369
-1.0966 -16.3553 -0.0923 0.9365
-0.4385 -16.4280 -0.0925 0.9364
-0.1079 -16.4645 -0.0927 0.9363
0.2241 -16.5012 -0.0929 0.9361
1.5716 -16.6499 -0.0942 0.9353
1.9149 -16.6878 -0.0946 0.9350
2.9649 -16.8037 -0.0961 0.9340
3.3228 -16.8433 -0.0967 0.9336
3.6669 -16.7990 -0.0968 0.9335
4.0325 -16.8394 -0.0975 0.9331
4.8041 -17.0068 -0.0995 0.9318
5.1889 -17.0493 -0.1003 0.9312
5.5804 -17.0925 -0.1012 0.9306
4.3865 -11.8024 -0.0709 0.9509
7.2242 -17.2740 -0.1054 0.9278
8.1010 -17.3708 -0.1079 0.9262
10.3080 -18.1332 -0.1174 0.9200
16.4213 -23.1206 -0.1597 0.8928
30.7718 -41.5288 -0.2910 0.8132
35.9060 -44.5870 -0.3223 0.7953
36.1052 -43.0314 -0.3163 0.7988
36.2750 -41.5072 -0.3104 0.8021
37.0340 -34.6324 -0.2855 0.8164
37.1912 -32.0727 -0.2765 0.8216
37.5628 -29.8431 -0.2701 0.8254
37.8072 -27.6297 -0.2636 0.8292
33.0518 -23.1483 -0.2272 0.8509
38.0405 -25.5164 -0.2579 0.8326
40.0184 -24.5669 -0.2644 0.8288
40.2436 -22.5268 -0.2597 0.8315
48.8287 19.3489 -1.4789 0.8104
47.1098 19.7741 -1.4386 0.8151
41.3268 20.3627 -1.2973 0.8316
40.4969 20.9774 -1.2842 0.8332
38.9936 21.2050 -1.2498 0.8373
37.4902 21.3764 -1.2152 0.8414
36.0641 21.5366 -1.1828 0.8453
33.4316 21.8368 -1.1244 0.8523
32.3209 22.0522 -1.1017 0.8551
70.1868 56.6728 -2.5401 0.6970
69.1187 58.1474 -2.5433 0.6967
67.9756 59.5635 -2.5449 0.6965
65.4742 62.2055 -2.5430 0.6967
62.8684 64.7406 -2.5411 0.6969
58.7754 68.3354 -2.5380 0.6972
13.5611 17.8414 -0.6310 0.9142
52.9987 72.7199 -2.5337 0.6976
51.5014 73.7399 -2.5326 0.6977
46.8941 76.6123 -2.5293 0.6981
14.9736 41.2842 -1.2366 0.8388
11.2377 33.0447 -0.9828 0.8696
15.0195 47.2664 -1.3965 0.8200
9.4095 37.2741 -1.0825 0.8574
9.2424 39.9878 -1.1557 0.8485
10.3536 49.2986 -1.4184 0.8174
14.7733 87.7768 -2.5064 0.7003
12.9967 88.0124 -2.5051 0.7005
7.6491 88.5047 -2.5014 0.7008
4.0761 88.6527 -2.4989 0.7011
0.4196 73.8804 -2.0803 0.7441
-1.8527 53.5470 -1.5087 0.8070
-3.1532 42.0476 -1.1873 0.8447
-4.3606 32.0439 -0.9106 0.8786
-4.7278 30.1814 -0.8602 0.8849
-6.0095 30.3229 -0.8704 0.8836
-7.9957 30.5421 -0.8890 0.8813
-8.6777 30.6174 -0.8961 0.8804
-10.0762 30.7719 -0.9117 0.8785
-10.7945 30.8512 -0.9203 0.8774
-12.8565 30.6667 -0.9363 0.8754
-14.6873 31.4223 -0.9767 0.8704
-17.2220 31.7021 -1.0159 0.8656
-19.8844 31.8547 -1.0574 0.8605
-21.8619 32.0720 -1.0929 0.8561
-22.8653 32.1343 -1.1105 0.8540
-31.2581 32.9294 -1.2784 0.8339
-32.7058 33.0939 -1.3101 0.8301
-35.8309 33.4489 -1.3802 0.8219
-37.5237 33.6413 -1.4190 0.8174
-39.3151 33.8448 -1.4607 0.8125
-40.8057 32.3616 -1.4665 0.8119
-41.0708 29.9600 -1.4315 0.8159
-41.1988 28.8008 -1.4154 0.8178
-41.3240 27.6667 -1.4003 0.8195
-41.4466 26.5562 -1.3861 0.8212
-41.6847 24.3996 -1.3600 0.8243
-41.8005 23.3505 -1.3482 0.8256
-44.9228 21.6469 -1.4041 0.8191
-49.5865 20.3040 -1.5088 0.8070
-80.6649 31.1484 -2.4348 0.7075
-81.4519 27.7393 -2.4229 0.7087
-82.0049 26.0975 -2.4232 0.7087
-20.2928 5.5691 -0.5925 0.9192
-84.0636 17.6930 -2.4189 0.7091
-84.6066 14.2776 -2.4160 0.7094
-85.2059 9.1330 -2.4130 0.7097
-85.5351 2.2457 -2.4093 0.7101
-85.5137 0.5229 -2.4079 0.7102
-85.3550 -2.9160 -2.4048 0.7105
-85.0417 -6.3402 -2.4012 0.7109
-84.8432 -8.0458 -2.3997 0.7110
-84.5498 -9.7391 -2.3965 0.7114
-83.6224 -14.7921 -2.3912 0.7119
-82.7942 -18.1102 -2.3864 0.7124
-81.8280 -21.3840 -2.3815 0.7129
-81.3022 -23.0046 -2.3792 0.7131
-80.7387 -24.6111 -2.3767 0.7134
-80.1366 -26.2020 -2.3740 0.7136
-78.1329 -30.8823 -2.3657 0.7145
-77.4023 -32.4100 -2.3628 0.7148
-75.8456 -35.4112 -2.3569 0.7154
-75.0190 -36.8826 -2.3539 0.7157
-74.1632 -38.3346 -2.3507 0.7160
-73.2764 -39.7656 -2.3475 0.7163
-54.0621 -30.7631 -1.7515 0.7797
-67.3417 -47.8730 -2.3265 0.7185
-66.2576 -49.1399 -2.3228 0.7189
-64.0129 -51.5956 -2.3151 0.7196
-62.8541 -52.7840 -2.3111 0.7200
-61.7375 -54.0024 -2.3096 0.7202
-60.6595 -55.2542 -2.3104 0.7201
-57.1064 -66.2782 -2.4634 0.7046
-34.6907 -45.5575 -1.6124 0.7952
-51.7260 -70.8440 -2.4699 0.7040
-47.4160 -73.9317 -2.4731 0.7037
-45.9382 -74.9042 -2.4742 0.7036
-42.9238 -76.7608 -2.4764 0.7033
-33.3270 -65.6728 -2.0737 0.7448
-7.5087 -15.5651 -0.4866 0.9332
-6.8191 -15.7235 -0.4826 0.9337
-6.1097 -15.8019 -0.4770 0.9345
-5.4153 -15.8785 -0.4724 0.9351
-4.7332 -15.9538 -0.4686 0.9356
-4.3960 -15.9911 -0.4670 0.9358
-3.3962 -16.1014 -0.4634 0.9363
-2.0699 -16.1656 -0.4589 0.9369
-1.7437 -16.2016 -0.4588 0.9369
-1.0966 -16.3554 -0.4616 0.9365
-0.4384 -16.4280 -0.4627 0.9364
-0.1079 -16.4645 -0.4636 0.9362
0.2241 -16.5012 -0.4647 0.9361
0.5578 -16.5380 -0.4659 0.9359
0.8934 -16.5751 -0.4674 0.9357
1.2313 -16.6123 -0.4691 0.9355
1.9149 -16.6878 -0.4730 0.9350
2.2613 -16.7261 -0.4753 0.9347
2.9649 -16.8038 -0.4805 0.9340
3.3228 -16.8433 -0.4834 0.9336
3.6669 -16.7990 -0.4842 0.9335
4.4255 -16.9650 -0.4937 0.9322
5.5805 -17.0925 -0.5063 0.9306
6.8005 -17.2272 -0.5215 0.9286
7.2242 -17.2740 -0.5272 0.9278
7.6575 -17.3219 -0.5333 0.9270
8.1010 -17.3708 -0.5397 0.9262
8.5555 -17.4210 -0.5465 0.9253
9.4534 -17.4379 -0.5585 0.9237
10.3606 -18.2259 -0.5903 0.9195
46.9056 -75.2883 -2.4977 0.7012
38.9024 -59.7287 -2.0071 0.7518
40.0286 -58.8329 -2.0037 0.7522
30.8367 -41.6163 -1.4585 0.8128
35.6015 -46.0778 -1.6396 0.7921
35.7830 -44.4342 -1.6064 0.7959
36.2868 -39.8715 -1.5180 0.8060
36.8623 -35.8898 -1.4487 0.8139
37.0042 -34.6045 -1.4266 0.8165
37.1912 -32.0728 -1.3828 0.8216
37.4353 -30.9913 -1.3684 0.8233
37.8065 -27.6292 -1.3185 0.8291
32.9441 -23.0729 -1.1325 0.8513
38.0398 -25.5159 -1.2898 0.8325
38.3016 -24.5882 -1.2816 0.8335
38.2190 -22.4157 -1.2475 0.8375
40.2430 -22.5264 -1.2986 0.8315
26.4010 11.0817 -1.4521 0.8917
24.6054 11.5140 -1.3777 0.8969
23.1862 11.4244 -1.3109 0.9017
22.2549 11.5280 -1.2711 0.9045
20.5562 11.7208 -1.2000 0.9096
18.2549 11.9237 -1.1058 0.9164
30.0851 21.4269 -1.8732 0.8625
29.0235 21.5644 -1.8337 0.8652
27.8849 21.6031 -1.7889 0.8682
24.3739 22.2407 -1.6734 0.8762
22.6106 22.3649 -1.6129 0.8804
21.6637 22.3088 -1.5770 0.8829
21.0843 22.6054 -1.5677 0.8836
13.5291 17.7992 -1.1338 0.9143
16.2118 23.2120 -1.4359 0.8928
14.9822 23.4053 -1.4093 0.8947
14.3648 23.4683 -1.3954 0.8957
12.5982 23.6837 -1.3605 0.8981
12.5034 24.6919 -1.4036 0.8951
6.5344 13.5756 -0.7641 0.9414
12.8790 28.1960 -1.5720 0.8832
12.8680 29.7420 -1.6435 0.8783
7.3979 20.3971 -1.1004 0.9168
8.0387 29.3416 -1.5429 0.8853
9.4723 40.9826 -2.1332 0.8450
8.9893 47.5426 -2.4538 0.8238
8.0293 47.7043 -2.4533 0.8239
6.0996 47.9664 -2.4522 0.8239
4.1609 48.1458 -2.4508 0.8240
1.7949 39.0382 -1.9819 0.8551
1.2459 48.2586 -2.4482 0.8242
-0.6967 48.2300 -2.4462 0.8243
-1.6672 48.1848 -2.4451 0.8244
-2.4869 45.4033 -2.3061 0.8335
-3.1557 42.0806 -2.1401 0.8445
-3.6594 38.4103 -1.9568 0.8568
-4.0837 35.3175 -1.8030 0.8673
-5.3438 30.1331 -1.5520 0.8846
-5.9874 30.2111 -1.5619 0.8840
-6.6395 30.2907 -1.5726 0.8832
-7.3011 30.3719 -1.5842 0.8824
-8.6555 30.5394 -1.6098 0.8806
-11.5145 30.8986 -1.6723 0.8763
-12.2662 30.9943 -1.6905 0.8750
-13.7323 30.9906 -1.7190 0.8731
-14.6873 31.4223 -1.7590 0.8703
-15.3405 31.1681 -1.7617 0.8701
-16.0509 31.0194 -1.7713 0.8695
-17.1403 31.5517 -1.8210 0.8661
-18.0280 31.6497 -1.8472 0.8643
-21.8619 32.0720 -1.9684 0.8560
-23.9816 32.3061 -2.0404 0.8512
-25.1015 32.4297 -2.0798 0.8485
-26.2660 32.5582 -2.1215 0.8457
-13.3958 15.9374 -1.0558 0.9200
-34.2276 33.2667 -2.4207 0.8260
-35.7083 32.0136 -2.4321 0.8252
-38.1685 29.0379 -2.4322 0.8252
-40.8874 25.0439 -2.4309 0.8253
-41.9837 21.2824 -2.3871 0.8282
-42.1375 20.3047 -2.3721 0.8292
-42.6625 19.5094 -2.3791 0.8287
-43.5752 16.8264 -2.3689 0.8294
-43.8847 15.9383 -2.3678 0.8294
-44.1285 15.0285 -2.3642 0.8297
-44.3690 14.1201 -2.3613 0.8299
-44.6269 13.2189 -2.3604 0.8299
-45.2062 10.4692 -2.3533 0.8304
-45.6198 7.6985 -2.3462 0.8309
-45.7085 6.7700 -2.3434 0.8310
-41.2661 5.2655 -2.1097 0.8465
-45.8957 3.9867 -2.3363 0.8315
-45.9159 3.0586 -2.3337 0.8317
-45.9308 2.1318 -2.3319 0.8318
-36.0126 -0.5049 -1.8265 0.8657
-45.7623 -1.5634 -2.3222 0.8324
-45.5676 -3.3972 -2.3173 0.8328
-37.9224 -3.5963 -1.9318 0.8585
-45.2939 -6.1436 -2.3181 0.8327
-45.0157 -7.9629 -2.3184 0.8327
-44.8497 -8.8682 -2.3186 0.8327
-44.8069 -11.7093 -2.3487 0.8307
-45.7091 -12.9335 -2.4091 0.8267
-46.4707 -14.1654 -2.4638 0.8232
-46.2988 -15.1382 -2.4703 0.8228
-45.9897 -16.0689 -2.4706 0.8227
-45.3161 -17.9114 -2.4712 0.8227
-44.5696 -19.7261 -2.4718 0.8227
-44.1695 -20.6222 -2.4721 0.8226
-43.7515 -21.5102 -2.4725 0.8226
-43.3158 -22.3898 -2.4728 0.8226
-42.3922 -24.1225 -2.4736 0.8225
-41.9045 -24.9750 -2.4740 0.8225
-41.4000 -25.8177 -2.4744 0.8225
-40.8786 -26.6504 -2.4748 0.8225
-39.7863 -28.2840 -2.4756 0.8224
-39.2159 -29.0845 -2.4761 0.8224
-38.6295 -29.8735 -2.4765 0.8224
-38.0275 -30.6509 -2.4770 0.8223
-36.7770 -32.1692 -2.4780 0.8223
-33.3056 -31.5878 -2.3279 0.8321
-32.0204 -32.9167 -2.3289 0.8320
-30.6827 -34.1937 -2.3299 0.8319
-29.9948 -34.8122 -2.3304 0.8319
-27.8577 -36.5841 -2.3320 0.8318
-25.6167 -38.2260 -2.3336 0.8317
-24.0688 -39.2453 -2.3348 0.8316
-23.2796 -39.7315 -2.3354 0.8316
-22.4806 -40.2021 -2.3359 0.8315
-20.8547 -41.0954 -2.3371 0.8315
-7.5087 -15.5651 -0.8764 0.9331
-5.7608 -15.8404 -0.8548 0.9347
-5.4153 -15.8785 -0.8508 0.9350
-5.0729 -15.9163 -0.8472 0.9353
-4.7332 -15.9538 -0.8439 0.9355
-4.3960 -15.9911 -0.8411 0.9357
-4.0610 -16.0281 -0.8385 0.9359
-3.7278 -16.0649 -0.8364 0.9361
-2.4082 -16.2105 -0.8311 0.9365
-1.4247 -16.3191 -0.8308 0.9365
-0.4385 -16.4280 -0.8334 0.9363
-0.1079 -16.4645 -0.8350 0.9362
0.2241 -16.5012 -0.8369 0.9360
0.5578 -16.5380 -0.8392 0.9359
1.2312 -16.6123 -0.8448 0.9355
1.5716 -16.6499 -0.8481 0.9352
1.9149 -16.6878 -0.8519 0.9349
2.2613 -16.7261 -0.8560 0.9346
2.6112 -16.7647 -0.8605 0.9343
2.9649 -16.8038 -0.8654 0.9339
3.6669 -16.7990 -0.8720 0.9335
4.4255 -16.9650 -0.8892 0.9322
4.8041 -17.0068 -0.8962 0.9317
5.1889 -17.0493 -0.9038 0.9311
6.8005 -17.2272 -0.9393 0.9285
7.2242 -17.2740 -0.9496 0.9278
7.6575 -17.3219 -0.9605 0.9270
8.1010 -17.3708 -0.9720 0.9261
9.0218 -17.4725 -0.9973 0.9243
9.4534 -17.4379 -1.0059 0.9236
17.0503 -29.9941 -1.7497 0.8709
17.5708 -25.8251 -1.5841 0.8824
18.1629 -20.7827 -1.3998 0.8953
35.4719 -30.5901 -2.3755 0.8289
36.6861 -29.1466 -2.3762 0.8289
37.2711 -28.4064 -2.3766 0.8289
32.3200 -23.6197 -2.0301 0.8519
33.4063 -21.4456 -2.0132 0.8530
38.2183 -22.4153 -2.2471 0.8374
41.3871 -22.0846 -2.3790 0.8287
27.8525 11.0368 -2.1967 0.8868
26.4005 11.0815 -2.0994 0.8915
25.5284 11.3252 -2.0477 0.8940
24.6048 11.5137 -1.9918 0.8968
23.3810 11.5204 -1.9111 0.9007
19.1949 11.9934 -1.6596 0.9132
18.2549 11.9237 -1.5987 0.9163
17.8062 12.1490 -1.5805 0.9172
16.0299 12.4188 -1.4868 0.9219
15.3862 12.4237 -1.4500 0.9237
14.6565 12.3301 -1.4044 0.9261
14.1386 12.3889 -1.3783 0.9274
13.8091 12.6006 -1.3707 0.9278
13.3383 12.6724 -1.3490 0.9289
12.2891 12.6550 -1.2934 0.9317
11.8500 12.7049 -1.2739 0.9327
11.4238 12.7533 -1.2554 0.9336
11.0096 12.8003 -1.2379 0.9345
8.7333 13.0566 -1.1517 0.9389
8.3833 13.0963 -1.1401 0.9395
7.7033 13.1735 -1.1189 0.9406
7.3724 13.2111 -1.1093 0.9411
7.0490 13.2516 -1.1006 0.9416
6.4044 14.8025 -1.1826 0.9374
6.5385 15.9881 -1.2665 0.9331
6.6957 17.3622 -1.3644 0.9281
7.5480 23.7534 -1.8275 0.9049
5.9319 23.4982 -1.7770 0.9074
7.4647 32.2962 -2.4305 0.8755
5.5019 32.6897 -2.4306 0.8755
4.8428 32.7944 -2.4306 0.8755
4.1816 32.8857 -2.4307 0.8755
2.8545 33.0284 -2.4307 0.8755
1.5227 33.1174 -2.4308 0.8755
0.1883 33.1526 -2.4309 0.8755
-0.4791 33.1500 -2.4309 0.8755
-1.1464 33.1340 -2.4309 0.8755
-1.8132 33.1045 -2.4309 0.8755
-3.1444 33.0052 -2.4310 0.8755
-4.7278 30.1813 -2.2399 0.8847
-5.3648 30.2517 -2.2527 0.8841
-6.0095 30.3228 -2.2666 0.8834
-6.6624 30.3949 -2.2815 0.8827
-7.3242 30.4680 -2.2976 0.8819
-7.9957 30.5421 -2.3149 0.8811
-9.3709 30.6939 -2.3531 0.8792
-10.7945 30.8512 -2.3965 0.8771
-12.8188 30.5766 -2.4310 0.8755
-14.6408 29.7466 -2.4310 0.8755
-15.2366 29.4455 -2.4309 0.8755
-15.8261 29.1326 -2.4309 0.8755
-16.4092 28.8079 -2.4309 0.8755
-16.9859 28.4718 -2.4309 0.8755
-19.7620 26.6217 -2.4310 0.8755
-20.2941 26.2188 -2.4310 0.8755
-13.3960 15.9376 -1.5265 0.9199
-23.3065 23.5830 -2.4311 0.8755
-24.2301 22.6193 -2.4304 0.8755
-24.5709 22.0267 -2.4194 0.8760
-25.3089 20.9153 -2.4074 0.8766
-25.7262 20.4026 -2.4075 0.8766
-26.0450 19.8145 -2.3995 0.8770
-27.1317 17.3842 -2.3627 0.8788
-27.7708 16.2553 -2.3594 0.8789
-28.0553 15.6722 -2.3563 0.8791
-28.5975 14.4967 -2.3509 0.8793
-28.8626 13.9080 -2.3492 0.8794
-29.1163 13.3147 -2.3475 0.8795
-29.3475 12.7126 -2.3451 0.8796
-29.5689 12.1074 -2.3428 0.8797
-29.7785 11.4989 -2.3406 0.8798
-29.9861 10.8905 -2.3392 0.8799
-15.7774 4.6734 -1.2065 0.9361
-16.0427 4.4027 -1.2198 0.9355
-21.2767 3.5905 -1.5821 0.9171
-21.1362 3.1305 -1.5667 0.9179
-21.2852 2.7160 -1.5733 0.9175
-31.6666 2.1094 -2.3270 0.8805
-31.7029 1.4714 -2.3270 0.8805
-31.7372 0.1941 -2.3271 0.8805
-33.0292 -7.2247 -2.4790 0.8732
-32.7156 -8.5495 -2.4793 0.8732
-32.5390 -9.2070 -2.4795 0.8732
-32.3492 -9.8608 -2.4797 0.8732
-32.1465 -10.5109 -2.4798 0.8731
-31.9308 -11.1567 -2.4800 0.8731
-31.7023 -11.7982 -2.4802 0.8731
-31.4608 -12.4352 -2.4804 0.8731
-31.2069 -13.0671 -2.4807 0.8731
-30.6612 -14.3153 -2.4811 0.8731
-29.7501 -16.1448 -2.4818 0.8731
-29.0824 -17.3330 -2.4824 0.8730
-27.6066 -19.6255 -2.4835 0.8730
-25.5516 -18.9504 -2.3325 0.8802
-24.7745 -19.9688 -2.3331 0.8802
-23.9570 -20.9554 -2.3337 0.8802
-23.5335 -21.4364 -2.3341 0.8801
-23.1004 -21.9089 -2.3344 0.8801
-22.2062 -22.8277 -2.3351 0.8801
-21.7454 -23.2736 -2.3354 0.8801
-20.7971 -24.1374 -2.3361 0.8800
-20.3101 -24.5549 -2.3365 0.8800
-19.3114 -25.3606 -2.3372 0.8800
-18.2807 -26.1259 -2.3380 0.8800
-17.7540 -26.4931 -2.3384 0.8799
-17.2200 -26.8496 -2.3388 0.8799
-16.6788 -27.1954 -2.3392 0.8799
-15.5758 -27.8543 -2.3400 0.8799
-15.0146 -28.1672 -2.3404 0.8798
-14.4470 -28.4687 -2.3408 0.8798
-6.1098 -15.8019 -1.2422 0.9343
-5.7608 -15.8404 -1.2359 0.9346
-5.4153 -15.8785 -1.2301 0.9349
-5.0729 -15.9163 -1.2249 0.9352
-4.7332 -15.9538 -1.2202 0.9354
-4.3960 -15.9911 -1.2160 0.9356
-3.7278 -16.0649 -1.2092 0.9360
-3.0659 -16.1379 -1.2044 0.9362
-2.7367 -16.1743 -1.2028 0.9363
-2.0699 -16.1656 -1.1950 0.9367
-1.7437 -16.2016 -1.1948 0.9367
-1.4247 -16.3191 -1.2011 0.9364
-0.4384 -16.4280 -1.2050 0.9362
-0.1079 -16.4645 -1.2072 0.9361
0.8934 -16.5751 -1.2171 0.9356
1.9149 -16.6878 -1.2316 0.9348
2.2613 -16.7261 -1.2375 0.9345
3.3228 -16.8433 -1.2588 0.9335
3.6669 -16.7990 -1.2607 0.9334
4.0325 -16.8394 -1.2696 0.9329
4.8041 -17.0068 -1.2958 0.9316
5.1889 -17.0493 -1.3067 0.9310
5.9792 -17.1366 -1.3308 0.9298
4.3850 -11.7985 -0.9229 0.9508
6.8005 -17.2273 -1.3580 0.9284
7.2242 -17.2740 -1.3729 0.9277
7.6575 -17.3219 -1.3886 0.9269
8.5555 -17.4210 -1.4231 0.9251
9.0218 -17.4725 -1.4418 0.9242
9.4534 -17.4379 -1.4544 0.9235
16.4814 -27.6809 -2.3621 0.8788
11.4116 -18.3168 -1.5824 0.9171
12.7297 -19.5445 -1.7102 0.9107
12.5580 -18.4574 -1.6369 0.9144
16.7428 -22.5956 -2.0620 0.8933
17.5156 -22.6699 -2.1005 0.8915
16.7344 -20.7803 -1.9563 0.8985
18.0255 -21.4834 -2.0562 0.8936
18.0724 -20.6791 -2.0137 0.8957
23.6337 -24.9407 -2.5193 0.8713
25.1053 -23.4773 -2.5203 0.8712
25.5758 -22.9698 -2.5206 0.8712
26.0360 -22.4528 -2.5208 0.8712
26.4379 -21.8870 -2.5166 0.8714
26.9246 -21.3912 -2.5214 0.8712
29.3232 -18.0014 -2.5228 0.8711
22.8954 9.0725 -2.3644 0.9058
22.3014 10.4358 -2.3639 0.9058
22.0851 10.8818 -2.3637 0.9058
20.9498 11.9453 -2.3153 0.9076
17.8062 12.1489 -2.0695 0.9170
16.5640 12.3070 -1.9811 0.9204
15.3862 12.4237 -1.8986 0.9236
14.1386 12.3889 -1.8047 0.9272
12.8992 12.7591 -1.7419 0.9297
12.2137 13.0948 -1.7191 0.9306
11.8648 13.2456 -1.7072 0.9310
11.1021 12.9079 -1.6345 0.9339
10.1716 12.8371 -1.5724 0.9363
9.9123 13.0408 -1.5726 0.9363
9.5354 13.0836 -1.5543 0.9370
8.9971 13.4509 -1.5536 0.9370
8.6502 13.5134 -1.5404 0.9376
8.3364 13.6194 -1.5330 0.9378
7.8147 13.3642 -1.4863 0.9397
7.4675 13.3815 -1.4712 0.9403
7.1063 13.3593 -1.4527 0.9410
6.7415 13.3132 -1.4327 0.9418
7.2552 16.7691 -1.7541 0.9292
6.7872 16.5962 -1.7214 0.9305
6.6957 17.3622 -1.7865 0.9280
7.2580 21.3424 -2.1642 0.9134
7.6631 24.1157 -2.4293 0.9033
7.1762 24.2655 -2.4293 0.9033
6.6863 24.4054 -2.4294 0.9033
6.1937 24.5354 -2.4294 0.9033
3.6970 25.0354 -2.4296 0.9033
2.1791 25.2137 -2.4297 0.9033
1.6711 25.2528 -2.4297 0.9033
0.1219 21.4605 -2.0603 0.9174
-0.2886 19.9665 -1.9171 0.9229
-1.8927 25.2390 -2.4299 0.9033
-4.4197 24.9225 -2.4300 0.9033
-4.9207 24.8287 -2.4300 0.9033
-6.4106 24.4872 -2.4301 0.9033
-6.9023 24.3534 -2.4301 0.9033
-7.3913 24.2098 -2.4302 0.9033
-8.3600 23.8931 -2.4302 0.9033
-9.7872 23.3455 -2.4303 0.9033
-10.2553 23.1440 -2.4303 0.9033
-10.7192 22.9330 -2.4303 0.9033
-11.1787 22.7127 -2.4303 0.9033
-11.6338 22.4833 -2.4304 0.9033
-12.5297 21.9971 -2.4304 0.9033
-13.4052 21.4752 -2.4304 0.9033
-13.8350 21.2011 -2.4304 0.9033
-14.6032 20.5230 -2.4182 0.9037
-15.3268 19.8013 -2.4040 0.9043
-16.4917 18.8373 -2.4036 0.9043
-17.0930 18.0068 -2.3836 0.9050
-17.6621 17.1661 -2.3646 0.9058
-18.2837 16.3919 -2.3575 0.9060
-18.5887 16.0023 -2.3548 0.9061
-18.8884 15.6093 -2.3524 0.9062
-19.4772 14.8179 -2.3495 0.9063
-19.7530 14.4093 -2.3473 0.9064
-20.0214 13.9963 -2.3453 0.9065
-20.2821 13.5790 -2.3433 0.9066
-20.7800 12.7318 -2.3397 0.9067
-21.0195 12.3035 -2.3383 0.9068
-21.6786 10.9894 -2.3334 0.9070
-22.4880 9.2081 -2.3329 0.9070
-14.9717 4.7646 -1.5084 0.9388
-15.1815 4.4969 -1.5201 0.9384
-20.4391 3.0273 -1.9837 0.9203
-22.0736 2.3660 -2.1313 0.9147
-22.8598 1.9857 -2.2029 0.9119
-25.8320 -1.4036 -2.4837 0.9013
-25.7992 -1.9234 -2.4837 0.9013
-25.7559 -2.4425 -2.4838 0.9013
-25.7021 -2.9606 -2.4838 0.9013
-25.5638 -3.9931 -2.4840 0.9013
-25.4791 -4.5070 -2.4841 0.9012
-25.2791 -5.5295 -2.4843 0.9012
-24.6016 -8.0439 -2.4849 0.9012
-24.4361 -8.5380 -2.4851 0.9012
-24.2607 -9.0288 -2.4852 0.9012
-24.0756 -9.5160 -2.4854 0.9012
-23.6762 -10.4788 -2.4857 0.9012
-23.4621 -10.9541 -2.4859 0.9012
-23.2385 -11.4251 -2.4861 0.9012
-21.9816 -13.7081 -2.4871 0.9011
-21.7031 -14.1491 -2.4873 0.9011
-21.4158 -14.5845 -2.4875 0.9011
-21.1199 -15.0141 -2.4878 0.9011
-19.5277 -15.1014 -2.3699 0.9056
-18.0005 -16.3964 -2.3376 0.9068
-16.9835 -17.4588 -2.3384 0.9068
-15.5312 -18.7772 -2.3394 0.9067
-13.1651 -20.5272 -2.3412 0.9067
-12.3312 -21.0460 -2.3418 0.9066
-11.9067 -21.2928 -2.3421 0.9066
-7.5087 -15.5651 -1.6591 0.9329
-6.4624 -15.7629 -1.6356 0.9338
-6.1098 -15.8019 -1.6265 0.9342
-5.7608 -15.8404 -1.6182 0.9345
-5.4153 -15.8785 -1.6106 0.9348
-4.3960 -15.9911 -1.5922 0.9355
-4.0610 -16.0281 -1.5874 0.9357
-3.3962 -16.1015 -1.5798 0.9360
-3.0659 -16.1379 -1.5770 0.9361
-2.7367 -16.1743 -1.5749 0.9362
-2.4082 -16.2105 -1.5734 0.9363
-2.0698 -16.1656 -1.5647 0.9366
-1.7437 -16.2017 -1.5644 0.9366
-1.4247 -16.3191 -1.5727 0.9363
-1.0966 -16.3554 -1.5737 0.9363
-0.4385 -16.4280 -1.5777 0.9361
0.2241 -16.5012 -1.5843 0.9358
0.5578 -16.5380 -1.5886 0.9357
0.8934 -16.5751 -1.5936 0.9355
1.2312 -16.6124 -1.5992 0.9353
1.5716 -16.6499 -1.6056 0.9350
2.6112 -16.7647 -1.6289 0.9341
3.1466 -15.9497 -1.5608 0.9368
3.6669 -16.7990 -1.6508 0.9332
4.0325 -16.8394 -1.6624 0.9328
4.4255 -16.9651 -1.6832 0.9320
4.8041 -17.0068 -1.6966 0.9314
5.1889 -17.0493 -1.7109 0.9309
5.5805 -17.0925 -1.7262 0.9303
7.6575 -17.3219 -1.8182 0.9267
8.1010 -17.3708 -1.8401 0.9259
8.5555 -17.4210 -1.8633 0.9250
9.0218 -17.4725 -1.8879 0.9240
9.4534 -17.4379 -1.9043 0.9234
11.4840 -18.4331 -2.0850 0.9164
12.6111 -18.5355 -2.1523 0.9139
15.0337 -19.4575 -2.3606 0.9059
15.4240 -19.1530 -2.3609 0.9059
15.8081 -18.8406 -2.3611 0.9059
16.9216 -17.8574 -2.3619 0.9059
19.1398 -17.8986 -2.5158 0.9001
19.8483 -17.1167 -2.5162 0.9000
20.8504 -15.8913 -2.5169 0.9000
21.4765 -15.0414 -2.5172 0.9000
21.7765 -14.6070 -2.5174 0.9000
22.0677 -14.1666 -2.5176 0.9000
23.1416 -12.3486 -2.5182 0.9000
15.2658 7.1436 -2.0021 0.9344
17.8283 8.7844 -2.3609 0.9231
13.4062 7.2904 -1.8127 0.9404
17.2622 9.8426 -2.3604 0.9231
17.0594 10.1875 -2.3602 0.9231
16.6331 10.8644 -2.3599 0.9231
15.9433 11.8459 -2.3594 0.9231
14.6565 12.3301 -2.2751 0.9257
14.1385 12.3889 -2.2330 0.9271
13.8091 12.6006 -2.2206 0.9275
12.8809 12.7409 -2.1521 0.9296
12.4441 12.8146 -2.1218 0.9306
11.1021 12.9079 -2.0224 0.9337
9.5354 13.0836 -1.9231 0.9369
9.1781 13.1412 -1.9040 0.9375
8.8173 13.1822 -1.8838 0.9381
8.1886 13.3780 -1.8632 0.9388
7.4458 13.3425 -1.8150 0.9403
6.7415 13.3133 -1.7726 0.9417
6.2117 13.5991 -1.7759 0.9416
6.5867 15.2238 -1.9704 0.9354
6.7742 16.5645 -2.1258 0.9304
6.9726 19.2242 -2.4291 0.9209
6.5843 19.3609 -2.4292 0.9209
6.1931 19.4898 -2.4292 0.9209
5.7996 19.6107 -2.4292 0.9209
5.4038 19.7237 -2.4292 0.9209
5.0056 19.8287 -2.4293 0.9209
4.6055 19.9257 -2.4293 0.9209
3.3945 20.1680 -2.4294 0.9209
2.9879 20.2325 -2.4294 0.9209
1.7611 20.3766 -2.4295 0.9209
1.3506 20.4081 -2.4295 0.9209
0.5279 20.4464 -2.4296 0.9209
0.1162 20.4531 -2.4296 0.9209
-0.2956 20.4515 -2.4296 0.9209
-0.7427 13.5593 -1.6131 0.9468
-1.2973 13.6170 -1.6248 0.9464
-3.9764 20.0651 -2.4298 0.9209
-4.7811 19.8891 -2.4299 0.9209
-5.9538 19.5015 -2.4221 0.9211
-6.7138 19.1881 -2.4148 0.9214
-7.0874 19.0187 -2.4109 0.9215
-7.4452 18.8392 -2.4069 0.9216
-7.8209 18.6552 -2.4028 0.9217
-8.5566 18.3063 -2.4003 0.9218
-8.9239 18.1313 -2.4005 0.9218
-9.2875 17.9489 -2.4006 0.9218
-10.2963 17.2587 -2.3872 0.9222
-10.9111 16.7204 -2.3716 0.9227
-11.8249 15.9296 -2.3566 0.9232
-12.1306 15.6720 -2.3541 0.9233
-12.7295 15.1447 -2.3500 0.9234
-13.0218 14.8739 -2.3482 0.9235
-13.5951 14.3220 -2.3457 0.9235
-14.1405 13.7435 -2.3423 0.9236
-14.6630 13.1458 -2.3393 0.9237
-14.9155 12.8402 -2.3378 0.9238
-15.4191 12.2283 -2.3376 0.9238
-15.6612 11.9147 -2.3375 0.9238
-15.8969 11.5963 -2.3374 0.9238
-16.1262 11.2733 -2.3372 0.9238
-16.3489 10.9457 -2.3371 0.9238
-16.5650 10.6137 -2.3370 0.9238
-16.9771 9.9373 -2.3367 0.9238
-17.7182 8.5379 -2.3363 0.9238
-17.8858 8.1791 -2.3362 0.9238
-18.0461 7.8171 -2.3361 0.9238
-14.0624 5.1072 -1.7772 0.9415
-14.3558 4.5686 -1.7895 0.9411
-14.9333 4.4234 -1.8500 0.9392
-15.5417 4.2652 -1.9144 0.9371
-20.4881 4.3122 -2.4870 0.9191
-20.5705 3.8988 -2.4870 0.9191
-19.8759 3.3541 -2.3944 0.9220
-20.7104 3.0675 -2.4869 0.9191
-20.8575 1.8118 -2.4869 0.9191
-20.8898 1.3915 -2.4869 0.9191
-20.9361 0.1280 -2.4870 0.9191
-20.9347 -0.2935 -2.4870 0.9191
-20.9248 -0.7149 -2.4870 0.9191
-20.8797 -1.5567 -2.4871 0.9191
-20.8010 -2.3960 -2.4872 0.9191
-20.6888 -3.2316 -2.4873 0.9191
-20.3644 -4.8861 -2.4877 0.9191
-20.2627 -5.2952 -2.4878 0.9191
