ply
format ascii 1.0
element vertex 1536
property float32 x
property float32 y
property float32 z
property float32 I
end_header
-30.3469 -22.7036 2.3502 0.8591
-26.8574 -22.7427 2.1823 0.8685
-23.8227 -22.7766 2.0438 0.8763
-22.8589 -22.7524 2.0000 0.8787
-19.6566 -22.0795 1.8331 0.8883
-18.7524 -22.8512 1.8331 0.8883
-16.0541 -20.3856 1.6091 0.9012
-15.4321 -20.4278 1.5876 0.9025
-14.7756 -20.3988 1.5619 0.9040
-11.7721 -20.2619 1.4531 0.9104
-11.2196 -20.2370 1.4349 0.9114
-9.5746 -19.0367 1.3214 0.9181
-8.6386 -19.0472 1.2969 0.9196
-7.8071 -18.1767 1.2267 0.9238
-6.9660 -18.2042 1.2087 0.9249
-6.1474 -18.2291 1.1929 0.9258
-5.7455 -18.2407 1.1859 0.9262
-4.9546 -18.2621 1.1734 0.9270
-2.3232 -18.6133 1.1632 0.9276
-0.0661 -18.7576 1.1632 0.9276
0.3110 -18.7552 1.1632 0.9276
0.6881 -18.7451 1.1632 0.9276
1.0648 -18.7275 1.1632 0.9276
1.4412 -18.7023 1.1632 0.9276
2.1919 -18.6292 1.1632 0.9276
2.5661 -18.5814 1.1632 0.9276
2.9391 -18.5260 1.1632 0.9276
3.6816 -18.3929 1.1632 0.9276
4.0628 -18.3698 1.1666 0.9274
4.4518 -18.3688 1.1720 0.9271
4.8444 -18.3673 1.1779 0.9267
5.6420 -18.3629 1.1912 0.9259
6.0477 -18.3600 1.1987 0.9255
6.8749 -18.3527 1.2153 0.9245
7.7259 -18.3433 1.2342 0.9233
8.6067 -18.3364 1.2561 0.9220
11.5585 -21.1993 1.4973 0.9078
11.7665 -20.5849 1.4703 0.9094
12.3667 -20.6594 1.4931 0.9080
12.9687 -20.7085 1.5152 0.9067
14.8894 -20.8640 1.5895 0.9024
15.5671 -20.9113 1.6166 0.9008
16.2678 -20.9592 1.6452 0.8991
19.3426 -22.0377 1.8183 0.8891
20.1671 -21.1940 1.8142 0.8894
21.0044 -21.2033 1.8507 0.8873
21.8765 -21.2131 1.8896 0.8850
30.3643 -22.1042 2.3290 0.8603
33.1286 -22.1351 2.4707 0.8524
34.6421 -22.1521 2.5498 0.8481
89.8251 -32.5587 5.9247 0.6819
89.3496 -30.3681 5.8519 0.6851
41.5781 0.5906 2.5785 0.8465
52.3129 8.1719 3.2833 0.8088
49.2901 8.7184 3.1039 0.8182
32.2792 13.5051 2.1698 0.8692
31.2868 15.3678 2.1615 0.8696
53.7436 30.5509 3.8335 0.7806
4.1184 8.0924 0.5631 0.9643
1.8629 9.7258 0.6141 0.9611
1.6454 9.6349 0.6061 0.9616
-6.8065 31.4847 1.9975 0.8789
-18.0640 52.1329 3.4213 0.8016
-18.3662 41.8006 2.8312 0.8328
-18.2299 37.3375 2.5765 0.8466
-18.6383 36.3038 2.5306 0.8491
-18.4484 34.2223 2.4108 0.8557
-18.4836 32.6960 2.3290 0.8603
-18.3527 30.9929 2.2336 0.8656
-18.3453 29.6061 2.1598 0.8697
-21.8031 29.5809 2.2787 0.8631
-22.9718 29.8891 2.3376 0.8598
-12.4393 15.5286 1.2338 0.9234
-26.0128 29.9232 2.4587 0.8531
-27.3031 30.1607 2.5228 0.8496
-30.6193 29.9748 2.6571 0.8422
-32.0045 30.0947 2.7242 0.8386
-33.2219 30.0040 2.7759 0.8358
-37.2126 32.2736 3.0545 0.8209
-36.2917 30.2180 2.9284 0.8276
-38.2527 29.3290 2.9890 0.8243
-40.9128 27.6186 3.0610 0.8205
-15.8641 8.1212 1.1052 0.9311
-48.1717 23.4502 3.3223 0.8068
-65.2856 28.5943 4.4197 0.7515
-75.4580 31.2568 5.0647 0.7208
-74.1867 28.9967 4.9393 0.7267
-71.6882 26.3712 4.7367 0.7363
-82.1060 26.5073 5.3502 0.7077
-79.7974 22.2620 5.1372 0.7175
-35.9111 9.2445 2.2995 0.8619
-42.6950 10.0800 2.7203 0.8388
-35.8955 6.9642 2.2674 0.8637
-90.2604 -17.3981 5.7001 0.6918
-75.2282 -17.6647 4.7918 0.7337
-71.0624 -18.2016 4.5489 0.7453
-71.0796 -19.7371 4.5744 0.7441
-71.2289 -21.3301 4.6107 0.7423
-71.1146 -22.8637 4.6321 0.7413
-71.3270 -26.1402 4.7107 0.7375
-71.1690 -27.7177 4.7361 0.7363
-71.1877 -29.3867 4.7757 0.7344
-71.3832 -31.1617 4.8299 0.7319
-71.2262 -32.8136 4.8629 0.7303
-71.3063 -40.0869 5.0726 0.7205
-71.3279 -42.0084 5.1332 0.7177
-71.5495 -46.1106 5.2784 0.7110
-33.6632 -22.6653 2.5165 0.8499
-30.9474 -22.6969 2.3798 0.8574
-28.4661 -22.6921 2.2574 0.8642
-27.3327 -22.7022 2.2033 0.8673
-26.2948 -22.7490 2.1561 0.8699
-25.2247 -22.7258 2.1054 0.8728
-24.2387 -22.7369 2.0608 0.8753
-22.4190 -22.7923 1.9825 0.8797
-20.0477 -22.0919 1.8499 0.8873
-19.2296 -22.0662 1.8150 0.8893
-15.7242 -20.4078 1.5976 0.9019
-14.4378 -20.3837 1.5490 0.9047
-13.8148 -20.3600 1.5257 0.9061
-13.1600 -20.2601 1.4981 0.9077
-12.0223 -20.2465 1.4601 0.9099
-10.3262 -20.0536 1.3987 0.9136
-8.0097 -18.1698 1.2313 0.9235
-7.5831 -18.1842 1.2217 0.9241
-6.7483 -18.2110 1.2043 0.9251
-6.3392 -18.2234 1.1965 0.9256
-5.5355 -18.2465 1.1824 0.9264
-5.1402 -18.2572 1.1761 0.9268
-3.2456 -18.4748 1.1632 0.9276
-2.8735 -18.5363 1.1632 0.9276
-1.7507 -18.6758 1.1632 0.9276
-1.3749 -18.7073 1.1632 0.9276
-0.2446 -18.7561 1.1632 0.9276
0.1326 -18.7573 1.1632 0.9276
0.5097 -18.7508 1.1632 0.9276
0.8866 -18.7368 1.1632 0.9276
1.2632 -18.7152 1.1632 0.9276
1.6392 -18.6860 1.1632 0.9276
2.7628 -18.5532 1.1632 0.9276
3.1353 -18.4939 1.1632 0.9276
3.8799 -18.3702 1.1643 0.9275
4.2673 -18.3694 1.1694 0.9272
5.0528 -18.3663 1.1812 0.9265
7.9545 -18.3404 1.2397 0.9230
8.8462 -18.3391 1.2626 0.9216
9.7730 -19.2608 1.3393 0.9171
13.9239 -20.7868 1.5515 0.9046
14.5390 -20.7885 1.5731 0.9033
15.2443 -20.8897 1.6036 0.9015
9.1971 -12.0851 0.9417 0.9410
16.6478 -20.9860 1.6611 0.8982
18.2480 -22.0765 1.7761 0.8916
19.7823 -21.1897 1.7976 0.8903
20.6041 -21.1989 1.8332 0.8883
21.4593 -21.2084 1.8709 0.8861
22.3509 -21.2184 1.9111 0.8838
24.3147 -21.2910 2.0041 0.8785
27.3496 -22.0704 2.1793 0.8686
31.0613 -22.1119 2.3643 0.8583
32.4447 -22.1274 2.4353 0.8544
33.9141 -22.1439 2.5116 0.8502
91.8621 -38.5647 6.1780 0.6708
91.0220 -29.8646 5.9404 0.6812
92.2651 -28.2307 5.9832 0.6793
50.5758 7.4084 3.1697 0.8148
-8.0909 -22.4126 0.9396 0.9090
-6.7202 -22.8429 0.9389 0.9091
-5.7359 -22.8540 0.9291 0.9100
-5.2199 -22.7238 0.9194 0.9109
-3.3496 -22.8807 0.9118 0.9116
-2.4071 -19.1170 0.7598 0.9258
-1.9518 -22.8964 0.9061 0.9121
-1.0274 -22.9068 0.9041 0.9123
-0.1056 -22.9171 0.9037 0.9123
0.8168 -22.9274 0.9046 0.9123
1.7426 -22.9378 0.9071 0.9120
3.0876 -22.5378 0.8970 0.9130
3.5515 -22.5430 0.8999 0.9127
5.0552 -22.9749 0.9276 0.9101
5.5431 -22.9804 0.9321 0.9097
7.0386 -22.9971 0.9483 0.9082
8.0673 -23.0087 0.9614 0.9070
8.5928 -23.0146 0.9687 0.9063
9.1533 -21.7981 0.9322 0.9097
9.0077 -19.2449 0.8379 0.9185
9.4903 -19.2577 0.8465 0.9176
9.9793 -19.2631 0.8554 0.9168
9.6358 -17.7185 0.7953 0.9224
9.6840 -16.9842 0.7709 0.9247
9.6700 -16.1940 0.7437 0.9273
12.6251 -19.3322 0.9104 0.9117
13.2283 -19.3927 0.9256 0.9103
13.8617 -19.4685 0.9424 0.9088
14.5182 -19.5465 0.9601 0.9071
15.8228 -19.6041 0.9934 0.9041
16.5306 -19.6589 1.0128 0.9023
19.3452 -22.0888 1.1578 0.8891
21.0299 -21.2750 1.1796 0.8871
21.8786 -21.2612 1.2029 0.8850
22.7616 -21.2463 1.2277 0.8828
24.6784 -21.2445 1.2840 0.8778
31.1391 -23.6936 1.5429 0.8550
32.5897 -23.7781 1.5907 0.8509
88.8051 -34.3346 3.7543 0.6831
89.3484 -30.4755 3.7224 0.6853
91.1375 -29.0536 3.7719 0.6819
93.0862 -27.6257 3.8287 0.6779
94.3994 -25.9620 3.8605 0.6758
41.5272 0.5450 1.6376 0.8468
48.2966 7.4910 1.9272 0.8223
48.1216 8.4580 1.9266 0.8224
47.9462 9.4247 1.9267 0.8223
23.5163 7.1364 0.9690 0.9063
32.3170 14.2493 1.3927 0.8682
31.9822 14.8768 1.3908 0.8683
31.2994 15.3320 1.3743 0.8698
31.5298 16.2390 1.3985 0.8676
53.7934 30.5023 2.4384 0.7807
33.7751 30.6550 1.7985 0.8331
23.5694 24.1388 1.3303 0.8737
22.8099 24.3205 1.3148 0.8750
24.2394 30.4123 1.5335 0.8558
4.1316 8.0966 0.3584 0.9643
1.8718 9.7150 0.3901 0.9612
1.3125 10.0385 0.3992 0.9603
-6.7532 31.4029 1.2666 0.8793
-17.9715 52.0478 2.1712 0.8022
-18.1306 46.3747 1.9634 0.8193
-18.2739 41.7129 1.7957 0.8333
-18.1125 39.1816 1.7021 0.8413
-18.2402 37.4613 1.6429 0.8464
-18.4789 32.7706 1.4835 0.8602
-18.4965 31.3130 1.4340 0.8645
-19.1689 29.6596 1.3925 0.8682
-20.9192 29.6783 1.4317 0.8647
-22.7739 29.6980 1.4757 0.8609
-24.9092 29.9108 1.5348 0.8557
-30.5525 29.9741 1.6877 0.8425
-32.5770 29.4855 1.7326 0.8387
-33.9427 29.5020 1.7733 0.8352
-38.0385 29.2301 1.8916 0.8253
-38.9606 28.7114 1.9083 0.8239
-39.8995 28.1833 1.9262 0.8224
-41.8330 27.0957 1.9653 0.8191
-42.8303 26.5346 1.9867 0.8173
-44.8937 25.3740 2.0334 0.8135
-45.9631 24.7725 2.0588 0.8114
-32.3473 15.7900 1.4193 0.8658
-63.8841 29.6090 2.7764 0.7544
-76.8700 33.7671 3.3106 0.7146
-75.8012 31.4950 3.2367 0.7199
-74.2534 29.1153 3.1449 0.7267
-83.3590 27.0114 3.4552 0.7041
-79.9400 20.6708 3.2558 0.7185
-93.8545 20.2813 3.7862 0.6809
-71.8210 -12.2717 2.8730 0.7470
-90.5879 -17.3597 3.6370 0.6913
-75.2553 -17.5852 3.0473 0.7339
-71.0614 -18.1194 2.8917 0.7456
-71.1879 -21.2339 2.9292 0.7428
-71.1136 -22.7786 2.9444 0.7416
-71.1315 -24.3717 2.9649 0.7401
-71.3260 -26.0523 2.9942 0.7379
-71.1680 -27.6288 3.0103 0.7367
-71.1867 -29.2963 3.0354 0.7348
-71.3822 -31.0695 3.0697 0.7322
-71.2251 -32.7199 3.0906 0.7307
-71.2448 -34.4803 3.1210 0.7284
-71.2842 -38.1098 3.1873 0.7236
-71.5482 -46.0005 3.3540 0.7114
-32.0683 -24.4707 1.5906 0.8509
-29.4790 -24.4311 1.5097 0.8579
-28.2546 -24.3912 1.4718 0.8612
-24.4650 -21.9936 1.2972 0.8766
-23.5085 -22.0043 1.2697 0.8791
-22.5914 -22.0146 1.2438 0.8814
-20.0468 -22.0431 1.1749 0.8876
-15.9906 -19.0702 0.9813 0.9052
-13.4480 -18.9429 0.9160 0.9112
-12.8796 -18.9376 0.9031 0.9124
-10.8207 -20.9581 0.9300 0.9099
-8.4221 -19.0496 0.8213 0.9200
-8.2494 -22.1884 0.9334 0.9096
-7.9115 -22.6646 0.9466 0.9084
-7.4593 -22.8347 0.9472 0.9083
-6.9561 -22.8403 0.9415 0.9088
-6.4588 -22.8459 0.9361 0.9093
-5.4404 -22.6923 0.9201 0.9108
-4.9973 -22.8623 0.9228 0.9106
-4.5187 -22.8676 0.9191 0.9109
-4.0437 -22.8729 0.9159 0.9112
-3.5719 -22.8782 0.9130 0.9115
-1.7078 -22.8991 0.9054 0.9122
-0.3236 -22.9146 0.9036 0.9123
1.0602 -22.9302 0.9051 0.9122
1.5231 -22.9353 0.9064 0.9121
2.4537 -22.9458 0.9099 0.9118
2.9102 -22.8579 0.9086 0.9119
3.2303 -19.1802 0.7669 0.9251
4.8260 -22.9723 0.9256 0.9103
8.8091 -22.8520 0.9657 0.9066
9.1468 -22.3767 0.9532 0.9078
9.1602 -21.1830 0.9100 0.9118
8.8823 -19.4570 0.8433 0.9179
9.2624 -19.2551 0.8425 0.9180
9.7466 -19.2605 0.8512 0.9172
9.6672 -16.5450 0.7556 0.9262
14.2065 -19.5119 0.9517 0.9079
15.4996 -19.5820 0.9847 0.9049
16.1922 -19.6326 1.0035 0.9031
19.6692 -21.9843 1.1632 0.8886
22.3394 -21.2535 1.2158 0.8839
23.2415 -21.2379 1.2414 0.8816
27.8390 -23.4564 1.4354 0.8644
30.3947 -23.5871 1.5170 0.8573
91.8944 -38.6952 3.9316 0.6709
88.7942 -35.3050 3.7678 0.6821
88.8397 -31.2486 3.7134 0.6859
91.0208 -29.9732 3.7786 0.6814
91.9625 -28.2469 3.7934 0.6804
41.5494 0.1500 1.6383 0.8468
23.8231 6.9827 0.9790 0.9054
23.4555 7.3902 0.9697 0.9062
74.3260 30.1756 3.1632 0.7253
32.3813 13.9113 1.3897 0.8684
32.1405 14.5801 1.3916 0.8682
23.0706 24.1342 1.3165 0.8749
21.0277 24.8364 1.2832 0.8779
13.7120 30.6197 1.3229 0.8743
1.7550 9.6586 0.3871 0.9615
-6.4494 31.4428 1.2656 0.8794
-18.3820 58.8295 2.4303 0.7814
-18.0940 54.0641 2.2480 0.7959
-18.2299 45.2104 1.9222 0.8227
-18.2562 42.7752 1.8339 0.8301
-18.2868 40.5674 1.7546 0.8368
-18.1739 38.2453 1.6697 0.8441
-18.4702 33.4959 1.5083 0.8580
-18.7282 29.5915 1.3809 0.8692
-19.6207 29.6645 1.4024 0.8673
-20.4963 29.6738 1.4221 0.8656
-23.2820 29.7034 1.4881 0.8598
-26.5218 29.9289 1.5768 0.8521
-27.6273 29.9413 1.6064 0.8495
-31.0099 29.7846 1.6954 0.8419
-33.2887 29.4941 1.7537 0.8369
-37.6078 29.4723 1.8840 0.8259
-38.5224 28.9579 1.9003 0.8245
-40.4015 27.9009 1.9360 0.8216
-41.3685 27.3569 1.9556 0.8199
-45.4538 25.0589 2.0466 0.8124
-18.9206 9.9403 0.8428 0.9180
-19.0518 9.5254 0.8399 0.9183
-76.7526 30.9408 3.2631 0.7180
-72.7491 24.3404 3.0249 0.7356
-81.7301 25.5299 3.3763 0.7098
-79.6092 23.1212 3.2688 0.7176
-74.3585 9.1015 2.9539 0.7409
-81.8368 -11.5000 3.2586 0.7183
-71.8483 -11.5740 2.8696 0.7473
-71.8595 -13.0633 2.8799 0.7465
-85.9251 -17.4119 3.4570 0.7040
-78.2288 -17.4969 3.1609 0.7255
-71.7492 -17.5695 2.9127 0.7440
-71.2466 -18.9726 2.9072 0.7444
-71.0878 -20.4696 2.9170 0.7437
-71.1053 -22.0322 2.9353 0.7423
-71.1410 -25.2202 2.9762 0.7392
-71.1593 -26.8492 2.9990 0.7375
-71.1967 -30.1864 3.0493 0.7338
-71.2907 -33.6692 3.1088 0.7293
-71.2757 -37.2377 3.1709 0.7248
-71.4932 -41.0919 3.2515 0.7189
-71.3382 -42.9338 3.2831 0.7166
-71.3835 -46.9708 3.3694 0.7103
-31.3833 -24.4784 1.5694 0.8527
-30.0986 -24.4654 1.5294 0.8562
-27.6198 -24.3586 1.4521 0.8629
-23.9559 -21.9993 1.2825 0.8779
-23.0206 -22.0098 1.2559 0.8803
-22.1229 -22.0198 1.2308 0.8825
-21.2601 -22.0295 1.2072 0.8847
-19.6284 -22.0478 1.1640 0.8885
-18.8549 -22.0565 1.1442 0.8903
-14.9511 -18.9850 0.9529 0.9078
-14.3251 -18.9624 0.9371 0.9093
-12.5729 -18.9146 0.8956 0.9131
-11.9962 -18.8587 0.8813 0.9144
-11.4454 -18.8179 0.8685 0.9156
-10.9186 -18.7928 0.8570 0.9167
-11.0730 -20.9553 0.9346 0.9095
-8.1831 -19.0523 0.8176 0.9203
-8.2280 -20.2713 0.8627 0.9161
-8.2422 -21.5393 0.9094 0.9118
-8.0637 -22.4129 0.9392 0.9091
-7.1934 -22.8376 0.9441 0.9086
-4.7447 -22.8651 0.9208 0.9108
-4.2681 -22.8704 0.9174 0.9111
-3.3244 -22.8810 0.9117 0.9116
-2.3475 -22.4769 0.8911 0.9135
-1.9269 -22.8967 0.9060 0.9121
-1.0026 -22.9070 0.9041 0.9123
0.8416 -22.9277 0.9047 0.9122
1.7676 -22.9381 0.9072 0.9120
2.7001 -22.9485 0.9111 0.9117
3.0854 -19.4480 0.7764 0.9242
3.4401 -19.1826 0.7685 0.9250
4.5978 -22.9698 0.9237 0.9105
5.5695 -22.9806 0.9324 0.9097
6.0626 -22.9862 0.9374 0.9092
6.5613 -22.9918 0.9428 0.9087
7.0659 -22.9974 0.9486 0.9082
7.5771 -23.0032 0.9550 0.9076
8.0954 -23.0090 0.9618 0.9070
8.9897 -22.6040 0.9592 0.9072
9.6703 -16.1548 0.7424 0.9274
12.0785 -19.2871 0.8973 0.9129
12.6570 -19.3353 0.9112 0.9116
15.1903 -19.5710 0.9769 0.9056
19.9010 -21.7747 1.1632 0.8886
21.0747 -21.2743 1.1808 0.8870
21.9252 -21.2604 1.2042 0.8849
23.7374 -21.2340 1.2558 0.8803
28.5110 -23.5106 1.4571 0.8625
32.6678 -23.7810 1.5933 0.8507
69.2651 -28.3062 2.9505 0.7412
88.8290 -32.1977 3.7256 0.6851
91.3287 -29.0059 3.7784 0.6814
94.4006 -25.8526 3.8594 0.6758
50.9443 6.9118 2.0272 0.8140
48.2872 7.5430 1.9271 0.8223
48.1121 8.5099 1.9266 0.8224
47.9367 9.4767 1.9268 0.8223
23.5101 7.1623 0.9691 0.9063
31.9642 14.9104 1.3908 0.8683
31.4819 15.4637 1.3830 0.8690
53.7595 30.5599 2.4384 0.7807
22.6179 25.1637 1.3341 0.8733
4.1178 8.0911 0.3580 0.9643
14.1278 30.7606 1.3347 0.8733
1.8598 9.7093 0.3898 0.9612
1.6434 9.6229 0.3849 0.9617
1.3279 10.2420 0.4072 0.9595
-6.7946 31.4300 1.2679 0.8792
-17.9735 51.8715 2.1647 0.8027
-18.1137 39.0732 1.6982 0.8416
-18.2476 37.3737 1.6400 0.8466
-14.7270 28.6852 1.2714 0.8789
-18.4612 34.2460 1.5341 0.8558
-18.4799 32.6896 1.4807 0.8604
-18.4974 31.2373 1.4315 0.8647
-20.9676 29.6788 1.4329 0.8646
-27.0991 29.9354 1.5922 0.8507
-28.2267 29.9480 1.6227 0.8481
-37.1805 29.7128 1.8767 0.8265
-38.0876 29.2025 1.8925 0.8252
-39.9504 28.1546 1.9272 0.8223
-43.9055 25.9299 2.0106 0.8154
-44.9505 25.3421 2.0347 0.8134
-46.0213 24.7397 2.0603 0.8113
-15.8624 8.1204 0.7026 0.9311
-32.3579 15.7520 1.4191 0.8658
-76.7961 33.6357 3.3059 0.7149
-75.8975 31.4389 3.2393 0.7197
-83.4672 26.9468 3.4585 0.7039
-80.1668 24.1126 3.3009 0.7153
-79.7973 22.2620 3.2666 0.7177
-94.2795 20.2666 3.8025 0.6797
-71.8444 -10.8731 2.8652 0.7476
-90.0904 -17.3653 3.6177 0.6926
-81.7027 -17.4593 3.2944 0.7157
-71.0624 -18.2016 2.8925 0.7455
-71.1888 -21.3181 2.9302 0.7427
-71.1146 -22.8637 2.9455 0.7415
-71.1325 -24.4581 2.9660 0.7400
-71.3270 -26.1402 2.9954 0.7378
-71.1690 -27.7176 3.0116 0.7366
-71.1877 -29.3867 3.0368 0.7347
-71.3832 -31.1617 3.0712 0.7321
-71.2262 -32.8136 3.0922 0.7306
-71.3213 -36.4021 3.1574 0.7258
-23.4583 -22.0049 1.2682 0.8792
-20.8186 -22.0344 1.1953 0.8857
-19.2176 -22.0524 1.1534 0.8895
-15.9529 -19.0670 0.9803 0.9053
-14.6186 -18.9729 0.9444 0.9086
-14.0039 -18.9513 0.9292 0.9100
-13.4171 -18.9425 0.9153 0.9113
-12.8495 -18.9374 0.9024 0.9125
-11.6998 -18.8304 0.8742 0.9151
-10.7922 -20.9585 0.9295 0.9099
-9.3246 -19.0395 0.8359 0.9186
-8.8569 -19.0448 0.8282 0.9194
-8.3977 -19.0499 0.8209 0.9200
-8.2353 -20.9227 0.8866 0.9139
-8.2503 -22.2643 0.9362 0.9093
-7.8842 -22.6649 0.9462 0.9084
-7.4321 -22.8350 0.9469 0.9083
-6.9293 -22.8406 0.9412 0.9089
-6.4323 -22.8462 0.9359 0.9094
-4.9715 -22.8626 0.9226 0.9106
-4.4931 -22.8679 0.9189 0.9109
-3.5466 -22.8785 0.9129 0.9115
-2.5708 -19.1152 0.7605 0.9257
-2.1307 -22.7294 0.9002 0.9127
-0.7597 -22.9097 0.9039 0.9123
-0.2988 -22.9149 0.9036 0.9123
0.1620 -22.9201 0.9038 0.9123
0.6232 -22.9253 0.9043 0.9123
2.4788 -22.9460 0.9100 0.9117
2.9261 -22.7860 0.9059 0.9121
3.3566 -22.5409 0.8986 0.9128
3.2517 -19.1805 0.7671 0.9251
5.3379 -22.9781 0.9302 0.9099
5.8286 -22.9836 0.9350 0.9094
6.8264 -22.9947 0.9458 0.9084
8.3715 -23.0121 0.9656 0.9066
9.1475 -22.3096 0.9508 0.9080
9.1608 -21.1219 0.9078 0.9120
8.8829 -19.4028 0.8414 0.9181
12.3781 -19.3077 0.9043 0.9123
14.2421 -19.5164 0.9527 0.9078
15.5351 -19.5833 0.9857 0.9048
16.9551 -19.6922 1.0246 0.9012
19.6929 -21.9631 1.1632 0.8886
20.1305 -21.5627 1.1632 0.8886
24.2562 -21.2398 1.2713 0.8789
30.4854 -23.6047 1.5203 0.8570
31.9666 -23.7391 1.5700 0.8527
68.9214 -30.5781 2.9731 0.7395
91.8621 -38.5647 3.9285 0.6711
88.7954 -35.1944 3.7663 0.6822
88.8409 -31.1411 3.7121 0.6860
91.0220 -29.8646 3.7773 0.6815
92.0473 -28.1640 3.7956 0.6802
93.8514 -26.6645 3.8471 0.6767
41.5277 0.1948 1.6375 0.8468
48.4292 7.0940 1.9300 0.8221
48.1950 8.0526 1.9267 0.8223
48.0198 9.0193 1.9266 0.8223
-8.2414 -21.4676 0.3884 0.9121
-7.7270 -22.8317 0.4072 0.9081
-7.2205 -22.8373 0.4046 0.9086
-6.7202 -22.8429 0.4022 0.9091
-4.7704 -22.8648 0.3945 0.9108
-3.8201 -22.8754 0.3918 0.9114
-1.9518 -22.8964 0.3882 0.9122
-1.4891 -22.9016 0.3877 0.9123
-0.5664 -22.9119 0.3871 0.9124
-0.1056 -22.9171 0.3871 0.9124
0.3528 -22.7572 0.3845 0.9130
0.8168 -22.9274 0.3875 0.9123
1.2791 -22.9326 0.3880 0.9122
2.2078 -22.9430 0.3893 0.9119
2.6750 -22.9482 0.3903 0.9117
3.5515 -22.5430 0.3855 0.9127
3.4186 -19.1823 0.3291 0.9250
5.5431 -22.9804 0.3993 0.9098
8.0673 -23.0087 0.4119 0.9071
8.5928 -23.0146 0.4150 0.9064
9.1661 -20.6551 0.3817 0.9136
9.0077 -19.2449 0.3589 0.9185
11.2640 -18.8635 0.3711 0.9159
11.7885 -18.8693 0.3758 0.9148
12.3267 -18.8754 0.3808 0.9138
13.4483 -18.8879 0.3917 0.9114
14.0339 -18.8945 0.3976 0.9101
15.2611 -18.9082 0.4104 0.9074
16.5726 -18.9229 0.4249 0.9043
23.6300 -25.9110 0.5924 0.8691
24.6127 -25.9220 0.6038 0.8668
24.9752 -23.3125 0.5771 0.8723
24.8471 -22.2751 0.5637 0.8750
25.7509 -22.1678 0.5740 0.8729
29.8784 -21.7999 0.6248 0.8625
31.1972 -21.8147 0.6430 0.8587
75.2965 -44.0963 1.4740 0.7053
75.3188 -42.0989 1.4575 0.7081
75.3408 -40.1447 1.4420 0.7107
75.3542 -38.2268 1.4273 0.7132
75.3805 -34.5027 1.4004 0.7177
75.4241 -32.7049 1.3887 0.7197
69.1117 -28.3308 1.2617 0.7417
75.5021 -25.7527 1.3475 0.7268
94.3994 -25.9620 1.6538 0.6759
41.5431 0.5452 0.7018 0.8469
48.8304 7.5738 0.8347 0.8206
48.4760 9.5288 0.8345 0.8207
23.4842 7.1267 0.4145 0.9065
50.9527 16.5883 0.9051 0.8070
33.7068 12.4937 0.6072 0.8661
13.9434 7.1814 0.2649 0.9392
12.3032 7.3070 0.2417 0.9444
12.6402 8.5783 0.2580 0.9407
12.3079 8.7192 0.2548 0.9414
33.4584 24.7281 0.7028 0.8467
33.7857 30.6645 0.7707 0.8332
22.8179 24.3291 0.5634 0.8751
20.5985 23.8132 0.5319 0.8816
20.9352 25.2096 0.5535 0.8771
20.0431 25.1474 0.5432 0.8793
4.1310 8.0953 0.1535 0.9643
13.4579 30.8355 0.5685 0.8741
1.8686 9.6985 0.1668 0.9613
1.4713 9.7271 0.1662 0.9614
-6.7415 31.3486 0.5416 0.8796
-18.2459 49.5873 0.8925 0.8095
-18.5499 42.3429 0.7809 0.8312
-18.3405 39.6749 0.7383 0.8396
-18.6909 36.5033 0.6927 0.8487
-18.5985 34.5904 0.6634 0.8546
-20.2034 29.9228 0.6099 0.8655
-22.0202 29.9432 0.6278 0.8618
-22.9701 29.9538 0.6376 0.8598
-25.0193 30.0430 0.6604 0.8552
-27.1592 30.0670 0.6844 0.8504
-28.2895 30.0797 0.6975 0.8477
-29.4644 30.0929 0.7114 0.8449
-32.0371 30.1907 0.7436 0.8385
-33.2356 30.0816 0.7572 0.8358
-37.1321 29.7399 0.8036 0.8267
-38.9606 28.7114 0.8175 0.8240
-39.8995 28.1833 0.8252 0.8225
-41.8330 27.0957 0.8419 0.8192
-15.8531 8.1373 0.3010 0.9312
-63.8841 29.6090 1.1894 0.7545
-76.8700 33.7671 1.4182 0.7147
-76.1048 31.6211 1.3921 0.7191
-74.2534 29.1153 1.3472 0.7268
-71.7506 26.4821 1.2919 0.7364
-72.1129 24.9803 1.2891 0.7369
-81.1536 24.5050 1.4320 0.7124
-42.5221 10.0877 0.7382 0.8396
-45.6355 7.9561 0.7825 0.8308
-77.5288 10.3244 1.3212 0.7313
-71.8166 -12.2709 1.2307 0.7472
-90.5878 -17.3597 1.5580 0.6914
-82.1150 -17.4547 1.4181 0.7147
-70.9406 -18.0886 1.2367 0.7461
-70.9263 -19.6119 1.2430 0.7450
-71.1136 -22.7786 1.2614 0.7418
-70.9791 -24.3195 1.2674 0.7407
-71.2057 -30.9927 1.3118 0.7330
-71.3267 -41.9040 1.3974 0.7182
-32.0209 -22.4565 0.6606 0.8552
-30.7046 -22.4678 0.6427 0.8588
-29.4619 -22.4818 0.6260 0.8622
-27.1580 -22.5076 0.5958 0.8684
-28.7113 -24.7855 0.6407 0.8592
-24.4630 -22.8977 0.5660 0.8745
-24.5615 -23.9344 0.5793 0.8718
-24.5726 -24.9279 0.5913 0.8693
-23.3054 -26.6849 0.5985 0.8678
-22.3843 -26.6952 0.5885 0.8699
-18.4886 -22.9719 0.4981 0.8887
-14.3811 -18.6230 0.3975 0.9102
-14.8467 -20.9130 0.4332 0.9025
-14.2278 -20.9200 0.4274 0.9037
-11.6181 -18.6539 0.3712 0.9158
-12.4646 -20.9397 0.4116 0.9071
-10.6083 -18.6653 0.3627 0.9177
-10.8207 -20.9581 0.3984 0.9100
-9.3500 -19.0392 0.3583 0.9186
-8.8818 -19.0445 0.3550 0.9194
-8.2494 -22.1884 0.3999 0.9096
-7.4593 -22.8347 0.4058 0.9084
-6.9561 -22.8403 0.4033 0.9089
-5.9669 -22.8514 0.3989 0.9098
-5.4404 -22.6923 0.3942 0.9109
-4.9973 -22.8623 0.3953 0.9106
-4.0437 -22.8729 0.3924 0.9113
-2.5918 -19.1150 0.3258 0.9257
-2.2019 -19.1193 0.3251 0.9259
-2.1555 -22.7291 0.3857 0.9127
-0.7844 -22.9095 0.3872 0.9124
-0.3236 -22.9146 0.3871 0.9124
0.1373 -22.9198 0.3872 0.9124
0.5984 -22.9250 0.3874 0.9123
1.0602 -22.9302 0.3877 0.9123
1.5231 -22.9353 0.3883 0.9121
1.9875 -22.9405 0.3890 0.9120
2.4537 -22.9458 0.3898 0.9118
3.2303 -19.1802 0.3286 0.9251
3.6321 -19.2002 0.3301 0.9248
5.8021 -22.9833 0.4004 0.9095
6.2525 -22.8233 0.3997 0.9097
8.3432 -23.0117 0.4135 0.9067
9.1468 -22.3767 0.4083 0.9078
10.2411 -19.2661 0.3686 0.9164
11.8231 -21.2023 0.4101 0.9074
12.3922 -21.2086 0.4149 0.9064
11.5387 -18.8665 0.3736 0.9153
12.0703 -18.8725 0.3784 0.9143
12.6162 -18.8786 0.3835 0.9132
9.1832 -12.0939 0.2565 0.9411
16.2540 -18.9194 0.4213 0.9050
24.9807 -22.8272 0.5716 0.8734
28.6246 -24.1184 0.6323 0.8609
29.2801 -21.7932 0.6166 0.8641
75.2388 -49.2425 1.5189 0.6979
75.2625 -47.1242 1.5000 0.7010
75.3083 -43.0383 1.4652 0.7068
75.3304 -41.0640 1.4492 0.7095
75.4545 -30.0011 1.3716 0.7226
75.4739 -28.2650 1.3614 0.7244
75.4931 -26.5540 1.3518 0.7260
75.5120 -24.8662 1.3429 0.7276
93.8502 -26.7739 1.6485 0.6768
41.5437 0.1500 0.7018 0.8469
49.0533 7.1312 0.8373 0.8201
48.5599 9.0664 0.8344 0.8207
33.9535 12.2190 0.6095 0.8656
31.5515 12.0765 0.5707 0.8736
30.8422 12.5216 0.5623 0.8753
31.7099 15.9519 0.5996 0.8676
13.5858 7.1803 0.2596 0.9404
12.5348 7.2841 0.2449 0.9437
12.1783 7.4085 0.2408 0.9446
12.8687 8.5557 0.2610 0.9401
12.3918 8.6028 0.2548 0.9414
33.4327 25.2610 0.7078 0.8457
22.6023 24.6167 0.5645 0.8749
20.9383 23.7456 0.5348 0.8810
22.4415 26.5062 0.5867 0.8703
20.3495 25.0393 0.5450 0.8789
19.7737 25.3559 0.5431 0.8793
19.7198 26.3632 0.5561 0.8766
1.9748 9.7498 0.1680 0.9610
1.5567 9.6688 0.1654 0.9616
-14.3223 77.7342 1.3352 0.7289
-18.1972 58.2380 1.0306 0.7834
-18.2445 54.5140 0.9710 0.7946
-18.2819 51.1825 0.9181 0.8046
-14.5534 38.2953 0.6920 0.8488
-18.3676 43.0362 0.7904 0.8293
-18.3927 40.8024 0.7560 0.8361
-18.3929 35.0022 0.6679 0.8537
-20.6719 29.9281 0.6144 0.8646
-24.5347 30.0376 0.6551 0.8563
-30.1026 30.1000 0.7191 0.8434
-31.4255 30.1839 0.7360 0.8400
-36.7085 29.9782 0.8006 0.8273
-40.4014 27.9009 0.8294 0.8217
-42.3559 26.8016 0.8467 0.8183
-43.3647 26.2341 0.8561 0.8165
-44.3969 25.6535 0.8661 0.8145
-18.9153 9.9375 0.3609 0.9181
-48.7927 23.1808 0.9125 0.8056
-64.6917 29.1547 1.1986 0.7529
-76.1542 32.4945 1.3986 0.7180
-72.3074 27.4720 1.3066 0.7339
-73.3476 24.5407 1.3065 0.7339
-79.6092 23.1212 1.4003 0.7177
-80.3935 19.8818 1.3989 0.7180
-42.5946 9.6294 0.7377 0.8397
-46.5220 9.5383 0.8022 0.8270
-95.9761 9.7932 1.6296 0.6798
-95.2598 -17.3172 1.6355 0.6789
-71.2788 -17.4543 1.2396 0.7456
-70.9497 -18.8936 1.2402 0.7455
-70.9886 -25.1662 1.2722 0.7398
-71.1593 -26.8492 1.2847 0.7377
-71.1778 -28.5039 1.2951 0.7358
-71.1967 -30.1864 1.3063 0.7339
-71.2159 -31.8987 1.3181 0.7319
-71.2355 -33.6431 1.3307 0.7297
-71.2554 -35.4220 1.3441 0.7274
-71.2952 -39.0924 1.3735 0.7223
-71.3164 -40.9904 1.3895 0.7196
-71.3835 -46.9708 1.4434 0.7105
-31.3162 -22.4610 0.6510 0.8571
-30.0417 -22.4753 0.6338 0.8606
-28.8325 -22.4888 0.6177 0.8639
-27.6828 -22.5017 0.6026 0.8670
-24.9286 -22.8924 0.5717 0.8734
-24.5564 -23.4781 0.5739 0.8729
-24.5673 -24.4528 0.5855 0.8705
-24.5787 -25.4682 0.5979 0.8680
-15.2743 -18.6130 0.4067 0.9082
-15.7907 -20.9025 0.4425 0.9005
-15.1456 -20.9097 0.4361 0.9019
-12.9377 -18.6392 0.3833 0.9132
-13.3139 -20.9302 0.4190 0.9055
-10.8430 -18.6626 0.3646 0.9173
-9.1022 -19.0420 0.3565 0.9190
-8.6386 -19.0472 0.3533 0.9197
-8.2280 -20.2713 0.3696 0.9162
-8.2422 -21.5393 0.3896 0.9119
-8.0637 -22.4129 0.4024 0.9091
-7.6996 -22.8320 0.4070 0.9081
-7.1934 -22.8376 0.4045 0.9087
-5.7097 -22.8543 0.3979 0.9101
-3.7948 -22.8757 0.3917 0.9114
-3.3244 -22.8810 0.3906 0.9117
-1.0026 -22.9070 0.3873 0.9124
-0.5416 -22.9122 0.3871 0.9124
0.8416 -22.9277 0.3876 0.9123
1.7676 -22.9381 0.3886 0.9121
2.2328 -22.9433 0.3894 0.9119
2.7001 -22.9485 0.3903 0.9117
3.1125 -22.5381 0.3843 0.9130
3.0854 -19.4480 0.3326 0.9242
3.4401 -19.1826 0.3292 0.9250
5.0813 -22.9752 0.3975 0.9102
6.0626 -22.9862 0.4016 0.9093
6.5613 -22.9918 0.4039 0.9088
7.0659 -22.9974 0.4064 0.9082
8.0954 -23.0090 0.4120 0.9070
9.1540 -21.7340 0.3984 0.9100
9.1667 -20.5964 0.3808 0.9138
9.0332 -19.2452 0.3591 0.9185
10.0059 -19.2634 0.3667 0.9168
9.6496 -17.6982 0.3405 0.9225
14.0659 -18.8948 0.3979 0.9101
14.6708 -18.9016 0.4042 0.9087
16.6091 -18.9233 0.4253 0.9042
23.6819 -25.9116 0.5930 0.8690
24.6667 -25.9226 0.6044 0.8666
24.9652 -24.2082 0.5874 0.8701
24.9758 -23.2625 0.5765 0.8724
25.8081 -22.1684 0.5747 0.8727
29.2566 -24.1255 0.6405 0.8592
28.6973 -21.7867 0.6086 0.8658
31.2704 -21.8155 0.6441 0.8585
75.2514 -48.1197 1.5088 0.6995
75.2748 -46.0290 1.4904 0.7026
75.3200 -41.9927 1.4567 0.7082
75.3419 -40.0408 1.4412 0.7108
75.3633 -38.1290 1.4267 0.7133
75.4648 -29.0831 1.3661 0.7236
75.5031 -25.6620 1.3470 0.7269
93.4711 -27.6300 1.6464 0.6771
51.9644 5.9889 0.8836 0.8112
48.8209 7.6264 0.8347 0.8206
48.6437 8.6040 0.8344 0.8207
50.8251 16.6075 0.9032 0.8074
34.9768 12.2127 0.6258 0.8622
33.6789 12.5248 0.6070 0.8661
31.1752 12.3127 0.5662 0.8745
30.4766 12.7510 0.5580 0.8762
30.3330 13.4138 0.5602 0.8757
31.4670 15.4564 0.5922 0.8691
13.9124 7.1844 0.2645 0.9393
12.7726 7.2607 0.2482 0.9429
12.2773 7.3096 0.2414 0.9444
33.5064 23.7914 0.6941 0.8484
33.4891 24.8067 0.7040 0.8464
33.1903 25.6348 0.7084 0.8455
22.7959 24.3583 0.5635 0.8751
19.6055 25.6971 0.5460 0.8787
4.1171 8.0898 0.1533 0.9643
13.4559 30.9222 0.5696 0.8738
1.8566 9.6928 0.1667 0.9613
1.3217 10.1946 0.1736 0.9597
-6.2322 31.9235 0.5494 0.8780
-18.3071 49.5880 0.8929 0.8094
-18.3980 46.9090 0.8511 0.8174
-18.3550 44.1656 0.8079 0.8259
-19.3789 29.9136 0.6021 0.8671
-21.1475 29.9334 0.6191 0.8636
-22.0705 29.9437 0.6284 0.8617
-23.7496 29.6478 0.6417 0.8590
-25.0749 30.0436 0.6610 0.8551
-27.2189 30.0677 0.6851 0.8502
-29.5288 30.0936 0.7122 0.8448
-32.1074 30.1915 0.7445 0.8384
-33.3087 30.0824 0.7581 0.8356
-36.2879 30.2148 0.7976 0.8279
-37.1804 29.7127 0.8040 0.8266
-38.0876 29.2025 0.8107 0.8253
-39.0106 28.6833 0.8179 0.8239
-39.9504 28.1546 0.8256 0.8224
-22.4990 15.1882 0.4585 0.8971
-41.8861 27.0658 0.8424 0.8191
-43.9055 25.9299 0.8613 0.8155
-46.0213 24.7397 0.8826 0.8114
-15.8607 8.1195 0.3010 0.9312
-48.2479 23.4873 0.9064 0.8068
-63.9658 29.5630 1.1903 0.7543
-76.2035 31.5656 1.3933 0.7189
-71.6882 26.3712 1.2903 0.7367
-72.2090 24.9262 1.2904 0.7367
-79.8794 20.5631 1.3933 0.7189
-42.4550 10.0233 0.7369 0.8399
-46.8974 10.0812 0.8103 0.8254
-90.0904 -17.3653 1.5498 0.6928
-81.7027 -17.4593 1.4113 0.7159
-74.6827 -17.5366 1.2958 0.7357
-70.9800 -24.4057 1.2679 0.7406
-71.1506 -26.0756 1.2800 0.7385
-71.1690 -27.7176 1.2901 0.7367
-71.1877 -29.3868 1.3009 0.7348
-71.2262 -32.8136 1.3247 0.7307
-71.3063 -40.0869 1.3818 0.7209
-65.5451 -40.3993 1.3006 0.7349
-29.3969 -22.4825 0.6251 0.8624
-28.2197 -22.4957 0.6096 0.8656
-27.0991 -22.5082 0.5951 0.8685
-24.4107 -22.8983 0.5654 0.8747
-24.5621 -23.9868 0.5799 0.8717
-24.1648 -26.6289 0.6074 0.8660
-23.2551 -26.6854 0.5979 0.8680
-22.3357 -26.6958 0.5880 0.8700
-13.7663 -18.6299 0.3913 0.9115
-14.8130 -20.9134 0.4329 0.9026
-12.1131 -18.6484 0.3756 0.9149
-11.5904 -18.6543 0.3710 0.9159
-12.4341 -20.9401 0.4114 0.9072
-11.8748 -20.9463 0.4067 0.9082
-11.3278 -20.9525 0.4023 0.9091
-8.8569 -19.0448 0.3548 0.9194
-7.4321 -22.8350 0.4056 0.9084
-6.9293 -22.8406 0.4032 0.9089
-5.9406 -22.8517 0.3988 0.9099
-5.4146 -22.6926 0.3941 0.9109
-4.4931 -22.8679 0.3937 0.9110
-4.0183 -22.8732 0.3923 0.9113
-2.5708 -19.1152 0.3258 0.9257
-2.1810 -19.1196 0.3251 0.9259
-1.6830 -22.8994 0.3879 0.9122
-0.2988 -22.9149 0.3871 0.9124
0.1620 -22.9201 0.3872 0.9124
1.0851 -22.9304 0.3878 0.9123
1.5480 -22.9356 0.3883 0.9121
2.0125 -22.9408 0.3890 0.9120
2.4788 -22.9460 0.3899 0.9118
2.9261 -22.7860 0.3881 0.9122
3.3566 -22.5409 0.3850 0.9129
3.6588 -19.2275 0.3306 0.9247
6.2791 -22.8236 0.3999 0.9096
6.8264 -22.9947 0.4052 0.9085
8.3715 -23.0121 0.4136 0.9067
8.8376 -22.8523 0.4139 0.9066
8.8829 -19.4028 0.3604 0.9182
9.2882 -19.2554 0.3611 0.9180
9.7730 -19.2608 0.3648 0.9172
10.2680 -19.2664 0.3688 0.9164
12.4232 -21.2090 0.4152 0.9063
11.5669 -18.8668 0.3738 0.9153
12.0993 -18.8728 0.3787 0.9142
12.6459 -18.8789 0.3838 0.9131
13.7863 -18.8917 0.3950 0.9107
14.9972 -18.9053 0.4076 0.9080
16.9710 -18.9274 0.4294 0.9033
28.6884 -24.1191 0.6331 0.8608
29.3473 -21.7940 0.6175 0.8640
30.6349 -21.8084 0.6352 0.8603
31.9992 -21.8237 0.6543 0.8565
75.2401 -49.1272 1.5179 0.6980
75.2638 -47.0118 1.4990 0.7012
75.3316 -40.9591 1.4484 0.7096
75.3533 -39.0287 1.4334 0.7121
75.3745 -37.1370 1.4194 0.7145
75.3953 -35.2814 1.4061 0.7168
75.4555 -29.9071 1.3710 0.7227
75.4750 -28.1724 1.3608 0.7245
75.5130 -24.7760 1.3425 0.7276
75.5317 -23.1107 1.3343 0.7291
93.8514 -26.6645 1.6481 0.6768
41.5436 0.1949 0.7018 0.8469
51.9363 5.4856 0.8822 0.8115
51.9958 6.5514 0.8852 0.8109
49.0937 7.1913 0.8381 0.8200
48.5504 9.1190 0.8344 0.8207
24.6725 5.1498 0.4257 0.9041
-8.0909 -22.4126 -0.1342 0.9091
-7.2205 -22.8373 -0.1349 0.9086
-5.7359 -22.8540 -0.1327 0.9101
-5.2199 -22.7238 -0.1313 0.9110
-4.7704 -22.8648 -0.1315 0.9108
-3.8201 -22.8754 -0.1306 0.9114
-2.4071 -19.1170 -0.1085 0.9258
-1.9518 -22.8964 -0.1294 0.9122
-1.4891 -22.9016 -0.1292 0.9123
-0.5664 -22.9119 -0.1290 0.9124
0.3528 -22.7572 -0.1281 0.9130
0.8168 -22.9274 -0.1292 0.9123
3.0876 -22.5378 -0.1281 0.9130
3.5515 -22.5430 -0.1285 0.9128
5.0552 -22.9749 -0.1324 0.9102
5.5431 -22.9804 -0.1331 0.9098
7.5495 -23.0029 -0.1363 0.9077
8.9613 -22.6037 -0.1369 0.9073
9.1533 -21.7981 -0.1331 0.9098
9.9793 -19.2631 -0.1221 0.9169
9.6358 -17.7185 -0.1136 0.9225
12.0907 -21.2053 -0.1374 0.9070
12.6662 -21.2117 -0.1391 0.9059
14.4830 -21.2320 -0.1447 0.9023
18.5665 -22.0801 -0.1624 0.8910
19.3452 -22.0888 -0.1653 0.8892
23.6300 -25.9110 -0.1974 0.8691
24.9536 -25.2445 -0.1998 0.8676
25.7509 -22.1678 -0.1913 0.8729
75.2260 -50.3805 -0.5097 0.6962
75.2965 -44.0963 -0.4913 0.7054
75.3188 -42.0989 -0.4858 0.7081
75.3542 -38.2268 -0.4757 0.7132
75.3624 -32.6781 -0.4625 0.7199
75.4637 -29.1765 -0.4555 0.7235
75.4830 -27.4525 -0.4522 0.7252
74.8392 -25.5266 -0.4452 0.7288
75.4644 -22.3959 -0.4432 0.7299
80.1025 -22.0300 -0.4677 0.7173
86.8941 -22.0285 -0.5047 0.6987
94.6490 -12.1463 -0.5373 0.6827
82.4046 -5.5549 -0.4650 0.7187
75.3092 4.0207 -0.4246 0.7396
96.4474 7.0965 -0.5445 0.6792
51.7098 5.9029 -0.2930 0.8121
47.9022 8.4194 -0.2738 0.8232
23.4522 7.1170 -0.1379 0.9066
34.1446 12.6560 -0.2050 0.8645
30.9301 12.9014 -0.1887 0.8745
31.0441 13.6881 -0.1910 0.8731
31.5595 16.2543 -0.1999 0.8676
31.6155 17.0961 -0.2024 0.8661
14.2586 8.4683 -0.0934 0.9358
13.7135 8.5221 -0.0909 0.9375
12.7044 8.6218 -0.0864 0.9404
34.5597 24.4831 -0.2385 0.8442
23.3827 24.9313 -0.1924 0.8722
21.4532 24.8012 -0.1846 0.8771
21.5068 25.8979 -0.1895 0.8740
20.0333 25.1350 -0.1810 0.8794
4.1303 8.0940 -0.0512 0.9643
13.4373 30.7884 -0.1890 0.8743
1.6489 9.5927 -0.0548 0.9618
1.4695 9.7150 -0.0553 0.9615
1.3007 9.9479 -0.0565 0.9607
-18.4510 53.4364 -0.3180 0.7976
-18.2459 49.5873 -0.2975 0.8095
-18.5191 47.3684 -0.2861 0.8159
-18.3953 44.3982 -0.2706 0.8251
-18.9941 43.3569 -0.2665 0.8275
-18.3405 39.6749 -0.2461 0.8396
-18.6702 38.3445 -0.2401 0.8432
-18.6909 36.5033 -0.2309 0.8487
-18.5985 34.5904 -0.2211 0.8546
-18.7278 33.2118 -0.2147 0.8585
-18.4507 29.8482 -0.1976 0.8690
-19.3327 29.9130 -0.2005 0.8672
-25.1875 30.2449 -0.2216 0.8543
-27.3417 30.2691 -0.2297 0.8495
-33.2651 30.1083 -0.2526 0.8357
-38.6648 30.9675 -0.2789 0.8202
-38.1601 29.3235 -0.2710 0.8249
-22.4563 15.1947 -0.1527 0.8972
-41.9913 27.1982 -0.2817 0.8186
-46.1370 24.8662 -0.2951 0.8109
-62.5084 30.5129 -0.3916 0.7571
-76.1048 31.6211 -0.4640 0.7192
-71.7506 26.4822 -0.4306 0.7364
-79.9400 20.6709 -0.4649 0.7187
-42.4424 10.0688 -0.2456 0.8399
-82.7267 -17.5847 -0.4762 0.7130
-75.2630 -17.5870 -0.4352 0.7341
-71.0786 -19.6540 -0.4152 0.7445
-52.6280 -15.6979 -0.3092 0.8028
-71.1136 -22.7785 -0.4204 0.7418
-71.1315 -24.3717 -0.4233 0.7402
-71.3260 -26.0523 -0.4275 0.7380
-71.1680 -27.6288 -0.4298 0.7368
-71.2251 -32.7199 -0.4413 0.7309
-71.2448 -34.4803 -0.4456 0.7286
-23.4929 -11.9587 -0.1484 0.8999
-26.8595 -15.0616 -0.1734 0.8841
-71.5482 -46.0005 -0.4789 0.7116
-36.3796 -26.6205 -0.2538 0.8350
-32.4263 -24.7438 -0.2296 0.8495
-29.8906 -24.7722 -0.2186 0.8562
-28.7113 -24.7855 -0.2136 0.8592
-24.5615 -23.9344 -0.1931 0.8718
-24.5726 -24.9279 -0.1971 0.8693
-16.1383 -20.8986 -0.1487 0.8998
-14.8467 -20.9130 -0.1444 0.9025
-14.2278 -20.9200 -0.1424 0.9038
-13.0378 -20.9333 -0.1388 0.9061
-11.9045 -20.9460 -0.1356 0.9081
-11.3568 -20.9521 -0.1342 0.9091
-9.3500 -19.0392 -0.1194 0.9187
-8.2494 -22.1884 -0.1333 0.9097
-7.9115 -22.6646 -0.1352 0.9084
-5.9669 -22.8514 -0.1330 0.9099
-5.4404 -22.6923 -0.1314 0.9109
-4.5187 -22.8676 -0.1312 0.9110
-2.5918 -19.1150 -0.1086 0.9257
0.1373 -22.9198 -0.1290 0.9124
0.5984 -22.9250 -0.1291 0.9123
2.9102 -22.8579 -0.1297 0.9119
3.3317 -22.5406 -0.1283 0.9129
3.2303 -19.1802 -0.1095 0.9251
4.8260 -22.9723 -0.1322 0.9104
5.8021 -22.9833 -0.1335 0.9095
6.2525 -22.8233 -0.1332 0.9097
7.8214 -23.0059 -0.1368 0.9074
8.3432 -23.0117 -0.1378 0.9067
8.8091 -22.8520 -0.1379 0.9067
9.1602 -21.1830 -0.1299 0.9118
10.2411 -19.2661 -0.1228 0.9164
11.8231 -21.2022 -0.1367 0.9075
12.3922 -21.2086 -0.1383 0.9064
12.9751 -21.2152 -0.1400 0.9053
13.5729 -21.2218 -0.1418 0.9041
14.1867 -21.2287 -0.1438 0.9029
15.4670 -21.2431 -0.1479 0.9002
18.2075 -22.0761 -0.1611 0.8918
18.9734 -22.0847 -0.1639 0.8901
23.1778 -25.9060 -0.1957 0.8702
24.1431 -25.9168 -0.1994 0.8679
24.8101 -25.5816 -0.2007 0.8671
24.9595 -24.7210 -0.1978 0.8689
24.9703 -23.7564 -0.1940 0.8712
24.9807 -22.8272 -0.1905 0.8734
25.2545 -22.1623 -0.1892 0.8742
28.6246 -24.1184 -0.2107 0.8609
29.8383 -24.1320 -0.2161 0.8577
31.1153 -24.1463 -0.2217 0.8542
35.4026 -24.2009 -0.2414 0.8424
75.1380 -47.0463 -0.4991 0.7014
75.3083 -43.0383 -0.4884 0.7068
75.3521 -39.1315 -0.4780 0.7120
75.2752 -35.3245 -0.4682 0.7170
75.3402 -31.7245 -0.4603 0.7211
75.4739 -28.2650 -0.4538 0.7244
74.8295 -26.3206 -0.4466 0.7281
74.8700 -22.9968 -0.4410 0.7310
83.7288 -22.0759 -0.4875 0.7073
91.5305 -22.1746 -0.5302 0.6861
82.3958 -6.3423 -0.4653 0.7185
41.5596 0.1500 -0.2340 0.8468
96.2751 6.1637 -0.5432 0.6798
95.6358 8.0564 -0.5404 0.6812
52.1165 5.4476 -0.2950 0.8109
47.9854 7.9642 -0.2739 0.8232
47.8096 8.9263 -0.2738 0.8232
23.7592 6.9640 -0.1394 0.9057
35.5715 11.9990 -0.2114 0.8606
31.5335 15.8632 -0.1987 0.8683
15.7091 8.3025 -0.1000 0.9314
14.5269 8.4418 -0.0946 0.9350
12.9341 8.5992 -0.0874 0.9398
12.4264 8.6268 -0.0852 0.9413
34.2537 30.5001 -0.2582 0.8324
22.8709 24.9093 -0.1904 0.8735
21.8991 24.8352 -0.1864 0.8759
20.3444 25.0331 -0.1816 0.8789
4.0418 8.1322 -0.0511 0.9643
13.7145 30.6254 -0.1889 0.8744
1.9715 9.7332 -0.0559 0.9611
1.7491 9.6261 -0.0551 0.9616
1.5548 9.6569 -0.0551 0.9616
1.3735 9.7804 -0.0556 0.9613
-2.4502 14.9830 -0.0855 0.9411
-6.4294 31.3452 -0.1802 0.8799
-18.5188 51.8458 -0.3100 0.8023
-14.5534 38.2953 -0.2307 0.8489
-19.1116 47.3969 -0.2877 0.8151
-18.6599 39.2680 -0.2448 0.8404
-18.6813 37.3564 -0.2352 0.8461
-18.3929 35.0023 -0.2226 0.8537
-19.4457 32.1375 -0.2115 0.8605
-19.7885 29.9182 -0.2020 0.8663
-21.5337 29.8730 -0.2073 0.8630
-23.4432 29.9091 -0.2140 0.8590
-24.6996 30.2394 -0.2198 0.8554
-26.6391 30.0612 -0.2262 0.8516
-27.7634 30.0887 -0.2305 0.8489
-28.9027 30.0865 -0.2349 0.8463
-30.2543 30.2517 -0.2409 0.8427
-32.7882 30.2491 -0.2512 0.8366
-37.6515 29.5066 -0.2693 0.8258
-41.5250 27.4604 -0.2803 0.8194
-43.5288 26.3333 -0.2864 0.8159
-44.5327 25.7320 -0.2896 0.8141
-45.6258 25.1537 -0.2933 0.8119
-18.9100 9.9347 -0.1203 0.9181
-77.0798 31.0727 -0.4679 0.7172
-79.6092 23.1212 -0.4667 0.7178
-78.7207 21.1565 -0.4589 0.7218
-44.9523 11.1170 -0.2607 0.8309
-42.6196 9.6350 -0.2460 0.8396
-75.7970 9.2775 -0.4299 0.7368
-85.9252 -17.4120 -0.4936 0.7042
-77.7934 -17.3995 -0.4491 0.7270
-71.7491 -17.5695 -0.4159 0.7442
-71.2466 -18.9727 -0.4151 0.7446
-71.1410 -25.2202 -0.4250 0.7394
-71.3542 -28.5745 -0.4328 0.7353
-71.1967 -30.1864 -0.4354 0.7339
-71.1784 -31.8819 -0.4391 0.7320
-26.8195 -12.6663 -0.1670 0.8881
-25.7149 -12.7832 -0.1617 0.8915
-24.5060 -12.8031 -0.1557 0.8953
-71.4214 -41.0507 -0.4638 0.7193
-71.3606 -44.9261 -0.4748 0.7137
-36.2508 -23.8532 -0.2443 0.8406
-36.5401 -26.2078 -0.2532 0.8354
-36.3690 -27.2089 -0.2557 0.8339
-31.7336 -24.7516 -0.2266 0.8513
-29.2624 -24.7793 -0.2159 0.8578
-28.1115 -24.7922 -0.2110 0.8608
-24.9286 -22.8924 -0.1906 0.8734
-24.5564 -23.4781 -0.1913 0.8729
-24.5787 -25.4682 -0.1993 0.8680
-24.3407 -26.2583 -0.2016 0.8666
-22.8162 -26.6904 -0.1977 0.8690
-15.1456 -20.9097 -0.1454 0.9019
-13.9084 -20.9235 -0.1415 0.9044
-12.7341 -20.9367 -0.1380 0.9066
-11.6145 -20.9492 -0.1349 0.9086
-8.6386 -19.0472 -0.1178 0.9197
-8.1831 -19.0523 -0.1167 0.9204
-8.2422 -21.5393 -0.1298 0.9119
-5.7097 -22.8543 -0.1326 0.9101
-4.7447 -22.8651 -0.1315 0.9108
-4.2681 -22.8704 -0.1310 0.9111
-2.3475 -22.4769 -0.1272 0.9136
-1.4643 -22.9018 -0.1292 0.9123
-1.0026 -22.9070 -0.1291 0.9124
-0.5416 -22.9122 -0.1290 0.9124
0.8416 -22.9277 -0.1292 0.9123
1.3040 -22.9329 -0.1293 0.9122
2.2328 -22.9433 -0.1298 0.9119
2.7001 -22.9485 -0.1301 0.9117
3.4401 -19.1826 -0.1097 0.9250
4.5978 -22.9698 -0.1319 0.9106
6.0626 -22.9862 -0.1338 0.9093
7.5771 -23.0032 -0.1364 0.9077
8.0954 -23.0090 -0.1373 0.9070
9.1540 -21.7340 -0.1328 0.9100
9.0333 -19.2453 -0.1197 0.9185
9.5163 -19.2580 -0.1209 0.9177
10.0059 -19.2634 -0.1222 0.9168
13.2882 -21.2187 -0.1410 0.9047
13.8943 -21.2254 -0.1428 0.9035
14.5169 -21.2324 -0.1448 0.9022
17.1992 -21.2625 -0.1540 0.8964
18.6077 -22.0806 -0.1626 0.8909
19.3879 -22.0893 -0.1655 0.8891
24.9652 -24.2082 -0.1958 0.8701
24.9758 -23.2625 -0.1922 0.8724
24.8476 -22.2271 -0.1877 0.8752
25.8081 -22.1684 -0.1916 0.8728
29.2566 -24.1255 -0.2135 0.8593
31.8157 -24.1541 -0.2249 0.8523
27.3019 -19.8748 -0.1901 0.8736
75.1814 -48.0750 -0.5024 0.6998
75.2977 -43.9877 -0.4910 0.7055
75.3200 -41.9927 -0.4855 0.7083
75.3419 -40.0408 -0.4804 0.7109
75.3562 -38.1254 -0.4755 0.7133
75.3130 -36.2204 -0.4705 0.7158
69.0674 -28.2254 -0.4201 0.7420
75.4647 -29.0831 -0.4553 0.7236
75.4841 -27.3605 -0.4520 0.7253
75.5219 -23.9856 -0.4461 0.7284
75.4655 -22.3076 -0.4431 0.7300
80.4589 -22.0345 -0.4697 0.7163
96.2186 -22.2339 -0.5560 0.6737
83.6898 -5.5507 -0.4722 0.7150
96.2866 7.1894 -0.5436 0.6796
48.2006 7.5295 -0.2747 0.8227
23.4460 7.1428 -0.1380 0.9066
34.1161 12.6874 -0.2049 0.8645
31.6066 12.4830 -0.1913 0.8729
30.8923 12.9249 -0.1885 0.8746
31.0784 13.7434 -0.1913 0.8729
31.0566 14.4871 -0.1929 0.8719
31.4521 15.4491 -0.1973 0.8692
31.5625 16.2991 -0.2000 0.8675
31.6186 17.1419 -0.2025 0.8660
53.7912 30.5779 -0.3484 0.7807
14.2285 8.4713 -0.0932 0.9359
13.6850 8.5249 -0.0908 0.9375
12.6786 8.6244 -0.0863 0.9405
33.7728 30.7195 -0.2570 0.8331
23.3282 24.9271 -0.1922 0.8724
22.3537 24.8699 -0.1883 0.8748
21.4030 24.7974 -0.1844 0.8772
19.9980 25.1466 -0.1809 0.8794
4.1164 8.0885 -0.0511 0.9643
13.4353 30.8748 -0.1896 0.8740
1.8535 9.6764 -0.0555 0.9614
1.6393 9.5992 -0.0548 0.9618
1.4597 9.7217 -0.0553 0.9614
1.3156 10.1476 -0.0576 0.9599
-6.7712 31.3214 -0.1804 0.8797
-18.3465 56.6022 -0.3350 0.7882
-18.3071 49.5880 -0.2976 0.8094
-18.5673 47.3408 -0.2863 0.8159
-18.3788 44.2229 -0.2696 0.8257
-19.0503 43.3576 -0.2666 0.8274
-18.3523 39.5879 -0.2457 0.8398
-18.6714 38.2417 -0.2396 0.8435
-18.6471 34.5909 -0.2212 0.8545
-18.7287 33.1296 -0.2143 0.8588
-19.1840 32.3968 -0.2120 0.8602
-19.3789 29.9136 -0.2007 0.8671
-20.2509 29.9233 -0.2034 0.8654
-21.1014 29.8681 -0.2059 0.8639
-22.0705 29.9437 -0.2094 0.8617
-23.0220 29.9544 -0.2127 0.8597
-27.4018 30.2697 -0.2299 0.8493
-28.3514 30.0804 -0.2327 0.8476
-30.7547 30.1073 -0.2423 0.8418
-32.1074 30.1915 -0.2481 0.8384
-33.3383 30.1091 -0.2529 0.8355
-37.2717 32.3249 -0.2778 0.8209
-38.5948 30.8430 -0.2782 0.8207
-38.2093 29.2958 -0.2711 0.8248
-22.4990 15.1882 -0.1528 0.8971
-42.0445 27.1682 -0.2818 0.8185
-62.5108 30.4306 -0.3914 0.7572
-63.9659 29.5630 -0.3967 0.7544
-76.2035 31.5656 -0.4644 0.7190
-73.7553 23.8114 -0.4364 0.7334
-80.1669 24.1126 -0.4713 0.7154
-92.4326 16.0118 -0.5282 0.6871
-90.2604 -17.3980 -0.5175 0.6923
-75.2282 -17.6647 -0.4350 0.7341
-71.1325 -24.4581 -0.4235 0.7402
-71.1690 -27.7176 -0.4300 0.7367
-71.1877 -29.3867 -0.4336 0.7349
-71.3116 -31.1304 -0.4381 0.7325
-71.2261 -32.8136 -0.4415 0.7307
-23.3899 -11.9381 -0.1479 0.9003
-23.9425 -12.8333 -0.1529 0.8970
-23.4569 -15.1169 -0.1571 0.8944
-36.4218 -26.7118 -0.2543 0.8347
-32.3548 -24.7446 -0.2293 0.8496
-31.0591 -24.7591 -0.2236 0.8531
-28.6495 -24.7862 -0.2133 0.8594
-25.4037 -22.8871 -0.1925 0.8722
-24.4107 -22.8983 -0.1884 0.8747
-24.1648 -26.6289 -0.2025 0.8660
-22.3357 -26.6958 -0.1960 0.8700
-18.4480 -22.9723 -0.1659 0.8888
-16.1026 -20.8990 -0.1485 0.8998
-15.4485 -20.9063 -0.1464 0.9012
-14.8130 -20.9134 -0.1443 0.9026
-14.1950 -20.9203 -0.1423 0.9038
-12.4341 -20.9401 -0.1371 0.9072
-10.7922 -20.9585 -0.1327 0.9100
-7.9550 -19.0759 -0.1164 0.9207
-8.2353 -20.9227 -0.1266 0.9140
-8.2503 -22.2643 -0.1337 0.9094
-7.8842 -22.6649 -0.1351 0.9085
-6.9293 -22.8406 -0.1344 0.9089
-5.9406 -22.8517 -0.1329 0.9099
-4.9715 -22.8626 -0.1317 0.9107
-4.0183 -22.8732 -0.1308 0.9113
-2.1810 -19.1196 -0.1083 0.9259
-1.6830 -22.8994 -0.1293 0.9122
-1.2209 -22.9046 -0.1291 0.9123
0.6232 -22.9253 -0.1291 0.9123
2.0125 -22.9408 -0.1297 0.9120
2.4788 -22.9460 -0.1299 0.9118
2.9261 -22.7860 -0.1293 0.9122
3.2517 -19.1805 -0.1095 0.9251
3.6588 -19.2275 -0.1102 0.9247
5.3379 -22.9781 -0.1328 0.9100
6.8264 -22.9947 -0.1350 0.9085
7.3344 -23.0004 -0.1359 0.9079
8.8829 -19.4028 -0.1202 0.9182
9.2882 -19.2554 -0.1204 0.9180
9.7730 -19.2608 -0.1216 0.9172
10.2680 -19.2664 -0.1229 0.9164
12.4231 -21.2090 -0.1384 0.9064
14.2202 -21.2291 -0.1439 0.9028
14.8521 -21.2362 -0.1459 0.9015
15.5024 -21.2435 -0.1481 0.9001
9.1941 -12.0811 -0.0855 0.9411
23.2288 -25.9065 -0.1959 0.8701
24.1960 -25.9174 -0.1996 0.8678
24.8107 -25.5269 -0.2005 0.8673
24.9601 -24.6682 -0.1976 0.8690
24.9708 -23.7056 -0.1939 0.8713
24.9812 -22.7782 -0.1903 0.8735
25.3104 -22.1629 -0.1894 0.8741
28.6884 -24.1191 -0.2110 0.8608
29.9053 -24.1327 -0.2164 0.8575
75.1897 -49.0943 -0.5056 0.6982
75.1345 -46.9310 -0.4988 0.7016
75.2869 -44.9475 -0.4937 0.7042
75.3095 -42.9311 -0.4881 0.7070
75.3316 -40.9591 -0.4828 0.7096
75.3533 -39.0287 -0.4778 0.7122
75.2709 -35.2232 -0.4679 0.7172
68.8972 -30.5674 -0.4244 0.7397
75.4555 -29.9071 -0.4570 0.7228
75.4750 -28.1724 -0.4536 0.7245
74.8306 -26.2301 -0.4464 0.7282
75.5130 -24.7760 -0.4475 0.7277
57.8446 -11.5083 -0.3321 0.7898
94.6399 -12.9571 -0.5378 0.6824
82.3968 -6.2527 -0.4652 0.7185
41.5595 0.1950 -0.2340 0.8468
52.0700 5.4997 -0.2948 0.8110
-5.8326 -15.1930 -0.4582 0.9370
-5.5167 -15.2815 -0.4575 0.9371
-5.0773 -15.0023 -0.4460 0.9386
-4.7614 -15.0596 -0.4447 0.9388
-4.4554 -15.1446 -0.4445 0.9388
-3.5266 -15.3520 -0.4435 0.9389
-3.1720 -15.2034 -0.4373 0.9397
-2.8471 -15.1649 -0.4345 0.9401
-2.2601 -15.4382 -0.4393 0.9395
-1.9311 -15.3366 -0.4353 0.9400
-1.9518 -22.8964 -0.6470 0.9121
-0.0701 -15.2179 -0.4285 0.9409
0.2383 -15.3707 -0.4329 0.9403
0.5437 -15.2624 -0.4300 0.9407
1.4834 -15.4157 -0.4361 0.9399
3.0876 -22.5378 -0.6405 0.9130
2.7390 -15.3692 -0.4396 0.9394
3.0575 -15.3612 -0.4410 0.9392
3.4133 -15.5129 -0.4473 0.9384
3.7286 -15.4579 -0.4477 0.9384
4.3581 -15.3341 -0.4489 0.9382
4.6826 -15.2993 -0.4505 0.9380
5.3312 -15.2049 -0.4537 0.9376
6.0669 -15.3029 -0.4635 0.9363
6.4029 -15.2483 -0.4657 0.9360
8.2744 -15.2152 -0.4877 0.9330
8.7268 -15.3054 -0.4961 0.9319
9.8986 -15.1572 -0.5097 0.9301
10.4577 -15.3310 -0.5226 0.9284
10.8617 -15.2551 -0.5273 0.9278
11.8929 -15.3569 -0.5469 0.9252
17.3872 -20.6777 -0.7607 0.8975
18.0578 -19.8010 -0.7546 0.8983
18.9828 -18.4471 -0.7453 0.8995
20.6705 -16.3947 -0.7429 0.8998
22.5629 -17.1681 -0.7983 0.8927
27.4206 -19.1739 -0.9421 0.8747
33.0173 -22.1124 -1.1189 0.8530
70.9791 -45.4961 -2.3739 0.7136
71.1329 -43.6020 -2.3493 0.7162
72.8284 -40.7068 -2.3493 0.7162
74.4061 -37.7458 -2.3493 0.7162
75.1500 -36.2422 -2.3493 0.7162
75.3805 -34.5027 -2.3343 0.7177
76.7337 -33.2727 -2.3550 0.7156
68.0148 -27.8811 -2.0698 0.7452
69.8643 -27.0116 -2.1091 0.7410
73.8509 -26.8589 -2.2127 0.7302
73.6854 -25.1331 -2.1922 0.7323
73.8880 -23.5546 -2.1837 0.7332
75.0254 -22.2657 -2.2036 0.7311
82.1585 -20.8280 -2.3866 0.7124
82.7009 -19.2045 -2.3906 0.7120
67.6489 -14.2820 -1.9468 0.7583
58.8473 -7.5519 -1.6706 0.7887
57.2004 -6.1743 -1.6200 0.7944
55.6909 -4.8808 -1.5741 0.7995
54.0286 -3.6420 -1.5248 0.8052
41.5750 0.5456 -1.1708 0.8467
45.5466 2.4317 -1.2843 0.8332
61.8107 5.7996 -1.7481 0.7800
52.1602 5.9543 -1.4783 0.8105
40.4829 5.4480 -1.1502 0.8492
48.2968 8.4888 -1.3808 0.8218
61.7709 14.7444 -1.7882 0.7756
61.9356 17.4434 -1.8118 0.7730
23.6179 7.6891 -0.6994 0.9054
34.3892 12.7466 -1.0327 0.8635
30.6490 12.7842 -0.9351 0.8756
15.5309 7.2244 -0.4823 0.9338
42.6916 23.0855 -1.3666 0.8235
14.2586 8.4683 -0.4670 0.9358
13.7135 8.5221 -0.4546 0.9374
12.3364 8.0146 -0.4142 0.9428
12.3742 8.3978 -0.4211 0.9419
32.8046 23.2397 -1.1320 0.8514
39.6864 30.5837 -1.4108 0.8183
33.8067 30.6836 -1.2855 0.8330
23.3827 24.9313 -0.9625 0.8722
22.1625 25.6212 -0.9539 0.8732
24.2242 30.3933 -1.0944 0.8560
13.4345 30.7820 -0.9457 0.8742
10.4664 37.7054 -1.1018 0.8551
1.6469 9.5809 -0.2737 0.9618
1.4676 9.7030 -0.2763 0.9615
-10.5771 80.0357 -2.2732 0.7239
-10.7325 61.9253 -1.7697 0.7776
-6.7183 31.2406 -0.8998 0.8800
-17.9176 75.8631 -2.1949 0.7320
-11.0483 42.9034 -1.2475 0.8375
-10.5698 37.8747 -1.1072 0.8544
-18.4510 53.4364 -1.5918 0.7975
-18.5190 47.3684 -1.4321 0.8159
-18.9941 43.3569 -1.3328 0.8274
-18.3405 39.6749 -1.2308 0.8395
-18.6702 38.3445 -1.2009 0.8431
-18.6909 36.5033 -1.1548 0.8487
-19.1364 32.3963 -1.0595 0.8602
-19.3327 29.9130 -1.0029 0.8672
-21.0526 29.8676 -1.0289 0.8640
-22.0202 29.9432 -1.0466 0.8618
-22.9701 29.9538 -1.0629 0.8598
-23.6967 29.6472 -1.0687 0.8591
-24.8336 29.8200 -1.0927 0.8562
-26.9576 29.8438 -1.1324 0.8514
-28.0795 29.8564 -1.1541 0.8487
-29.2456 29.8695 -1.1771 0.8460
-32.0623 30.2144 -1.2404 0.8384
-33.2651 30.1083 -1.2634 0.8357
-37.1968 32.3303 -1.3877 0.8210
-38.6648 30.9675 -1.3949 0.8202
-38.1601 29.3235 -1.3551 0.8248
-39.0850 28.8031 -1.3671 0.8234
-22.4563 15.1947 -0.7635 0.8972
-43.9842 26.0405 -1.4393 0.8150
-45.0311 25.4516 -1.4565 0.8130
-15.8498 8.1355 -0.5016 0.9312
-76.1049 31.6211 -2.3206 0.7191
-71.5090 24.7711 -2.1309 0.7387
-78.3768 23.6665 -2.3053 0.7206
-78.9170 22.1083 -2.3077 0.7204
-79.1579 20.4686 -2.3022 0.7210
-45.0605 9.7372 -1.2981 0.8315
-77.0833 13.4387 -2.2032 0.7312
-82.4645 12.6740 -2.3493 0.7162
-81.5611 9.1964 -2.3111 0.7200
-88.6145 6.3971 -2.5017 0.7008
-88.8000 2.8292 -2.5017 0.7008
-88.8420 -0.7433 -2.5017 0.7008
-88.8091 -2.5295 -2.5017 0.7008
-88.6356 -6.0980 -2.5017 0.7008
-88.4951 -7.8789 -2.5017 0.7008
-88.3187 -9.6567 -2.5017 0.7008
-81.7120 -12.2762 -2.3266 0.7185
-81.9417 -15.7028 -2.3493 0.7162
-75.0309 -17.5327 -2.1696 0.7347
