ply
format ascii 1.0
element vertex 1579
property float32 x
property float32 y
property float32 z
property float32 I
end_header
-3.5584 -13.8316 -2.3528 0.9437
-3.2788 -13.8968 -2.3522 0.9438
-2.9980 -13.9563 -2.3516 0.9438
-2.4333 -14.0585 -2.3504 0.9438
-2.1496 -14.1010 -2.3498 0.9438
-1.3365 -11.9828 -1.9863 0.9523
-1.0089 -14.2136 -2.3474 0.9439
-0.7228 -14.2275 -2.3468 0.9439
1.2779 -14.1635 -2.3428 0.9440
2.6896 -13.9469 -2.3399 0.9440
2.9687 -13.8867 -2.3394 0.9441
3.2465 -13.8209 -2.3388 0.9441
3.7977 -13.6729 -2.3377 0.9441
4.0709 -13.5907 -2.3372 0.9441
4.3423 -13.5031 -2.3367 0.9441
4.6119 -13.4100 -2.3362 0.9441
5.9279 -12.8656 -2.3336 0.9442
6.4377 -12.6117 -2.3327 0.9442
6.9367 -12.3377 -2.3317 0.9442
7.1819 -12.1933 -2.3313 0.9442
7.8993 -11.7316 -2.3299 0.9443
8.1321 -11.5683 -2.3295 0.9443
8.5875 -11.2281 -2.3287 0.9443
10.2838 -10.9629 -2.4763 0.9409
10.9273 -10.3244 -2.4766 0.9409
11.1311 -10.1012 -2.4762 0.9409
11.3304 -9.8740 -2.4759 0.9409
11.7152 -9.4081 -2.4752 0.9409
11.9005 -9.1696 -2.4749 0.9409
12.0810 -8.9274 -2.4746 0.9409
12.2566 -8.6818 -2.4744 0.9409
12.4273 -8.4327 -2.4741 0.9409
12.7536 -7.9247 -2.4736 0.9409
12.9091 -7.6660 -2.4734 0.9410
13.3443 -6.8721 -2.4727 0.9410
13.4787 -6.6020 -2.4725 0.9410
13.6078 -6.3292 -2.4723 0.9410
13.8494 -5.7763 -2.4720 0.9410
14.1702 -4.9302 -2.4716 0.9410
14.3558 -4.3562 -2.4714 0.9410
14.5184 -3.7754 -2.4713 0.9410
14.5911 -3.4827 -2.4712 0.9410
14.9037 -1.7015 -2.4712 0.9410
14.9605 -1.1010 -2.4712 0.9410
14.9799 -0.8000 -2.4713 0.9410
14.9934 -0.4988 -2.4714 0.9410
15.0009 -0.1972 -2.4715 0.9410
14.9875 0.7075 -2.4718 0.9410
14.9485 1.3095 -2.4720 0.9410
14.9201 1.6099 -2.4722 0.9410
14.6889 3.1003 -2.4731 0.9410
14.6249 3.3953 -2.4734 0.9410
14.5551 3.6889 -2.4736 0.9409
8.6422 8.9243 -2.3350 0.9507
8.4626 9.0979 -2.3355 0.9507
7.9033 9.5968 -2.3368 0.9507
6.5585 8.6503 -2.0404 0.9568
7.3147 10.0616 -2.3381 0.9506
7.1123 10.2087 -2.3386 0.9506
6.6989 10.4905 -2.3395 0.9506
6.0581 10.8819 -2.3410 0.9506
5.3945 11.2344 -2.3424 0.9505
5.1686 11.3430 -2.3429 0.9505
4.9406 11.4471 -2.3434 0.9505
4.7105 11.5465 -2.3440 0.9505
4.4784 11.6414 -2.3445 0.9505
4.0086 11.8172 -2.3455 0.9505
3.7710 11.8980 -2.3460 0.9505
3.5318 11.9740 -2.3465 0.9505
3.2911 12.0453 -2.3470 0.9504
3.0490 12.1117 -2.3475 0.9504
2.8055 12.1732 -2.3481 0.9504
2.5607 12.2299 -2.3486 0.9504
1.8201 12.3702 -2.3502 0.9504
1.5714 12.4071 -2.3507 0.9504
1.3219 12.4389 -2.3512 0.9504
0.0670 12.5226 -2.3538 0.9503
-0.6884 12.5121 -2.3553 0.9503
-0.9400 12.4985 -2.3559 0.9503
-1.1913 12.4798 -2.3564 0.9503
-2.6879 12.2613 -2.3594 0.9502
-3.1799 12.1484 -2.3603 0.9502
-3.4242 12.0845 -2.3608 0.9502
-3.6672 12.0156 -2.3613 0.9502
-4.3874 11.7797 -2.3627 0.9501
-4.6243 11.6914 -2.3632 0.9501
-6.0043 11.0622 -2.3658 0.9501
-4.0713 7.1540 -1.5472 0.9671
-4.1395 6.9453 -1.5197 0.9676
-4.2239 6.7734 -1.5004 0.9680
-4.4396 6.5201 -1.4826 0.9684
-4.5208 6.0971 -1.4267 0.9696
-4.8373 5.7625 -1.4142 0.9698
-5.3751 5.6707 -1.4686 0.9687
-5.9477 5.5613 -1.5305 0.9674
-6.8067 5.4084 -1.6341 0.9652
-8.9764 6.5614 -2.0899 0.9558
-8.8115 6.1730 -2.0222 0.9572
-8.6842 5.5773 -1.9399 0.9589
-8.7343 5.3645 -1.9266 0.9591
-10.0040 4.8358 -2.0885 0.9558
-10.7080 4.6547 -2.1946 0.9536
-12.1080 4.1423 -2.4053 0.9492
-12.9007 3.8416 -2.5301 0.9467
-12.9757 3.5816 -2.5301 0.9467
-13.1097 3.0572 -2.5302 0.9467
-13.1687 2.7931 -2.5303 0.9467
-13.3826 1.4574 -2.5303 0.9467
-13.4300 0.9182 -2.5302 0.9467
-13.4454 0.6480 -2.5301 0.9467
-13.4554 0.3776 -2.5301 0.9467
-13.4588 -0.1636 -2.5299 0.9467
-13.4402 -0.7044 -2.5297 0.9467
-13.4227 -0.9745 -2.5296 0.9467
-13.3712 -1.5131 -2.5293 0.9467
-13.3372 -1.7815 -2.5291 0.9467
-13.2979 -2.0491 -2.5290 0.9467
-13.2531 -2.3159 -2.5288 0.9467
-13.1472 -2.8463 -2.5284 0.9467
-12.9483 -3.6327 -2.5278 0.9467
-12.7021 -4.4053 -2.5270 0.9468
-12.6096 -4.6593 -2.5267 0.9468
-11.9486 -6.1384 -2.5249 0.9468
-11.6890 -6.6119 -2.5242 0.9468
-11.4105 -7.0745 -2.5235 0.9468
-11.2643 -7.3013 -2.5231 0.9468
-11.1135 -7.5252 -2.5227 0.9468
-10.9583 -7.7459 -2.5223 0.9468
-10.7987 -7.9634 -2.5219 0.9469
-10.6347 -8.1775 -2.5215 0.9469
-10.4664 -8.3883 -2.5211 0.9469
-10.1173 -8.7993 -2.5203 0.9469
-9.9367 -8.9994 -2.5198 0.9469
-9.5635 -9.3882 -2.5190 0.9469
-9.1750 -9.7615 -2.5180 0.9469
-8.9753 -9.9422 -2.5176 0.9469
-8.5651 -10.2910 -2.5166 0.9470
-7.4817 -11.0877 -2.5141 0.9470
-7.2558 -11.2336 -2.5136 0.9470
-6.7937 -11.5083 -2.5119 0.9471
-6.5520 -11.6266 -2.5085 0.9471
-6.3085 -11.7402 -2.5051 0.9472
-5.6805 -11.6741 -2.4402 0.9485
-5.0560 -11.5490 -2.3697 0.9500
-4.0856 -11.8417 -2.3545 0.9503
-3.6047 -11.9910 -2.3535 0.9503
-2.6274 -12.2310 -2.3514 0.9504
-2.3804 -12.2787 -2.3509 0.9504
-1.3351 -11.9709 -2.2640 0.9522
-0.8844 -12.4592 -2.3477 0.9504
-0.3826 -12.4792 -2.3467 0.9505
0.1193 -12.4790 -2.3457 0.9505
0.8707 -12.4410 -2.3441 0.9505
1.3695 -12.3906 -2.3431 0.9505
1.8657 -12.3203 -2.3421 0.9505
2.8471 -12.1205 -2.3402 0.9506
3.3307 -11.9914 -2.3392 0.9506
3.8085 -11.8431 -2.3383 0.9506
4.2798 -11.6758 -2.3374 0.9506
4.7439 -11.4900 -2.3365 0.9507
5.2000 -11.2858 -2.3356 0.9507
5.4249 -11.1769 -2.3352 0.9507
5.6475 -11.0636 -2.3348 0.9507
5.8677 -10.9459 -2.3344 0.9507
6.0855 -10.8238 -2.3340 0.9507
6.6874 -10.8490 -2.3955 0.9495
7.0087 -10.8746 -2.4317 0.9487
8.0237 -10.4908 -2.4825 0.9477
8.4364 -10.1568 -2.4817 0.9477
9.0295 -9.6257 -2.4807 0.9477
9.4066 -9.2525 -2.4800 0.9477
9.5895 -9.0604 -2.4797 0.9477
9.7685 -8.8648 -2.4794 0.9477
9.9436 -8.6655 -2.4791 0.9477
10.1146 -8.4628 -2.4788 0.9477
10.2815 -8.2569 -2.4786 0.9477
10.4444 -8.0476 -2.4783 0.9478
10.9072 -7.4012 -2.4775 0.9478
11.1939 -6.9555 -2.4771 0.9478
11.4626 -6.4988 -2.4767 0.9478
11.7128 -6.0319 -2.4763 0.9478
11.8309 -5.7948 -2.4762 0.9478
12.1566 -5.0703 -2.4757 0.9478
12.2554 -4.8246 -2.4756 0.9478
12.5224 -4.0766 -2.4753 0.9478
12.6754 -3.5697 -2.4751 0.9478
12.8081 -3.0571 -2.4750 0.9478
12.8667 -2.7990 -2.4750 0.9478
12.9686 -2.2794 -2.4750 0.9478
13.0118 -2.0182 -2.4750 0.9478
13.0825 -1.4935 -2.4750 0.9478
13.1612 -0.4378 -2.4752 0.9478
13.1650 0.3564 -2.4754 0.9478
13.1557 0.6210 -2.4755 0.9478
13.1411 0.8854 -2.4756 0.9478
12.9898 2.2004 -2.4764 0.9478
12.9439 2.4612 -2.4765 0.9478
12.8365 2.9800 -2.4769 0.9478
12.7750 3.2378 -2.4771 0.9478
7.2010 8.3943 -2.3378 0.9558
7.0320 8.5388 -2.3382 0.9558
6.7805 8.5792 -2.3115 0.9563
6.5079 8.9519 -2.3394 0.9558
6.1449 9.2095 -2.3403 0.9557
5.3892 9.6804 -2.3420 0.9557
5.1944 9.7886 -2.3424 0.9557
4.7985 9.9932 -2.3433 0.9557
3.9833 10.3543 -2.3451 0.9557
3.7750 10.4343 -2.3455 0.9556
3.5652 10.5101 -2.3460 0.9556
3.1410 10.6491 -2.3469 0.9556
2.7115 10.7710 -2.3478 0.9556
2.4949 10.8255 -2.3483 0.9556
1.1754 11.0602 -2.3511 0.9555
0.9530 11.0837 -2.3515 0.9555
0.7301 11.1028 -2.3520 0.9555
0.2833 11.1276 -2.3529 0.9555
-0.1643 11.1343 -2.3538 0.9555
-0.6120 11.1231 -2.3547 0.9555
-2.3890 10.8980 -2.3583 0.9554
-3.0433 10.7401 -2.3596 0.9554
-3.2591 10.6786 -2.3600 0.9554
-3.4738 10.6129 -2.3605 0.9554
-3.6871 10.5427 -2.3609 0.9554
-3.8990 10.4683 -2.3613 0.9554
-4.1094 10.3896 -2.3617 0.9553
-4.3181 10.3066 -2.3621 0.9553
-4.7306 10.1281 -2.3629 0.9553
-3.3946 6.9024 -1.6259 0.9690
-3.4663 6.7043 -1.5954 0.9696
-3.6622 6.4352 -1.5651 0.9702
-3.9754 6.0984 -1.5388 0.9707
-4.0837 5.9973 -1.5337 0.9708
-4.1925 5.8987 -1.5297 0.9708
-4.4561 5.7641 -1.5401 0.9707
-4.7724 5.6853 -1.5690 0.9701
-5.1040 5.6063 -1.6026 0.9695
-5.2802 5.5706 -1.6224 0.9691
-5.6631 5.5128 -1.6706 0.9682
-5.8693 5.4880 -1.6985 0.9677
-6.0809 5.4609 -1.7276 0.9671
-9.7127 6.8044 -2.5068 0.9527
-9.7809 6.5630 -2.4898 0.9530
-8.9442 5.2488 -2.1921 0.9585
-9.1378 5.1182 -2.2139 0.9581
-9.4367 5.0392 -2.2613 0.9572
-9.7456 4.9550 -2.3110 0.9563
-11.1447 4.3206 -2.5266 0.9523
-11.2297 4.0958 -2.5267 0.9523
-11.3102 3.8694 -2.5268 0.9523
-11.3861 3.6413 -2.5269 0.9523
-11.4573 3.4118 -2.5269 0.9523
-11.5239 3.1808 -2.5270 0.9523
-11.7429 2.2449 -2.5272 0.9523
-11.7857 2.0084 -2.5272 0.9523
-11.8569 1.5330 -2.5272 0.9523
-11.8852 1.2943 -2.5271 0.9523
-11.9087 1.0551 -2.5271 0.9523
-11.9411 0.5755 -2.5270 0.9523
-11.9499 0.3353 -2.5270 0.9523
-11.9531 -0.1453 -2.5268 0.9523
-11.9367 -0.6256 -2.5266 0.9523
-11.9008 -1.1049 -2.5264 0.9523
-11.8106 -1.8199 -2.5260 0.9523
-11.5008 -3.2266 -2.5249 0.9523
-11.3599 -3.6857 -2.5245 0.9523
-11.2824 -3.9129 -2.5242 0.9524
-11.2004 -4.1386 -2.5240 0.9524
-11.1139 -4.3625 -2.5238 0.9524
-11.0228 -4.5846 -2.5235 0.9524
-10.9272 -4.8047 -2.5232 0.9524
-10.6142 -5.4528 -2.5224 0.9524
-10.5011 -5.6644 -2.5221 0.9524
-10.3839 -5.8737 -2.5218 0.9524
-10.2624 -6.0805 -2.5215 0.9524
-10.1368 -6.2848 -2.5211 0.9524
-10.0071 -6.4864 -2.5208 0.9524
-9.8733 -6.6854 -2.5205 0.9524
-9.5939 -7.0750 -2.5198 0.9524
-9.4484 -7.2654 -2.5194 0.9524
-8.9893 -7.8182 -2.5183 0.9525
-8.8289 -7.9961 -2.5179 0.9525
-8.6650 -8.1707 -2.5175 0.9525
-8.1529 -8.6740 -2.5163 0.9525
-7.7950 -8.9917 -2.5155 0.9525
-7.6113 -9.1451 -2.5150 0.9525
-7.4247 -9.2947 -2.5146 0.9525
-6.2456 -10.1098 -2.5119 0.9526
-5.8319 -10.3489 -2.5110 0.9526
-5.4092 -10.5710 -2.5100 0.9526
-4.9780 -10.7758 -2.5091 0.9526
-4.7594 -10.8716 -2.5086 0.9526
-4.3133 -11.0408 -2.5056 0.9527
-4.0865 -11.1143 -2.5031 0.9527
-3.8586 -11.1837 -2.5008 0.9528
-2.8644 -11.1337 -2.4301 0.9541
-2.6193 -11.1016 -2.4111 0.9544
-2.3780 -11.0699 -2.3933 0.9548
-1.9059 -11.0111 -2.3621 0.9553
-1.0093 -11.0641 -2.3484 0.9556
-0.5635 -11.0914 -2.3475 0.9556
-0.1171 -11.1008 -2.3466 0.9556
0.3291 -11.0922 -2.3457 0.9556
0.5519 -11.0812 -2.3452 0.9557
0.9966 -11.0458 -2.3443 0.9557
1.2182 -11.0214 -2.3439 0.9557
1.4393 -10.9926 -2.3434 0.9557
1.6596 -10.9593 -2.3430 0.9557
1.8793 -10.9217 -2.3426 0.9557
3.2028 -10.6925 -2.3594 0.9554
3.4378 -10.6904 -2.3737 0.9551
4.4167 -10.6976 -2.4464 0.9538
5.5573 -10.3669 -2.4864 0.9530
5.9707 -10.1370 -2.4868 0.9530
6.1723 -10.0134 -2.4864 0.9530
6.9528 -9.4797 -2.4850 0.9531
7.1410 -9.3367 -2.4847 0.9531
7.5085 -9.0397 -2.4840 0.9531
7.6878 -8.8858 -2.4837 0.9531
8.2064 -8.4032 -2.4828 0.9531
9.0034 -7.5331 -2.4814 0.9531
9.4384 -6.9746 -2.4807 0.9532
9.5758 -6.7829 -2.4805 0.9532
9.7094 -6.5884 -2.4803 0.9532
9.9648 -6.1918 -2.4799 0.9532
10.2042 -5.7854 -2.4795 0.9532
10.3177 -5.5787 -2.4793 0.9532
10.4271 -5.3698 -2.4792 0.9532
10.5323 -5.1588 -2.4790 0.9532
10.6333 -4.9457 -2.4789 0.9532
10.7301 -4.7307 -2.4788 0.9532
11.0735 -3.8528 -2.4783 0.9532
11.1484 -3.6292 -2.4783 0.9532
11.2187 -3.4043 -2.4782 0.9532
11.4028 -2.7217 -2.4780 0.9532
11.5027 -2.2611 -2.4780 0.9532
11.5458 -2.0293 -2.4780 0.9532
11.5843 -1.7968 -2.4780 0.9532
11.6181 -1.5635 -2.4780 0.9532
11.6472 -1.3297 -2.4780 0.9532
11.6915 -0.8604 -2.4780 0.9532
11.7067 -0.6252 -2.4781 0.9532
11.7171 -0.3898 -2.4781 0.9532
11.7229 -0.1541 -2.4782 0.9532
11.7240 0.0816 -2.4783 0.9532
11.7204 0.3173 -2.4784 0.9532
11.7120 0.5529 -2.4784 0.9532
11.6990 0.7882 -2.4785 0.9532
11.6814 1.0233 -2.4787 0.9532
11.6003 1.7259 -2.4791 0.9532
11.5639 1.9588 -2.4792 0.9532
11.4773 2.4224 -2.4795 0.9532
11.4272 2.6529 -2.4797 0.9532
11.3724 2.8823 -2.4799 0.9532
7.5197 7.4590 -2.4893 0.9574
7.3693 7.6098 -2.4896 0.9574
7.0478 7.8891 -2.4862 0.9575
6.1869 8.1602 -2.4067 0.9588
5.9456 8.1784 -2.3764 0.9593
5.7105 8.1965 -2.3478 0.9598
5.5290 8.2864 -2.3412 0.9599
5.3622 8.3973 -2.3416 0.9599
5.0219 8.6088 -2.3424 0.9599
4.8487 8.7095 -2.3428 0.9599
4.3170 8.9905 -2.3439 0.9598
4.1361 9.0770 -2.3443 0.9598
3.7692 9.2391 -2.3451 0.9598
3.2071 9.4544 -2.3464 0.9598
3.0169 9.5187 -2.3468 0.9598
2.8254 9.5791 -2.3472 0.9598
2.4389 9.6883 -2.3480 0.9598
2.2440 9.7371 -2.3484 0.9598
2.0482 9.7820 -2.3489 0.9598
1.6539 9.8599 -2.3497 0.9598
1.4556 9.8929 -2.3501 0.9597
1.0571 9.9470 -2.3509 0.9597
0.8571 9.9680 -2.3514 0.9597
0.6566 9.9850 -2.3518 0.9597
0.4558 9.9980 -2.3522 0.9597
0.2548 10.0069 -2.3526 0.9597
0.0536 10.0117 -2.3530 0.9597
-0.7514 9.9907 -2.3547 0.9597
-1.3529 9.9324 -2.3559 0.9596
-1.5526 9.9048 -2.3563 0.9596
-1.9502 9.8377 -2.3571 0.9596
-2.3449 9.7546 -2.3579 0.9596
-2.7360 9.6556 -2.3586 0.9596
-3.6941 9.3397 -2.3605 0.9596
-3.1732 6.4523 -1.6899 0.9709
-3.4520 6.0659 -1.6403 0.9717
-3.5693 5.9886 -1.6385 0.9718
-4.2457 5.7262 -1.6754 0.9711
-4.8981 5.6023 -1.7489 0.9699
-5.2527 5.5416 -1.7945 0.9691
-6.0652 5.4468 -1.9159 0.9671
-6.7103 5.5555 -2.0474 0.9648
-6.7313 5.3485 -2.0206 0.9653
-7.0540 5.3772 -2.0846 0.9642
-9.1472 5.6181 -2.5229 0.9568
-9.1152 5.1056 -2.4554 0.9580
-9.4710 5.0575 -2.5234 0.9568
-9.6678 4.6732 -2.5237 0.9568
-9.7603 4.4781 -2.5238 0.9568
-9.8488 4.2812 -2.5239 0.9568
-9.9333 4.0825 -2.5240 0.9568
-10.2306 3.2718 -2.5244 0.9568
-10.4099 2.6493 -2.5246 0.9568
-10.5082 2.2288 -2.5246 0.9568
-10.5895 1.8046 -2.5247 0.9568
-10.6789 1.1630 -2.5246 0.9568
-10.7168 0.7327 -2.5246 0.9568
-10.7400 -0.1305 -2.5243 0.9568
-10.7254 -0.5621 -2.5242 0.9568
-10.7115 -0.7776 -2.5241 0.9568
-10.6706 -1.2075 -2.5239 0.9568
-10.6437 -1.4217 -2.5237 0.9568
-10.6124 -1.6353 -2.5236 0.9568
-10.4926 -2.2716 -2.5231 0.9568
-10.4442 -2.4819 -2.5230 0.9568
-10.3914 -2.6912 -2.5228 0.9569
-10.2733 -3.1063 -2.5224 0.9569
-10.1385 -3.5162 -2.5220 0.9569
-10.0649 -3.7190 -2.5218 0.9569
-9.5387 -4.9004 -2.5203 0.9569
-9.4372 -5.0906 -2.5201 0.9569
-9.3320 -5.2787 -2.5198 0.9569
-9.1101 -5.6482 -2.5192 0.9569
-8.8736 -6.0085 -2.5186 0.9569
-8.6227 -6.3588 -2.5180 0.9569
-8.4921 -6.5300 -2.5177 0.9569
-7.4849 -7.6492 -2.5152 0.9570
-7.3286 -7.7970 -2.5149 0.9570
-7.1693 -7.9416 -2.5145 0.9570
-7.0071 -8.0829 -2.5141 0.9570
-6.8422 -8.2209 -2.5137 0.9570
-6.6745 -8.3555 -2.5134 0.9570
-5.7976 -8.9760 -2.5114 0.9570
-5.6151 -9.0893 -2.5109 0.9571
-5.0545 -9.4065 -2.5097 0.9571
-4.6707 -9.5988 -2.5088 0.9571
-4.4760 -9.6891 -2.5084 0.9571
-4.2796 -9.7755 -2.5080 0.9571
-4.0814 -9.8578 -2.5075 0.9571
-3.6806 -10.0105 -2.5067 0.9571
-3.4780 -10.0807 -2.5062 0.9571
-3.0689 -10.2087 -2.5054 0.9571
-2.8625 -10.2665 -2.5049 0.9572
-2.6551 -10.3202 -2.5045 0.9572
-2.4466 -10.3697 -2.5040 0.9572
-1.8161 -10.4927 -2.5027 0.9572
-1.1787 -10.5687 -2.4993 0.9572
-0.9656 -10.5857 -2.4982 0.9573
-0.7523 -10.5987 -2.4972 0.9573
-0.5389 -10.6077 -2.4963 0.9573
-0.1120 -10.6138 -2.4946 0.9573
0.1014 -10.6112 -2.4940 0.9573
0.3147 -10.6045 -2.4934 0.9573
0.7404 -10.5793 -2.4925 0.9574
1.1648 -10.5387 -2.4919 0.9574
1.3764 -10.5126 -2.4918 0.9574
1.7978 -10.4484 -2.4917 0.9574
2.0077 -10.4108 -2.4919 0.9574
3.0435 -10.1607 -2.4928 0.9574
3.2466 -10.0958 -2.4924 0.9574
3.8475 -9.8771 -2.4913 0.9574
4.0446 -9.7963 -2.4909 0.9574
4.2401 -9.7116 -2.4905 0.9574
4.6257 -9.5305 -2.4898 0.9574
4.8157 -9.4341 -2.4894 0.9574
5.1896 -9.2304 -2.4887 0.9574
5.7342 -8.8971 -2.4877 0.9574
5.9112 -8.7789 -2.4874 0.9574
6.0857 -8.6572 -2.4870 0.9574
6.2577 -8.5320 -2.4867 0.9575
6.7582 -8.1363 -2.4858 0.9575
7.3867 -7.5638 -2.4847 0.9575
7.8268 -7.1026 -2.4840 0.9575
7.9672 -6.9431 -2.4837 0.9575
8.3690 -6.4485 -2.4831 0.9575
8.4962 -6.2784 -2.4829 0.9575
8.8572 -5.7536 -2.4823 0.9575
9.2884 -5.0221 -2.4816 0.9575
9.3869 -4.8341 -2.4815 0.9575
9.4817 -4.6442 -2.4814 0.9575
9.6598 -4.2588 -2.4811 0.9575
9.7430 -4.0636 -2.4810 0.9576
9.8223 -3.8667 -2.4809 0.9576
9.8977 -3.6684 -2.4808 0.9576
9.9691 -3.4685 -2.4807 0.9576
10.1593 -2.8611 -2.4805 0.9576
10.2146 -2.6562 -2.4805 0.9576
10.3128 -2.2434 -2.4804 0.9576
10.3557 -2.0356 -2.4804 0.9576
10.4291 -1.6176 -2.4804 0.9576
10.5257 -0.7746 -2.4805 0.9576
10.5393 -0.5629 -2.4805 0.9576
10.5538 -0.1387 -2.4806 0.9576
10.5162 0.9212 -2.4810 0.9576
10.4961 1.1325 -2.4811 0.9575
10.4717 1.3434 -2.4812 0.9575
10.4431 1.5537 -2.4814 0.9575
10.4103 1.7634 -2.4815 0.9575
10.2869 2.3882 -2.4820 0.9575
6.2661 7.3045 -2.4918 0.9610
6.1188 7.4300 -2.4921 0.9610
5.9691 7.5526 -2.4925 0.9610
5.4993 7.8933 -2.4908 0.9610
5.1722 8.0997 -2.4883 0.9611
5.0057 8.1978 -2.4870 0.9611
4.7885 8.2087 -2.4606 0.9615
4.1621 8.2391 -2.3900 0.9626
3.9607 8.2485 -2.3691 0.9629
3.7619 8.2558 -2.3490 0.9632
3.5894 8.3162 -2.3452 0.9633
3.2532 8.4565 -2.3460 0.9633
3.0830 8.5215 -2.3463 0.9632
2.9115 8.5831 -2.3467 0.9632
2.2140 8.7949 -2.3482 0.9632
2.0371 8.8390 -2.3486 0.9632
1.8593 8.8796 -2.3490 0.9632
1.6806 8.9167 -2.3493 0.9632
0.9595 9.0287 -2.3508 0.9632
0.7779 9.0476 -2.3512 0.9632
0.5960 9.0629 -2.3516 0.9632
0.2313 9.0824 -2.3524 0.9632
0.0486 9.0867 -2.3527 0.9632
-0.1341 9.0873 -2.3531 0.9631
-0.3168 9.0842 -2.3535 0.9631
-0.8642 9.0529 -2.3546 0.9631
-1.0462 9.0350 -2.3550 0.9631
-1.5896 8.9597 -2.3561 0.9631
-1.7697 8.9273 -2.3564 0.9631
-1.9491 8.8913 -2.3568 0.9631
-2.3057 8.8084 -2.3575 0.9631
-3.0076 8.5997 -2.3589 0.9631
-3.1803 8.5387 -2.3592 0.9631
-3.3518 8.4742 -2.3595 0.9630
-3.5220 8.4063 -2.3599 0.9630
-3.0832 6.6012 -1.8864 0.9703
-3.1120 6.3278 -1.8258 0.9713
-3.1655 6.1227 -1.7846 0.9719
-3.2485 5.9851 -1.7632 0.9723
-3.4772 5.8341 -1.7585 0.9723
-3.6036 5.7787 -1.7633 0.9723
-3.9044 5.7341 -1.7962 0.9717
-4.0716 5.7286 -1.8197 0.9714
-4.7201 5.6229 -1.9008 0.9701
-4.8912 5.5945 -1.9241 0.9698
-5.2570 5.5462 -1.9786 0.9689
-5.4528 5.5259 -2.0101 0.9684
-5.6505 5.5005 -2.0417 0.9679
-6.3546 5.4800 -2.1726 0.9659
-6.7474 5.3612 -2.2314 0.9650
-7.7407 5.9006 -2.5201 0.9606
-7.8584 5.7442 -2.5203 0.9606
-8.0841 5.4245 -2.5207 0.9606
-8.1921 5.2612 -2.5208 0.9606
-8.4959 4.7587 -2.5213 0.9606
-8.5903 4.5872 -2.5214 0.9606
-8.9327 3.8830 -2.5219 0.9606
-9.0093 3.7028 -2.5220 0.9606
-9.0823 3.5211 -2.5221 0.9606
-9.1516 3.3379 -2.5222 0.9605
-9.2171 3.1533 -2.5223 0.9605
-9.3369 2.7804 -2.5224 0.9605
-9.4415 2.4029 -2.5225 0.9605
-9.5306 2.0214 -2.5225 0.9605
-9.5694 1.8294 -2.5226 0.9605
-9.6043 1.6367 -2.5226 0.9605
-9.6623 1.2493 -2.5226 0.9605
-9.6854 1.0548 -2.5226 0.9605
-9.7046 0.8598 -2.5225 0.9605
-9.7383 0.2733 -2.5224 0.9605
-9.7409 -0.1184 -2.5223 0.9605
-9.7363 -0.3142 -2.5222 0.9605
-9.7151 -0.7053 -2.5221 0.9606
-9.6986 -0.9004 -2.5220 0.9606
-9.6782 -1.0952 -2.5218 0.9606
-9.6254 -1.4832 -2.5216 0.9606
-9.5170 -2.0604 -2.5212 0.9606
-9.4731 -2.2512 -2.5211 0.9606
-9.4253 -2.4410 -2.5209 0.9606
-9.3737 -2.6298 -2.5207 0.9606
-9.1962 -3.1894 -2.5202 0.9606
-9.0591 -3.5559 -2.5198 0.9606
-8.9073 -3.9166 -2.5194 0.9606
-8.7411 -4.2707 -2.5189 0.9606
-8.6526 -4.4451 -2.5187 0.9606
-8.5607 -4.6178 -2.5184 0.9606
-8.4653 -4.7884 -2.5182 0.9606
-8.2643 -5.1238 -2.5177 0.9606
-8.0498 -5.4507 -2.5171 0.9606
-7.5825 -6.0770 -2.5159 0.9606
-7.4579 -6.2274 -2.5156 0.9606
-7.3302 -6.3753 -2.5153 0.9607
-7.1997 -6.5206 -2.5150 0.9607
-7.0663 -6.6631 -2.5147 0.9607
-6.9300 -6.8030 -2.5144 0.9607
-6.6491 -7.0742 -2.5137 0.9607
-6.5047 -7.2055 -2.5134 0.9607
-6.0560 -7.5813 -2.5123 0.9607
-5.7447 -7.8164 -2.5116 0.9607
-5.5856 -7.9292 -2.5113 0.9607
-5.2608 -8.1449 -2.5105 0.9607
-4.9277 -8.3473 -2.5098 0.9607
-4.7581 -8.4434 -2.5094 0.9607
-4.5868 -8.5361 -2.5090 0.9608
-4.4136 -8.6252 -2.5086 0.9608
-3.8838 -8.8715 -2.5075 0.9608
-3.7041 -8.9464 -2.5071 0.9608
-3.5229 -9.0176 -2.5067 0.9608
-3.3404 -9.0852 -2.5063 0.9608
-2.9715 -9.2092 -2.5055 0.9608
-2.5981 -9.3182 -2.5047 0.9608
-1.8399 -9.4907 -2.5031 0.9608
-1.2639 -9.5797 -2.5018 0.9609
-0.8775 -9.6197 -2.5010 0.9609
-0.6838 -9.6338 -2.5006 0.9609
0.2862 -9.6461 -2.4986 0.9609
0.4800 -9.6369 -2.4982 0.9609
0.6735 -9.6238 -2.4979 0.9609
1.0595 -9.5859 -2.4971 0.9609
1.6347 -9.5002 -2.4959 0.9610
2.2034 -9.3801 -2.4948 0.9610
2.3911 -9.3326 -2.4944 0.9610
2.5779 -9.2812 -2.4941 0.9610
2.7636 -9.2262 -2.4937 0.9610
2.9481 -9.1675 -2.4933 0.9610
3.1313 -9.1050 -2.4930 0.9610
3.4938 -8.9693 -2.4923 0.9610
3.6729 -8.8960 -2.4919 0.9610
4.0265 -8.7388 -2.4913 0.9610
4.2008 -8.6549 -2.4909 0.9610
4.7130 -8.3827 -2.4900 0.9610
4.8800 -8.2852 -2.4896 0.9610
5.2078 -8.0804 -2.4890 0.9611
5.3686 -7.9731 -2.4887 0.9611
5.8374 -7.6324 -2.4879 0.9611
5.9890 -7.5126 -2.4876 0.9611
6.1382 -7.3900 -2.4873 0.9611
6.2849 -7.2643 -2.4871 0.9611
6.5705 -7.0044 -2.4866 0.9611
6.7093 -6.8702 -2.4863 0.9611
6.9788 -6.5937 -2.4859 0.9611
7.1093 -6.4515 -2.4857 0.9611
7.7177 -5.7031 -2.4846 0.9611
7.9396 -5.3875 -2.4843 0.9611
8.0457 -5.2265 -2.4841 0.9611
8.1487 -5.0633 -2.4840 0.9611
8.2483 -4.8982 -2.4838 0.9611
8.5272 -4.3914 -2.4834 0.9611
8.6133 -4.2188 -2.4833 0.9611
8.9229 -3.5127 -2.4829 0.9612
8.9914 -3.3325 -2.4828 0.9612
9.0563 -3.1510 -2.4827 0.9612
9.1176 -2.9682 -2.4826 0.9612
9.1752 -2.7842 -2.4826 0.9612
9.3258 -2.2259 -2.4825 0.9612
9.4429 -1.6597 -2.4824 0.9612
9.4743 -1.4695 -2.4824 0.9612
9.5019 -1.2788 -2.4824 0.9612
9.5258 -1.0875 -2.4824 0.9612
9.5458 -0.8958 -2.4824 0.9612
9.5620 -0.7037 -2.4825 0.9612
9.5828 -0.3187 -2.4825 0.9612
9.5875 -0.1260 -2.4826 0.9612
9.5884 0.0667 -2.4827 0.9612
9.5785 0.4522 -2.4828 0.9612
9.5678 0.6446 -2.4829 0.9612
9.5127 1.2203 -2.4832 0.9611
9.4866 1.4114 -2.4833 0.9611
9.4568 1.6019 -2.4834 0.9611
9.3858 1.9810 -2.4837 0.9611
6.2484 6.1979 -2.4915 0.9641
5.9956 6.4456 -2.4921 0.9641
5.7331 6.6831 -2.4927 0.9641
5.5983 6.7979 -2.4930 0.9641
5.4611 6.9099 -2.4933 0.9640
5.3218 7.0192 -2.4936 0.9640
5.0367 7.2294 -2.4943 0.9640
4.8910 7.3301 -2.4946 0.9640
4.7432 7.4280 -2.4950 0.9640
4.5936 7.5228 -2.4953 0.9640
4.1330 7.7884 -2.4961 0.9640
3.6521 8.0148 -2.4934 0.9640
3.4891 8.0839 -2.4926 0.9641
3.3249 8.1500 -2.4918 0.9641
2.2509 8.2382 -2.4176 0.9651
2.0735 8.2368 -2.4045 0.9653
1.8979 8.2353 -2.3925 0.9655
1.3805 8.2299 -2.3624 0.9659
1.2109 8.2299 -2.3549 0.9660
1.0432 8.2368 -2.3504 0.9661
0.8775 8.2574 -2.3508 0.9661
0.0445 8.3099 -2.3525 0.9660
-0.2901 8.3176 -2.3561 0.9660
-0.4567 8.3011 -2.3535 0.9660
-0.7903 8.2784 -2.3542 0.9660
-0.9567 8.2620 -2.3545 0.9660
-2.1082 8.0540 -2.3568 0.9660
-2.2709 8.0141 -2.3581 0.9660
-2.4390 7.9913 -2.3653 0.9659
-2.9559 7.9362 -2.3975 0.9654
-3.3073 7.8940 -2.4229 0.9650
-3.1376 6.0685 -1.9340 0.9720
-3.4787 5.8366 -1.9235 0.9721
-3.8836 5.9576 -2.0133 0.9709
-3.8973 5.7236 -1.9603 0.9716
-4.5578 5.6568 -2.0565 0.9703
-4.7277 5.6320 -2.0817 0.9699
-5.0940 5.5953 -2.1421 0.9690
-5.2803 5.5708 -2.1729 0.9686
-5.4580 5.5312 -2.1998 0.9682
-5.8588 5.4782 -2.2707 0.9672
-6.2723 5.4090 -2.3447 0.9662
-6.9651 5.5342 -2.5184 0.9637
-7.0754 5.3934 -2.5186 0.9637
-7.1829 5.2505 -2.5188 0.9637
-7.2875 5.1054 -2.5189 0.9637
-7.8516 4.1927 -2.5198 0.9637
-8.0911 3.7123 -2.5201 0.9637
-8.1645 3.5490 -2.5202 0.9637
-8.3011 3.2182 -2.5204 0.9637
-8.3644 3.0508 -2.5205 0.9637
-8.4807 2.7122 -2.5206 0.9637
-8.5337 2.5412 -2.5207 0.9637
-8.5832 2.3691 -2.5207 0.9637
-8.6292 2.1962 -2.5208 0.9637
-8.7107 1.8475 -2.5208 0.9637
-8.7462 1.6721 -2.5208 0.9637
-8.7780 1.4959 -2.5208 0.9637
-8.8311 1.1418 -2.5208 0.9637
-8.8522 0.9640 -2.5208 0.9637
-8.9006 0.2498 -2.5207 0.9637
-8.9030 -0.1082 -2.5206 0.9637
-8.8235 -1.1786 -2.5201 0.9637
-8.7977 -1.3557 -2.5200 0.9637
-8.7682 -1.5322 -2.5198 0.9637
-8.6586 -2.0576 -2.5194 0.9637
-8.6149 -2.2312 -2.5193 0.9637
-8.5678 -2.4037 -2.5191 0.9637
-8.5173 -2.5753 -2.5190 0.9637
-8.4632 -2.7459 -2.5188 0.9637
-8.4057 -2.9153 -2.5187 0.9637
-8.3448 -3.0834 -2.5185 0.9637
-8.2129 -3.4159 -2.5181 0.9637
-8.0677 -3.7427 -2.5177 0.9637
-7.5546 -4.6838 -2.5163 0.9637
-7.2563 -5.1291 -2.5156 0.9637
-7.1510 -5.2734 -2.5153 0.9637
-6.9317 -5.5554 -2.5148 0.9637
-6.5820 -5.9611 -2.5139 0.9638
-6.3356 -6.2195 -2.5133 0.9638
-6.2085 -6.3448 -2.5130 0.9638
-6.0790 -6.4676 -2.5127 0.9638
-5.9470 -6.5877 -2.5124 0.9638
-5.6759 -6.8197 -2.5118 0.9638
-5.3958 -7.0405 -2.5111 0.9638
-5.1071 -7.2498 -2.5105 0.9638
-4.9596 -7.3501 -2.5102 0.9638
-4.8102 -7.4473 -2.5098 0.9638
-4.3508 -7.7205 -2.5088 0.9638
-4.1941 -7.8053 -2.5084 0.9638
-4.0358 -7.8870 -2.5081 0.9638
-3.8759 -7.9654 -2.5077 0.9638
-3.7144 -8.0406 -2.5074 0.9638
-3.5515 -8.1125 -2.5070 0.9639
-3.2216 -8.2463 -2.5063 0.9639
-3.0547 -8.3082 -2.5059 0.9639
-2.8866 -8.3667 -2.5056 0.9639
-2.3760 -8.5218 -2.5045 0.9639
-2.2039 -8.5666 -2.5041 0.9639
-1.8572 -8.6457 -2.5034 0.9639
-1.6828 -8.6800 -2.5030 0.9639
-1.5077 -8.7108 -2.5026 0.9639
-1.3321 -8.7380 -2.5023 0.9639
-1.1560 -8.7618 -2.5019 0.9639
-0.6255 -8.8116 -2.5008 0.9639
-0.4481 -8.8211 -2.5004 0.9639
0.0844 -8.8282 -2.4993 0.9640
0.4391 -8.8151 -2.4986 0.9640
0.6161 -8.8033 -2.4982 0.9640
0.9692 -8.7689 -2.4975 0.9640
1.1452 -8.7464 -2.4972 0.9640
1.4954 -8.6908 -2.4965 0.9640
1.6696 -8.6578 -2.4961 0.9640
2.5283 -8.4408 -2.4944 0.9640
3.0313 -8.2698 -2.4934 0.9640
3.3605 -8.1392 -2.4928 0.9641
3.6840 -7.9955 -2.4922 0.9641
3.8436 -7.9189 -2.4919 0.9641
4.1578 -7.7561 -2.4913 0.9641
4.3124 -7.6701 -2.4910 0.9641
4.4652 -7.5810 -2.4907 0.9641
4.6162 -7.4888 -2.4904 0.9641
4.9124 -7.2956 -2.4899 0.9641
5.0575 -7.1946 -2.4896 0.9641
5.2006 -7.0907 -2.4894 0.9641
5.3416 -6.9841 -2.4891 0.9641
5.7512 -6.6474 -2.4884 0.9641
6.0126 -6.4097 -2.4879 0.9641
6.1397 -6.2869 -2.4877 0.9641
6.2643 -6.1617 -2.4875 0.9641
6.6227 -5.7715 -2.4869 0.9641
6.7369 -5.6367 -2.4867 0.9641
6.8483 -5.4997 -2.4865 0.9641
7.0629 -5.2193 -2.4861 0.9641
7.3633 -4.7831 -2.4857 0.9642
7.4575 -4.6338 -2.4855 0.9642
7.5487 -4.4827 -2.4854 0.9642
7.6369 -4.3298 -2.4853 0.9642
7.7220 -4.1752 -2.4851 0.9642
7.8040 -4.0190 -2.4850 0.9642
7.8829 -3.8611 -2.4849 0.9642
8.2291 -3.0499 -2.4844 0.9642
8.2885 -2.8838 -2.4844 0.9642
8.4927 -2.2084 -2.4842 0.9642
8.6101 -1.6925 -2.4841 0.9642
8.6423 -1.5190 -2.4841 0.9642
8.7365 -0.8199 -2.4841 0.9642
8.7514 -0.6440 -2.4841 0.9642
8.7627 -0.4680 -2.4842 0.9642
8.7704 -0.2917 -2.4842 0.9642
8.7727 0.2375 -2.4844 0.9642
8.7663 0.4138 -2.4845 0.9642
8.7565 0.5900 -2.4845 0.9642
8.6822 1.2917 -2.4849 0.9642
8.6548 1.4661 -2.4850 0.9642
8.5520 1.9854 -2.4854 0.9642
5.7529 5.7065 -2.4923 0.9667
5.6377 5.8217 -2.4926 0.9667
5.0278 6.3617 -2.4940 0.9666
4.7692 6.5602 -2.4946 0.9666
4.6369 6.6556 -2.4949 0.9666
4.3667 6.8383 -2.4955 0.9666
4.0893 7.0100 -2.4962 0.9666
3.9480 7.0917 -2.4965 0.9666
3.2185 7.4569 -2.4981 0.9666
3.0683 7.5211 -2.4984 0.9666
2.6104 7.6955 -2.4994 0.9666
2.4555 7.7474 -2.4998 0.9666
2.2993 7.7952 -2.4998 0.9666
1.5043 7.9811 -2.4980 0.9666
1.3434 8.0091 -2.4978 0.9666
1.0203 8.0557 -2.4976 0.9666
0.6956 8.0897 -2.4974 0.9666
0.3698 8.1113 -2.4975 0.9666
0.0435 8.1205 -2.4977 0.9666
-0.1198 8.1204 -2.4979 0.9666
-0.2831 8.1172 -2.4982 0.9666
-0.4462 8.1107 -2.4984 0.9666
-0.6093 8.1010 -2.4987 0.9666
-1.0970 8.0535 -2.5000 0.9666
-1.5815 7.9780 -2.5016 0.9665
-1.7420 7.9467 -2.5023 0.9665
-1.9019 7.9121 -2.5029 0.9665
-2.0612 7.8745 -2.5036 0.9665
-2.8458 7.6407 -2.5078 0.9665
-3.1532 7.5261 -2.5098 0.9664
-3.3052 7.4643 -2.5109 0.9664
-3.0442 6.5176 -2.2126 0.9703
-3.1213 6.3467 -2.1754 0.9708
-3.1946 5.8857 -2.0598 0.9724
-3.3149 5.8250 -2.0614 0.9723
-3.4469 5.7832 -2.0708 0.9722
-3.6033 5.7782 -2.0945 0.9719
-4.0657 5.7203 -2.1586 0.9711
-4.2258 5.6994 -2.1823 0.9707
-4.3901 5.6786 -2.2077 0.9704
-4.5565 5.6551 -2.2338 0.9701
-5.6268 5.9363 -2.5158 0.9663
-5.8619 5.7062 -2.5162 0.9663
-6.1966 5.3437 -2.5168 0.9663
-6.4073 5.0910 -2.5171 0.9663
-6.8880 4.4237 -2.5179 0.9663
-6.9759 4.2845 -2.5180 0.9663
-7.0610 4.1436 -2.5182 0.9663
-7.1432 4.0010 -2.5183 0.9663
-7.2990 3.7110 -2.5185 0.9663
-7.6941 2.8062 -2.5190 0.9663
-7.7491 2.6511 -2.5191 0.9663
-7.8498 2.3375 -2.5192 0.9663
-7.8953 2.1793 -2.5192 0.9663
-7.9376 2.0201 -2.5193 0.9663
-7.9767 1.8602 -2.5193 0.9663
-8.0452 1.5380 -2.5193 0.9663
-8.0745 1.3760 -2.5193 0.9663
-8.1006 1.2134 -2.5193 0.9663
-8.1233 1.0503 -2.5193 0.9663
-8.1427 0.8868 -2.5193 0.9663
-8.1588 0.7229 -2.5193 0.9663
-8.1811 0.3943 -2.5193 0.9663
-8.1900 0.0651 -2.5192 0.9663
-8.1895 -0.0995 -2.5191 0.9663
-8.1857 -0.2642 -2.5191 0.9663
-8.1680 -0.5930 -2.5189 0.9663
-8.1165 -1.0841 -2.5186 0.9663
-8.0018 -1.7324 -2.5182 0.9663
-7.9649 -1.8928 -2.5181 0.9663
-7.9249 -2.0524 -2.5179 0.9663
-7.8816 -2.2112 -2.5178 0.9663
-7.7854 -2.5260 -2.5175 0.9663
-7.7325 -2.6818 -2.5173 0.9663
-7.6766 -2.8365 -2.5172 0.9663
-7.6175 -2.9901 -2.5170 0.9663
-7.5553 -3.1424 -2.5168 0.9663
-7.4900 -3.2934 -2.5167 0.9663
-7.1990 -3.8832 -2.5159 0.9663
-7.0359 -4.1688 -2.5154 0.9664
-6.6758 -4.7188 -2.5145 0.9664
-6.4795 -4.9824 -2.5140 0.9664
-6.3774 -5.1112 -2.5138 0.9664
-6.2727 -5.2378 -2.5135 0.9664
-6.1655 -5.3623 -2.5133 0.9664
-6.0558 -5.4846 -2.5130 0.9664
-5.9437 -5.6046 -2.5127 0.9664
-5.8292 -5.7224 -2.5125 0.9664
-5.7123 -5.8377 -2.5122 0.9664
-5.4718 -6.0613 -2.5116 0.9664
-5.2225 -6.2749 -2.5110 0.9664
-5.0947 -6.3779 -2.5107 0.9664
-4.8330 -6.5759 -2.5101 0.9664
-4.4262 -6.8528 -2.5092 0.9664
-3.7138 -7.2578 -2.5076 0.9665
-3.5667 -7.3300 -2.5073 0.9665
-3.4182 -7.3993 -2.5070 0.9665
-3.2683 -7.4655 -2.5066 0.9665
-2.6566 -7.6999 -2.5053 0.9665
-2.5009 -7.7507 -2.5050 0.9665
-2.1867 -7.8428 -2.5043 0.9665
-1.8692 -7.9222 -2.5036 0.9665
-1.7093 -7.9572 -2.5033 0.9665
-1.5488 -7.9888 -2.5029 0.9665
-1.3877 -8.0173 -2.5026 0.9665
-1.2260 -8.0424 -2.5023 0.9665
-0.4125 -8.1194 -2.5006 0.9665
-0.2491 -8.1249 -2.5002 0.9666
0.0777 -8.1262 -2.4996 0.9666
0.5672 -8.1035 -2.4986 0.9666
0.8922 -8.0721 -2.4979 0.9666
1.2157 -8.0275 -2.4973 0.9666
2.0139 -7.8600 -2.4957 0.9666
2.1712 -7.8170 -2.4954 0.9666
2.3276 -7.7708 -2.4951 0.9666
2.4831 -7.7215 -2.4947 0.9666
3.5388 -7.2909 -2.4927 0.9667
3.8281 -7.1412 -2.4922 0.9667
3.9705 -7.0620 -2.4919 0.9667
4.1113 -6.9801 -2.4916 0.9667
4.2503 -6.8953 -2.4914 0.9667
4.3876 -6.8078 -2.4911 0.9667
4.6568 -6.6245 -2.4906 0.9667
4.7886 -6.5290 -2.4904 0.9667
4.9184 -6.4308 -2.4902 0.9667
5.0462 -6.3300 -2.4899 0.9667
5.5365 -5.9021 -2.4891 0.9667
5.6536 -5.7891 -2.4889 0.9667
6.7807 -4.4047 -2.4870 0.9667
6.8675 -4.2672 -2.4869 0.9667
7.1867 -3.7011 -2.4864 0.9667
7.3291 -3.4089 -2.4862 0.9667
7.3959 -3.2607 -2.4861 0.9667
7.5783 -2.8087 -2.4859 0.9667
7.6330 -2.6557 -2.4858 0.9667
7.6847 -2.5017 -2.4857 0.9667
7.7333 -2.3467 -2.4857 0.9667
7.7788 -2.1907 -2.4856 0.9667
7.8211 -2.0338 -2.4856 0.9667
7.9590 -1.3989 -2.4855 0.9667
7.9855 -1.2386 -2.4855 0.9667
8.0457 -0.7550 -2.4856 0.9667
8.0593 -0.5931 -2.4856 0.9667
8.0697 -0.4310 -2.4856 0.9667
8.0769 -0.2687 -2.4856 0.9667
8.0808 -0.1062 -2.4857 0.9667
8.0815 0.0562 -2.4857 0.9667
8.0789 0.2187 -2.4858 0.9667
8.0640 0.5433 -2.4859 0.9667
8.0517 0.7053 -2.4860 0.9667
8.0174 1.0285 -2.4862 0.9667
7.9954 1.1895 -2.4863 0.9667
7.9702 1.3501 -2.4864 0.9667
7.9418 1.5101 -2.4865 0.9667
7.8755 1.8283 -2.4867 0.9667
5.3248 5.2819 -2.4931 0.9689
4.6535 5.8880 -2.4947 0.9689
4.5346 5.9810 -2.4949 0.9689
4.1673 6.2455 -2.4958 0.9688
4.0413 6.3288 -2.4961 0.9688
3.9137 6.4095 -2.4963 0.9688
3.7845 6.4876 -2.4966 0.9688
3.6538 6.5632 -2.4969 0.9688
3.5215 6.6361 -2.4972 0.9688
3.3878 6.7063 -2.4975 0.9688
2.9785 6.9009 -2.4984 0.9688
2.4157 7.1213 -2.4996 0.9688
2.2723 7.1693 -2.5000 0.9688
2.1279 7.2144 -2.5003 0.9688
1.9827 7.2567 -2.5006 0.9688
1.6898 7.3324 -2.5012 0.9688
1.3941 7.3962 -2.5018 0.9688
0.9461 7.4696 -2.5028 0.9688
0.7958 7.4881 -2.5031 0.9688
0.6452 7.5035 -2.5034 0.9688
0.3431 7.5252 -2.5040 0.9687
0.0403 7.5348 -2.5047 0.9687
-0.2627 7.5322 -2.5053 0.9687
-0.5654 7.5175 -2.5059 0.9687
-0.7165 7.5055 -2.5062 0.9687
-0.8673 7.4905 -2.5065 0.9687
-1.0179 7.4724 -2.5068 0.9687
-1.1680 7.4513 -2.5071 0.9687
-1.3177 7.4272 -2.5074 0.9687
-1.4670 7.4001 -2.5077 0.9687
-1.6156 7.3700 -2.5080 0.9687
-1.9110 7.3008 -2.5086 0.9687
-2.2035 7.2197 -2.5092 0.9687
-2.4925 7.1269 -2.5097 0.9687
-2.9185 6.9660 -2.5106 0.9687
-3.3342 6.7796 -2.5113 0.9687
-3.1321 6.0581 -2.2670 0.9717
-3.2255 5.9427 -2.2476 0.9719
-3.3171 5.8288 -2.2293 0.9721
-3.4468 5.7831 -2.2379 0.9720
-4.3803 6.1629 -2.5133 0.9686
-4.5037 6.0741 -2.5135 0.9686
-4.7451 5.8892 -2.5140 0.9686
-4.8629 5.7931 -2.5142 0.9686
-4.9788 5.6946 -2.5144 0.9686
-5.0927 5.5938 -2.5146 0.9686
-5.2045 5.4907 -2.5148 0.9686
-5.3142 5.3854 -2.5150 0.9686
-5.4218 5.2779 -2.5152 0.9686
-5.6304 5.0564 -2.5155 0.9686
-5.7313 4.9425 -2.5157 0.9686
-5.8299 4.8266 -2.5158 0.9686
-5.9261 4.7087 -2.5160 0.9686
-6.1114 4.4672 -2.5163 0.9686
-6.4519 3.9627 -2.5168 0.9686
-6.5305 3.8323 -2.5170 0.9686
-6.6065 3.7004 -2.5171 0.9686
-6.8835 3.1583 -2.5175 0.9686
-6.9459 3.0193 -2.5176 0.9686
-7.1158 2.5954 -2.5178 0.9686
-7.1668 2.4518 -2.5178 0.9686
-7.2148 2.3073 -2.5179 0.9686
-7.2598 2.1619 -2.5179 0.9686
-7.4405 1.4225 -2.5181 0.9686
-7.4917 1.1222 -2.5181 0.9686
-7.5456 0.6686 -2.5180 0.9686
-7.5574 0.5167 -2.5180 0.9686
-7.5662 0.3647 -2.5180 0.9686
-7.5741 -0.0921 -2.5179 0.9686
-7.5639 -0.3964 -2.5177 0.9686
-7.5256 -0.8516 -2.5175 0.9686
-7.4847 -1.1533 -2.5173 0.9686
-7.4597 -1.3035 -2.5172 0.9686
-7.3295 -1.8982 -2.5168 0.9686
-7.1000 -2.6235 -2.5161 0.9686
-7.0454 -2.7655 -2.5159 0.9686
-6.9880 -2.9064 -2.5157 0.9686
-6.6586 -3.5918 -2.5148 0.9686
-6.5846 -3.7246 -2.5147 0.9686
-6.4285 -3.9856 -2.5142 0.9686
-6.3465 -4.1137 -2.5140 0.9686
-6.0854 -4.4876 -2.5134 0.9686
-5.9934 -4.6087 -2.5132 0.9686
-5.8023 -4.8450 -2.5127 0.9686
-5.4980 -5.1844 -2.5120 0.9686
-5.3922 -5.2933 -2.5117 0.9687
-5.2841 -5.4001 -2.5114 0.9687
-5.1740 -5.5047 -2.5112 0.9687
-4.9474 -5.7071 -2.5107 0.9687
-4.8312 -5.8047 -2.5104 0.9687
-4.7130 -5.9000 -2.5101 0.9687
-4.4710 -6.0834 -2.5096 0.9687
-4.2219 -6.2568 -2.5090 0.9687
-4.0948 -6.3397 -2.5087 0.9687
-3.8358 -6.4976 -2.5081 0.9687
-3.4359 -6.7146 -2.5072 0.9687
-2.3139 -7.1712 -2.5048 0.9687
-2.1690 -7.2154 -2.5045 0.9687
-2.0233 -7.2566 -2.5042 0.9687
-1.7295 -7.3303 -2.5035 0.9688
-1.5816 -7.3626 -2.5032 0.9688
-1.4331 -7.3920 -2.5029 0.9688
-1.2840 -7.4184 -2.5026 0.9688
-0.9845 -7.4621 -2.5020 0.9688
-0.8342 -7.4795 -2.5016 0.9688
-0.6836 -7.4938 -2.5013 0.9688
-0.5327 -7.5051 -2.5010 0.9688
-0.3817 -7.5133 -2.5007 0.9688
-0.2305 -7.5186 -2.5004 0.9688
-0.0793 -7.5207 -2.5001 0.9688
0.0719 -7.5199 -2.4998 0.9688
0.3740 -7.5091 -2.4991 0.9688
0.5249 -7.4991 -2.4988 0.9688
0.6754 -7.4861 -2.4985 0.9688
1.4224 -7.3761 -2.4970 0.9688
1.5703 -7.3452 -2.4967 0.9688
1.8638 -7.2744 -2.4962 0.9688
2.0095 -7.2346 -2.4959 0.9688
2.1543 -7.1920 -2.4956 0.9688
2.4411 -7.0980 -2.4950 0.9689
2.5830 -7.0467 -2.4948 0.9689
3.0021 -6.8759 -2.4940 0.9689
3.2754 -6.7483 -2.4934 0.9689
3.4100 -6.6804 -2.4932 0.9689
3.5433 -6.6098 -2.4929 0.9689
3.9341 -6.3824 -2.4922 0.9689
4.1867 -6.2179 -2.4917 0.9689
4.3105 -6.1319 -2.4915 0.9689
4.4325 -6.0435 -2.4913 0.9689
4.5527 -5.9526 -2.4911 0.9689
4.7875 -5.7638 -2.4906 0.9689
4.9020 -5.6659 -2.4904 0.9689
5.0146 -5.5658 -2.4902 0.9689
5.1250 -5.4634 -2.4900 0.9689
5.2334 -5.3589 -2.4899 0.9689
5.3397 -5.2522 -2.4897 0.9689
5.6454 -4.9198 -2.4892 0.9689
5.7428 -4.8050 -2.4890 0.9689
5.8379 -4.6882 -2.4888 0.9689
5.9306 -4.5697 -2.4887 0.9689
6.0209 -4.4492 -2.4885 0.9689
6.1088 -4.3271 -2.4884 0.9689
6.1942 -4.2032 -2.4883 0.9689
6.2771 -4.0776 -2.4881 0.9689
6.4353 -3.8216 -2.4879 0.9689
6.5106 -3.6912 -2.4878 0.9689
6.6531 -3.4262 -2.4876 0.9689
6.9059 -2.8803 -2.4872 0.9690
7.0664 -2.4586 -2.4870 0.9690
7.1143 -2.3160 -2.4870 0.9690
7.2014 -2.0281 -2.4869 0.9690
7.2406 -1.8828 -2.4868 0.9690
7.2769 -1.7369 -2.4868 0.9690
7.3407 -1.4429 -2.4868 0.9690
7.4143 -0.9978 -2.4868 0.9690
7.4611 -0.5491 -2.4868 0.9690
7.4707 -0.3991 -2.4869 0.9690
7.4774 -0.2487 -2.4869 0.9690
7.4816 0.0521 -2.4870 0.9690
7.4738 0.3528 -2.4871 0.9690
7.4540 0.6530 -2.4872 0.9690
7.4222 0.9522 -2.4874 0.9689
7.4018 1.1012 -2.4875 0.9689
7.2906 1.6926 -2.4879 0.9689
7.2555 1.8389 -2.4880 0.9689
4.7504 5.1069 -2.4942 0.9708
4.6472 5.2019 -2.4944 0.9708
4.5421 5.2948 -2.4947 0.9708
4.4352 5.3856 -2.4949 0.9708
4.3265 5.4742 -2.4952 0.9708
4.1037 5.6449 -2.4957 0.9708
3.9898 5.7268 -2.4960 0.9708
3.8743 5.8065 -2.4962 0.9708
3.5184 6.0314 -2.4970 0.9708
3.3968 6.1016 -2.4973 0.9708
3.2738 6.1693 -2.4976 0.9708
2.8969 6.3576 -2.4984 0.9708
2.7689 6.4152 -2.4987 0.9708
2.5093 6.5228 -2.4993 0.9707
2.2456 6.6200 -2.4998 0.9707
2.1123 6.6645 -2.5001 0.9707
1.8431 6.7456 -2.5007 0.9707
1.1575 6.9006 -2.5022 0.9707
0.8794 6.9431 -2.5027 0.9707
0.7397 6.9602 -2.5030 0.9707
0.4594 6.9860 -2.5036 0.9707
0.3189 6.9946 -2.5039 0.9707
0.0375 7.0034 -2.5045 0.9707
-0.1033 7.0035 -2.5048 0.9707
-0.3849 6.9953 -2.5054 0.9707
-0.5255 6.9870 -2.5056 0.9707
-0.6659 6.9758 -2.5059 0.9707
-0.8061 6.9618 -2.5062 0.9707
-0.9460 6.9449 -2.5065 0.9707
-1.5015 6.8495 -2.5076 0.9707
-1.6391 6.8187 -2.5079 0.9706
-1.9123 6.7487 -2.5084 0.9706
-2.0478 6.7097 -2.5087 0.9706
-2.1825 6.6678 -2.5089 0.9706
-2.3164 6.6233 -2.5092 0.9706
-2.5813 6.5262 -2.5097 0.9706
-2.7122 6.4736 -2.5100 0.9706
-2.8421 6.4184 -2.5102 0.9706
-3.0984 6.3002 -2.5107 0.9706
-3.4735 6.1037 -2.5114 0.9706
-3.7441 5.7436 -2.4518 0.9713
-3.9540 5.8070 -2.5123 0.9706
-4.1850 5.6443 -2.5127 0.9706
-4.4092 5.4724 -2.5131 0.9706
-4.6263 5.2915 -2.5135 0.9706
-4.7321 5.1978 -2.5137 0.9706
-4.9380 5.0041 -2.5141 0.9706
-5.0379 4.9042 -2.5142 0.9706
-5.1358 4.8022 -2.5144 0.9706
-5.2317 4.6983 -2.5146 0.9706
-5.3254 4.5925 -2.5147 0.9706
-5.4170 4.4847 -2.5149 0.9706
-5.5064 4.3752 -2.5150 0.9706
-5.6784 4.1508 -2.5153 0.9706
-5.7610 4.0360 -2.5155 0.9706
-5.9947 3.6819 -2.5158 0.9706
-6.0678 3.5608 -2.5159 0.9706
-6.1384 3.4383 -2.5160 0.9706
-6.3352 3.0623 -2.5163 0.9706
-6.3957 2.9344 -2.5164 0.9705
-6.4536 2.8054 -2.5165 0.9705
-6.5615 2.5438 -2.5166 0.9705
-6.7844 1.8726 -2.5169 0.9705
-6.8851 1.4603 -2.5169 0.9705
-6.9607 1.0426 -2.5170 0.9705
-6.9802 0.9025 -2.5169 0.9705
-6.9969 0.7620 -2.5169 0.9705
-7.0299 0.3388 -2.5169 0.9705
-7.0376 0.0560 -2.5168 0.9705
-7.0372 -0.0855 -2.5167 0.9705
-7.0278 -0.3683 -2.5166 0.9705
-7.0188 -0.5096 -2.5166 0.9705
-6.9543 -1.0716 -2.5163 0.9706
-6.9051 -1.3502 -2.5161 0.9706
-6.8762 -1.4887 -2.5160 0.9706
-6.8446 -1.6265 -2.5159 0.9706
-6.8102 -1.7637 -2.5157 0.9706
-6.7731 -1.9002 -2.5156 0.9706
-6.7332 -2.0359 -2.5155 0.9706
-6.6905 -2.1707 -2.5154 0.9706
-6.5971 -2.4377 -2.5151 0.9706
-6.4931 -2.7006 -2.5148 0.9706
-6.1872 -3.3375 -2.5140 0.9706
-5.9734 -3.7035 -2.5134 0.9706
-5.8973 -3.8226 -2.5132 0.9706
-5.6548 -4.1701 -2.5126 0.9706
-5.3918 -4.5022 -2.5120 0.9706
-5.2055 -4.7145 -2.5115 0.9706
-5.1092 -4.8177 -2.5113 0.9706
-4.9105 -5.0183 -2.5108 0.9706
-4.7039 -5.2106 -2.5103 0.9706
-4.5977 -5.3036 -2.5101 0.9706
-4.4897 -5.3944 -2.5098 0.9706
-4.3799 -5.4830 -2.5096 0.9706
-4.1551 -5.6535 -2.5090 0.9706
-4.0402 -5.7353 -2.5088 0.9706
-3.9236 -5.8147 -2.5085 0.9706
-3.8056 -5.8918 -2.5083 0.9706
-3.4423 -6.1085 -2.5074 0.9707
-3.0669 -6.3028 -2.5066 0.9707
-2.9392 -6.3625 -2.5063 0.9707
-2.6805 -6.4741 -2.5058 0.9707
-2.4175 -6.5751 -2.5052 0.9707
-2.1507 -6.6654 -2.5046 0.9707
-2.0161 -6.7065 -2.5043 0.9707
-1.7444 -6.7806 -2.5037 0.9707
-1.3321 -6.8710 -2.5029 0.9707
-1.0545 -6.9173 -2.5023 0.9707
-0.7754 -6.9525 -2.5017 0.9707
-0.6354 -6.9659 -2.5014 0.9707
-0.3548 -6.9842 -2.5008 0.9707
-0.2143 -6.9891 -2.5005 0.9707
0.0668 -6.9905 -2.4999 0.9707
0.2073 -6.9869 -2.4997 0.9707
0.6279 -6.9593 -2.4988 0.9708
1.0459 -6.9065 -2.4980 0.9708
1.4598 -6.8286 -2.4971 0.9708
1.5966 -6.7971 -2.4969 0.9708
1.7328 -6.7629 -2.4966 0.9708
1.8682 -6.7260 -2.4963 0.9708
2.5325 -6.5012 -2.4950 0.9708
2.7912 -6.3929 -2.4945 0.9708
3.1706 -6.2112 -2.4938 0.9708
3.2945 -6.1456 -2.4936 0.9708
3.4170 -6.0776 -2.4934 0.9708
3.6579 -5.9343 -2.4929 0.9708
3.7762 -5.8590 -2.4927 0.9708
4.0080 -5.7015 -2.4923 0.9708
4.1214 -5.6193 -2.4921 0.9708
4.2332 -5.5349 -2.4919 0.9708
4.3433 -5.4482 -2.4917 0.9708
4.4516 -5.3594 -2.4915 0.9708
4.5581 -5.2684 -2.4913 0.9708
4.8663 -4.9830 -2.4907 0.9708
4.9652 -4.8838 -2.4906 0.9708
5.0620 -4.7827 -2.4904 0.9708
5.3401 -4.4680 -2.4899 0.9709
5.5988 -4.1373 -2.4895 0.9709
5.6805 -4.0237 -2.4894 0.9709
5.9119 -3.6734 -2.4890 0.9709
6.1218 -3.3100 -2.4887 0.9709
6.1868 -3.1861 -2.4886 0.9709
6.3670 -2.8071 -2.4883 0.9709
6.4220 -2.6785 -2.4883 0.9709
6.4743 -2.5487 -2.4882 0.9709
6.5241 -2.4180 -2.4881 0.9709
6.6158 -2.1537 -2.4880 0.9709
6.6968 -1.8859 -2.4880 0.9709
6.8948 -0.9279 -2.4879 0.9709
6.9266 -0.6500 -2.4879 0.9709
6.9384 -0.5106 -2.4879 0.9709
6.9473 -0.3710 -2.4879 0.9709
6.9573 0.0484 -2.4880 0.9709
6.9551 0.1883 -2.4881 0.9709
6.9501 0.3281 -2.4882 0.9709
6.9422 0.4677 -2.4882 0.9709
6.8830 1.0240 -2.4885 0.9709
6.8613 1.1623 -2.4886 0.9709
6.8096 1.4372 -2.4888 0.9709
4.6211 4.5838 -2.4943 0.9725
4.4338 4.7667 -2.4947 0.9725
4.3375 4.8553 -2.4950 0.9725
4.0381 5.1093 -2.4957 0.9725
3.9349 5.1900 -2.4959 0.9725
3.7238 5.3450 -2.4964 0.9725
3.1702 5.6946 -2.4976 0.9725
3.0554 5.7577 -2.4979 0.9725
2.9394 5.8186 -2.4982 0.9725
2.8221 5.8771 -2.4984 0.9725
2.4634 6.0385 -2.4992 0.9725
2.2192 6.1339 -2.4997 0.9724
2.0957 6.1779 -2.5000 0.9724
1.9712 6.2195 -2.5003 0.9724
1.8460 6.2585 -2.5005 0.9724
1.5933 6.3291 -2.5011 0.9724
1.4659 6.3605 -2.5014 0.9724
1.0802 6.4394 -2.5022 0.9724
0.6903 6.4949 -2.5030 0.9724
0.5596 6.5082 -2.5033 0.9724
0.0350 6.5350 -2.5043 0.9724
-0.0964 6.5350 -2.5046 0.9724
-0.3591 6.5273 -2.5052 0.9724
-0.4903 6.5194 -2.5054 0.9724
-0.7522 6.4958 -2.5060 0.9724
-1.0129 6.4617 -2.5065 0.9724
-1.1427 6.4407 -2.5067 0.9724
-1.4010 6.3908 -2.5073 0.9724
-1.5293 6.3620 -2.5075 0.9724
-1.7842 6.2967 -2.5080 0.9724
-1.9106 6.2602 -2.5083 0.9724
-2.0363 6.2211 -2.5085 0.9723
-2.6516 5.9882 -2.5097 0.9723
-3.1252 5.7579 -2.5106 0.9723
-3.2406 5.6944 -2.5108 0.9723
-3.4675 5.5604 -2.5112 0.9723
-3.5788 5.4900 -2.5114 0.9723
-3.6888 5.4174 -2.5116 0.9723
-3.7973 5.3426 -2.5118 0.9723
-3.9042 5.2656 -2.5120 0.9723
-4.4145 4.8490 -2.5129 0.9723
-4.5114 4.7595 -2.5131 0.9723
-4.8804 4.3829 -2.5138 0.9723
-4.9679 4.2841 -2.5139 0.9723
-5.1366 4.0814 -2.5142 0.9723
-5.2971 3.8720 -2.5144 0.9723
-5.5216 3.5462 -2.5148 0.9723
-5.5921 3.4346 -2.5149 0.9723
-5.8508 2.9747 -2.5153 0.9723
-6.0200 2.6169 -2.5155 0.9723
-6.0716 2.4954 -2.5156 0.9723
-6.1207 2.3729 -2.5157 0.9723
-6.2114 2.1250 -2.5158 0.9723
-6.2530 1.9997 -2.5158 0.9723
-6.2920 1.8736 -2.5158 0.9723
-6.3285 1.7468 -2.5159 0.9723
-6.3624 1.6193 -2.5159 0.9723
-6.4486 1.2328 -2.5160 0.9723
-6.4721 1.1029 -2.5160 0.9723
-6.4929 0.9726 -2.5160 0.9723
-6.5112 0.8419 -2.5160 0.9723
-6.5397 0.5794 -2.5159 0.9723
-6.5499 0.4478 -2.5159 0.9723
-6.5575 0.3161 -2.5159 0.9723
-6.5625 0.1842 -2.5159 0.9723
-6.5644 -0.0798 -2.5158 0.9723
-6.5613 -0.2117 -2.5157 0.9723
-6.5556 -0.3436 -2.5157 0.9723
-6.5472 -0.4753 -2.5156 0.9723
-6.5362 -0.6068 -2.5156 0.9723
-6.5061 -0.8690 -2.5154 0.9723
-6.4871 -0.9996 -2.5153 0.9723
-6.4144 -1.3887 -2.5151 0.9723
-6.3528 -1.6453 -2.5148 0.9723
-6.2412 -2.0250 -2.5145 0.9723
-6.1541 -2.2740 -2.5142 0.9723
-6.0049 -2.6404 -2.5138 0.9723
-5.8931 -2.8793 -2.5135 0.9723
-5.8337 -2.9970 -2.5133 0.9723
-5.7078 -3.2286 -2.5130 0.9723
-5.4284 -3.6757 -2.5123 0.9723
-5.3530 -3.7838 -2.5121 0.9723
-5.2755 -3.8903 -2.5119 0.9723
-5.1958 -3.9953 -2.5117 0.9723
-5.1140 -4.0986 -2.5115 0.9723
-4.8564 -4.3983 -2.5109 0.9723
-4.4858 -4.7726 -2.5100 0.9723
-4.3886 -4.8613 -2.5098 0.9723
-4.2895 -4.9481 -2.5095 0.9723
-4.1888 -5.0329 -2.5093 0.9723
-3.9823 -5.1962 -2.5088 0.9723
-3.8767 -5.2747 -2.5086 0.9723
-3.6608 -5.4252 -2.5081 0.9724
-3.5506 -5.4972 -2.5079 0.9724
-3.3261 -5.6344 -2.5073 0.9724
-3.2119 -5.6995 -2.5071 0.9724
-3.0963 -5.7623 -2.5068 0.9724
-2.8616 -5.8809 -2.5063 0.9724
-2.7425 -5.9366 -2.5061 0.9724
-2.6223 -5.9899 -2.5058 0.9724
-2.3789 -6.0892 -2.5053 0.9724
-1.8812 -6.2580 -2.5042 0.9724
-1.7548 -6.2938 -2.5039 0.9724
-1.6278 -6.3272 -2.5036 0.9724
-1.5001 -6.3579 -2.5034 0.9724
-1.3718 -6.3861 -2.5031 0.9724
-1.1137 -6.4347 -2.5025 0.9724
-0.4621 -6.5104 -2.5012 0.9724
-0.3311 -6.5177 -2.5009 0.9724
-0.2000 -6.5223 -2.5006 0.9724
-0.0688 -6.5243 -2.5004 0.9724
0.8464 -6.4647 -2.4985 0.9725
1.1054 -6.4241 -2.4980 0.9725
1.4902 -6.3438 -2.4972 0.9725
1.7436 -6.2775 -2.4967 0.9725
1.8693 -6.2406 -2.4965 0.9725
2.2414 -6.1148 -2.4958 0.9725
2.4849 -6.0186 -2.4953 0.9725
2.8424 -5.8563 -2.4946 0.9725
2.9593 -5.7975 -2.4944 0.9725
3.0750 -5.7363 -2.4942 0.9725
3.1894 -5.6728 -2.4940 0.9725
3.4143 -5.5391 -2.4935 0.9725
3.5247 -5.4688 -2.4933 0.9725
3.8470 -5.2452 -2.4927 0.9725
4.3524 -4.8309 -2.4918 0.9725
4.5425 -4.6514 -2.4915 0.9725
4.6348 -4.5589 -2.4913 0.9725
4.8137 -4.3683 -2.4910 0.9725
4.9849 -4.1708 -2.4907 0.9725
5.0674 -4.0695 -2.4906 0.9725
5.2264 -3.8621 -2.4904 0.9725
5.4489 -3.5396 -2.4900 0.9726
5.5187 -3.4292 -2.4899 0.9726
5.5863 -3.3174 -2.4898 0.9726
5.6517 -3.2043 -2.4897 0.9726
5.7147 -3.0899 -2.4896 0.9726
5.8339 -2.8575 -2.4894 0.9726
6.1344 -2.1343 -2.4890 0.9726
6.1760 -2.0105 -2.4890 0.9726
6.2150 -1.8859 -2.4890 0.9726
6.2516 -1.7606 -2.4889 0.9726
6.2857 -1.6345 -2.4889 0.9726
6.3172 -1.5078 -2.4889 0.9726
6.3462 -1.3805 -2.4888 0.9726
6.3965 -1.1243 -2.4888 0.9726
6.4527 -0.7367 -2.4888 0.9726
6.4662 -0.6068 -2.4888 0.9726
6.4771 -0.4767 -2.4889 0.9726
6.4855 -0.3464 -2.4889 0.9726
6.4912 -0.2159 -2.4889 0.9726
6.4880 0.3063 -2.4891 0.9726
6.4431 0.8266 -2.4894 0.9726
6.4051 1.0850 -2.4895 0.9726
6.3568 1.3417 -2.4897 0.9726
6.3288 1.4693 -2.4898 0.9726
4.2409 4.3793 -2.4950 0.9740
4.1524 4.4640 -2.4952 0.9740
3.9702 4.6282 -2.4957 0.9740
3.5869 4.9339 -2.4965 0.9740
3.4873 5.0054 -2.4968 0.9740
3.2839 5.1425 -2.4972 0.9740
3.0751 5.2714 -2.4977 0.9740
2.9687 5.3326 -2.4979 0.9740
2.8612 5.3918 -2.4982 0.9740
2.7525 5.4487 -2.4984 0.9740
2.6427 5.5035 -2.4987 0.9740
2.5317 5.5561 -2.4989 0.9740
2.4198 5.6064 -2.4992 0.9740
2.1929 5.7003 -2.4996 0.9739
2.0780 5.7438 -2.4999 0.9739
1.7286 5.8604 -2.5007 0.9739
1.4919 5.9263 -2.5012 0.9739
1.2527 5.9827 -2.5017 0.9739
1.1323 6.0073 -2.5019 0.9739
0.8901 6.0492 -2.5024 0.9739
0.7684 6.0665 -2.5027 0.9739
0.6463 6.0813 -2.5029 0.9739
0.5240 6.0937 -2.5032 0.9739
0.2786 6.1111 -2.5037 0.9739
-0.5817 6.0940 -2.5055 0.9739
-0.8264 6.0669 -2.5060 0.9739
-0.9483 6.0497 -2.5062 0.9739
-1.0698 6.0300 -2.5065 0.9739
-1.4318 5.9562 -2.5072 0.9739
-1.5514 5.9268 -2.5074 0.9739
-1.7887 5.8607 -2.5079 0.9739
-2.2546 5.7001 -2.5088 0.9739
-2.3689 5.6542 -2.5090 0.9739
-2.5947 5.5553 -2.5094 0.9738
-2.8164 5.4474 -2.5099 0.9738
-3.0336 5.3307 -2.5103 0.9738
-3.1404 5.2690 -2.5105 0.9738
-3.3502 5.1393 -2.5109 0.9738
-3.5546 5.0012 -2.5112 0.9738
-3.8505 4.7789 -2.5118 0.9738
-3.9460 4.7008 -2.5119 0.9738
-4.1323 4.5390 -2.5123 0.9738
-4.2231 4.4553 -2.5124 0.9738
-4.3120 4.3698 -2.5126 0.9738
-4.4847 4.1934 -2.5129 0.9738
-4.5684 4.1026 -2.5130 0.9738
-4.8081 3.8204 -2.5134 0.9738
-4.8842 3.7231 -2.5135 0.9738
-4.9583 3.6244 -2.5137 0.9738
-5.0304 3.5241 -2.5138 0.9738
-5.1005 3.4224 -2.5139 0.9738
-5.1685 3.3193 -2.5140 0.9738
-5.2344 3.2149 -2.5141 0.9738
-5.3598 3.0021 -2.5143 0.9738
-5.6349 2.4495 -2.5147 0.9738
-5.7291 2.2210 -2.5148 0.9738
-5.7727 2.1055 -2.5149 0.9738
-5.8529 1.8718 -2.5149 0.9738
-5.8894 1.7538 -2.5150 0.9738
-5.9553 1.5156 -2.5150 0.9738
-6.0115 1.2750 -2.5151 0.9738
-6.0359 1.1539 -2.5151 0.9738
-6.0579 1.0324 -2.5151 0.9738
-6.0774 0.9104 -2.5151 0.9738
-6.0945 0.7880 -2.5151 0.9738
-6.1091 0.6653 -2.5151 0.9738
-6.1212 0.5424 -2.5151 0.9738
-6.1379 0.2958 -2.5150 0.9738
-6.1447 0.0489 -2.5150 0.9738
-6.1443 -0.0747 -2.5149 0.9738
-6.1283 -0.4449 -2.5148 0.9738
-6.1052 -0.6909 -2.5146 0.9738
-6.0899 -0.8134 -2.5146 0.9738
-6.0040 -1.2999 -2.5142 0.9738
-5.9765 -1.4202 -2.5141 0.9738
-5.8421 -1.8954 -2.5137 0.9738
-5.8025 -2.0124 -2.5136 0.9738
-5.7606 -2.1285 -2.5135 0.9738
-5.7164 -2.2438 -2.5133 0.9738
-5.6698 -2.3582 -2.5132 0.9738
-5.6209 -2.4715 -2.5131 0.9738
-5.5698 -2.5839 -2.5129 0.9738
-5.4608 -2.8054 -2.5126 0.9738
-5.4029 -2.9144 -2.5125 0.9738
-5.2807 -3.1289 -2.5122 0.9738
-5.2164 -3.2342 -2.5120 0.9738
-5.0815 -3.4408 -2.5117 0.9738
-5.0110 -3.5420 -2.5115 0.9738
-4.7088 -3.9319 -2.5107 0.9738
-4.6285 -4.0255 -2.5105 0.9738
-4.5462 -4.1174 -2.5103 0.9738
-4.3763 -4.2961 -2.5099 0.9738
-4.2887 -4.3829 -2.5097 0.9738
-4.1994 -4.4678 -2.5095 0.9738
-3.7282 -4.8646 -2.5084 0.9739
-3.5290 -5.0096 -2.5080 0.9739
-3.0070 -5.3360 -2.5068 0.9739
-2.8989 -5.3948 -2.5065 0.9739
-2.7895 -5.4515 -2.5063 0.9739
-2.6791 -5.5060 -2.5061 0.9739
-2.5676 -5.5582 -2.5058 0.9739
-2.2273 -5.7011 -2.5051 0.9739
-1.7614 -5.8592 -2.5041 0.9739
-1.4045 -5.9530 -2.5033 0.9739
-1.2844 -5.9794 -2.5030 0.9739
-1.0428 -6.0250 -2.5025 0.9739
-0.9214 -6.0441 -2.5023 0.9739
-0.7996 -6.0608 -2.5020 0.9739
-0.5552 -6.0868 -2.5015 0.9739
-0.4327 -6.0961 -2.5013 0.9739
-0.3100 -6.1030 -2.5010 0.9739
0.1812 -6.1057 -2.5000 0.9739
0.3039 -6.1002 -2.4997 0.9739
0.6708 -6.0690 -2.4990 0.9740
0.7926 -6.0537 -2.4988 0.9740
