ply
format ascii 1.0
element vertex 1601
property float32 x
property float32 y
property float32 z
property float32 I
end_header
9.5253 4.7831 -2.5051 0.9571
9.4268 4.9737 -2.5050 0.9571
9.1083 5.5330 -2.5047 0.9572
8.8776 5.8947 -2.5045 0.9572
8.7567 6.0720 -2.5044 0.9572
8.6324 6.2468 -2.5043 0.9572
8.2386 6.7556 -2.5040 0.9572
7.7933 7.2198 -2.4968 0.9573
7.5642 7.2959 -2.4700 0.9577
7.0533 7.3738 -2.3982 0.9589
6.6189 7.5023 -2.3513 0.9597
6.4644 7.6315 -2.3506 0.9597
5.6635 8.2406 -2.3500 0.9597
5.1551 8.5663 -2.3497 0.9598
4.9813 8.6680 -2.3496 0.9598
4.8056 8.7661 -2.3495 0.9598
4.4485 8.9516 -2.3493 0.9598
4.0842 9.1226 -2.3491 0.9598
3.5256 9.3512 -2.3488 0.9598
3.1460 9.4847 -2.3485 0.9598
2.7614 9.6028 -2.3483 0.9598
2.5674 9.6560 -2.3482 0.9598
2.3724 9.7053 -2.3481 0.9598
2.1765 9.7507 -2.3480 0.9598
1.5837 9.8629 -2.3477 0.9598
0.9854 9.9393 -2.3474 0.9598
0.3836 9.9794 -2.3471 0.9598
0.1826 9.9846 -2.3470 0.9598
-0.0184 9.9859 -2.3469 0.9598
-0.4203 9.9762 -2.3467 0.9598
-0.8215 9.9504 -2.3465 0.9598
-1.2213 9.9085 -2.3464 0.9598
-1.4204 9.8816 -2.3463 0.9598
-1.6190 9.8506 -2.3462 0.9598
-2.2104 9.7338 -2.3459 0.9598
-2.4058 9.6870 -2.3458 0.9598
-2.6002 9.6363 -2.3457 0.9598
-2.7936 9.5816 -2.3457 0.9598
-2.9858 9.5231 -2.3456 0.9598
-3.1768 9.4608 -2.3455 0.9598
-3.4322 8.4857 -2.1513 0.9631
-4.1108 9.0922 -2.3451 0.9598
-4.6517 8.8267 -2.3449 0.9598
-4.8284 8.7311 -2.3449 0.9598
-5.1756 8.5292 -2.3448 0.9598
-5.8444 8.0844 -2.3445 0.9598
-6.0058 7.9650 -2.3445 0.9598
-6.4536 7.8778 -2.3934 0.9590
-6.7000 7.8508 -2.4257 0.9585
-6.9531 7.8228 -2.4598 0.9579
-7.5137 7.4896 -2.4934 0.9573
-7.6697 7.3433 -2.4956 0.9573
-7.8180 7.1892 -2.4962 0.9573
-7.9610 7.0303 -2.4961 0.9573
-8.1008 6.8685 -2.4961 0.9573
-8.2373 6.7040 -2.4961 0.9573
-8.5003 6.3668 -2.4960 0.9573
-8.8689 5.8420 -2.4960 0.9573
-8.9847 5.6622 -2.4960 0.9573
-9.3099 5.1095 -2.4959 0.9573
-9.4109 4.9210 -2.4959 0.9573
-9.7762 4.1481 -2.4959 0.9573
-8.1407 -5.1832 -2.4988 0.9609
-8.0350 -5.3462 -2.4988 0.9609
-7.9260 -5.5071 -2.4989 0.9609
-7.8138 -5.6657 -2.4990 0.9609
-7.3338 -6.2768 -2.4994 0.9609
-7.0757 -6.5675 -2.4996 0.9609
-6.9424 -6.7088 -2.4997 0.9609
-6.5255 -7.1165 -2.5000 0.9609
-6.0848 -7.4983 -2.5003 0.9609
-5.4628 -7.9647 -2.5007 0.9609
-5.3015 -8.0734 -2.5008 0.9609
-5.1381 -8.1788 -2.5009 0.9609
-4.9726 -8.2809 -2.5010 0.9609
-4.8051 -8.3797 -2.5011 0.9609
-4.2911 -8.6555 -2.5014 0.9609
-4.1162 -8.7405 -2.5015 0.9609
-3.7613 -8.8999 -2.5017 0.9609
-3.5815 -8.9742 -2.5018 0.9609
-3.4003 -9.0448 -2.5019 0.9609
-3.0337 -9.1751 -2.5021 0.9609
-2.8485 -9.2347 -2.5022 0.9609
-2.6621 -9.2906 -2.5023 0.9609
-1.7154 -9.5129 -2.5028 0.9608
-1.5236 -9.5459 -2.5029 0.9608
-1.3311 -9.5750 -2.5030 0.9608
-1.1382 -9.6003 -2.5031 0.9608
-0.5567 -9.6526 -2.5034 0.9608
-0.3622 -9.6622 -2.5035 0.9608
0.2217 -9.6675 -2.5038 0.9608
0.8049 -9.6376 -2.5040 0.9608
0.9988 -9.6198 -2.5041 0.9608
1.1923 -9.5981 -2.5042 0.9608
1.3853 -9.5725 -2.5043 0.9608
1.7696 -9.5096 -2.5045 0.9608
1.9608 -9.4724 -2.5046 0.9608
2.1511 -9.4313 -2.5046 0.9608
2.3406 -9.3864 -2.5047 0.9608
2.5292 -9.3376 -2.5048 0.9608
2.7167 -9.2851 -2.5049 0.9608
3.4553 -9.0376 -2.5052 0.9608
3.6366 -8.9665 -2.5053 0.9608
3.8165 -8.8917 -2.5053 0.9608
4.1715 -8.7313 -2.5055 0.9608
4.8609 -8.3683 -2.5057 0.9608
5.3575 -8.0602 -2.5059 0.9608
5.6779 -7.8383 -2.5060 0.9608
6.2904 -7.3567 -2.5062 0.9608
6.9984 -6.6879 -2.5064 0.9608
7.1317 -6.5457 -2.5064 0.9608
7.2622 -6.4009 -2.5064 0.9608
7.3896 -6.2535 -2.5065 0.9608
7.6356 -5.9511 -2.5065 0.9608
8.1952 -5.1538 -2.5066 0.9608
8.2973 -4.9878 -2.5066 0.9608
8.3961 -4.8198 -2.5066 0.9608
8.5834 -4.4780 -2.5066 0.9608
8.7567 -4.1288 -2.5067 0.9608
8.8380 -3.9517 -2.5067 0.9608
8.9899 -3.5927 -2.5066 0.9608
9.1903 -3.0435 -2.5066 0.9608
9.3053 -2.6711 -2.5066 0.9608
9.3571 -2.4832 -2.5066 0.9608
9.4051 -2.2943 -2.5066 0.9608
9.4493 -2.1045 -2.5065 0.9608
9.4897 -1.9138 -2.5065 0.9608
9.5588 -1.5302 -2.5065 0.9608
9.6125 -1.1442 -2.5064 0.9608
9.6334 -0.9504 -2.5064 0.9608
9.6636 -0.5619 -2.5063 0.9608
9.6728 -0.3672 -2.5063 0.9608
9.6768 0.2173 -2.5061 0.9608
9.6703 0.4121 -2.5061 0.9608
9.6455 0.8009 -2.5060 0.9608
9.6272 0.9949 -2.5059 0.9608
9.5790 1.3816 -2.5058 0.9608
9.5490 1.5741 -2.5058 0.9608
9.4359 2.1475 -2.5056 0.9608
9.3905 2.3369 -2.5055 0.9608
9.3413 2.5254 -2.5055 0.9608
9.1711 3.0844 -2.5053 0.9608
9.0390 3.4509 -2.5051 0.9608
8.8922 3.8117 -2.5050 0.9608
8.7310 4.1663 -2.5048 0.9608
8.4628 4.6853 -2.5046 0.9608
8.1637 5.1870 -2.5043 0.9608
7.8350 5.6698 -2.5040 0.9608
7.4776 6.1317 -2.5038 0.9608
7.2242 6.4272 -2.5036 0.9608
6.9591 6.7123 -2.5034 0.9608
6.8223 6.8508 -2.5033 0.9608
6.6811 6.9847 -2.5026 0.9609
6.5340 7.1122 -2.5006 0.9609
6.3847 7.2368 -2.4987 0.9609
6.0772 7.4744 -2.4942 0.9610
5.8568 7.5072 -2.4653 0.9614
5.4300 7.5698 -2.4121 0.9622
5.2229 7.5996 -2.3876 0.9626
5.0193 7.6279 -2.3642 0.9630
4.6792 7.7756 -2.3497 0.9632
4.5215 7.8679 -2.3496 0.9632
4.0379 8.1254 -2.3493 0.9632
3.8733 8.2047 -2.3492 0.9632
3.7073 8.2807 -2.3491 0.9632
3.2003 8.4883 -2.3488 0.9632
2.8558 8.6096 -2.3486 0.9632
2.3306 8.7652 -2.3483 0.9632
1.9757 8.8512 -2.3481 0.9632
1.7971 8.8888 -2.3480 0.9632
1.0760 9.0031 -2.3477 0.9632
0.8945 9.0226 -2.3476 0.9632
0.3483 9.0591 -2.3473 0.9632
0.1658 9.0639 -2.3472 0.9632
-0.0167 9.0651 -2.3471 0.9632
-0.1992 9.0626 -2.3470 0.9632
-0.5638 9.0465 -2.3469 0.9632
-1.1087 8.9951 -2.3466 0.9632
-1.4698 8.9425 -2.3464 0.9632
-1.8284 8.8755 -2.3463 0.9632
-2.0067 8.8366 -2.3462 0.9633
-2.3606 8.7481 -2.3461 0.9633
-2.8841 8.5889 -2.3458 0.9633
-3.0563 8.5288 -2.3458 0.9633
-3.3969 8.3984 -2.3456 0.9633
-3.8973 8.1774 -2.3454 0.9633
-4.2252 8.0174 -2.3465 0.9632
-4.4246 8.0010 -2.3673 0.9629
-4.6305 7.9891 -2.3909 0.9626
-4.8405 7.9768 -2.4158 0.9622
-5.2676 7.9413 -2.4674 0.9614
-5.4759 7.9051 -2.4899 0.9610
-5.7971 7.6882 -2.4931 0.9610
-6.4065 7.2078 -2.4969 0.9609
-6.5502 7.0773 -2.4968 0.9609
-6.6912 6.9439 -2.4968 0.9609
-6.8296 6.8076 -2.4967 0.9609
-6.9651 6.6687 -2.4967 0.9609
-7.2277 6.3828 -2.4966 0.9609
-7.7174 5.7804 -2.4965 0.9609
-7.8322 5.6238 -2.4965 0.9609
-8.2590 4.9754 -2.4965 0.9609
-8.5442 4.4678 -2.4964 0.9609
-8.6323 4.2949 -2.4964 0.9609
-8.8758 3.7660 -2.4964 0.9609
-7.5399 -4.5900 -2.4989 0.9640
-7.4462 -4.7410 -2.4990 0.9640
-7.2498 -5.0373 -2.4992 0.9640
-7.1472 -5.1824 -2.4992 0.9640
-7.0416 -5.3253 -2.4993 0.9640
-6.9332 -5.4662 -2.4994 0.9640
-6.7080 -5.7412 -2.4996 0.9640
-6.5913 -5.8753 -2.4997 0.9640
-6.3499 -6.1363 -2.4998 0.9640
-6.0982 -6.3874 -2.5000 0.9640
-5.8366 -6.6282 -2.5002 0.9640
-5.2852 -7.0772 -2.5005 0.9639
-5.1419 -7.1825 -2.5006 0.9639
-4.9964 -7.2848 -2.5007 0.9639
-4.5481 -7.5739 -2.5010 0.9639
-4.3949 -7.6642 -2.5011 0.9639
-3.9247 -7.9164 -2.5014 0.9639
-3.4401 -8.1398 -2.5017 0.9639
-3.1099 -8.2723 -2.5019 0.9639
-2.9428 -8.3336 -2.5020 0.9639
-2.6052 -8.4459 -2.5021 0.9639
-2.4347 -8.4970 -2.5022 0.9639
-2.2632 -8.5446 -2.5023 0.9639
-2.0908 -8.5887 -2.5024 0.9639
-1.9176 -8.6294 -2.5025 0.9639
-1.3934 -8.7304 -2.5028 0.9639
-0.8640 -8.7995 -2.5031 0.9639
-0.5091 -8.8277 -2.5032 0.9639
-0.1533 -8.8417 -2.5034 0.9639
0.0247 -8.8433 -2.5035 0.9639
0.7361 -8.8138 -2.5038 0.9639
1.4429 -8.7272 -2.5041 0.9639
1.7931 -8.6625 -2.5043 0.9639
1.9672 -8.6250 -2.5044 0.9639
2.3130 -8.5393 -2.5045 0.9639
2.9927 -8.3265 -2.5048 0.9639
3.3256 -8.1997 -2.5049 0.9639
3.4901 -8.1313 -2.5050 0.9639
3.8148 -7.9846 -2.5051 0.9639
3.9749 -7.9064 -2.5052 0.9639
4.5984 -7.5617 -2.5054 0.9639
4.7498 -7.4677 -2.5055 0.9639
4.8993 -7.3708 -2.5055 0.9639
5.0467 -7.2708 -2.5056 0.9639
5.4767 -6.9533 -2.5057 0.9639
5.6157 -6.8417 -2.5057 0.9639
5.7524 -6.7274 -2.5058 0.9639
5.8867 -6.6104 -2.5058 0.9639
6.1482 -6.3682 -2.5059 0.9639
6.2753 -6.2432 -2.5059 0.9639
6.6409 -5.8533 -2.5060 0.9639
6.7575 -5.7185 -2.5060 0.9639
6.8713 -5.5814 -2.5061 0.9639
7.0905 -5.3003 -2.5061 0.9639
7.2982 -5.0107 -2.5061 0.9639
7.3976 -4.8628 -2.5062 0.9639
7.7650 -4.2520 -2.5062 0.9639
7.8490 -4.0948 -2.5062 0.9639
7.9299 -3.9360 -2.5062 0.9639
8.2208 -3.2854 -2.5062 0.9639
8.2852 -3.1192 -2.5062 0.9639
8.3463 -2.9517 -2.5062 0.9639
8.4040 -2.7831 -2.5062 0.9639
8.5091 -2.4425 -2.5062 0.9639
8.5565 -2.2708 -2.5061 0.9639
8.6778 -1.7501 -2.5061 0.9639
8.7112 -1.5750 -2.5061 0.9639
8.7411 -1.3993 -2.5060 0.9639
8.7674 -1.2231 -2.5060 0.9639
8.7901 -1.0463 -2.5060 0.9639
8.8093 -0.8691 -2.5060 0.9639
8.8249 -0.6916 -2.5059 0.9639
8.8502 -0.1577 -2.5058 0.9639
8.8514 0.0205 -2.5058 0.9639
8.7835 1.0869 -2.5055 0.9639
8.7013 1.6150 -2.5054 0.9639
8.6669 1.7897 -2.5053 0.9639
8.5874 2.1371 -2.5052 0.9639
8.5425 2.3095 -2.5051 0.9639
8.4422 2.6513 -2.5050 0.9639
8.3869 2.8207 -2.5049 0.9639
8.3282 2.9889 -2.5049 0.9639
8.2007 3.3215 -2.5047 0.9639
7.9845 3.8101 -2.5045 0.9639
7.9060 3.9700 -2.5045 0.9639
7.7393 4.2847 -2.5043 0.9639
7.6513 4.4395 -2.5042 0.9639
7.5601 4.5925 -2.5041 0.9639
6.9503 5.4690 -2.5037 0.9639
6.7240 5.7439 -2.5035 0.9639
6.4869 6.0095 -2.5033 0.9639
6.2393 6.2653 -2.5031 0.9639
6.1117 6.3894 -2.5031 0.9639
5.5771 6.8594 -2.5027 0.9639
5.1508 7.1805 -2.5017 0.9639
5.0023 7.2786 -2.5002 0.9640
4.8520 7.3736 -2.4988 0.9640
4.7000 7.4657 -2.4974 0.9640
4.5464 7.5549 -2.4961 0.9640
4.2181 7.6943 -2.4840 0.9642
3.8474 7.7421 -2.4475 0.9647
3.6658 7.7650 -2.4309 0.9649
3.4847 7.7837 -2.4142 0.9652
3.1294 7.8198 -2.3844 0.9656
2.9548 7.8373 -2.3711 0.9658
2.4528 7.9252 -2.3486 0.9661
1.6436 8.1300 -2.3481 0.9661
1.4796 8.1612 -2.3480 0.9661
1.3150 8.1890 -2.3480 0.9661
1.1498 8.2135 -2.3479 0.9661
0.9842 8.2347 -2.3478 0.9661
0.4853 8.2782 -2.3475 0.9661
0.3185 8.2861 -2.3474 0.9661
0.1517 8.2905 -2.3474 0.9661
-0.1822 8.2893 -2.3472 0.9661
-0.5157 8.2747 -2.3471 0.9661
-1.0141 8.2277 -2.3468 0.9661
-1.1795 8.2054 -2.3467 0.9661
-1.3444 8.1797 -2.3467 0.9661
-1.5087 8.1507 -2.3466 0.9661
-1.6725 8.1184 -2.3465 0.9661
-2.3469 8.0494 -2.3736 0.9657
-2.6998 8.0401 -2.4010 0.9654
-3.0612 8.0298 -2.4328 0.9649
-3.2456 8.0244 -2.4504 0.9647
-3.4326 8.0183 -2.4692 0.9644
-3.7862 7.9442 -2.4913 0.9641
-3.9471 7.8698 -2.4924 0.9641
-4.2647 7.7119 -2.4948 0.9640
-4.5764 7.5417 -2.4973 0.9640
-4.8767 7.3520 -2.4976 0.9640
-5.0236 7.2522 -2.4975 0.9640
-5.5904 6.8241 -2.4973 0.9640
-5.7265 6.7101 -2.4973 0.9640
-5.8603 6.5933 -2.4973 0.9640
-6.1208 6.3519 -2.4972 0.9640
-6.3714 6.1002 -2.4971 0.9640
-6.7277 5.7043 -2.4970 0.9640
-6.9518 5.4288 -2.4970 0.9640
-7.0596 5.2877 -2.4970 0.9640
-7.3657 4.8518 -2.4969 0.9640
-7.6450 4.3983 -2.4969 0.9640
-7.7320 4.2435 -2.4969 0.9640
-7.8159 4.0870 -2.4969 0.9640
-7.9740 3.7691 -2.4969 0.9640
-8.1193 3.4450 -2.4969 0.9640
-6.8540 -4.3639 -2.4992 0.9666
-6.7650 -4.5012 -2.4993 0.9666
-6.6732 -4.6366 -2.4993 0.9666
-6.5787 -4.7701 -2.4994 0.9666
-6.1744 -5.2845 -2.4997 0.9666
-6.0670 -5.4079 -2.4998 0.9666
-5.9571 -5.5292 -2.4999 0.9666
-5.6130 -5.8792 -2.5001 0.9666
-5.4937 -5.9912 -2.5002 0.9666
-5.2484 -6.2079 -2.5004 0.9666
-4.9946 -6.4146 -2.5005 0.9665
-4.8646 -6.5140 -2.5006 0.9665
-4.7327 -6.6109 -2.5007 0.9665
-4.1861 -6.9711 -2.5011 0.9665
-4.0451 -7.0542 -2.5011 0.9665
-3.9024 -7.1345 -2.5012 0.9665
-3.1662 -7.4918 -2.5017 0.9665
-2.7085 -7.6700 -2.5019 0.9665
-2.5536 -7.7233 -2.5020 0.9665
-2.3977 -7.7734 -2.5021 0.9665
-2.2408 -7.8203 -2.5022 0.9665
-2.0830 -7.8642 -2.5023 0.9665
-1.7649 -7.9422 -2.5024 0.9665
-1.6047 -7.9764 -2.5025 0.9665
-0.9580 -8.0807 -2.5028 0.9665
-0.4685 -8.1246 -2.5031 0.9665
-0.3049 -8.1326 -2.5032 0.9665
0.0227 -8.1388 -2.5033 0.9665
0.1866 -8.1369 -2.5034 0.9665
0.3503 -8.1318 -2.5035 0.9665
0.5140 -8.1233 -2.5036 0.9665
1.3279 -8.0318 -2.5039 0.9665
2.1286 -7.8587 -2.5043 0.9665
2.4434 -7.7671 -2.5044 0.9665
3.0606 -7.5461 -2.5047 0.9665
4.0908 -7.0425 -2.5050 0.9665
4.9101 -6.4990 -2.5053 0.9665
5.0401 -6.3989 -2.5054 0.9665
5.2937 -6.1910 -2.5054 0.9665
5.4174 -6.0833 -2.5055 0.9665
5.8895 -5.6281 -2.5056 0.9665
6.1114 -5.3866 -2.5057 0.9665
6.5251 -4.8777 -2.5057 0.9665
6.7162 -4.6111 -2.5058 0.9665
6.8077 -4.4750 -2.5058 0.9665
7.6245 -2.8704 -2.5058 0.9665
7.7338 -2.5612 -2.5058 0.9665
7.7838 -2.4050 -2.5058 0.9665
7.9858 -1.6105 -2.5057 0.9665
8.0166 -1.4494 -2.5057 0.9665
8.0441 -1.2877 -2.5057 0.9665
8.1069 -0.7998 -2.5056 0.9665
8.1401 -0.3090 -2.5055 0.9665
8.1457 0.0189 -2.5054 0.9665
8.1436 0.1829 -2.5054 0.9665
8.1381 0.3468 -2.5054 0.9665
8.1293 0.5105 -2.5053 0.9665
8.1172 0.6740 -2.5053 0.9665
8.1019 0.8373 -2.5052 0.9665
8.0833 1.0002 -2.5052 0.9665
8.0077 1.4862 -2.5051 0.9665
7.9029 1.9667 -2.5049 0.9665
7.7692 2.4400 -2.5047 0.9665
7.6644 2.7506 -2.5046 0.9665
7.6072 2.9043 -2.5045 0.9665
7.5471 3.0568 -2.5045 0.9665
7.4838 3.2080 -2.5044 0.9665
7.3482 3.5065 -2.5043 0.9665
7.2759 3.6536 -2.5042 0.9665
6.9577 4.2265 -2.5039 0.9665
6.8710 4.3657 -2.5039 0.9665
6.7815 4.5029 -2.5038 0.9665
6.6893 4.6384 -2.5037 0.9665
6.5944 4.7720 -2.5036 0.9665
6.4968 4.9036 -2.5036 0.9665
6.2937 5.1608 -2.5034 0.9665
6.1884 5.2864 -2.5033 0.9665
5.5052 5.9924 -2.5029 0.9665
5.3833 6.1018 -2.5028 0.9665
5.0047 6.4149 -2.5025 0.9665
4.7421 6.6108 -2.5023 0.9665
4.6079 6.7046 -2.5023 0.9665
4.4718 6.7958 -2.5022 0.9665
4.3339 6.8842 -2.5021 0.9665
4.0530 7.0526 -2.5019 0.9665
3.9101 7.1325 -2.5018 0.9665
3.6196 7.2836 -2.5017 0.9665
3.3213 7.4186 -2.5000 0.9666
3.0178 7.5408 -2.4982 0.9666
2.8644 7.5975 -2.4974 0.9666
2.3985 7.7499 -2.4952 0.9666
2.2415 7.7947 -2.4946 0.9666
1.9250 7.8748 -2.4934 0.9666
1.7645 7.9051 -2.4913 0.9667
1.6005 7.9165 -2.4842 0.9668
1.4372 7.9276 -2.4781 0.9668
1.2747 7.9386 -2.4730 0.9669
0.9513 7.9598 -2.4657 0.9670
0.6289 7.9753 -2.4606 0.9671
0.1462 7.9934 -2.4590 0.9671
-0.1759 8.0046 -2.4626 0.9670
-0.6620 8.0183 -2.4746 0.9669
-0.9885 8.0203 -2.4855 0.9667
-1.3140 7.9947 -2.4920 0.9667
-1.4749 7.9680 -2.4924 0.9667
-1.6353 7.9382 -2.4929 0.9667
-2.1129 7.8302 -2.4946 0.9666
-2.2707 7.7881 -2.4952 0.9666
-2.4276 7.7428 -2.4958 0.9666
-2.5838 7.6946 -2.4966 0.9666
-2.8933 7.5892 -2.4982 0.9666
-3.0457 7.5302 -2.4984 0.9666
-3.1967 7.4672 -2.4983 0.9666
-3.3462 7.4011 -2.4983 0.9666
-4.0726 7.0266 -2.4980 0.9666
-4.2132 6.9431 -2.4980 0.9666
-4.6243 6.6758 -2.4978 0.9666
-4.7577 6.5812 -2.4978 0.9666
-4.8891 6.4840 -2.4977 0.9666
-5.1460 6.2817 -2.4977 0.9666
-5.3945 6.0693 -2.4976 0.9666
-5.6343 5.8471 -2.4975 0.9666
-5.9768 5.4961 -2.4974 0.9666
-6.0861 5.3747 -2.4974 0.9666
-6.1930 5.2510 -2.4974 0.9666
-6.2974 5.1252 -2.4974 0.9666
-6.5952 4.7356 -2.4973 0.9666
-6.6891 4.6019 -2.4973 0.9666
-6.8689 4.3288 -2.4973 0.9666
-6.9546 4.1897 -2.4973 0.9666
-7.0375 4.0488 -2.4972 0.9666
-7.1947 3.7622 -2.4972 0.9666
-7.2690 3.6166 -2.4972 0.9666
-7.4740 3.1713 -2.4972 0.9666
-6.1752 -4.2906 -2.4995 0.9688
-6.0877 -4.4141 -2.4996 0.9688
-5.8107 -4.7739 -2.4998 0.9688
-5.7135 -4.8901 -2.4999 0.9688
-5.5124 -5.1164 -2.5000 0.9688
-5.3023 -5.3345 -2.5002 0.9688
-5.1940 -5.4403 -2.5002 0.9688
-5.0836 -5.5439 -2.5003 0.9688
-4.8566 -5.7444 -2.5005 0.9688
-4.3793 -6.1173 -2.5008 0.9688
-4.2554 -6.2044 -2.5008 0.9688
-4.1297 -6.2890 -2.5009 0.9688
-4.0024 -6.3710 -2.5010 0.9688
-3.8735 -6.4505 -2.5011 0.9688
-3.7430 -6.5274 -2.5012 0.9688
-3.6109 -6.6016 -2.5012 0.9688
-3.4774 -6.6732 -2.5013 0.9688
-3.3425 -6.7421 -2.5014 0.9688
-2.7897 -6.9900 -2.5017 0.9688
-2.6485 -7.0450 -2.5018 0.9688
-2.3629 -7.1463 -2.5020 0.9688
-1.7806 -7.3142 -2.5023 0.9688
-1.4848 -7.3804 -2.5024 0.9688
-1.3360 -7.4090 -2.5025 0.9688
-1.0367 -7.4573 -2.5027 0.9688
-0.1306 -7.5292 -2.5031 0.9688
0.3242 -7.5240 -2.5033 0.9688
0.4756 -7.5162 -2.5034 0.9688
0.9285 -7.4744 -2.5036 0.9688
1.0788 -7.4544 -2.5037 0.9687
1.2287 -7.4313 -2.5038 0.9687
1.3780 -7.4053 -2.5038 0.9687
1.6751 -7.3442 -2.5040 0.9687
2.1155 -7.2303 -2.5041 0.9687
2.2607 -7.1863 -2.5042 0.9687
2.4050 -7.1396 -2.5043 0.9687
2.9718 -6.9236 -2.5045 0.9687
3.1106 -6.8625 -2.5045 0.9687
3.2482 -6.7986 -2.5046 0.9687
3.3845 -6.7320 -2.5046 0.9687
3.5194 -6.6626 -2.5047 0.9687
3.7848 -6.5158 -2.5048 0.9687
4.1715 -6.2758 -2.5049 0.9687
4.5429 -6.0129 -2.5050 0.9687
4.6631 -5.9203 -2.5051 0.9687
4.7814 -5.8253 -2.5051 0.9687
5.0122 -5.6283 -2.5052 0.9687
5.1245 -5.5263 -2.5052 0.9687
5.3429 -5.3157 -2.5053 0.9687
5.4489 -5.2071 -2.5053 0.9687
5.6542 -4.9836 -2.5053 0.9687
5.7534 -4.8688 -2.5054 0.9687
5.8503 -4.7521 -2.5054 0.9687
5.9449 -4.6334 -2.5054 0.9687
6.0370 -4.5128 -2.5054 0.9687
6.1266 -4.3904 -2.5054 0.9687
6.2138 -4.2662 -2.5055 0.9687
6.3806 -4.0126 -2.5055 0.9687
6.4601 -3.8834 -2.5055 0.9687
6.6828 -3.4864 -2.5055 0.9687
6.7516 -3.3512 -2.5055 0.9687
6.8810 -3.0767 -2.5055 0.9687
6.9416 -2.9375 -2.5055 0.9687
7.2015 -2.2251 -2.5055 0.9687
7.2852 -1.9333 -2.5055 0.9687
7.3570 -1.6385 -2.5054 0.9687
7.4169 -1.3410 -2.5054 0.9687
7.4423 -1.1914 -2.5054 0.9687
7.4647 -1.0414 -2.5053 0.9687
7.4841 -0.8908 -2.5053 0.9687
7.5138 -0.5889 -2.5053 0.9687
7.5312 -0.2859 -2.5052 0.9687
7.5353 -0.1342 -2.5052 0.9687
7.5364 0.0175 -2.5051 0.9687
7.5344 0.1692 -2.5051 0.9687
7.5294 0.3208 -2.5051 0.9687
7.5101 0.6236 -2.5050 0.9687
7.4959 0.7747 -2.5050 0.9687
7.4584 1.0757 -2.5049 0.9687
7.4351 1.2257 -2.5048 0.9687
7.4088 1.3751 -2.5048 0.9687
7.3795 1.5239 -2.5047 0.9687
7.3472 1.6721 -2.5047 0.9687
7.3119 1.8196 -2.5046 0.9687
7.2736 1.9664 -2.5046 0.9687
7.1412 2.4017 -2.5044 0.9687
7.0913 2.5450 -2.5044 0.9687
6.9828 2.8282 -2.5043 0.9687
6.7988 3.2443 -2.5041 0.9687
6.7320 3.3804 -2.5040 0.9687
6.6624 3.5152 -2.5040 0.9687
6.5901 3.6485 -2.5039 0.9687
6.2746 4.1664 -2.5036 0.9688
6.1893 4.2917 -2.5036 0.9688
6.0112 4.5371 -2.5034 0.9688
5.9184 4.6571 -2.5033 0.9688
5.5240 5.1175 -2.5031 0.9688
5.3132 5.3354 -2.5029 0.9688
5.2046 5.4411 -2.5028 0.9688
5.0938 5.5446 -2.5028 0.9688
4.8662 5.7448 -2.5026 0.9688
4.6307 5.9357 -2.5024 0.9688
4.3878 6.1168 -2.5023 0.9688
2.9360 6.9288 -2.5014 0.9688
2.7959 6.9863 -2.5013 0.9688
2.6546 7.0409 -2.5012 0.9688
2.5122 7.0927 -2.5012 0.9688
2.3688 7.1416 -2.5011 0.9688
2.0793 7.2307 -2.5009 0.9688
1.7864 7.3081 -2.5008 0.9688
1.3419 7.4019 -2.5005 0.9688
1.1926 7.4272 -2.5005 0.9688
1.0428 7.4495 -2.5004 0.9688
0.8926 7.4687 -2.5003 0.9688
0.7421 7.4850 -2.5002 0.9688
0.4401 7.5083 -2.5001 0.9688
-0.0139 7.5205 -2.4999 0.9688
-0.1653 7.5185 -2.4998 0.9688
-0.7694 7.4800 -2.4995 0.9688
-0.9198 7.4628 -2.4994 0.9688
-1.2194 7.4193 -2.4993 0.9688
-1.6649 7.3316 -2.4991 0.9688
-1.9586 7.2583 -2.4990 0.9688
-2.3929 7.1263 -2.4988 0.9688
-2.5359 7.0765 -2.4987 0.9688
-2.9582 6.9101 -2.4986 0.9688
-3.2338 6.7851 -2.4985 0.9688
-3.5042 6.6492 -2.4984 0.9688
-3.8989 6.4252 -2.4982 0.9688
-4.4028 6.0903 -2.4981 0.9688
-4.6443 5.9080 -2.4980 0.9688
-4.7622 5.8132 -2.4980 0.9688
-4.9922 5.6167 -2.4979 0.9688
-5.2141 5.4110 -2.4978 0.9688
-5.3219 5.3049 -2.4978 0.9688
-5.8278 4.7430 -2.4977 0.9688
-6.0139 4.5044 -2.4976 0.9688
-6.1903 4.2587 -2.4976 0.9688
-6.3567 4.0060 -2.4976 0.9688
-6.4360 3.8772 -2.4976 0.9688
-6.5127 3.7469 -2.4976 0.9688
-6.5868 3.6150 -2.4976 0.9688
-6.6582 3.4817 -2.4976 0.9688
-6.7270 3.3469 -2.4976 0.9688
-6.9167 2.9348 -2.4976 0.9688
-5.9702 -3.6344 -2.4995 0.9707
-5.8193 -3.8720 -2.4996 0.9707
-5.7403 -3.9884 -2.4996 0.9707
-5.6590 -4.1033 -2.4997 0.9707
-5.5754 -4.2165 -2.4998 0.9707
-5.4014 -4.4377 -2.4999 0.9707
-5.3112 -4.5457 -2.5000 0.9707
-5.1241 -4.7561 -2.5001 0.9707
-4.7255 -5.1534 -2.5004 0.9707
-4.6209 -5.2476 -2.5005 0.9707
-4.5145 -5.3398 -2.5005 0.9707
-4.4062 -5.4297 -2.5006 0.9707
-4.1843 -5.6030 -2.5008 0.9707
-4.0708 -5.6862 -2.5008 0.9707
-3.9556 -5.7672 -2.5009 0.9707
-3.7204 -5.9221 -2.5010 0.9707
-3.6006 -5.9960 -2.5011 0.9707
-3.4792 -6.0675 -2.5012 0.9707
-3.3565 -6.1364 -2.5013 0.9707
-3.2324 -6.2030 -2.5013 0.9707
-3.1069 -6.2670 -2.5014 0.9707
-2.8523 -6.3873 -2.5016 0.9707
-2.7232 -6.4437 -2.5016 0.9707
-2.5930 -6.4974 -2.5017 0.9707
-2.4618 -6.5484 -2.5018 0.9707
-2.3295 -6.5969 -2.5019 0.9707
-2.0622 -6.6857 -2.5020 0.9707
-1.9273 -6.7261 -2.5021 0.9707
-1.5179 -6.8307 -2.5023 0.9707
-1.3801 -6.8601 -2.5024 0.9707
-1.2418 -6.8867 -2.5024 0.9707
-1.1029 -6.9105 -2.5025 0.9707
-0.6838 -6.9651 -2.5027 0.9707
0.0196 -6.9995 -2.5031 0.9707
0.4420 -6.9861 -2.5033 0.9707
1.1420 -6.9072 -2.5036 0.9707
1.2808 -6.8830 -2.5037 0.9707
1.6941 -6.7936 -2.5038 0.9707
1.8305 -6.7583 -2.5039 0.9707
1.9663 -6.7202 -2.5040 0.9707
2.1012 -6.6794 -2.5040 0.9707
2.2353 -6.6359 -2.5041 0.9707
2.3685 -6.5897 -2.5041 0.9707
2.5007 -6.5408 -2.5042 0.9707
2.6319 -6.4893 -2.5042 0.9707
2.8911 -6.3783 -2.5043 0.9707
3.1457 -6.2570 -2.5044 0.9707
3.3951 -6.1256 -2.5045 0.9707
3.5178 -6.0561 -2.5046 0.9707
3.6391 -5.9841 -2.5046 0.9707
3.7589 -5.9098 -2.5046 0.9707
4.2223 -5.5886 -2.5048 0.9707
4.5521 -5.3238 -2.5049 0.9707
5.2552 -4.6319 -2.5051 0.9707
5.3474 -4.5252 -2.5051 0.9707
5.4375 -4.4167 -2.5051 0.9707
5.5253 -4.3064 -2.5051 0.9707
5.6109 -4.1943 -2.5052 0.9707
5.6942 -4.0805 -2.5052 0.9707
5.7753 -3.9651 -2.5052 0.9707
5.8540 -3.8480 -2.5052 0.9707
6.0756 -3.4877 -2.5052 0.9707
6.2111 -3.2403 -2.5052 0.9707
6.2751 -3.1146 -2.5052 0.9707
6.5053 -2.5997 -2.5052 0.9707
6.5563 -2.4683 -2.5052 0.9707
6.6046 -2.3358 -2.5052 0.9707
6.6503 -2.2024 -2.5052 0.9707
6.7710 -1.7969 -2.5052 0.9707
6.8058 -1.6602 -2.5052 0.9707
6.8378 -1.5228 -2.5052 0.9707
6.8670 -1.3849 -2.5051 0.9707
6.8935 -1.2464 -2.5051 0.9707
6.9835 -0.5473 -2.5050 0.9707
6.9997 -0.2657 -2.5050 0.9707
7.0036 -0.1248 -2.5049 0.9707
7.0046 0.0162 -2.5049 0.9707
7.0027 0.1573 -2.5049 0.9707
6.9802 0.5796 -2.5048 0.9707
6.9670 0.7200 -2.5047 0.9707
6.9510 0.8601 -2.5047 0.9707
6.8861 1.2781 -2.5046 0.9707
6.7605 1.8277 -2.5044 0.9707
6.6811 2.0983 -2.5043 0.9707
6.5419 2.4975 -2.5041 0.9707
6.4902 2.6287 -2.5041 0.9707
6.3788 2.8877 -2.5040 0.9707
6.2571 3.1420 -2.5038 0.9707
6.1253 3.3912 -2.5037 0.9707
6.0556 3.5137 -2.5037 0.9707
5.9090 3.7544 -2.5035 0.9707
5.4127 4.4384 -2.5031 0.9707
5.3221 4.5463 -2.5031 0.9707
5.0376 4.8589 -2.5029 0.9707
4.9386 4.9592 -2.5028 0.9707
4.6298 5.2478 -2.5026 0.9707
4.5231 5.3398 -2.5025 0.9707
4.4146 5.4296 -2.5025 0.9707
4.0785 5.6856 -2.5022 0.9707
3.7275 5.9209 -2.5020 0.9707
3.6075 5.9946 -2.5019 0.9707
3.3630 6.1346 -2.5018 0.9707
3.1132 6.2646 -2.5016 0.9707
2.7291 6.4405 -2.5014 0.9707
2.3352 6.5929 -2.5012 0.9707
1.9328 6.7213 -2.5010 0.9707
1.7971 6.7586 -2.5009 0.9707
1.6606 6.7932 -2.5008 0.9707
1.5234 6.8251 -2.5008 0.9707
1.3857 6.8542 -2.5007 0.9707
1.1086 6.9040 -2.5005 0.9707
0.8298 6.9426 -2.5004 0.9707
0.6898 6.9577 -2.5003 0.9707
0.5496 6.9700 -2.5003 0.9707
0.4092 6.9794 -2.5002 0.9707
0.2686 6.9861 -2.5001 0.9707
0.1279 6.9899 -2.5000 0.9707
-0.0129 6.9909 -2.5000 0.9707
-0.1536 6.9890 -2.4999 0.9707
-0.4348 6.9768 -2.4998 0.9707
-0.7152 6.9533 -2.4996 0.9707
-1.1335 6.8969 -2.4995 0.9707
-2.2245 6.6246 -2.4990 0.9708
-2.6201 6.4779 -2.4988 0.9708
-2.7499 6.4237 -2.4988 0.9708
-2.8786 6.3669 -2.4987 0.9708
-3.2575 6.1812 -2.4986 0.9708
-3.3812 6.1142 -2.4985 0.9708
-3.5035 6.0448 -2.4985 0.9708
-3.6245 5.9729 -2.4985 0.9708
-3.9782 5.7430 -2.4983 0.9708
-4.4270 5.4041 -2.4982 0.9708
-4.6409 5.2214 -2.4981 0.9708
-4.8472 5.0302 -2.4981 0.9708
-5.2359 4.6238 -2.4980 0.9708
-5.5907 4.1875 -2.4979 0.9708
-5.7547 3.9590 -2.4979 0.9708
-5.8332 3.8423 -2.4979 0.9708
-5.9093 3.7241 -2.4979 0.9708
-5.9831 3.6044 -2.4979 0.9708
-6.2536 3.1114 -2.4978 0.9708
-6.3149 2.9849 -2.4978 0.9708
-6.4300 2.7283 -2.4978 0.9708
-5.5715 -3.3917 -2.4996 0.9724
-5.5022 -3.5032 -2.4997 0.9724
-5.4307 -3.6134 -2.4997 0.9724
-5.3569 -3.7220 -2.4998 0.9724
-5.2811 -3.8292 -2.4998 0.9724
-5.2030 -3.9349 -2.4999 0.9724
-5.0407 -4.1413 -2.5000 0.9724
-4.9564 -4.2421 -2.5001 0.9724
-4.7819 -4.4384 -2.5002 0.9724
-4.3122 -4.8971 -2.5005 0.9724
-4.0091 -5.1488 -2.5007 0.9724
-3.4718 -5.5264 -2.5011 0.9724
-3.2467 -5.6620 -2.5012 0.9724
-3.1322 -5.7264 -2.5013 0.9724
-3.0164 -5.7884 -2.5014 0.9724
-2.7811 -5.9055 -2.5015 0.9724
-2.6617 -5.9604 -2.5016 0.9724
-2.2972 -6.1108 -2.5018 0.9724
-2.1738 -6.1559 -2.5018 0.9724
-1.9244 -6.2388 -2.5020 0.9724
-1.5444 -6.3441 -2.5022 0.9724
-1.4164 -6.3741 -2.5023 0.9724
-1.2879 -6.4015 -2.5023 0.9724
-1.1588 -6.4263 -2.5024 0.9724
-1.0292 -6.4485 -2.5025 0.9724
-0.8992 -6.4681 -2.5025 0.9724
-0.7688 -6.4850 -2.5026 0.9724
-0.6381 -6.4993 -2.5027 0.9724
-0.3760 -6.5201 -2.5028 0.9724
0.1497 -6.5299 -2.5030 0.9724
0.2812 -6.5257 -2.5031 0.9724
0.5436 -6.5094 -2.5032 0.9724
0.9356 -6.4652 -2.5034 0.9724
1.0656 -6.4452 -2.5035 0.9724
1.1952 -6.4226 -2.5035 0.9724
1.5808 -6.3392 -2.5037 0.9724
1.7081 -6.3062 -2.5037 0.9724
1.8347 -6.2707 -2.5038 0.9724
2.0858 -6.1920 -2.5039 0.9724
2.3334 -6.1033 -2.5040 0.9724
2.4559 -6.0552 -2.5040 0.9724
2.8170 -5.8962 -2.5042 0.9724
3.2824 -5.6509 -2.5044 0.9724
3.5074 -5.5143 -2.5044 0.9724
3.7266 -5.3688 -2.5045 0.9724
4.0440 -5.1343 -2.5046 0.9724
4.1466 -5.0520 -2.5046 0.9724
4.2475 -4.9675 -2.5047 0.9724
4.5398 -4.7022 -2.5047 0.9724
4.8155 -4.4198 -2.5048 0.9724
5.1555 -4.0182 -2.5049 0.9724
5.2354 -3.9136 -2.5049 0.9724
5.3888 -3.6997 -2.5049 0.9724
5.5334 -3.4798 -2.5050 0.9724
5.6023 -3.3677 -2.5050 0.9724
5.7954 -3.0235 -2.5050 0.9724
6.4542 -1.0332 -2.5049 0.9724
6.4904 -0.7726 -2.5048 0.9724
6.5046 -0.6417 -2.5048 0.9724
6.5162 -0.5107 -2.5048 0.9724
6.5251 -0.3794 -2.5047 0.9724
6.5359 0.0152 -2.5047 0.9724
6.5342 0.1467 -2.5046 0.9724
6.5298 0.2782 -2.5046 0.9724
6.5228 0.4096 -2.5046 0.9724
6.5131 0.5408 -2.5045 0.9724
6.5008 0.6718 -2.5045 0.9724
6.4859 0.8026 -2.5045 0.9724
6.4482 1.0630 -2.5044 0.9724
6.3999 1.3216 -2.5043 0.9724
6.3719 1.4502 -2.5043 0.9724
6.3082 1.7054 -2.5042 0.9724
6.2342 1.9579 -2.5041 0.9724
6.1043 2.3305 -2.5039 0.9724
5.8965 2.8138 -2.5037 0.9724
5.8386 2.9318 -2.5037 0.9724
5.7782 3.0487 -2.5036 0.9724
5.7156 3.1643 -2.5036 0.9724
5.6506 3.2787 -2.5035 0.9724
5.5833 3.3917 -2.5035 0.9724
5.4420 3.6135 -2.5033 0.9724
5.1332 4.0392 -2.5031 0.9724
5.0507 4.1416 -2.5030 0.9724
4.4181 4.8091 -2.5026 0.9724
4.3203 4.8969 -2.5025 0.9724
4.2207 4.9828 -2.5025 0.9724
4.1195 5.0666 -2.5024 0.9724
4.0165 5.1483 -2.5023 0.9724
3.9120 5.2280 -2.5023 0.9724
3.8058 5.3056 -2.5022 0.9724
3.6981 5.3810 -2.5021 0.9724
3.4783 5.5252 -2.5020 0.9724
3.3663 5.5939 -2.5019 0.9724
3.1383 5.7246 -2.5018 0.9724
3.0223 5.7864 -2.5017 0.9724
2.7868 5.9031 -2.5016 0.9724
2.6673 5.9578 -2.5015 0.9724
2.5467 6.0101 -2.5014 0.9724
2.4252 6.0600 -2.5014 0.9724
2.3026 6.1074 -2.5013 0.9724
2.1791 6.1524 -2.5012 0.9724
2.0548 6.1948 -2.5011 0.9724
1.9296 6.2347 -2.5011 0.9724
1.4217 6.3691 -2.5008 0.9724
1.2931 6.3962 -2.5007 0.9724
0.9046 6.4621 -2.5005 0.9724
0.7743 6.4788 -2.5005 0.9724
0.3818 6.5132 -2.5003 0.9724
-0.0120 6.5239 -2.5001 0.9724
-0.2746 6.5178 -2.5000 0.9724
-0.4058 6.5108 -2.4999 0.9724
-0.5367 6.5012 -2.4998 0.9724
-0.6675 6.4889 -2.4998 0.9724
-0.7979 6.4740 -2.4997 0.9724
-1.0579 6.4363 -2.4996 0.9724
-1.5720 6.3298 -2.4994 0.9724
-1.9511 6.2230 -2.4992 0.9725
-2.1999 6.1391 -2.4991 0.9725
-2.3230 6.0935 -2.4991 0.9725
-3.0400 5.7685 -2.4988 0.9725
-3.3825 5.5742 -2.4987 0.9725
-3.6040 5.4334 -2.4986 0.9725
-3.8197 5.2838 -2.4985 0.9725
-4.0292 5.1256 -2.4985 0.9725
-4.3311 4.8729 -2.4984 0.9725
-4.6172 4.6024 -2.4983 0.9725
-4.8864 4.3152 -2.4982 0.9725
-4.9723 4.2159 -2.4982 0.9725
-5.1379 4.0123 -2.4982 0.9725
-5.2952 3.8022 -2.4981 0.9725
-5.3706 3.6948 -2.4981 0.9725
-5.5149 3.4756 -2.4981 0.9725
-5.5838 3.3638 -2.4981 0.9725
-5.8362 2.9037 -2.4981 0.9725
-5.9484 2.6665 -2.4981 0.9725
-6.0008 2.5462 -2.4981 0.9725
-5.2170 -3.1759 -2.4997 0.9739
-5.1521 -3.2804 -2.4998 0.9739
-5.0851 -3.3835 -2.4998 0.9739
-4.9450 -3.5856 -2.4999 0.9739
-4.7969 -3.7819 -2.5001 0.9739
-4.7199 -3.8778 -2.5001 0.9739
-4.6410 -3.9721 -2.5002 0.9739
-4.3069 -4.3330 -2.5004 0.9739
-4.2188 -4.4189 -2.5005 0.9739
-4.1292 -4.5031 -2.5005 0.9739
-4.0378 -4.5854 -2.5006 0.9739
-3.9447 -4.6659 -2.5007 0.9739
-3.8501 -4.7445 -2.5007 0.9739
-3.6562 -4.8958 -2.5008 0.9739
-3.3542 -5.1080 -2.5010 0.9739
-3.2508 -5.1747 -2.5011 0.9739
-3.0401 -5.3016 -2.5012 0.9739
-2.9328 -5.3618 -2.5013 0.9739
-2.7147 -5.4758 -2.5014 0.9739
-2.6040 -5.5295 -2.5015 0.9739
-2.4922 -5.5810 -2.5016 0.9739
-2.2657 -5.6771 -2.5017 0.9739
-2.1510 -5.7217 -2.5018 0.9739
-1.9190 -5.8039 -2.5019 0.9739
-1.8018 -5.8415 -2.5019 0.9739
-1.5653 -5.9096 -2.5021 0.9739
-1.4461 -5.9401 -2.5021 0.9739
-1.2058 -5.9938 -2.5023 0.9739
-1.0850 -6.0170 -2.5023 0.9739
-0.9637 -6.0378 -2.5024 0.9739
-0.8419 -6.0561 -2.5025 0.9739
-0.7199 -6.0720 -2.5025 0.9739
-0.5975 -6.0854 -2.5026 0.9739
-0.4749 -6.0963 -2.5026 0.9739
-0.3521 -6.1048 -2.5027 0.9739
-0.2291 -6.1108 -2.5028 0.9739
0.1402 -6.1139 -2.5029 0.9739
0.3862 -6.1036 -2.5031 0.9739
0.5090 -6.0947 -2.5031 0.9739
0.7540 -6.0696 -2.5032 0.9739
1.1190 -6.0134 -2.5034 0.9739
1.2399 -5.9898 -2.5034 0.9739
1.3602 -5.9637 -2.5035 0.9739
1.4800 -5.9353 -2.5035 0.9739
1.9529 -5.7974 -2.5037 0.9739
2.0692 -5.7571 -2.5038 0.9739
2.2994 -5.6693 -2.5039 0.9739
2.4131 -5.6220 -2.5039 0.9739
2.5258 -5.5723 -2.5040 0.9739
3.4891 -5.0267 -2.5043 0.9739
3.6887 -4.8823 -2.5044 0.9739
4.0696 -4.5699 -2.5045 0.9739
4.2504 -4.4025 -2.5045 0.9739
4.3382 -4.3161 -2.5046 0.9739
4.4242 -4.2279 -2.5046 0.9739
4.5085 -4.1380 -2.5046 0.9739
4.5909 -4.0465 -2.5046 0.9739
4.6715 -3.9532 -2.5046 0.9739
4.7502 -3.8584 -2.5047 0.9739
4.8269 -3.7620 -2.5047 0.9739
5.0452 -3.4639 -2.5047 0.9739
5.1806 -3.2580 -2.5047 0.9739
5.5355 -2.6100 -2.5048 0.9739
5.6830 -2.2711 -2.5048 0.9739
5.7698 -2.0405 -2.5048 0.9739
5.8097 -1.9240 -2.5047 0.9739
5.8824 -1.6885 -2.5047 0.9739
5.9151 -1.5698 -2.5047 0.9739
5.9455 -1.4504 -2.5047 0.9739
5.9735 -1.3304 -2.5047 0.9739
6.0221 -1.0888 -2.5047 0.9739
6.0428 -0.9674 -2.5046 0.9739
6.0610 -0.8455 -2.5046 0.9739
6.1150 -0.2321 -2.5045 0.9739
6.1184 -0.1090 -2.5045 0.9739
6.1177 0.1374 -2.5044 0.9739
6.0865 0.6290 -2.5043 0.9739
6.0725 0.7514 -2.5043 0.9739
6.0561 0.8735 -2.5042 0.9739
6.0372 0.9952 -2.5042 0.9739
5.9920 1.2374 -2.5041 0.9739
5.9372 1.4775 -2.5041 0.9739
5.9061 1.5968 -2.5040 0.9739
5.8369 1.8331 -2.5039 0.9739
5.7153 2.1820 -2.5038 0.9739
5.6701 2.2966 -2.5037 0.9739
5.4101 2.8545 -2.5035 0.9739
5.2906 3.0698 -2.5034 0.9739
5.0953 3.3833 -2.5032 0.9739
5.0261 3.4851 -2.5032 0.9739
4.8815 3.6844 -2.5031 0.9739
4.5688 4.0648 -2.5028 0.9739
4.4860 4.1558 -2.5028 0.9739
4.4013 4.2452 -2.5027 0.9739
4.0452 4.5850 -2.5025 0.9739
3.9519 4.6654 -2.5024 0.9739
3.8571 4.7439 -2.5023 0.9739
3.7607 4.8205 -2.5023 0.9739
3.6628 4.8951 -2.5022 0.9739
3.0458 5.3000 -2.5018 0.9739
2.8299 5.4180 -2.5017 0.9739
2.7201 5.4737 -2.5016 0.9739
2.3846 5.6275 -2.5014 0.9739
2.1560 5.7186 -2.5013 0.9739
1.4510 5.9358 -2.5009 0.9739
1.3312 5.9637 -2.5008 0.9739
0.9687 6.0327 -2.5007 0.9739
0.8471 6.0509 -2.5006 0.9739
0.7250 6.0665 -2.5005 0.9739
0.4802 6.0905 -2.5004 0.9739
0.2347 6.1046 -2.5003 0.9739
-0.0113 6.1088 -2.5002 0.9739
-0.3799 6.0966 -2.5000 0.9739
-0.7472 6.0621 -2.4998 0.9739
-0.8690 6.0457 -2.4998 0.9739
-1.1117 6.0056 -2.4997 0.9739
-1.2323 5.9818 -2.4996 0.9739
-1.3524 5.9557 -2.4996 0.9739
-1.4720 5.9271 -2.4995 0.9739
-1.5910 5.8962 -2.4995 0.9740
-1.8270 5.8271 -2.4994 0.9740
-2.0600 5.7486 -2.4993 0.9740
-2.1753 5.7059 -2.4992 0.9740
-2.2896 5.6608 -2.4992 0.9740
-2.4031 5.6135 -2.4991 0.9740
-2.5156 5.5639 -2.4991 0.9740
-3.0617 5.2825 -2.4989 0.9740
-3.6756 4.8747 -2.4987 0.9740
-3.7730 4.7996 -2.4987 0.9740
-3.8688 4.7226 -2.4986 0.9740
-3.9630 4.6438 -2.4986 0.9740
-4.2360 4.3959 -2.4985 0.9740
-4.3236 4.3097 -2.4985 0.9740
-4.4094 4.2218 -2.4985 0.9740
-4.5757 4.0408 -2.4984 0.9740
-4.6561 3.9479 -2.4984 0.9740
-4.7346 3.8533 -2.4984 0.9740
-4.8112 3.7572 -2.4984 0.9740
-5.0977 3.3579 -2.4983 0.9740
-5.2287 3.1500 -2.4983 0.9740
-5.4093 2.8286 -2.4983 0.9740
-5.4651 2.7191 -2.4983 0.9740
-5.5188 2.6085 -2.4983 0.9740
-4.7108 -3.2731 -2.5000 0.9753
-4.6441 -3.3674 -2.5000 0.9753
-4.4326 -3.6418 -2.5002 0.9753
-4.3585 -3.7303 -2.5003 0.9753
-4.1257 -3.9869 -2.5004 0.9753
-4.0447 -4.0692 -2.5005 0.9753
-3.9620 -4.1499 -2.5005 0.9753
-3.8778 -4.2290 -2.5006 0.9753
-3.7919 -4.3063 -2.5007 0.9753
-3.7046 -4.3818 -2.5007 0.9753
-3.6157 -4.4556 -2.5008 0.9753
-3.3404 -4.6661 -2.5009 0.9753
-3.2459 -4.7325 -2.5010 0.9753
-3.1500 -4.7970 -2.5011 0.9753
-2.8549 -4.9787 -2.5013 0.9753
-2.4454 -5.1928 -2.5015 0.9753
-2.2345 -5.2873 -2.5016 0.9753
-2.0200 -5.3732 -2.5017 0.9753
-1.9114 -5.4129 -2.5018 0.9753
-1.8021 -5.4504 -2.5019 0.9753
-1.6921 -5.4857 -2.5019 0.9753
-1.5813 -5.5188 -2.5020 0.9753
-1.4700 -5.5496 -2.5020 0.9753
-1.3580 -5.5782 -2.5021 0.9753
-1.0189 -5.6505 -2.5023 0.9753
-0.9049 -5.6700 -2.5023 0.9753
-0.6760 -5.7021 -2.5025 0.9753
-0.2151 -5.7385 -2.5027 0.9753
-0.0996 -5.7418 -2.5027 0.9753
0.0160 -5.7427 -2.5028 0.9753
0.2472 -5.7377 -2.5029 0.9753
0.3627 -5.7317 -2.5030 0.9753
0.5931 -5.7127 -2.5031 0.9753
1.0508 -5.6469 -2.5033 0.9752
1.1643 -5.6247 -2.5033 0.9752
1.3899 -5.5735 -2.5034 0.9752
1.5018 -5.5445 -2.5035 0.9752
1.6131 -5.5133 -2.5035 0.9752
1.8338 -5.4441 -2.5036 0.9752
1.9431 -5.4061 -2.5037 0.9752
2.0516 -5.3660 -2.5037 0.9752
2.1592 -5.3237 -2.5037 0.9752
2.5806 -5.1331 -2.5039 0.9752
2.8859 -4.9682 -2.5040 0.9752
2.9854 -4.9092 -2.5040 0.9752
3.2764 -4.7202 -2.5041 0.9752
3.3708 -4.6534 -2.5042 0.9752
3.7343 -4.3673 -2.5043 0.9752
3.9072 -4.2136 -2.5043 0.9752
3.9913 -4.1341 -2.5044 0.9752
4.0737 -4.0529 -2.5044 0.9752
4.2336 -3.8857 -2.5044 0.9752
4.4605 -3.6232 -2.5045 0.9752
4.5326 -3.5327 -2.5045 0.9752
4.6028 -3.4407 -2.5045 0.9752
4.8022 -3.1566 -2.5045 0.9752
5.2463 -2.3457 -2.5046 0.9752
5.4907 -1.6964 -2.5045 0.9752
5.5545 -1.4740 -2.5045 0.9752
5.6549 -1.0224 -2.5045 0.9752
5.6743 -0.9084 -2.5045 0.9752
5.7289 -0.4490 -2.5044 0.9752
5.7454 -0.1024 -2.5043 0.9752
5.7447 0.1290 -2.5043 0.9752
5.7347 0.3601 -2.5042 0.9752
5.7154 0.5907 -2.5041 0.9752
5.6691 0.9345 -2.5040 0.9752
5.6491 1.0485 -2.5040 0.9752
5.6268 1.1620 -2.5040 0.9752
5.5753 1.3875 -2.5039 0.9752
5.5461 1.4994 -2.5039 0.9752
5.4811 1.7214 -2.5038 0.9752
5.4452 1.8313 -2.5037 0.9752
5.3245 2.1566 -2.5036 0.9752
5.2799 2.2633 -2.5036 0.9752
5.1334 2.5777 -2.5034 0.9752
5.0804 2.6805 -2.5034 0.9752
4.9681 2.8827 -2.5033 0.9752
4.9090 2.9820 -2.5032 0.9752
4.6528 3.3670 -2.5030 0.9753
4.4408 3.6415 -2.5029 0.9753
4.3665 3.7300 -2.5028 0.9753
4.2904 3.8171 -2.5027 0.9753
4.1331 3.9865 -2.5026 0.9753
3.9691 4.1495 -2.5025 0.9753
3.8847 4.2284 -2.5025 0.9753
3.7987 4.3057 -2.5024 0.9753
3.5316 4.5268 -2.5022 0.9753
3.4397 4.5969 -2.5022 0.9753
3.3464 4.6651 -2.5021 0.9753
3.2517 4.7314 -2.5020 0.9753
2.8603 4.9771 -2.5018 0.9753
2.7595 5.0336 -2.5017 0.9753
2.6575 5.0880 -2.5017 0.9753
2.5545 5.1404 -2.5016 0.9753
2.3454 5.2388 -2.5015 0.9753
2.1325 5.3287 -2.5014 0.9753
1.6968 5.4824 -2.5011 0.9753
1.4746 5.5460 -2.5010 0.9753
1.3627 5.5744 -2.5010 0.9753
0.9097 5.6654 -2.5007 0.9753
0.6809 5.6972 -2.5006 0.9753
0.5661 5.7096 -2.5005 0.9753
0.4510 5.7197 -2.5005 0.9753
0.1049 5.7361 -2.5003 0.9753
-0.0106 5.7370 -2.5003 0.9753
-0.2415 5.7316 -2.5001 0.9753
-0.3568 5.7255 -2.5001 0.9753
-0.4720 5.7170 -2.5000 0.9753
-0.5870 5.7062 -2.5000 0.9753
-1.0440 5.6400 -2.4998 0.9753
-1.1573 5.6178 -2.4997 0.9753
-1.2701 5.5932 -2.4997 0.9753
-1.6053 5.5060 -2.4995 0.9753
-2.0429 5.3587 -2.4994 0.9753
-2.1503 5.3164 -2.4993 0.9753
-2.2569 5.2719 -2.4993 0.9753
-2.3625 5.2254 -2.4992 0.9753
-2.7750 5.0181 -2.4991 0.9753
-2.8754 4.9611 -2.4990 0.9753
-3.2650 4.7135 -2.4989 0.9753
-3.3592 4.6467 -2.4989 0.9753
-3.4520 4.5781 -2.4989 0.9753
-3.6334 4.4354 -2.4988 0.9753
-3.8090 4.2854 -2.4987 0.9753
-3.8944 4.2078 -2.4987 0.9753
-3.9783 4.1285 -2.4987 0.9753
-4.2201 3.8808 -2.4986 0.9753
-4.3729 3.7077 -2.4986 0.9753
-4.4466 3.6189 -2.4986 0.9753
-4.5185 3.5286 -2.4986 0.9753
-4.6569 3.3439 -2.4985 0.9753
-4.7876 3.1537 -2.4985 0.9753
-4.8501 3.0566 -2.4985 0.9753
-4.9107 2.9584 -2.4985 0.9753
-4.9692 2.8589 -2.4985 0.9753
-4.4355 -3.0818 -2.5001 0.9765
-4.3727 -3.1705 -2.5001 0.9765
-4.3080 -3.2580 -2.5002 0.9765
-4.2417 -3.3441 -2.5002 0.9765
-4.1037 -3.5123 -2.5003 0.9765
-4.0323 -3.5943 -2.5004 0.9765
-3.9592 -3.6748 -2.5004 0.9765
-3.8845 -3.7538 -2.5005 0.9765
-3.7304 -3.9073 -2.5006 0.9765
-3.6511 -3.9817 -2.5006 0.9765
-3.5703 -4.0545 -2.5007 0.9765
-3.4880 -4.1257 -2.5008 0.9765
-3.4043 -4.1951 -2.5008 0.9765
-2.9658 -4.5165 -2.5011 0.9765
-2.8744 -4.5754 -2.5012 0.9765
-2.5931 -4.7409 -2.5013 0.9765
-2.4972 -4.7923 -2.5014 0.9765
-2.4003 -4.8417 -2.5014 0.9765
-2.2036 -4.9346 -2.5016 0.9765
-2.0032 -5.0195 -2.5017 0.9765
-1.7996 -5.0963 -2.5018 0.9765
-1.6967 -5.1316 -2.5018 0.9765
-1.4889 -5.1960 -2.5020 0.9765
-1.3840 -5.2250 -2.5020 0.9765
-0.7444 -5.3545 -2.5024 0.9765
-0.3113 -5.3975 -2.5026 0.9765
0.0151 -5.4068 -2.5027 0.9764
0.1240 -5.4055 -2.5028 0.9764
0.9893 -5.3165 -2.5032 0.9764
1.2026 -5.2725 -2.5033 0.9764
1.3085 -5.2474 -2.5033 0.9764
1.4139 -5.2201 -2.5034 0.9764
1.5187 -5.1906 -2.5034 0.9764
1.7265 -5.1254 -2.5035 0.9764
1.8294 -5.0898 -2.5035 0.9764
2.2330 -4.9264 -2.5037 0.9764
2.3318 -4.8805 -2.5037 0.9764
2.4296 -4.8327 -2.5038 0.9764
2.5264 -4.7829 -2.5038 0.9764
2.7170 -4.6774 -2.5039 0.9764
2.8106 -4.6218 -2.5039 0.9764
2.9945 -4.5050 -2.5040 0.9764
3.0846 -4.4439 -2.5040 0.9764
3.1734 -4.3810 -2.5040 0.9764
3.3473 -4.2498 -2.5041 0.9764
3.4322 -4.1816 -2.5041 0.9764
3.7576 -3.8921 -2.5042 0.9764
3.9113 -3.7377 -2.5042 0.9764
4.1299 -3.4949 -2.5043 0.9764
4.1994 -3.4110 -2.5043 0.9764
4.2672 -3.3258 -2.5043 0.9764
4.3977 -3.1514 -2.5043 0.9764
4.5800 -2.8802 -2.5044 0.9764
4.6370 -2.7875 -2.5044 0.9764
4.8937 -2.3074 -2.5044 0.9764
4.9392 -2.2084 -2.5044 0.9764
4.9826 -2.1085 -2.5044 0.9764
5.0240 -2.0078 -2.5044 0.9764
5.0634 -1.9063 -2.5044 0.9764
5.1008 -1.8040 -2.5044 0.9764
5.1360 -1.7009 -2.5044 0.9764
5.1692 -1.5972 -2.5044 0.9764
5.2003 -1.4927 -2.5044 0.9764
5.2293 -1.3877 -2.5043 0.9764
5.2562 -1.2822 -2.5043 0.9764
5.3239 -0.9626 -2.5043 0.9764
5.3583 -0.7475 -2.5043 0.9764
5.3722 -0.6395 -2.5043 0.9764
5.4009 -0.3140 -2.5042 0.9764
5.4090 -0.0964 -2.5041 0.9764
5.4098 0.0125 -2.5041 0.9764
5.3809 0.5561 -2.5040 0.9764
5.3685 0.6643 -2.5040 0.9764
5.3373 0.8798 -2.5039 0.9764
5.2974 1.0939 -2.5038 0.9764
5.2743 1.2004 -2.5038 0.9764
5.2215 1.4117 -2.5037 0.9764
5.0907 1.8270 -2.5036 0.9764
4.9709 2.1308 -2.5034 0.9764
4.9269 2.2304 -2.5034 0.9764
4.8809 2.3291 -2.5034 0.9764
4.7312 2.6193 -2.5032 0.9764
4.6218 2.8076 -2.5031 0.9764
4.4436 3.0812 -2.5030 0.9764
4.3158 3.2575 -2.5029 0.9764
4.0394 3.5938 -2.5027 0.9765
3.9662 3.6743 -2.5026 0.9765
3.8913 3.7533 -2.5026 0.9765
3.8149 3.8308 -2.5025 0.9765
3.5765 4.0538 -2.5024 0.9765
3.4103 4.1943 -2.5022 0.9765
3.3251 4.2620 -2.5022 0.9765
3.2385 4.3280 -2.5021 0.9765
3.0615 4.4547 -2.5020 0.9765
2.4051 4.8398 -2.5016 0.9765
2.3071 4.8871 -2.5016 0.9765
2.0078 5.0171 -2.5014 0.9765
1.9063 5.0564 -2.5013 0.9765
1.8041 5.0936 -2.5013 0.9765
1.5975 5.1619 -2.5012 0.9765
0.9638 5.3160 -2.5008 0.9765
0.8565 5.3342 -2.5008 0.9765
0.6411 5.3642 -2.5006 0.9765
0.5330 5.3759 -2.5006 0.9765
0.3161 5.3927 -2.5005 0.9765
0.0988 5.4008 -2.5004 0.9765
-0.0100 5.4016 -2.5003 0.9765
-0.2274 5.3966 -2.5002 0.9765
-0.3360 5.3908 -2.5002 0.9765
-0.5527 5.3727 -2.5001 0.9765
-0.7685 5.3459 -2.5000 0.9765
-0.8759 5.3293 -2.4999 0.9765
-1.0897 5.2895 -2.4998 0.9765
-1.4069 5.2138 -2.4997 0.9765
-1.7189 5.1191 -2.4996 0.9765
-1.8216 5.0834 -2.4995 0.9765
-1.9235 5.0456 -2.4995 0.9765
-2.2245 4.9201 -2.4994 0.9765
-2.3230 4.8742 -2.4993 0.9765
-2.6129 4.7249 -2.4992 0.9765
-2.7075 4.6713 -2.4992 0.9765
-2.8932 4.5584 -2.4991 0.9765
-2.9844 4.4992 -2.4991 0.9765
-3.0743 4.4381 -2.4991 0.9765
-3.2504 4.3107 -2.4990 0.9765
-3.4212 4.1762 -2.4990 0.9765
-3.5045 4.1065 -2.4989 0.9765
-3.5865 4.0351 -2.4989 0.9765
-3.8234 3.8111 -2.4988 0.9765
-3.8993 3.7334 -2.4988 0.9765
-3.9736 3.6541 -2.4988 0.9765
-4.1175 3.4911 -2.4988 0.9765
-4.1869 3.4075 -2.4988 0.9765
-4.2546 3.3225 -2.4987 0.9765
-4.3206 3.2362 -2.4987 0.9765
-4.3848 3.1485 -2.4987 0.9765
-4.5080 2.9694 -2.4987 0.9765
-4.5668 2.8781 -2.4987 0.9765
-4.6238 2.7856 -2.4987 0.9765
-4.6790 2.6919 -2.4987 0.9765
-4.7835 2.5014 -2.4987 0.9765
-4.9258 2.2081 -2.4987 0.9765
-4.1857 -2.9083 -2.5002 0.9775
-4.1264 -2.9920 -2.5002 0.9775
-4.0654 -3.0745 -2.5002 0.9775
-4.0028 -3.1558 -2.5003 0.9775
-3.9385 -3.2358 -2.5003 0.9775
-3.8726 -3.3145 -2.5004 0.9775
-3.7362 -3.4678 -2.5005 0.9775
-3.5938 -3.6156 -2.5006 0.9775
-3.5203 -3.6873 -2.5006 0.9775
-3.2915 -3.8933 -2.5008 0.9775
-3.1323 -4.0228 -2.5009 0.9775
-2.9679 -4.1458 -2.5010 0.9775
-2.8839 -4.2048 -2.5011 0.9775
-2.7988 -4.2621 -2.5011 0.9775
-2.6250 -4.3715 -2.5012 0.9775
-2.5366 -4.4235 -2.5013 0.9775
-2.4471 -4.4738 -2.5013 0.9775
-1.9853 -4.6976 -2.5016 0.9775
-1.6982 -4.8092 -2.5018 0.9775
-1.5033 -4.8738 -2.5019 0.9775
-1.4050 -4.9032 -2.5019 0.9775
-1.3060 -4.9306 -2.5020 0.9775
-1.2065 -4.9560 -2.5020 0.9775
-1.0061 -5.0007 -2.5021 0.9775
-0.9052 -5.0201 -2.5022 0.9775
-0.2937 -5.0932 -2.5025 0.9775
-0.0885 -5.1011 -2.5026 0.9775
0.0143 -5.1020 -2.5027 0.9775
0.1170 -5.1008 -2.5027 0.9775
0.2196 -5.0975 -2.5028 0.9775
0.3222 -5.0921 -2.5028 0.9775
0.4246 -5.0847 -2.5029 0.9775
0.7308 -5.0501 -2.5030 0.9775
0.9336 -5.0167 -2.5031 0.9775
1.1348 -4.9753 -2.5032 0.9775
1.2347 -4.9515 -2.5032 0.9775
1.3342 -4.9257 -2.5033 0.9775
1.7262 -4.8027 -2.5034 0.9775
2.0131 -4.6900 -2.5035 0.9775
2.2003 -4.6053 -2.5036 0.9775
2.4744 -4.4643 -2.5037 0.9775
2.6521 -4.3612 -2.5038 0.9775
2.7394 -4.3069 -2.5038 0.9775
2.8256 -4.2510 -2.5038 0.9775
3.0771 -4.0728 -2.5039 0.9775
3.1585 -4.0101 -2.5039 0.9775
3.2386 -3.9457 -2.5040 0.9775
3.3174 -3.8798 -2.5040 0.9775
3.3949 -3.8122 -2.5040 0.9775
3.5457 -3.6725 -2.5040 0.9775
3.6189 -3.6005 -2.5041 0.9775
3.6907 -3.5269 -2.5041 0.9775
3.8297 -3.3755 -2.5041 0.9775
3.8969 -3.2978 -2.5041 0.9775
4.1496 -2.9736 -2.5042 0.9775
4.2087 -2.8895 -2.5042 0.9775
4.2660 -2.8042 -2.5042 0.9775
4.3216 -2.7178 -2.5042 0.9775
4.3755 -2.6302 -2.5042 0.9775
4.4275 -2.5416 -2.5042 0.9775
4.5729 -2.2697 -2.5042 0.9775
4.6177 -2.1772 -2.5042 0.9775
4.6606 -2.0838 -2.5042 0.9775
4.7016 -1.9896 -2.5042 0.9775
4.8131 -1.7022 -2.5042 0.9775
4.8463 -1.6049 -2.5042 0.9775
4.8777 -1.5070 -2.5042 0.9775
4.9070 -1.4086 -2.5042 0.9775
4.9597 -1.2099 -2.5042 0.9775
5.0692 -0.6034 -2.5041 0.9775
5.1011 -0.1937 -2.5040 0.9775
5.0521 0.7287 -2.5038 0.9775
4.9271 1.3321 -2.5036 0.9775
4.8992 1.4309 -2.5036 0.9775
4.8375 1.6269 -2.5035 0.9775
4.7679 1.8203 -2.5034 0.9775
4.6906 2.0107 -2.5033 0.9775
4.6491 2.1047 -2.5033 0.9775
4.5134 2.3813 -2.5032 0.9775
4.3069 2.7365 -2.5030 0.9775
4.2508 2.8226 -2.5029 0.9775
4.1336 2.9913 -2.5029 0.9775
4.0725 3.0738 -2.5028 0.9775
4.0097 3.1552 -2.5028 0.9775
3.8793 3.3139 -2.5027 0.9775
3.7426 3.4672 -2.5026 0.9775
3.6720 3.5418 -2.5025 0.9775
3.5263 3.6866 -2.5024 0.9775
3.1377 4.0218 -2.5021 0.9775
3.0560 4.0841 -2.5021 0.9775
2.9731 4.1447 -2.5020 0.9775
2.3611 4.5205 -2.5017 0.9775
2.2696 4.5670 -2.5016 0.9775
2.1771 4.6117 -2.5016 0.9775
2.0838 4.6545 -2.5015 0.9775
1.8947 4.7344 -2.5014 0.9775
1.7990 4.7715 -2.5013 0.9775
1.4092 4.9003 -2.5011 0.9775
1.2107 4.9529 -2.5010 0.9775
0.9095 5.0166 -2.5009 0.9775
0.7068 5.0489 -2.5008 0.9775
0.5030 5.0731 -2.5006 0.9775
0.4007 5.0821 -2.5006 0.9775
-0.3170 5.0872 -2.5003 0.9775
-0.4194 5.0797 -2.5002 0.9775
-0.5215 5.0702 -2.5002 0.9775
-0.6235 5.0586 -2.5001 0.9775
-1.0283 4.9916 -2.4999 0.9775
-1.2284 4.9460 -2.4998 0.9776
-1.3277 4.9202 -2.4998 0.9776
-1.4264 4.8924 -2.4998 0.9776
-1.5246 4.8626 -2.4997 0.9776
-1.9107 4.7239 -2.4996 0.9776
-2.1923 4.5998 -2.4995 0.9776
-2.2844 4.5547 -2.4994 0.9776
-2.3756 4.5077 -2.4994 0.9776
-2.7303 4.3018 -2.4993 0.9776
-2.8163 4.2459 -2.4992 0.9776
-2.9849 4.1290 -2.4992 0.9776
-3.0674 4.0680 -2.4992 0.9776
-3.3073 3.8753 -2.4991 0.9776
-3.3846 3.8079 -2.4991 0.9776
-3.6082 3.5966 -2.4990 0.9776
-3.8186 3.3722 -2.4989 0.9776
-3.8857 3.2946 -2.4989 0.9776
-3.9512 3.2157 -2.4989 0.9776
-4.0151 3.1355 -2.4989 0.9776
-4.1380 2.9713 -2.4989 0.9776
-4.1970 2.8874 -2.4989 0.9776
-4.2543 2.8023 -2.4989 0.9776
-4.3098 2.7161 -2.4989 0.9776
-4.4156 2.5404 -2.4988 0.9776
-4.5143 2.3606 -2.4988 0.9776
-4.5609 2.2692 -2.4988 0.9776
-4.6056 2.1770 -2.4988 0.9776
-4.1164 -2.5059 -2.5001 0.9785
-3.9018 -2.8291 -2.5003 0.9785
-3.7848 -2.9840 -2.5004 0.9785
-3.7241 -3.0596 -2.5004 0.9785
-3.6618 -3.1341 -2.5005 0.9785
-3.5980 -3.2072 -2.5005 0.9785
-3.3981 -3.4187 -2.5006 0.9785
-3.2578 -3.5529 -2.5007 0.9785
-3.1123 -3.6813 -2.5008 0.9785
-2.9617 -3.8037 -2.5009 0.9785
-2.8846 -3.8626 -2.5010 0.9785
-2.8063 -3.9200 -2.5010 0.9785
-2.5647 -4.0825 -2.5012 0.9785
-2.4821 -4.1334 -2.5012 0.9785
-2.3984 -4.1826 -2.5013 0.9785
-2.2282 -4.2759 -2.5014 0.9785
-1.6057 -4.5472 -2.5018 0.9785
-1.5139 -4.5787 -2.5018 0.9785
-1.2348 -4.6620 -2.5020 0.9785
-1.0462 -4.7081 -2.5021 0.9785
-0.7602 -4.7630 -2.5022 0.9785
-0.3746 -4.8091 -2.5024 0.9785
-0.0836 -4.8232 -2.5026 0.9785
0.0135 -4.8240 -2.5026 0.9785
0.2077 -4.8197 -2.5027 0.9785
0.4015 -4.8076 -2.5028 0.9785
0.4982 -4.7986 -2.5028 0.9785
0.5947 -4.7877 -2.5029 0.9785
0.6910 -4.7749 -2.5029 0.9785
0.9780 -4.7247 -2.5030 0.9785
1.0729 -4.7041 -2.5031 0.9785
1.1675 -4.6816 -2.5031 0.9785
1.4480 -4.6029 -2.5032 0.9785
1.5404 -4.5729 -2.5033 0.9785
1.6321 -4.5410 -2.5033 0.9785
1.9033 -4.4344 -2.5034 0.9785
2.0803 -4.3543 -2.5035 0.9785
2.1676 -4.3116 -2.5035 0.9785
2.3395 -4.2209 -2.5036 0.9785
2.4240 -4.1730 -2.5036 0.9785
2.5901 -4.0722 -2.5037 0.9785
2.6716 -4.0192 -2.5037 0.9785
2.7520 -3.9647 -2.5037 0.9785
2.8312 -3.9085 -2.5038 0.9785
2.9094 -3.8508 -2.5038 0.9785
2.9863 -3.7915 -2.5038 0.9785
3.0621 -3.7306 -2.5038 0.9785
3.1366 -3.6683 -2.5038 0.9785
3.2818 -3.5391 -2.5039 0.9785
3.4216 -3.4042 -2.5039 0.9785
3.9234 -2.8115 -2.5040 0.9785
3.9792 -2.7320 -2.5040 0.9785
4.0860 -2.5696 -2.5041 0.9785
4.1369 -2.4868 -2.5041 0.9785
4.1861 -2.4030 -2.5041 0.9785
4.2337 -2.3183 -2.5041 0.9785
4.2795 -2.2326 -2.5041 0.9785
4.3236 -2.1460 -2.5041 0.9785
4.4822 -1.7913 -2.5041 0.9785
4.5507 -1.6094 -2.5041 0.9785
4.6117 -1.4249 -2.5041 0.9785
4.6395 -1.3317 -2.5041 0.9785
4.6653 -1.2381 -2.5040 0.9785
4.7113 -1.0492 -2.5040 0.9785
4.7497 -0.8588 -2.5040 0.9785
4.7660 -0.7629 -2.5040 0.9785
4.8118 -0.3771 -2.5039 0.9785
4.8252 0.1084 -2.5038 0.9785
4.8168 0.3025 -2.5038 0.9785
4.8097 0.3994 -2.5038 0.9785
4.7896 0.5927 -2.5037 0.9785
4.7767 0.6890 -2.5037 0.9785
4.7618 0.7850 -2.5036 0.9785
4.7450 0.8807 -2.5036 0.9785
4.7262 0.9760 -2.5036 0.9785
4.6830 1.1654 -2.5035 0.9785
4.6585 1.2594 -2.5035 0.9785
4.6321 1.3529 -2.5035 0.9785
4.6039 1.4459 -2.5034 0.9785
4.5738 1.5383 -2.5034 0.9785
4.5418 1.6300 -2.5034 0.9785
4.4724 1.8115 -2.5033 0.9785
4.4350 1.9011 -2.5032 0.9785
4.3957 1.9900 -2.5032 0.9785
4.3547 2.0780 -2.5032 0.9785
4.3119 2.1652 -2.5031 0.9785
4.2212 2.3370 -2.5030 0.9785
4.1732 2.4214 -2.5030 0.9785
4.0722 2.5874 -2.5029 0.9785
4.0192 2.6688 -2.5029 0.9785
3.8506 2.9064 -2.5027 0.9785
3.7303 3.0589 -2.5026 0.9785
3.6679 3.1333 -2.5026 0.9785
3.6041 3.2064 -2.5026 0.9785
3.5387 3.2783 -2.5025 0.9785
3.3342 3.4857 -2.5024 0.9785
3.1910 3.6170 -2.5023 0.9785
3.1175 3.6804 -2.5022 0.9785
2.9667 3.8027 -2.5021 0.9785
2.8895 3.8616 -2.5021 0.9785
2.8111 3.9189 -2.5020 0.9785
2.7316 3.9747 -2.5020 0.9785
2.6510 4.0287 -2.5019 0.9785
2.5693 4.0812 -2.5019 0.9785
2.4028 4.1812 -2.5018 0.9785
2.3182 4.2286 -2.5017 0.9785
2.2325 4.2743 -2.5017 0.9785
2.0585 4.3605 -2.5016 0.9785
1.8813 4.4397 -2.5015 0.9785
1.6098 4.5449 -2.5013 0.9785
1.2388 4.6592 -2.5011 0.9785
1.1448 4.6831 -2.5010 0.9785
1.0503 4.7051 -2.5010 0.9785
0.9553 4.7252 -2.5009 0.9785
0.3789 4.8054 -2.5006 0.9785
0.2821 4.8119 -2.5006 0.9785
-0.0089 4.8199 -2.5005 0.9785
-0.1059 4.8186 -2.5004 0.9785
-0.2998 4.8103 -2.5003 0.9785
-0.3965 4.8032 -2.5003 0.9785
-0.4931 4.7942 -2.5002 0.9785
-0.5895 4.7832 -2.5002 0.9785
-0.6857 4.7703 -2.5001 0.9785
-0.9723 4.7199 -2.5000 0.9785
-1.1615 4.6768 -2.4999 0.9785
-1.3488 4.6261 -2.4999 0.9785
-1.4416 4.5980 -2.4998 0.9785
-1.5339 4.5679 -2.4998 0.9785
-1.7164 4.5024 -2.4997 0.9785
-1.8067 4.4668 -2.4997 0.9785
-1.9850 4.3904 -2.4996 0.9785
-2.0729 4.3494 -2.4996 0.9785
-2.1601 4.3068 -2.4995 0.9785
-2.4994 4.1189 -2.4994 0.9785
-2.5818 4.0677 -2.4994 0.9785
-2.6631 4.0148 -2.4994 0.9785
